# .PCD v0.7 - Point Cloud Data file format
VERSION 0.7
FIELDS x y z intensity ring
SIZE 4 4 4 4 1
TYPE F F F F U
COUNT 1 1 1 1 1
WIDTH 480
HEIGHT 1
VIEWPOINT 0 0 0 1 0 0 0
POINTS 480
DATA ascii
3.4646385 0.1496236 -1.2421626 30 61
3.4504976 0.12780172 -1.2366064 70 61
3.4465303 0.10648108 -1.23487 78 61
3.4546185 0.085519761 -1.2376481 65 61
3.4691422 0.064587601 -1.2428571 19 61
3.7497652 -0.22957443 -0.83988255 69 50
3.7380571 -0.22950852 -0.65163833 8 46
3.7481527 -0.22939441 -0.7928257 89 49
3.7369335 -0.25173518 -0.79066133 62 49
3.6880383 0.18197162 -0.82483381 107 50
3.694922 0.1595903 -0.82620186 113 50
3.6987505 0.13702351 -0.82688594 82 50
3.6975753 0.11426588 -0.8264299 55 50
3.7001536 0.091623835 -0.82688594 131 50
3.7016196 0.068936422 -0.82711393 118 50
3.7068408 0.046282683 -0.82825398 137 50
3.7031605 0.023512743 -0.82734191 83 50
3.71784 0.00079172844 -0.83076209 20 50
3.7275112 -0.022079203 -0.8330422 8 50
3.7292528 -0.044974051 -0.83349824 15 50
3.7133307 -0.067570418 -0.82985008 111 50
3.7079792 -0.090234771 -0.82871002 95 50
3.7073557 -0.11298481 -0.82871002 9 50
3.7017279 -0.13555193 -0.82756996 6 50
3.6929781 -0.18063393 -0.82597387 14 50
3.7472146 -0.20634744 -0.83897048 60 50
3.669183 0.17981032 -0.86497569 112 51
3.6760375 0.15754454 -0.86641091 46 51
3.6507368 0.13401574 -0.85995221 5 51
3.6534314 0.11167267 -0.86043066 5 51
3.6579306 0.089349613 -0.86138749 7 51
3.668118 0.067083918 -0.8637796 10 51
3.6616642 0.044490766 -0.86210513 42 51
3.7201252 0.022391282 -0.87645781 5 51
3.7522345 -0.00042910705 -0.88435179 4 51
3.7463355 -0.023417775 -0.88291651 11 51
3.7694228 -0.046685807 -0.88865757 4 51
3.7001381 -0.068558268 -0.87167358 100 51
3.695765 -0.091166049 -0.87071675 143 51
3.6970773 -0.1139003 -0.8711952 107 51
3.6866055 -0.13622752 -0.86880302 26 51
3.6798797 -0.15859653 -0.8673678 9 51
3.7118108 -0.18278626 -0.87550098 80 51
3.6970465 -0.20481043 -0.87215203 43 51
3.6408174 0.17964664 -0.9038102 103 52
3.6457198 0.15747032 -0.90481305 126 52
3.6050191 0.13356094 -0.89403218 47 52
3.6406045 0.11251126 -0.90305805 5 52
3.6654203 0.090767391 -0.90932596 18 52
3.6571972 0.068113767 -0.9070695 100 52
3.6662583 0.045780208 -0.90932596 131 52
3.6684062 0.023295701 -0.90982741 126 52
3.6704161 0.00078655529 -0.91032887 128 52
3.6810005 -0.021798888 -0.91308677 102 52
3.6904771 -0.044502411 -0.91559392 107 52
3.6911025 -0.067163631 -0.91584462 126 52
3.6761045 -0.089455768 -0.91208386 99 52
3.6783891 -0.11209901 -0.91283602 127 52
3.6834366 -0.13488023 -0.91434032 119 52
3.6883426 -0.1577276 -0.91584462 104 52
3.6786034 -0.17992932 -0.91358817 19 52
3.6124029 0.17763898 -0.94084173 111 53
3.6230669 0.15588832 -0.94346029 106 53
3.6335995 0.13401347 -0.94607884 114 53
3.6343534 0.1117156 -0.94607884 98 53
3.5992727 0.088523939 -0.93639028 19 53
3.6315911 0.067035586 -0.9450314 85 53
3.636759 0.044812307 -0.94634068 115 53
3.6398609 0.022515569 -0.94712621 116 53
3.6428258 0.00018245252 -0.9479118 78 53
3.6138055 -0.022002595 -0.9400562 6 53
3.6164978 -0.044210531 -0.94084173 9 53
3.6142285 -0.066365302 -0.94031805 9 53
3.6320848 -0.088983752 -0.94529325 32 53
3.6526933 -0.11191156 -0.95105398 102 53
3.6461508 -0.13411097 -0.94948292 94 53
3.5817149 0.17673665 -0.97679758 39 54
3.583693 0.15479775 -0.97707051 118 54
3.591305 0.13305432 -0.9789812 51 54
3.5689759 0.11030522 -0.97243035 4 54
3.5724709 0.088475458 -0.9732492 3 54
3.56463 0.044521891 -0.97079265 3 54
3.6148605 0.022961302 -0.98498613 78 54
3.603389 0.00077924377 -0.98171073 55 54
3.5858121 -0.04322933 -0.97679758 5 54
3.6095259 -0.065670714 -0.98362136 9 54
3.6273282 -0.088263698 -0.9888075 51 54
3.6296029 -0.11060712 -0.98962635 79 54
3.5846055 0.15422104 -1.0205854 78 55
3.5816512 0.13208081 -1.0194507 109 55
3.5833528 0.11013149 -1.0197344 58 55
3.6040921 0.088644035 -1.0256916 10 55
3.6103208 0.066636115 -1.0273937 4 55
3.5857317 0.044167146 -1.0200181 94 55
3.5907297 0.022195878 -1.0214365 103 55
3.5946341 0.000164579 -1.0225712 108 55
3.5974441 -0.021908268 -1.0234222 116 55
3.5991595 -0.04400418 -1.0239896 113 55
3.6055331 -0.066208445 -1.0259753 78 55
3.6127281 -0.088515751 -1.0282447 50 55
3.5566673 0.17612293 -1.0578609 94 56
3.5614998 0.15446152 -1.0590403 90 56
3.5662 0.13274741 -1.0602199 107 56
3.5669475 0.11086313 -1.0602199 106 56
3.5713813 0.089069545 -1.0613993 72 56
3.5651731 0.067029268 -1.0593352 18 56
3.5664728 0.045164514 -1.0596302 22 56
3.5724158 0.023317004 -1.0613993 122 56
3.5753582 0.001397446 -1.062284 110 56
3.5791216 -0.020562934 -1.0634634 100 56
3.5865717 -0.042615265 -1.0658225 100 56
3.5508938 -0.063980512 -1.0549121 35 56
3.5404294 0.17469306 -1.0961702 4 57
3.5652168 0.15400121 -1.1038084 55 57
3.5584824 0.13183801 -1.1013641 77 57
3.5544658 0.10985246 -1.0998366 68 57
3.530324 0.08741954 -1.0918928 5 57
3.5288899 0.065720141 -1.0912818 7 57
3.5197055 0.043944005 -1.0882264 9 57
3.5218134 0.022359392 -1.0888375 12 57
3.5199797 0.00074849237 -1.0882264 28 57
3.5408659 -0.020966822 -1.0949481 87 57
3.5130591 -0.042368975 -1.0860877 20 57
3.5335348 0.173749 -1.1367999 9 58
3.5411694 0.1523491 -1.1390119 4 58
3.5041127 0.12922366 -1.1263726 52 58
3.502943 0.10766231 -1.1257406 78 58
3.50828 0.086282738 -1.1273205 76 58
3.5372016 0.065276757 -1.1367999 11 58
3.5216076 0.021767028 -1.1314282 47 58
3.5159822 0.00015881234 -1.1295325 73 58
3.5069754 0.17242046 -1.1714953 7 59
3.4815271 0.14975265 -1.1623516 69 59
3.481436 0.12835243 -1.1620251 80 59
3.4831028 0.10701767 -1.1623516 89 59
3.4846387 0.08566729 -1.1626782 78 59
3.4869888 0.064319834 -1.1633313 73 59
3.4882629 0.042934809 -1.1636579 85 59
3.4941316 0.021567324 -1.1656172 62 59
3.4596841 0.1701258 -1.1977265 64 60
3.4663069 0.14913657 -1.199748 89 60
3.473743 0.12810706 -1.2021066 65 60
3.4763458 0.1068478 -1.2027804 88 60
3.4694059 0.085330978 -1.2000849 89 60
3.4764538 0.064162374 -1.2024435 68 60
3.487138 0.042956468 -1.2061497 17 60
3.7723174 0.068366818 -0.70299131 108 47
3.7650871 -0.0010809639 -0.70144701 32 47
3.7629457 -0.09345644 -0.70125401 6 47
3.7681859 -0.11672414 -0.70241219 6 47
3.7732389 -0.18644933 -0.70395648 36 47
3.7391093 0.16019212 -0.74237615 6 48
3.7331743 0.13699581 -0.74094468 5 48
3.7368798 0.11417627 -0.74155813 8 48
3.7512102 0.091578089 -0.74442112 34 48
3.7487655 0.068506017 -0.74380761 49 48
3.7344332 0.045326076 -0.74074018 5 48
3.7298138 -0.0005034004 -0.73971772 7 48
3.7385502 -0.023445269 -0.74155813 13 48
3.7676997 -0.046751555 -0.74769306 95 48
3.7644057 -0.069814086 -0.74707955 125 48
3.7521639 -0.092619643 -0.74462557 22 48
3.7544601 -0.11573153 -0.74523908 9 48
3.7624831 -0.13909265 -0.74707955 19 48
3.7742722 -0.16272566 -0.74973798 116 48
3.6979444 0.18251739 -0.78113794 40 49
3.7194774 0.1607153 -0.78568321 10 49
3.7221456 0.11508997 -0.78589964 11 49
3.7179017 0.092126682 -0.78481746 112 49
3.7252297 0.069441855 -0.78633255 97 49
3.7314429 0.046658047 -0.78763115 112 49
3.7414217 0.023826692 -0.78979558 81 49
3.7180665 0.0008565319 -0.78460103 17 49
3.7404561 -0.022082644 -0.78957909 101 49
3.7382979 -0.045010339 -0.78914624 114 49
3.7369752 -0.067929819 -0.78892982 114 49
3.7394161 -0.090928473 -0.78957909 120 49
3.7504981 -0.11422437 -0.79217637 101 49
3.71753 -0.13606656 -0.78503388 32 49
3.7673469 -0.16102652 -0.79628873 78 49
3.7594619 -0.18380789 -0.79477364 122 49
3.7524142 -0.20655192 -0.79347503 89 49
3.8443089 -0.23726143 -0.62363064 114 45
3.8585134 -0.26190835 -0.62634295 76 45
3.8150723 -0.25775164 -0.66614848 40 46
3.8369567 -0.28289345 -0.67050153 108 46
3.8459318 -0.30729392 -0.67249674 132 46
3.8645494 -0.33265951 -0.67630565 126 46
3.7782202 -0.3485871 -0.66070718 18 46
3.7941711 -0.23418225 -0.70858938 12 47
3.7975576 -0.25778919 -0.70955455 5 47
3.7919903 -0.28079709 -0.70878237 9 47
3.8087792 -0.30554411 -0.71245009 88 47
3.7804382 -0.3266362 -0.70723808 19 47
3.7940857 -0.23361632 -0.75464588 128 48
3.7847679 -0.25636196 -0.75300992 67 48
3.7811713 -0.27943555 -0.75260097 99 48
3.8164635 -0.30560398 -0.7603718 16 48
3.9141419 0.1678246 -0.44223103 153 41
3.9111304 0.1436578 -0.44174424 146 41
3.9208672 0.11993263 -0.4428395 156 41
3.9383976 0.096289799 -0.44490832 140 41
3.9339523 0.072030105 -0.44429985 129 41
3.917448 0.047680091 -0.44223103 84 41
3.9051483 0.16796827 -0.48878485 164 42
3.8962018 0.14363946 -0.48744845 185 42
3.8920569 0.11957844 -0.48678026 177 42
3.883801 0.095476665 -0.48557749 29 42
3.8922405 0.071789727 -0.48664662 8 42
3.8668427 0.047591522 -0.48317197 57 42
3.9126487 0.024140861 -0.48931941 157 42
3.9087589 0.00013310518 -0.48878485 158 42
3.9037311 -0.023819864 -0.48811665 169 42
3.8747737 -0.047417697 -0.4842411 20 42
3.8627248 0.16627736 -0.53173143 6 43
3.8804786 0.14319825 -0.53421193 43 43
3.8852396 0.11950824 -0.53479558 26 43
3.9052069 0.072174333 -0.53756785 7 43
3.9263499 0.04847372 -0.54063201 5 43
3.8939273 0.024168752 -0.53581697 92 43
3.8860879 0.00027267414 -0.53464967 139 43
3.8929415 -0.023611842 -0.53567106 101 43
3.8917339 -0.047486264 -0.53552514 139 43
3.8874128 -0.071293227 -0.53494149 140 43
3.8859131 -0.095120691 -0.53479558 130 43
3.8803122 -0.11881252 -0.53406602 22 43
3.8438182 0.16533646 -0.57616657 123 44
3.8398263 0.14156671 -0.57537746 141 44
3.8465447 0.11818467 -0.57632434 152 44
3.8462102 0.094556324 -0.57616657 142 44
3.8417814 0.070864089 -0.57537746 136 44
3.8490558 0.047374398 -0.57648218 116 44
3.8630984 0.023840062 -0.57869154 167 44
3.8651469 0.00013595958 -0.57900721 165 44
3.8640873 -0.023574013 -0.57884938 179 44
3.8648574 -0.047295347 -0.57900721 116 44
3.8743675 -0.071191184 -0.5805853 7 44
3.8728704 -0.094938219 -0.58042753 8 44
3.8939292 -0.11936773 -0.58389938 118 44
3.8960838 -0.14336741 -0.58437282 140 44
3.8921711 -0.16714324 -0.58389938 134 44
3.8969898 -0.1913131 -0.58484626 81 44
3.7841175 0.16155192 -0.61261171 9 45
3.8185227 0.13956404 -0.61837542 80 45
3.8193071 0.1161314 -0.61837542 111 45
3.8189626 0.09267018 -0.6182059 103 45
3.8007374 0.068890646 -0.61498505 7 45
3.8109431 0.045689616 -0.61668026 8 45
3.8200214 0.022359867 -0.6182059 12 45
3.8210721 -0.0010797426 -0.61837542 10 45
3.8278921 -0.024567559 -0.61956209 39 45
3.8394947 -0.048199471 -0.62159634 6 45
3.850951 -0.071974687 -0.62363064 3 45
3.8514221 -0.095626488 -0.62380016 6 45
3.8468227 -0.11913573 -0.62312204 6 45
3.8499587 -0.14288217 -0.62380016 105 45
3.8519633 -0.16662925 -0.62430871 129 45
3.8528371 -0.190358 -0.62464774 135 45
3.8486445 -0.21383186 -0.62413919 119 45
3.8271143 0.16461967 -0.66741812 11 46
3.8339489 0.14135063 -0.66850638 7 46
3.8101702 0.11707076 -0.66397196 130 46
3.8019688 0.093473159 -0.66233957 144 46
3.8014874 0.070124917 -0.66215819 87 46
3.8854301 0.047818419 -0.67757529 5 46
3.8807335 0.023947118 -0.67666841 10 46
3.8168855 0.00013911827 -0.66487885 105 46
3.8187811 -0.02329305 -0.6652416 190 46
3.808733 -0.04660289 -0.66342783 175 46
3.8054256 -0.069917463 -0.6628837 135 46
3.8226211 -0.09370137 -0.66614848 108 46
3.8318036 -0.11745707 -0.66796225 148 46
3.8329763 -0.14103889 -0.66832501 152 46
3.8369513 -0.16476639 -0.66923189 149 46
3.8427436 -0.1886446 -0.67050153 148 46
3.7992916 -0.20988289 -0.66270232 84 46
3.7842076 0.16155581 -0.70588684 58 47
3.7772834 0.13804421 -0.70434254 92 47
3.7819824 0.11498512 -0.70511472 99 47
3.7757504 0.091608435 -0.70376343 126 47
3.7765903 0.045267273 -0.70376343 86 47
3.7748346 0.022081615 -0.70337737 10 47
3.8003318 -0.02439905 -0.70839632 132 47
3.8030539 -0.047753047 -0.70897543 125 47
3.7850308 -0.070762545 -0.70550078 77 47
3.7821543 -0.16363055 -0.70550078 27 47
3.7984757 -0.21105964 -0.70916843 9 47
3.778091 -0.18612242 -0.7507605 141 48
3.7856741 -0.20978922 -0.75260097 134 48
3.9236779 0.16876343 -0.39496312 118 40
3.9266262 0.14475806 -0.39518225 157 40
3.6453195 0.49588841 -0.82164168 78 50
3.6415346 0.4726353 -0.82004559 125 50
3.647265 0.45064023 -0.82072961 104 50
3.6615658 0.42961287 -0.82346576 21 50
3.6651006 0.40724528 -0.82369375 5 50
3.6655936 0.38454601 -0.82323772 12 50
3.6853256 0.36376685 -0.82734191 45 50
3.6613109 0.33872822 -0.82118565 115 50
3.6662307 0.3165074 -0.82186967 120 50
3.6729565 0.29439431 -0.82300973 106 50
3.6649835 0.27113461 -0.82072961 38 50
3.6694925 0.24883892 -0.82141364 49 50
3.6796966 0.22685695 -0.82346576 115 50
3.6819913 0.20432834 -0.82369375 125 50
3.5503328 0.52617598 -0.84416425 19 51
3.6323202 0.51559621 -0.8637796 109 51
3.6363776 0.49342987 -0.8640188 123 51
3.6374109 0.47085828 -0.86354041 101 51
3.6402316 0.44853067 -0.86354041 129 51
3.6448438 0.42641246 -0.8640188 103 51
3.6425664 0.40350401 -0.86282277 97 51
3.6478708 0.38144994 -0.86354041 64 51
3.6414464 0.35820156 -0.86138749 92 51
3.6397083 0.33549362 -0.86043066 110 51
3.6465352 0.31357196 -0.86162668 122 51
3.6561334 0.29181179 -0.86354041 110 51
3.67819 0.27087671 -0.86856383 39 51
3.6797826 0.24830265 -0.86856383 4 51
3.6647618 0.22470383 -0.86449724 17 51
3.6641326 0.20210548 -0.8640188 97 51
3.5984962 0.55716592 -0.9028073 74 52
3.5788655 0.53166395 -0.89679009 35 52
3.6031456 0.51269239 -0.9023059 7 52
3.599509 0.48966151 -0.90055084 6 52
3.6302862 0.47117659 -0.90782166 74 52
3.6196582 0.44723222 -0.9043116 119 52
3.6357949 0.42659193 -0.90782166 80 52
3.6229496 0.40256616 -0.9038102 7 52
3.6263144 0.38042948 -0.9040609 6 52
3.6362875 0.3589316 -0.90606666 7 52
3.6327024 0.31361645 -0.9040609 31 52
3.6471031 0.29232484 -0.90732026 12 52
3.6468971 0.26979852 -0.90681881 8 52
3.6513815 0.24761267 -0.90757096 8 52
3.6454461 0.20230412 -0.90531451 18 52
3.5717654 0.57487732 -0.94110364 80 53
3.5628273 0.55102891 -0.93769956 21 53
3.5546858 0.52745384 -0.93455732 7 53
3.5597663 0.50590497 -0.93508101 7 53
3.5608909 0.48379266 -0.93455732 4 53
3.5590072 0.46131247 -0.93324804 5 53
3.5579395 0.43899217 -0.93220061 77 53
3.5663171 0.4178285 -0.93377173 102 53
3.5755281 0.39668524 -0.93560469 20 53
3.5625377 0.37312523 -0.93141508 5 53
3.589731 0.35372767 -0.93822324 12 53
3.5927949 0.33178389 -0.93848509 67 53
3.6063013 0.31073061 -0.94162732 109 53
3.6033299 0.2882106 -0.94031805 112 53
3.6011806 0.26581016 -0.93927068 96 53
3.6056325 0.24390505 -0.9400562 61 53
3.609951 0.22195533 -0.94084173 63 53
3.606427 0.19953278 -0.93953252 122 53
3.5385115 0.57013845 -0.97625166 66 54
3.5362389 0.54753321 -0.97461396 120 54
3.5347738 0.52511865 -0.9732492 93 54
3.5388818 0.50355524 -0.97352219 94 54
3.5571573 0.48390475 -0.97788942 32 54
3.5610135 0.46219307 -0.97816235 117 54
3.5628276 0.44021654 -0.97788942 130 54
3.5683281 0.41868317 -0.97870827 117 54
3.5765669 0.39741728 -0.98034596 122 54
3.5827651 0.37586549 -0.98143774 112 54
3.5534103 0.3507598 -0.97243035 26 54
3.5602853 0.32939249 -0.97379512 69 54
3.5785334 0.30894575 -0.97843528 117 54
3.5765259 0.28667542 -0.9773435 91 54
3.5772581 0.26465398 -0.97707051 94 54
3.5759351 0.2425044 -0.97625166 35 54
3.5882473 0.19913596 -0.9789812 13 54
3.4950001 0.51857769 -1.0044156 25 55
3.5436845 0.50361413 -1.0180323 95 55
3.5438573 0.48147279 -1.0171813 92 55
3.5429411 0.45922473 -1.0160465 92 55
3.5456922 0.43747702 -1.0160465 90 55
3.5483098 0.4157128 -1.0160465 87 55
3.5403104 0.39276645 -1.012926 63 55
3.556005 0.37243888 -1.0168976 10 55
3.564127 0.32912713 -1.0180323 6 55
3.5755444 0.28597915 -1.0203017 33 55
3.5867946 0.2647436 -1.0231385 14 55
3.5998321 0.2435108 -1.0265427 10 55
3.596473 0.22112228 -1.0251243 6 55
3.5114253 0.45638272 -1.0516685 47 56
3.5274358 0.43646973 -1.0557967 110 56
3.5366907 0.4155975 -1.0578609 147 56
3.5268283 0.39251629 -1.0540274 90 56
3.5234685 0.3702701 -1.0522583 43 56
3.5133123 0.34742245 -1.0484248 10 56
3.5134749 0.32568246 -1.0478351 7 56
3.534447 0.3057631 -1.0537326 54 56
3.5314941 0.28368834 -1.0522583 94 56
3.5379329 0.26236698 -1.0537326 105 56
3.5442429 0.24097727 -1.055207 121 56
3.5504234 0.21951999 -1.0566814 95 56
3.5555198 0.19794291 -1.0578609 59 56
3.495611 0.38840747 -1.0873098 58 57
3.4950876 0.36665252 -1.0863932 79 57
3.4944289 0.34491861 -1.0854766 83 57
3.4964795 0.32347071 -1.0854766 65 57
3.5012443 0.30225727 -1.0863932 82 57
3.5039821 0.28084475 -1.0866988 89 57
3.5065889 0.25940999 -1.0870043 93 57
3.5090647 0.23795381 -1.0873098 79 57
3.519012 0.21694829 -1.0900596 25 57
3.5316854 0.19598883 -1.0937259 9 57
3.4954174 0.32278556 -1.1276366 58 58
3.4878795 0.3005186 -1.1244767 77 58
3.4858747 0.27880958 -1.1232128 103 58
3.4913046 0.25769433 -1.1244767 86 58
3.5212183 0.23818505 -1.1339561 36 58
3.5305073 0.19532248 -1.136168 4 58
3.4896724 0.2790828 -1.1679032 18 59
3.4790654 0.25675684 -1.1636579 72 59
3.4786894 0.23527668 -1.1630048 77 59
3.4678037 0.21316941 -1.1587595 88 59
3.5049076 0.19388308 -1.1711687 39 59
3.4557548 0.1911951 -1.1967157 68 60
3.7632599 0.37079087 -0.65834928 71 46
3.7742774 0.34850582 -0.65998167 48 46
3.7586524 0.23106064 -0.65544724 51 46
3.7520175 0.41500354 -0.70337737 14 47
3.7310729 0.38952136 -0.69874454 106 47
3.7353456 0.36681297 -0.69913059 117 47
3.7375259 0.34388641 -0.69913059 100 47
3.7219694 0.31943122 -0.69565594 41 47
3.748311 0.29854277 -0.70048183 6 47
3.7608361 0.27633217 -0.70260525 14 47
3.7507133 0.25245655 -0.70028883 115 47
3.7610059 0.22997954 -0.70202613 108 47
3.7682245 0.20722319 -0.70318437 109 47
3.773345 0.18429057 -0.70395648 99 47
3.7210824 0.43527853 -0.7431941 65 48
3.7120082 0.41114628 -0.74074018 108 48
3.7144611 0.38836208 -0.74074018 110 48
3.7187223 0.36575469 -0.74114919 104 48
3.7238209 0.34319937 -0.74176264 118 48
3.7268319 0.32042772 -0.74196714 121 48
3.7384856 0.29833192 -0.74401212 63 48
3.7275548 0.2744543 -0.74135369 10 48
3.7467484 0.25276139 -0.74503458 67 48
3.7374814 0.22910933 -0.74278516 111 48
3.7417488 0.20633365 -0.74339861 121 48
3.7634761 0.18437456 -0.74769306 60 48
3.6531823 0.45141968 -0.77637631 91 49
3.7121205 0.43561292 -0.78892982 7 49
3.7118127 0.41250315 -0.78828049 6 49
3.7035937 0.38859612 -0.78589964 9 49
3.6971643 0.36499798 -0.7839517 23 49
3.6993344 0.34230575 -0.7839517 67 49
3.6751034 0.31732467 -0.77810782 18 49
3.6847074 0.22721873 -0.77875715 11 49
3.7074773 0.20580272 -0.78351879 91 49
3.9160125 0.19198486 -0.44259611 134 41
3.8905141 0.23915307 -0.48731482 107 42
3.8830025 0.2147851 -0.48611206 75 42
3.9000847 0.19173241 -0.48825032 159 42
3.8436625 0.26008406 -0.52968872 110 43
3.8491356 0.23673901 -0.53027236 9 43
3.8505156 0.21311671 -0.53027236 10 43
3.8351278 0.3067047 -0.57616657 79 44
3.8320136 0.28280413 -0.57537746 115 44
3.8366325 0.2594856 -0.5758509 118 44
3.8381524 0.23593959 -0.5758509 111 44
3.8602331 0.21352792 -0.57916498 52 44
3.8230057 0.1879508 -0.57301027 12 44
3.797256 0.3259162 -0.61668026 77 45
3.7991843 0.30261052 -0.61668026 87 45
3.8049011 0.27958357 -0.61735833 110 45
3.810478 0.25649783 -0.61803639 122 45
3.8090291 0.23293097 -0.61752784 119 45
3.8113706 0.20960924 -0.61769736 89 45
3.7810862 0.18467104 -0.61227268 16 45
3.7832034 0.32593092 -0.66125131 9 46
3.7968955 0.30365103 -0.66342783 5 46
3.8104563 0.28121537 -0.66560435 6 46
3.8121099 0.25782955 -0.66560435 8 46
3.8238242 0.21151763 -0.66723675 5 46
3.8309433 0.18834025 -0.66832501 5 46
