# .PCD v0.7 - Point Cloud Data file format
VERSION 0.7
FIELDS x y z intensity ring
SIZE 4 4 4 4 1
TYPE F F F F U
COUNT 1 1 1 1 1
WIDTH 464
HEIGHT 1
VIEWPOINT 0 0 0 1 0 0 0
POINTS 464
DATA ascii
3.525738 0.043427654 -1.2199639 27 60
3.4487116 0.14893039 -1.2362591 35 61
3.4476862 0.12769663 -1.2355646 59 61
3.4465303 0.10648108 -1.23487 78 61
3.4461813 0.08530803 -1.2345227 59 61
3.4391389 0.064018875 -1.2317446 21 61
3.7274132 -0.22820364 -0.8346383 50 50
3.7374289 -0.29926711 -0.74380761 14 48
3.7617955 -0.23022512 -0.79585588 103 49
3.7525191 -0.2527802 -0.79412436 78 49
3.6938732 0.1822589 -0.82620186 101 50
3.6929765 0.15950647 -0.82574588 112 50
3.6977775 0.13698757 -0.82665789 94 50
3.7082806 0.11459558 -0.82893801 57 50
3.7050204 0.091743834 -0.828026 117 50
3.70454 0.068990506 -0.82779795 150 50
3.7039201 0.046246521 -0.82756996 128 50
3.699266 0.023488421 -0.8264299 88 50
3.742883 -0.045139842 -0.83669037 16 50
3.7181981 -0.067659497 -0.83099014 103 50
3.7264733 -0.090686753 -0.8330422 72 50
3.7494049 -0.13730277 -0.83874249 8 50
3.7238822 -0.20506018 -0.83349824 75 50
3.6400893 0.1783753 -0.85779935 103 51
3.6546962 0.15662313 -0.8611483 32 51
3.702163 0.13591999 -0.87263042 8 51
3.7171414 0.090814792 -0.87597942 5 51
3.7001543 0.067679994 -0.87167358 7 51
3.664577 0.044527084 -0.86282277 43 51
3.6968169 -0.023123652 -0.87071675 10 51
3.7121398 -0.045994055 -0.87454414 10 51
3.7040215 -0.068628997 -0.87263042 84 51
3.6860583 -0.090929665 -0.86832464 134 51
3.6941657 -0.11381152 -0.87047756 107 51
3.7380323 -0.13811158 -0.88148123 20 51
3.7156901 -0.18297607 -0.87645781 65 51
3.7086804 -0.20545125 -0.87502253 43 51
3.6417842 0.17969425 -0.9040609 104 52
3.6457198 0.15747032 -0.90481305 103 52
3.6543565 0.13538353 -0.90681881 33 52
3.6973567 0.091554865 -0.91759968 17 52
3.6649404 0.06825716 -0.90907526 107 52
3.6643224 0.045756239 -0.90882456 113 52
3.6645341 0.023271518 -0.90882456 137 52
3.6646078 0.0007859217 -0.90882456 142 52
3.669384 -0.021728875 -0.91007811 103 52
3.6740215 -0.044302251 -0.91133171 114 52
3.677552 -0.066915646 -0.91233462 137 52
3.6751366 -0.089432113 -0.91183317 128 52
3.6735511 -0.11195106 -0.91158241 106 52
3.6795669 -0.13473812 -0.91333747 101 52
3.6873755 -0.15768613 -0.91559392 103 52
3.6902061 -0.18049805 -0.91659677 23 52
3.6152947 0.17778212 -0.94162732 91 53
3.6095681 0.15530315 -0.93979436 106 53
3.6094885 0.13311645 -0.93953252 93 53
3.6160252 0.11114632 -0.94110364 99 53
3.6069911 0.088716283 -0.93848509 13 53
3.6229067 0.066872485 -0.94267476 91 53
3.6213186 0.044617087 -0.94215101 124 53
3.6282799 0.022440212 -0.94398397 102 53
3.6244888 0.00017565163 -0.9429366 90 53
3.6348336 -0.044428755 -0.94581693 6 53
3.6306326 -0.066661209 -0.94476956 8 53
3.6214719 -0.088727154 -0.94241285 39 53
3.6575165 -0.11205779 -0.95236325 107 53
3.6577246 -0.13453294 -0.9526251 95 53
3.5788321 0.17659473 -0.97597873 29 54
3.5961878 0.15533611 -0.98061889 108 54
3.5941889 0.13316086 -0.97980005 46 54
3.6035926 0.11137135 -0.98225665 10 54
3.6090169 0.089376606 -0.98362136 6 54
3.6210396 0.067444161 -0.98689681 6 54
3.6194613 0.045200791 -0.98635089 10 54
3.6167846 0.022973318 -0.98553205 71 54
3.6110852 0.0007800833 -0.98389435 54 54
3.6312244 -0.021498891 -0.98962635 9 54
3.6367958 -0.043849465 -0.99126405 7 54
3.630687 -0.06605798 -0.98962635 8 54
3.6234813 -0.088169679 -0.98771566 46 54
3.6353724 -0.11078355 -0.99126405 67 54
3.5567749 0.17488547 -1.0126424 12 55
3.5874796 0.15434563 -1.0214365 78 55
3.5883591 0.13233036 -1.0214365 106 55
3.5862281 0.1102208 -1.0205854 57 55
3.627099 0.089217365 -1.0325 6 55
3.6342895 0.067086264 -1.0344857 6 55
3.6106615 0.044482347 -1.0273937 80 55
3.6070309 0.022301948 -1.0262591 116 55
3.6032643 0.00016777981 -1.0251243 110 55
3.6003208 -0.021924853 -1.0242733 103 55
3.5953243 -0.043958534 -1.0228548 95 55
3.590193 -0.065931723 -1.0214365 93 55
3.5878036 -0.087913141 -1.0208691 57 55
3.5490324 0.17574568 -1.0555018 97 56
3.5529079 0.15408981 -1.0563865 109 56
3.557606 0.13242844 -1.0575659 101 56
3.5573967 0.11056731 -1.0572711 90 56
3.5589633 0.088761173 -1.0575659 93 56
3.5546641 0.066832818 -1.0560917 22 56
3.569339 0.045200504 -1.0605147 32 56
3.5781488 0.023353808 -1.0631686 96 56
3.5782249 0.0013982591 -1.0631686 106 56
3.578166 -0.020557342 -1.0631686 109 56
3.5751061 -0.042477805 -1.062284 105 56
3.5575814 -0.064101733 -1.0569762 32 56
3.5252628 0.15226224 -1.0909762 37 57
3.535646 0.13098443 -1.0940315 82 57
3.5420933 0.10946601 -1.0958647 65 57
3.5731587 0.08849445 -1.1056416 4 57
3.5764904 0.066622436 -1.1065582 9 57
3.5930176 0.044883713 -1.1117522 6 57
3.588537 0.00078588451 -1.1102245 21 57
3.5561006 -0.021051992 -1.0998366 73 57
3.5968454 -0.043351531 -1.1129743 16 57
3.4719391 0.17072704 -1.1162612 7 58
3.4842958 0.14990853 -1.1200529 6 58
3.5249715 0.12999056 -1.1333241 61 58
3.5162194 0.10806888 -1.1301644 107 58
3.5158679 0.08646851 -1.1298484 83 58
3.5286641 0.065120146 -1.1339561 14 58
3.5470226 0.043687474 -1.1399597 5 58
3.5149662 0.021726711 -1.1292164 52 58
3.5169311 0.00015875025 -1.1298484 70 58
3.5588965 0.17499048 -1.189456 10 59
3.4796386 0.14967078 -1.1616986 69 59
3.481436 0.12835243 -1.1620251 79 59
3.4868815 0.10713505 -1.1636579 75 59
3.4884181 0.085761473 -1.1639844 77 59
3.4888787 0.064355329 -1.1639844 79 59
3.4854276 0.04289896 -1.1626782 78 59
3.485625 0.021511974 -1.1626782 48 59
3.464386 0.17035648 -1.1994112 70 60
3.4634848 0.14901547 -1.1987373 69 60
3.4615114 0.12765734 -1.1977265 98 60
3.467876 0.10658842 -1.199748 81 60
3.473171 0.085423157 -1.2014327 89 60
3.4736297 0.06411057 -1.2014327 95 60
3.754725 0.1833754 -0.70028883 113 47
3.7734246 0.16109213 -0.70376343 56 47
3.7743418 0.1379358 -0.70376343 100 47
3.7672713 0.11453333 -0.70221919 105 47
3.7639797 0.091319226 -0.70144701 118 47
3.7331674 0.18289287 -0.74135369 41 48
3.7155664 0.1363515 -0.73726374 5 48
3.7388368 0.11423586 -0.74196714 6 48
3.7570817 0.091720812 -0.74564809 45 48
3.7595313 0.068701632 -0.74605709 50 48
3.7735851 0.045797169 -0.74892002 10 48
3.7608483 -0.046665825 -0.74626154 118 48
3.7555976 -0.069649816 -0.74523908 117 48
3.6980193 0.15978135 -0.78092152 4 49
3.6969788 0.13701478 -0.78048867 7 49
3.7036049 0.11451085 -0.78178728 22 49
3.7130218 0.092004225 -0.78373528 108 49
3.7135162 0.06921982 -0.78373528 114 49
3.7207046 0.046520401 -0.78525031 100 49
3.7306828 0.023754941 -0.78741473 67 49
3.736551 -0.022060813 -0.78871334 101 49
3.7461076 -0.045101926 -0.79087776 137 49
3.7457604 -0.068086758 -0.79087776 126 49
3.7423441 -0.090998754 -0.79022843 115 49
3.742691 -0.11398905 -0.79044485 102 49
3.7497265 -0.13723484 -0.79217637 24 49
3.7624698 -0.16081959 -0.79520655 88 49
3.7682381 -0.18423425 -0.79672164 115 49
3.7670367 -0.20735225 -0.79672164 94 49
3.8718519 -0.23895296 -0.6283772 130 45
3.8742459 -0.26297149 -0.62905532 81 45
3.8729613 -0.26166862 -0.67684978 31 46
3.8310723 -0.28245899 -0.66941327 120 46
3.8371093 -0.30658808 -0.67086428 149 46
3.8331962 -0.32995749 -0.67050153 122 46
3.8353038 -0.23670837 -0.71669686 6 47
3.8233035 -0.28310621 -0.7149595 14 47
3.8136697 -0.30593491 -0.71341527 88 47
3.8195412 -0.3300027 -0.7149595 21 47
3.7764995 -0.23253165 -0.750965 121 48
3.7750018 -0.25569943 -0.750965 68 48
3.7811713 -0.27943555 -0.75260097 106 48
3.9131503 0.16778179 -0.44210932 128 41
3.9250169 0.144172 -0.44344798 165 41
3.9288039 0.12017776 -0.44381306 153 41
3.9324441 0.096142471 -0.44417816 158 41
3.93296 0.072011642 -0.44417816 141 41
3.9353127 0.047902845 -0.44442156 100 41
3.8883164 0.16724598 -0.48651299 154 42
3.8912501 0.1434574 -0.48678026 179 42
3.9049344 0.11997279 -0.48851758 141 42
3.871912 0.095185585 -0.4839738 22 42
3.8793592 0.071553424 -0.4849093 6 42
3.9173815 0.048208449 -0.48998761 54 42
3.9037294 0.024086718 -0.48811665 156 42
3.9038038 0.00013342948 -0.48811665 163 42
3.9067042 -0.0238383 -0.48851758 127 42
3.9183757 -0.047955655 -0.49012128 20 42
3.868655 0.16653442 -0.5326069 10 43
3.851809 0.14213163 -0.52998054 44 43
3.8832619 0.11944681 -0.53450376 27 43
3.91312 0.072322942 -0.53873515 5 43
3.864249 0.023975639 -0.5314396 87 43
3.8831201 0.0002715734 -0.53421193 126 43
3.8820593 -0.023549104 -0.53406602 139 43
3.8947017 -0.047521584 -0.53596288 123 43
3.8923585 -0.071382441 -0.53567106 146 43
3.8898692 -0.095216334 -0.53537923 135 43
3.8921783 -0.11917228 -0.53581697 26 43
3.8438182 0.16533646 -0.57616657 116 44
3.845747 0.1417844 -0.57632434 133 44
3.8406227 0.11800332 -0.57537746 144 44
3.8432486 0.094483815 -0.57569313 151 44
3.8605402 0.071208201 -0.57837594 123 44
3.8786776 0.047735989 -0.58121657 141 44
3.8759351 0.02391799 -0.58074313 168 44
3.861197 0.00013621811 -0.57837594 136 44
3.8729744 -0.023629127 -0.58026969 171 44
3.8688071 -0.047344077 -0.57963842 128 44
3.9029992 -0.071720161 -0.58516192 19 44
3.9271648 -0.096274622 -0.58910728 8 44
3.8702412 -0.11863921 -0.58011186 87 44
3.8694403 -0.14238432 -0.58011186 151 44
3.8823056 -0.16671859 -0.58232129 109 44
3.8910723 -0.19102201 -0.58389938 85 44
3.8569791 0.16468497 -0.62515628 10 45
3.8086741 0.13920109 -0.61668026 77 45
3.8252175 0.11631291 -0.61939257 131 45
3.8061545 0.092355482 -0.61600214 75 45
3.8509908 0.069816902 -0.62363064 5 45
3.8405068 0.046053082 -0.62176585 4 45
3.8318474 0.02243269 -0.62024021 8 45
3.8279707 -0.001079592 -0.61956209 18 45
3.8318341 -0.024591662 -0.62024021 42 45
3.8207712 -0.047970094 -0.61837542 8 45
3.8356586 -0.095239855 -0.62108779 5 45
3.8418972 -0.11898468 -0.62227446 8 45
3.8529131 -0.14299092 -0.62430871 102 45
3.8499942 -0.16654468 -0.62396967 129 45
3.8577588 -0.19059968 -0.62549537 124 45
3.8702931 -0.21502811 -0.62786865 103 45
3.8467646 0.1654629 -0.67104566 6 46
3.8408282 0.14160356 -0.66977602 16 46
3.8032897 0.11686004 -0.66270232 109 46
3.8019688 0.093473159 -0.66233957 129 46
3.7887053 0.06989044 -0.65980029 77 46
3.8352797 0.047206234 -0.66832501 16 46
3.8325469 0.023654601 -0.66778088 22 46
3.8090181 0.00013963319 -0.66342783 120 46
3.8118975 -0.02325036 -0.66397196 163 46
3.8116829 -0.046639286 -0.66397196 178 46
3.8172245 -0.070135452 -0.66506022 146 46
3.8314691 -0.093919158 -0.66778088 123 46
3.8396673 -0.11769892 -0.66941327 161 46
3.8349419 -0.1411114 -0.66868776 141 46
3.8290913 -0.16442807 -0.66778088 151 46
3.8309569 -0.18806478 -0.66832501 145 46
3.8208938 -0.21107846 -0.66669261 95 46
3.7752604 0.068421058 -0.70357043 110 47
3.783458 0.04535171 -0.70511472 92 47
3.8032887 0.022256831 -0.70897543 7 47
3.7788239 -0.0010806642 -0.70414954 53 47
3.8042564 -0.024423046 -0.70916843 115 47
3.8069785 -0.047801126 -0.70974755 129 47
3.8026893 -0.071087249 -0.70897543 72 47
3.7904108 -0.094130076 -0.70665902 6 47
3.8076417 -0.16472538 -0.71051973 26 47
3.8006792 -0.18779679 -0.70936149 33 47
3.8268869 -0.21262959 -0.7147665 11 47
3.7796681 0.022676654 -0.75014699 9 48
3.7767253 -0.023688672 -0.74953347 10 48
3.7776065 -0.093250334 -0.74994248 20 48
3.7916393 -0.11688146 -0.75300992 5 48
3.7888944 -0.14007179 -0.75260097 12 48
3.7781839 -0.16289471 -0.75055599 102 48
3.781024 -0.18626721 -0.75137395 125 48
3.782742 -0.20962642 -0.75198746 141 48
3.7785969 0.00088954612 -0.79802024 15 49
3.9494977 0.16987142 -0.39781171 128 40
3.9464924 0.14548847 -0.39737347 148 40
3.647249 0.4961507 -0.82209766 60 50
3.656018 0.47451359 -0.82346576 102 50
3.659827 0.45219103 -0.82369375 98 50
3.6925108 0.43324041 -0.83076209 19 50
3.687866 0.38688016 -0.82848197 6 50
3.6688533 0.36214265 -0.82346576 45 50
3.6807015 0.34052011 -0.82574588 109 50
3.6759312 0.31734383 -0.82414979 127 50
3.675868 0.2946274 -0.82369375 103 50
3.6902299 0.27299967 -0.82665789 42 50
3.692807 0.25041747 -0.82688594 38 50
3.7039921 0.22835223 -0.82916605 88 50
3.6985183 0.20524374 -0.82756996 103 50
3.6265523 0.51477563 -0.86234432 92 51
3.630605 0.4926447 -0.86258358 122 51
3.6287448 0.46973366 -0.86138749 121 51
3.6325223 0.44757831 -0.86162668 103 51
3.6380935 0.42562053 -0.86234432 118 51
3.6425664 0.40350401 -0.86282277 106 51
3.6411111 0.38074091 -0.86186594 68 51
3.651109 0.35915518 -0.8637796 94 51
3.646476 0.33611962 -0.86210513 109 51
3.6416984 0.31315446 -0.86043066 113 51
3.6435511 0.29080355 -0.86043066 114 51
3.6259005 0.26700929 -0.85564643 42 51
3.6516891 0.24639805 -0.86162668 8 51
3.658947 0.22434545 -0.86306196 16 51
3.6534684 0.20151386 -0.86138749 69 51
3.6051929 0.55820209 -0.90456235 59 52
3.628659 0.53905565 -0.90982741 41 52
3.5580997 0.50628769 -0.89052212 7 52
3.5620985 0.48457643 -0.89077282 11 52
3.6331663 0.47155011 -0.90857381 63 52
3.6206191 0.44735083 -0.90456235 114 52
3.6386795 0.42693004 -0.90857381 77 52
3.5825393 0.39808029 -0.89328003 11 52
3.5858772 0.37619165 -0.89353073 7 52
3.6123946 0.33420789 -0.89929724 7 52
3.6433117 0.31453124 -0.90681881 33 52
3.6335933 0.29124346 -0.9038102 14 52
3.6504157 0.24754728 -0.90732026 6 52
3.6644268 0.22591716 -0.91057956 4 52
3.6647775 0.20337488 -0.91032887 28 52
3.5536623 0.57195759 -0.93612844 102 53
3.5628273 0.55102891 -0.93769956 15 53
3.5635881 0.5064494 -0.93612844 5 53
3.5637598 0.48418337 -0.93534285 7 53
3.5542219 0.46069065 -0.93193877 7 53
3.5799689 0.44171754 -0.93822324 62 53
3.5826118 0.41974294 -0.93822324 129 53
3.5515485 0.39401695 -0.92905843 19 53
3.5529394 0.37211677 -0.92879653 10 53
3.56476 0.35125887 -0.93141508 4 53
3.6148977 0.33383223 -0.94450772 52 53
3.5880325 0.30915055 -0.93665212 126 53
3.5946717 0.28751528 -0.9379614 129 53
3.5982933 0.26559609 -0.93848509 104 53
3.6258531 0.24527946 -0.94555509 63 53
3.6311429 0.22326519 -0.94660252 63 53
3.6093178 0.19969366 -0.94031805 111 53
3.5499089 0.57197362 -0.97952712 70 54
3.5476475 0.54929841 -0.97788942 108 54
3.5490479 0.52723759 -0.9773435 117 54
3.5465014 0.50463861 -0.9757058 85 54
3.5924277 0.48869902 -0.98798859 31 54
3.5486109 0.46058467 -0.97461396 115 54
3.5542345 0.43915573 -0.97543281 107 54
3.5616398 0.41789913 -0.97679758 80 54
3.5698738 0.39667431 -0.97843528 93 54
3.5703268 0.37456197 -0.97788942 120 54
3.5620267 0.35160938 -0.97488689 28 54
3.5535798 0.32877281 -0.97188443 69 54
3.5622394 0.3075408 -0.97379512 103 54
3.5746078 0.28652188 -0.97679758 113 54
3.5762987 0.26458311 -0.97679758 96 54
3.5836139 0.2430243 -0.97843528 27 54
3.5677538 0.21996734 -0.97352219 7 54
3.5709574 0.19817828 -0.97406805 10 54
3.554755 0.52746409 -1.0222875 28 55
3.5360897 0.50253224 -1.0157628 104 55
3.5391066 0.48082575 -1.0157628 97 55
3.5419903 0.45910117 -1.0157628 115 55
3.5428371 0.43712381 -1.0151955 106 55
3.5464051 0.41548902 -1.0154792 85 55
3.5498407 0.39382693 -1.0157628 75 55
3.521673 0.36883175 -1.006685 9 55
3.5326178 0.32620707 -1.0086708 4 55
3.5259547 0.30378154 -1.0061177 8 55
3.5554717 0.28436711 -1.0143445 27 55
3.5380237 0.26112786 -1.0086708 13 55
3.4829979 0.45269114 -1.0428222 32 56
3.5255392 0.43623528 -1.055207 105 56
3.5328946 0.41515183 -1.0566814 105 56
3.5353754 0.39346659 -1.0566814 91 56
3.4921081 0.36697796 -1.0425274 46 56
3.5600967 0.32999897 -1.062284 4 56
3.534447 0.3057631 -1.0537326 53 56
3.5343516 0.28391758 -1.0531429 105 56
3.5360272 0.26222584 -1.0531429 94 56
3.5394762 0.24065369 -1.0537326 107 56
3.548516 0.21940225 -1.0560917 87 56
3.5412087 0.19714774 -1.0534377 53 56
3.487488 0.40918121 -1.0854766 12 57
3.5003426 0.38893482 -1.0888375 54 57
3.5064511 0.36784843 -1.0900596 87 57
3.5086422 0.34632632 -1.0900596 83 57
3.5107009 0.32479119 -1.0900596 100 57
3.5107305 0.3030794 -1.0894486 75 57
3.5068295 0.2810739 -1.0876154 62 57
3.5065889 0.25940999 -1.0870043 85 57
3.5090647 0.23795381 -1.0873098 87 57
3.4886005 0.21506326 -1.0802827 39 57
3.4974599 0.19407816 -1.082727 5 57
3.492583 0.32252416 -1.1266886 65 58
3.4888246 0.30059996 -1.1247927 95 58
3.4877663 0.27896065 -1.1238447 78 58
3.4875197 0.25741541 -1.1232128 95 58
3.4653685 0.23441339 -1.1153133 22 58
3.4468548 0.2119254 -1.1086777 6 58
3.4715247 0.25619781 -1.1610454 66 59
3.4749174 0.23502029 -1.1616986 79 59
3.4791243 0.21386911 -1.1626782 62 59
3.4794273 0.19246507 -1.1623516 53 59
3.4632757 0.19161035 -1.1994112 68 60
3.7554302 0.37002024 -0.65689826 79 46
3.7305629 0.41262379 -0.69913059 17 47
3.7447348 0.39095193 -0.70144701 89 47
3.7402279 0.36729395 -0.70009577 107 47
3.73948 0.34406683 -0.69951665 123 47
3.7346778 0.32052588 -0.69816542 17 47
3.732662 0.29729149 -0.6973933 14 47
3.7373514 0.27459931 -0.69797236 17 47
3.7663767 0.25351569 -0.70337737 92 47
3.7668819 0.23034069 -0.70318437 116 47
3.7623463 0.20689812 -0.70202613 108 47
3.7201102 0.4351649 -0.74298966 56 48
3.7217374 0.41222289 -0.74278516 100 48
3.721276 0.38907391 -0.74217165 103 48
3.7235932 0.36623326 -0.74217165 113 48
3.722846 0.34310964 -0.74155813 123 48
3.7170792 0.31959021 -0.73992217 94 48
3.684818 0.29405487 -0.73276484 56 48
3.6826479 0.27115262 -0.73194683 5 48
3.7213554 0.25105101 -0.73971772 66 48
3.7433436 0.22946808 -0.74401212 114 48
3.7476132 0.20665643 -0.74462557 129 48
3.6744978 0.45406052 -0.78113794 82 49
3.6723666 0.43093523 -0.78005576 22 49
3.6778526 0.40871832 -0.78070509 8 49
3.6767621 0.3629773 -0.77940643 19 49
3.6886411 0.34131286 -0.78157085 83 49
3.6809394 0.31783041 -0.77940643 10 49
3.6857398 0.29547361 -0.78005576 7 49
3.6923513 0.27321452 -0.78113794 7 49
3.6929843 0.25048715 -0.78092152 12 49
3.6964006 0.22794351 -0.78135443 11 49
3.713326 0.20612924 -0.78481746 92 49
3.7418237 0.18469703 -0.79087776 33 49
3.5653152 0.59630388 -0.94031805 9 53
3.984134 0.21985802 -0.45111483 40 41
3.9060991 0.19149588 -0.44137913 125 41
3.8677633 0.23775683 -0.4842411 104 42
3.8562856 0.21330994 -0.48250377 77 42
3.8931561 0.19139247 -0.48731482 169 42
3.8485975 0.26041949 -0.53041828 91 43
3.8491356 0.23673901 -0.53027236 11 43
3.8534791 0.21328162 -0.5307101 5 43
3.81741 0.30528954 -0.57332593 75 44
3.8280745 0.28251383 -0.57474625 121 44
3.8287506 0.25895333 -0.57458842 115 44
3.8322387 0.23557667 -0.57490402 140 44
3.8543174 0.21320128 -0.5782181 44 44
3.9009221 0.19177347 -0.58547753 13 44
3.797256 0.3259162 -0.61668026 68 45
3.7962372 0.30237487 -0.61617166 71 45
3.8039181 0.27951103 -0.61718881 121 45
3.8026118 0.25596592 -0.61668026 102 45
3.8050945 0.23268916 -0.61684978 130 45
3.8113706 0.20960924 -0.61769736 73 45
3.8480213 0.1879608 -0.62380016 9 45
3.7938626 0.35031223 -0.66360921 35 46
3.7822235 0.32584661 -0.66106993 6 46
3.7993546 0.25696817 -0.66324645 6 46
3.7910442 0.23304853 -0.66143268 41 46
3.8238242 0.21151763 -0.66723675 7 46
3.8358545 0.18858118 -0.66923189 8 46
