# .PCD v0.7 - Point Cloud Data file format
VERSION 0.7
FIELDS x y z intensity ring
SIZE 4 4 4 4 1
TYPE F F F F U
COUNT 1 1 1 1 1
WIDTH 1313
HEIGHT 1
VIEWPOINT 0 0 0 1 0 0 0
POINTS 1313
DATA ascii
4.7452011 -2.2454729 0.56136167 57 23
4.7241588 -2.2710993 0.56056297 80 23
4.7315955 -2.3105171 0.56295913 66 23
4.7360506 -2.3487859 0.56505579 62 23
4.7419915 -2.3880904 0.56735212 57 23
4.7431974 -2.425292 0.56914926 60 23
4.7414751 -2.4612234 0.57064688 41 23
4.7465329 -2.5009336 0.57294321 30 23
4.7416282 -2.5356388 0.57414132 39 23
4.7434731 -2.5741732 0.57613814 33 23
4.7467666 -2.6137848 0.57833463 23 23
4.7636514 -2.6612947 0.58212858 15 23
4.7636819 -2.6997919 0.58402556 18 23
4.7582417 -2.7354147 0.58532345 17 23
4.7602806 -2.7755814 0.58751994 16 23
4.7551527 -2.8118255 0.58891773 22 23
4.7565861 -2.8522029 0.59111422 19 23
4.7594028 -2.8937368 0.59351039 22 23
4.759347 -2.9338465 0.59560704 29 23
4.7598214 -2.974591 0.59780359 20 23
4.7608147 -3.0159838 0.60009992 17 23
4.7623162 -3.0580378 0.60249609 13 23
4.7643142 -3.1007659 0.60499209 21 23
4.7676272 -3.1447284 0.60768777 12 23
4.7697525 -3.1882949 0.61028367 15 23
4.774817 -3.234237 0.61327887 11 23
4.7860608 -3.2848635 0.61707282 10 23
4.7837892 -3.3266623 0.61926931 13 23
4.7909465 -3.3754315 0.62266392 12 23
4.7879648 -3.4174783 0.62486041 20 23
4.7967429 -3.468358 0.62855452 15 23
4.7962446 -3.5130076 0.63115036 18 23
4.7921815 -3.5554101 0.63334686 22 23
4.7965293 -3.6044681 0.63664162 22 23
4.7980785 -3.6519053 0.63963681 29 23
4.7976489 -3.698282 0.64243239 38 23
4.794477 -3.7429535 0.6449284 40 23
4.8073301 -3.8006809 0.64952105 24 23
4.8041172 -3.8462713 0.65211695 34 23
4.8074822 -3.897603 0.65561134 38 23
4.8080897 -3.9472263 0.65880626 20 23
4.8067379 -3.9957314 0.66180146 21 23
4.8057323 -4.0450082 0.66489655 34 23
4.8080888 -4.0976486 0.66849083 27 23
4.8235412 -4.162168 0.67388219 30 23
4.8173971 -4.208703 0.67647809 21 23
4.8272619 -4.2698193 0.68127042 23 23
4.8291435 -4.3245773 0.68506438 27 23
4.8386431 -4.386868 0.68995655 18 23
4.8453598 -4.4474192 0.69454926 17 23
4.8434949 -4.5007672 0.69804364 14 23
4.8339086 -4.5474429 0.70053971 20 23
4.8419471 -4.6113214 0.70553172 37 23
4.8400688 -4.6664925 0.70922583 18 23
4.8412561 -4.725287 0.71341914 23 23
4.8461499 -4.7884665 0.71821153 40 23
4.8441172 -4.8455505 0.72210526 45 23
4.8359714 -4.8971262 0.72520036 61 23
4.8648987 -4.9872389 0.7336868 32 23
4.859755 -5.0435019 0.73738092 31 23
4.8630228 -5.1092563 0.74237299 36 23
4.856122 -5.1650925 0.74596721 23 23
4.8426228 -5.2144742 0.74866295 24 23
4.8502274 -5.287344 0.75455356 31 23
4.8531094 -5.3560781 0.75984508 28 23
4.8659477 -5.4369063 0.76673412 38 23
4.8799529 -5.5203285 0.77392262 24 23
4.8885336 -5.5988789 0.78041232 20 23
4.894383 -5.6754804 0.78660244 25 23
4.8891501 -5.7402449 0.79119509 25 23
4.8941965 -5.8180995 0.79748505 27 23
4.8978338 -5.8954659 0.80367517 46 23
4.8994422 -5.9715552 0.80966562 37 23
4.9084444 -6.0579338 0.81695402 37 23
4.9165692 -6.1446452 0.82424235 49 23
4.9225788 -6.2301216 0.83133107 21 23
4.9228263 -6.3096251 0.83762103 29 23
4.9168153 -6.3822718 0.84301245 31 23
4.9082894 -6.4527049 0.8481043 27 23
4.8865328 -6.506566 0.85109955 13 23
4.8856382 -6.5891728 0.85768902 49 23
4.9438705 -6.7538972 0.87446225 316 23
4.9658713 -6.8720021 0.88534492 530 23
4.948463 -6.937171 0.88963807 600 23
4.9573693 -7.0406175 0.8986237 78 23
4.9765496 -7.1607714 0.90960622 23 23
4.9482803 -7.2141447 0.91240174 38 23
4.9418578 -7.300396 0.91919094 41 23
4.945065 -7.4025569 0.92787707 51 23
4.9904733 -7.5706525 0.94445062 59 23
4.9933047 -7.6770272 0.95353615 51 23
5.0165167 -7.8172121 0.96661526 28 23
5.0216908 -7.9319081 0.97659934 16 23
5.0013947 -8.0081406 0.98199075 18 23
5.0038404 -8.1225395 0.99187499 28 23
4.9993834 -8.2279139 1.000661 51 23
5.0004706 -8.3446312 1.0107449 30 23
4.9998055 -8.4608116 1.0207289 51 23
5.0259595 -8.6254358 1.0363041 40 23
5.0383801 -8.769989 1.0494831 24 23
5.0212574 -8.8656683 1.0569712 33 23
5.0254655 -9.0014267 1.0690519 24 23
5.0243559 -9.1305923 1.0803339 32 23
5.0327601 -9.2801962 1.0939122 49 23
5.0395155 -9.4302425 1.1074905 43 23
5.0701184 -9.629137 1.1265602 23 23
5.0691381 -9.7722311 1.1392399 29 23
5.0362511 -9.8563108 1.1452304 23 23
5.0714192 -10.07722 1.1665963 45 23
5.0753379 -10.240978 1.1814725 58 23
5.0778713 -10.406054 1.1964487 41 23
5.1022701 -10.620866 1.2169161 33 23
5.0769968 -10.736523 1.2263011 25 23
5.1222997 -11.006517 1.2527589 58 23
5.0969343 -11.130011 1.2629427 68 23
5.1299305 -11.386046 1.2877032 29 23
5.1748929 -11.676554 1.3161577 103 23
5.1691589 -11.859494 1.3327312 165 23
5.1166797 -11.938542 1.337923 203 23
5.2094922 -12.363981 1.3808545 40 23
5.1898875 -12.531763 1.395631 57 23
5.1710434 -12.706215 1.4111062 76 23
5.1421232 -12.860579 1.4243851 50 23
5.1999068 -13.240105 1.4619253 47 23
5.1905508 -13.458354 1.4819932 46 23
5.1931581 -13.715131 1.5061547 30 23
5.2337174 -14.082491 1.5420973 19 23
5.18574 -14.219967 1.5533793 32 23
5.1520267 -14.401411 1.5693538 16 23
4.5772629 -13.046978 1.421989 15 23
4.4505081 -12.939332 1.4076118 44 23
4.4409742 -13.173821 1.4295769 97 23
4.3481965 -13.164922 1.4257829 64 23
4.2697868 -13.198927 1.4265816 17 23
4.2256827 -13.341548 1.438862 37 23
4.1858821 -13.503127 1.4531392 566 23
4.0492225 -13.351457 1.4345689 383 23
3.9615631 -13.356973 1.432572 373 23
3.8789775 -13.379117 1.4323723 359 23
3.8109183 -13.452446 1.4375641 248 23
3.7463512 -13.540786 1.4443532 696 23
3.6580057 -13.544307 1.4423565 618 23
3.57128 -13.553026 1.4409586 706 23
3.4816127 -13.549629 1.4383628 706 23
3.3935723 -13.551433 1.436366 669 23
3.3075283 -13.560401 1.4351679 711 23
3.2201221 -13.563015 1.4333707 654 23
3.1334808 -13.567976 1.4318732 689 23
3.0473359 -13.574327 1.4305753 638 23
2.9616554 -13.582075 1.429477 619 23
2.8755822 -13.587337 1.428179 618 23
2.789356 -13.591081 1.4267813 694 23
2.70261 -13.59135 1.425084 698 23
2.6161537 -13.592044 1.4234866 705 23
2.5316124 -13.601972 1.4228874 774 23
2.4417636 -13.581995 1.4192932 653 23
2.3583801 -13.596722 1.4192932 674 23
2.2747436 -13.609955 1.4191934 750 23
2.1894526 -13.61285 1.4180951 731 23
2.1025395 -13.604395 1.4158987 722 23
2.0187328 -13.615071 1.415699 310 23
1.6768969 -11.809677 1.2314928 172 23
1.6049383 -11.823688 1.2318921 747 23
1.5317198 -11.82838 1.231393 745 23
1.4533879 -11.791142 1.2267004 456 23
1.5184174 -12.972886 1.3452114 14 23
1.5099794 -13.62378 1.4100081 323 23
1.4282223 -13.650601 1.4118052 662 23
1.3438516 -13.653167 1.4112061 659 23
1.2584056 -13.643321 1.409409 494 23
1.1744972 -13.648803 1.4092093 524 23
1.0904104 -13.651786 1.4088099 441 23
1.006917 -13.662189 1.4092093 350 23
0.9230684 -13.668109 1.4092093 278 23
1.0382235 -16.912111 1.73479 300 23
0.93421346 -16.91419 1.7343906 334 23
0.68456358 -13.952106 1.4362662 705 23
0.59949791 -13.968966 1.4375641 944 23
0.62283015 -16.931503 1.7346902 377 23
0.51874542 -16.929039 1.734091 567 23
0.41429892 -16.909025 1.7317947 407 23
0.31070432 -16.920202 1.7326933 634 23
0.20700039 -16.93174 1.7336917 630 23
0.10311142 -16.933685 1.7337916 575 23
-0.00079320697 -16.954895 1.7358882 341 23
-0.10489339 -16.965515 1.7369865 716 23
-0.20892891 -16.959578 1.7364873 598 23
-0.31271261 -16.943054 1.7349896 536 23
-0.41703328 -16.955736 1.7364873 659 23
-0.52097237 -16.949875 1.7361877 627 23
-0.62485528 -16.943377 1.7358882 159 23
-0 -0 0 148 23
-0.58706617 -11.931614 1.23329 249 23
-0.65592921 -11.849301 1.2254025 264 23
-0.72685397 -11.816253 1.2225071 257 23
-0.79981309 -11.81852 1.223206 248 23
-0.87458354 -11.844151 1.2263011 271 23
-0.94589394 -11.8217 1.2246038 250 23
-1.0192662 -11.825587 1.2256021 238 23
-1.0925388 -11.827037 1.2264009 268 23
-1.1743507 -11.914181 1.2358857 203 23
-1.2495042 -11.926543 1.2378826 224 23
-1.3245246 -11.935464 1.2395799 222 23
-1.39785 -11.9281 1.2396797 224 23
-1.4706478 -11.916336 1.2393802 214 23
-1.8082271 -13.948689 1.4459507 91 23
-1.7905539 -13.17716 1.3689735 76 23
-1.8516431 -13.027024 1.3548959 292 23
-1.9311025 -13.012465 1.3545964 250 23
-2.1372313 -13.817513 1.4375641 360 23
-1.8957732 -11.776524 1.2314928 512 23
-1.9743955 -11.802943 1.2353866 76 23
-2.4005592 -13.829752 1.4430553 886 23
-2.487309 -13.825534 1.4441535 886 23
-2.2874656 -12.28109 1.2881025 389 23
-0 -0 0 537 23
-2.3789964 -11.955424 1.2577509 1078 23
-2.4537094 -11.947425 1.2584498 840 23
-2.5354195 -11.972054 1.2625432 1054 23
-2.6103151 -11.963078 1.2632421 934 23
-2.6871576 -11.962369 1.2648395 995 23
-2.7661052 -11.969893 1.2673357 1039 23
-2.8431773 -11.968184 1.2689331 807 23
-2.4010606 -9.8374062 1.0506812 227 23
-2.4621017 -9.8253832 1.0509807 343 23
-2.5168941 -9.7888899 1.0487843 170 23
-2.5791924 -9.7819223 1.0496827 383 23
-2.6352725 -9.7515039 1.0481852 386 23
-2.6913421 -9.7217245 1.0467874 337 23
-2.7452466 -9.6849241 1.0446907 272 23
-2.8015726 -9.6573858 1.0435925 280 23
-2.8562489 -9.6247511 1.041995 269 23
-2.9123633 -9.5975227 1.0409967 145 23
-2.9623582 -9.5509605 1.0380014 225 23
-3.6699347 -11.58147 1.2536575 205 23
-3.7213256 -11.498146 1.2472676 255 23
-2.3574238 -7.1328387 0.78839958 1534 23
-2.3979669 -7.1088109 0.78740114 1705 23
-2.4486613 -7.1146631 0.78959763 1428 23
-2.5169773 -7.1699209 0.7970857 972 23
-2.5351143 -7.0822048 0.78939795 945 23
-2.5437477 -6.9711695 0.7792142 1420 23
-2.5885539 -6.9610262 0.77981323 1938 23
-2.6340363 -6.952456 0.78061199 1875 23
-2.6845238 -6.9565864 0.78280848 1735 23
-2.7297044 -6.9464664 0.78350735 1661 23
-2.7733841 -6.9323583 0.78380686 1334 23
-2.7847345 -6.8387184 0.77552009 1830 23
-2.8255014 -6.8187451 0.77522057 1549 23
-2.9306543 -6.9516544 0.79159445 1743 23
-2.9783497 -6.9454303 0.7928924 1804 23
-3.032043 -6.9525638 0.79568791 1568 23
-5.0337787 -11.353821 1.2808141 23 23
-5.0641074 -11.235633 1.2712294 36 23
-4.126133 -9.0060873 1.0286164 50 23
-5.0915985 -10.936299 1.2450712 20 23
-5.1169171 -10.816703 1.2352867 19 23
-3.7978144 -7.9017148 0.91429871 482 23
-3.8519001 -7.8898873 0.91559666 414 23
-3.9201238 -7.9062219 0.92008948 699 23
-3.9707985 -7.8864632 0.92058867 389 23
-4.0376787 -7.8982768 0.92468214 666 23
-4.0966043 -7.8936672 0.92697853 538 23
-4.1570163 -7.8912725 0.92957437 152 23
-5.0613236 -9.4671001 1.1117837 13 23
-5.1188431 -9.4349918 1.1116838 8 23
-5.0063252 -9.0939503 1.0762404 69 23
-5.151773 -9.2237787 1.0947109 18 23
-5.1190166 -9.0344276 1.07654 39 23
-5.1366796 -8.9372807 1.0689521 17 23
-5.163866 -8.8583126 1.0634608 22 23
-5.1528134 -8.7159624 1.0505813 320 23
-5.1811323 -8.6423626 1.0456891 17 23
-5.143117 -8.4607563 1.0281172 60 23
-5.1803198 -8.4053202 1.0253216 185 23
-5.2165093 -8.3489037 1.0224262 54 23
-5.2564602 -8.2990847 1.0203296 66 23
-5.3733907 -8.3696709 1.0326101 123 23
-5.3345761 -8.1980906 1.0160364 54 23
-5.3524647 -8.1161928 1.0101459 28 23
-5.3076391 -7.9417248 0.99307311 43 23
-5.3328395 -7.8744035 0.98887974 54 23
-5.352911 -7.8005095 0.98388773 121 23
-5.439291 -7.8230748 0.99067688 189 23
-5.5788565 -7.9197145 1.0066514 131 23
-5.6966929 -7.982532 1.0186323 24 23
-5.7834511 -7.999845 1.0251219 30 23
-5.876513 -8.0244198 1.0326101 17 23
-6.0038762 -8.0937061 1.045789 10 23
-6.0588036 -8.0638752 1.0466876 21 23
-6.1744399 -8.1136532 1.05767 14 23
-6.2398987 -8.0961075 1.0602659 16 23
-6.3182282 -8.0945349 1.0649585 13 23
-6.3807325 -8.0720081 1.0670551 49 23
-6.4643359 -8.0754318 1.0725464 20 23
-6.4905844 -8.0070133 1.0688522 63 23
-6.5831456 -8.0201092 1.0757412 21 23
-6.6443148 -7.9941053 1.0776381 19 23
-6.7002869 -7.9615612 1.0787364 15 23
-6.656095 -7.8112316 1.0643594 11 23
-6.9905014 -8.1025105 1.1083891 51 23
-7.0204506 -8.0369816 1.1053939 113 23
-7.1988139 -8.1398535 1.1249627 39 23
-7.2877789 -8.1392689 1.1308533 32 23
-0 -0 0 62 23
-0 -0 0 76 23
-0 -0 0 41 23
-7.6584697 -8.1420755 1.1562128 44 23
-7.6410484 -8.0243082 1.1464285 198 23
-7.6466403 -7.932138 1.1401385 588 23
-7.6493053 -7.8380666 1.133549 690 23
-7.6699848 -7.7633758 1.1296552 588 23
-7.7385826 -7.7372751 1.1326505 357 23
-7.8835969 -7.7861443 1.1464285 287 23
-7.9739518 -7.7793188 1.1524189 168 23
-8.1375895 -7.8421092 1.1685932 72 23
-6.4625683 -6.1515393 0.92987388 110 23
-6.4987421 -6.1104064 0.92967421 106 23
-6.5368414 -6.0710931 0.92977405 55 23
-6.4662013 -5.9319782 0.91509748 34 23
-8.3529358 -7.5694218 1.1656977 218 23
-8.3762426 -7.4974523 1.1626027 635 23
-8.3609676 -7.3918676 1.1544157 347 23
-8.346962 -7.2887182 1.1465284 171 23
-2.688205 -2.3174276 0.39073387 134 23
-2.7213085 -2.3170218 0.39322987 304 23
-2.6951237 -2.2663271 0.38793832 152 23
-2.7051525 -2.2465677 0.3874391 186 23
-2.7188864 -2.2299271 0.3874391 205 23
-2.6992791 -2.1862624 0.38314596 131 23
-2.7064283 -2.1646848 0.38234723 141 23
-2.7095115 -2.1400168 0.38104931 133 23
-2.7116098 -2.1147809 0.37965155 132 23
-2.7182298 -2.0932441 0.37885281 212 23
-2.7278552 -2.074116 0.37845343 189 23
-2.7134824 -2.0370197 0.37505886 103 23
-2.7219343 -2.0173681 0.37455967 114 23
-2.7286417 -1.9965137 0.37386078 100 23
-2.7351961 -1.9756533 0.37316188 126 23
-2.7407873 -1.9542098 0.37236315 119 23
-2.7527266 -1.9373559 0.37236315 114 23
-2.7833529 -1.9334918 0.37465951 79 23
-2.8140345 -1.9293243 0.37695584 65 23
-2.8398259 -1.9215053 0.37865314 59 23
-2.874727 -1.919523 0.38144866 80 23
-2.9337997 -1.9330683 0.38713959 433 23
-2.9572818 -1.9226271 0.38853735 86 23
-3.0000048 -1.9243325 0.39223146 366 23
-3.0571492 -1.9346352 0.39762288 88 23
-3.0968101 -1.9332372 0.40091762 86 23
-3.1289442 -1.9267268 0.40331379 80 23
-3.161114 -1.9198943 0.40570998 64 23
-3.2223339 -1.930132 0.41150072 16 23
-8.5858688 -5.0737262 1.0353057 105 23
-8.4182606 -4.9052086 1.0122426 459 23
-8.5827818 -4.9308009 1.0278176 232 23
-8.5920973 -4.8662739 1.0254215 121 23
-8.5479536 -4.7722259 1.016935 583 23
-8.4498091 -4.6496372 1.0023583 517 23
-8.5297813 -4.6256943 1.0082489 357 23
-8.5044756 -4.5446568 1.0021586 398 23
-8.4961061 -4.4733782 0.99806511 465 23
-8.4845343 -4.4009995 0.99367213 646 23
-8.4892282 -4.3375359 0.99117613 742 23
-8.4952421 -4.2750754 0.98887974 859 23
-8.4981346 -4.2113791 0.9862839 871 23
-8.4880486 -4.1416988 0.98229027 814 23
-8.497159 -4.0817819 0.98049313 814 23
-8.5058537 -4.0219097 0.97869599 848 23
-8.5123301 -3.9612448 0.97669917 846 23
-8.5147648 -3.8989947 0.97430301 833 23
-8.5158501 -3.8364553 0.971807 872 23
-8.5092115 -3.7708242 0.96851224 899 23
-8.5130348 -3.710191 0.96641558 933 23
-8.5219221 -3.6520054 0.96491802 942 23
-8.5239983 -3.5911458 0.96272147 971 23
-8.5274878 -3.5311601 0.96072465 969 23
-8.5268764 -3.4697666 0.95832849 1054 23
-8.539691 -3.4140558 0.95742995 1059 23
-8.5623312 -3.3623207 0.95762962 1023 23
-8.5614491 -3.3014832 0.95533329 979 23
-8.5471172 -3.2358496 0.95163918 946 23
-8.5621471 -3.1816113 0.95113999 877 23
-8.5544004 -3.1191268 0.94824457 1039 23
-8.5499573 -3.0581987 0.94574857 1097 23
-8.5469666 -2.9981017 0.94345224 1122 23
-8.5539112 -2.9417176 0.94225413 1007 23
-8.5557718 -2.8837717 0.94055682 1139 23
-8.5515757 -2.8240409 0.9382605 1124 23
-8.5261421 -2.7577314 0.93376768 1044 23
-8.393034 -2.6578822 0.91799283 1140 23
-8.37117 -2.5945458 0.9139992 1014 23
-8.3783627 -2.5405328 0.91310066 1089 23
-8.3966551 -2.4899254 0.91340017 1261 23
-8.3983965 -2.4344776 0.91200238 1198 23
-8.3978596 -2.3785596 0.91040492 1125 23
-8.4007883 -2.3238018 0.90920687 1180 23
-8.411046 -2.2711737 0.90880752 1138 23
-8.3911486 -2.2106452 0.90531307 719 23
-8.5625982 -2.1997402 0.92168695 289 23
-8.5933075 -2.1515117 0.92348409 1142 23
-8.6092472 -2.0994513 0.9237836 1097 23
-8.5938931 -2.0399187 0.92088825 541 23
-8.6014004 -1.9860291 0.920389 817 23
-8.5978918 -1.9297261 0.91879159 1118 23
-8.6037378 -1.8756617 0.91819251 1167 23
-8.6102171 -1.8218044 0.91769332 1168 23
-8.6095371 -1.7665373 0.9164952 1087 23
-8.6153355 -1.7127062 0.91599602 1092 23
-8.6090717 -1.6566129 0.91429871 1233 23
-8.6102715 -1.602118 0.91340017 1162 23
-8.6111259 -1.547671 0.91250157 1186 23
-8.6175194 -1.4942945 0.91220206 1198 23
-8.6255445 -1.4412262 0.91210222 1279 23
-8.6214542 -1.3862187 0.91080433 1197 23
-8.6229143 -1.3322279 0.91010541 1285 23
-8.6328955 -1.2795857 0.91030508 1285 23
-8.6415691 -1.2267311 0.91040492 1379 23
-8.6459761 -1.1732825 0.91010541 1262 23
-8.6530123 -1.1202098 0.91010541 1317 23
-8.647872 -1.0656329 0.90890735 1257 23
-8.6463423 -1.0116245 0.90810859 1286 23
-8.6405191 -0.95723617 0.90691054 1167 23
-8.6412821 -0.90368277 0.90641129 1124 23
-8.6516151 -0.85113162 0.90691054 1254 23
-8.6586571 -0.79821318 0.90711021 1297 23
-8.6633911 -0.74506968 0.90711021 1326 23
-8.6697836 -0.69205666 0.90730989 1310 23
-8.7007465 0.21528882 0.80083108 1328 24
-8.698266 0.26864076 0.8007434 1282 24
-8.6984444 0.32208106 0.80091876 1302 24
-8.6992903 0.37557667 0.80118179 1258 24
-8.6729431 0.42776862 0.79907751 512 24
-8.70994 0.48318562 0.80258459 1219 24
-8.7117825 0.53692633 0.80302298 1219 24
-8.7142878 0.59077525 0.80354905 1249 24
-8.7124853 0.64438099 0.80372441 1227 24
-8.7123394 0.69814616 0.80407512 1266 24
-8.7108688 0.75184804 0.80433816 1286 24
-8.711051 0.80574173 0.80477655 1283 24
-8.7138739 0.8599596 0.80547798 1258 24
-8.7213125 0.9147622 0.8066178 1326 24
-8.7264261 0.9694683 0.8075822 1212 24
-8.7292175 1.0240394 0.80837131 1244 24
-8.7346334 1.0790477 0.80942345 1176 24
-8.7397022 1.134161 0.81047559 1196 24
-8.7385006 1.1885712 0.81100166 1163 24
-8.7409058 1.2435708 0.81187838 1164 24
-8.7360668 1.2976198 0.81214142 1220 24
-8.7535353 1.3551624 0.81442106 1084 24
-8.7598066 1.4112248 0.81573623 1162 24
-8.760808 1.4665926 0.81661296 1270 24
-8.7565508 1.521173 0.81705135 1275 24
-8.7558756 1.5764625 0.81784046 1245 24
-8.7538719 1.6316185 0.81854188 1244 24
-8.7564116 1.687752 0.8196817 1300 24
-8.766407 1.7455345 0.82152289 1306 24
-8.7721195 1.802701 0.82301342 1412 24
-8.7745361 1.8593835 0.82424092 1404 24
-8.7824268 1.9174384 0.82599449 1421 24
-8.7879896 1.9752231 0.82757264 1442 24
-8.7873516 2.0318015 0.82862478 1378 24
-8.7805338 2.0870638 0.82915086 1424 24
-8.7956257 2.1477547 0.83169347 1284 24
-8.798708 2.205802 0.833184 1353 24
-8.7936907 2.2619822 0.83397311 1282 24
-8.7960196 2.3202167 0.83546364 1251 24
-8.797965 2.3785646 0.83695412 1246 24
-8.8033648 2.4380875 0.83879536 1323 24
-8.8112402 2.4985812 0.84089959 1413 24
-8.8043528 2.5550981 0.84168869 1353 24
-8.8056984 2.614176 0.8432669 1318 24
-8.810463 2.6745243 0.84519577 1354 24
-8.8167191 2.7356198 0.84730005 1260 24
-8.8168602 2.7950859 0.84887826 1307 24
-8.8222885 2.8564978 0.85098249 1310 24
-8.8272943 2.9180815 0.85308677 1169 24
-8.8290443 2.9788783 0.85492796 1132 24
-8.8303795 3.0398061 0.8567692 1141 24
-8.8294191 3.1002021 0.85843509 1243 24
-8.8280497 3.1607006 0.86010092 1277 24
-8.8318834 3.2233481 0.86229289 1309 24
-8.8352804 3.2861614 0.86448479 1240 24
-8.841033 3.3501966 0.86693978 1365 24
-8.8407545 3.4122732 0.86886871 1247 24
-8.8502455 3.4784808 0.87176204 1177 24
-8.8509312 3.5416021 0.87386626 1084 24
-8.8539429 3.6059897 0.87623358 977 24
-8.8518953 3.6686399 0.8781625 1031 24
-8.8466578 3.7302394 0.87982833 973 24
-8.8492365 3.7954466 0.88228333 1019 24
-8.8549986 3.8624189 0.88508898 1027 24
-8.8593616 3.9292004 0.88780701 1046 24
-8.8596039 3.9945424 0.89017427 1015 24
-8.8602829 4.0604501 0.89262927 1083 24
-8.8595829 4.1260953 0.89499652 1035 24
-8.8467045 4.1863446 0.89622402 1044 24
-8.8352156 4.2474542 0.89762682 944 24
-8.826889 4.310329 0.89938039 1040 24
-8.8190165 4.373704 0.90122163 1053 24
-8.8106966 4.4371438 0.90306282 1091 24
-8.8054781 4.5024605 0.90525478 1067 24
-8.790947 4.5632896 0.90656996 1102 24
-8.7804079 4.6264319 0.90832347 1128 24
-8.7773285 4.6938443 0.91086614 1136 24
-8.7702503 4.7594919 0.91305804 1075 24
-8.756588 4.8218656 0.91463625 1073 24
-8.7424898 4.8842497 0.91621447 951 24
-8.7409544 4.9540105 0.91910779 828 24
-8.7207556 5.0135093 0.92015994 902 24
-8.7139244 5.0809751 0.92261487 926 24
-8.8129129 5.2114224 0.93594182 757 24
-8.9396706 5.3606925 0.95224983 943 24
-8.920228 5.4237251 0.95365268 918 24
-8.9139156 5.4950852 0.95645833 803 24
-8.9003038 5.5623479 0.95856261 754 24
-8.8887262 5.631249 0.96092987 745 24
-8.8825045 5.7039852 0.96391094 764 24
-8.8715496 5.7741394 0.96645355 794 24
-8.860898 5.8449216 0.96908391 831 24
-8.8472271 5.9141288 0.97145116 809 24
-8.8355141 5.985064 0.97408146 764 24
-8.8306541 6.0611515 0.97750092 696 24
-8.8194666 6.1334219 0.98030657 694 24
-8.8069105 6.2052093 0.9830246 677 24
-8.8035326 6.284018 0.98679471 776 24
-8.7882175 6.3548455 0.98933733 791 24
-8.7707567 6.4245434 0.99170464 761 24
-8.7935696 6.5245395 0.99854344 141 24
-8.7605371 6.5837593 0.99933255 646 24
-8.7358274 6.6494565 1.0010861 582 24
-8.7137966 6.7175307 1.0031904 257 24
-8.7179537 6.806428 1.0082756 682 24
-8.6736822 6.8579388 1.0080127 727 24
-8.6438808 6.9209924 1.0094155 614 24
-8.5950613 6.9688811 1.0087141 409 24
-8.572156 7.0379233 1.0109936 305 24
-8.5632811 7.1190467 1.0149391 650 24
-8.5415373 7.1900606 1.0174818 140 24
-7.2850323 6.2090631 0.87728572 117 24
-7.2369933 6.2451854 0.8761459 161 24
-7.1362767 6.2350707 0.86886871 104 24
-0 0 0 4 24
-0 0 0 5 24
-0 0 0 4 24
-0 0 0 6 24
-0 0 0 4 24
-0 0 0 5 24
-0 0 0 6 24
-0 0 0 3 24
-0 0 0 4 24
-0 0 0 5 24
-2.0115535 2.0119653 0.28520066 12 24
-1.984473 2.0093839 0.28335941 6 24
-1.9762794 2.0258014 0.28388548 14 24
-0 0 0 4 24
-1.9217423 2.0188711 0.28011537 16 24
-1.8799809 1.9994143 0.27634522 50 24
-1.8642883 2.007262 0.27590686 56 24
-1.8627099 2.0304096 0.27730969 44 24
-1.858242 2.0506599 0.27836183 38 24
-1.854924 2.0724161 0.2795893 48 24
-1.854707 2.0979404 0.28125516 47 24
-1.8542461 2.1235397 0.28292105 40 24
-1.8541909 2.149966 0.28467458 37 24
-1.8545266 2.1772296 0.2865158 23 24
-1.8462619 2.1946669 0.28721723 31 24
-1.8429445 2.2182145 0.28862005 40 24
-1.8394073 2.2418039 0.29002291 30 24
-1.8306335 2.2592404 0.29072431 20 24
-1.8130031 2.2657633 0.29019827 14 24
-1.8188258 2.3018589 0.29300392 6 24
-1.8089564 2.3184738 0.29361767 4 24
-0 0 0 6 24
-0 0 0 5 24
-0 0 0 5 24
-0 0 0 4 24
-0 0 0 6 24
-2.7794209 3.846632 0.45248902 4 24
-0 0 0 6 24
-2.7291405 3.8763773 0.45205063 32 24
-2.700757 3.8865054 0.4513492 165 24
-2.6881261 3.9194348 0.45310274 141 24
-2.5886552 3.8244815 0.4412663 92 24
-2.5413511 3.8046718 0.43749619 102 24
-2.4905512 3.7786047 0.43311232 92 24
-2.4532006 3.7721021 0.43083271 109 24
-2.4084935 3.7535458 0.42732561 84 24
-2.4104555 3.8078146 0.43144643 60 24
-2.4139514 3.8656273 0.435918 43 24
-2.0877371 3.3892572 0.38515282 75 24
-2.0327697 3.3458118 0.3793661 149 24
-1.9912132 3.3231852 0.37577134 43 24
-0 0 0 4 24
-0 0 0 4 24
-1.8696786 3.254751 0.36516237 57 24
-1.8501635 3.2670286 0.36525005 136 24
-1.7805653 3.189595 0.35630697 24 24
-0 0 0 55 24
-0 0 0 47 24
-0 0 0 38 24
-0 0 0 28 24
-0 0 0 17 24
-0 0 0 8 24
-0 0 0 4 24
-0 0 0 6 24
-0 0 0 4 24
-0 0 0 5 24
-0 0 0 13 24
-0 0 0 11 24
-0 0 0 6 24
-0 0 0 8 24
-0 0 0 31 24
-0 0 0 17 24
-0 0 0 5 24
-1.1382325 2.7017443 0.29282859 6 24
-0 0 0 7 24
-0 0 0 54 24
-0 0 0 79 24
-0 0 0 89 24
-0 0 0 75 24
-0 0 0 109 24
-0 0 0 94 24
-0 0 0 100 24
-0 0 0 91 24
-0 0 0 108 24
-0 0 0 74 24
-0 0 0 97 24
-0 0 0 72 24
-0 0 0 90 24
-0 0 0 78 24
-0.81752658 2.6375887 0.27783576 322 24
-0 0 0 89 24
-0 0 0 65 24
-0 0 0 97 24
-0.74929458 2.6453557 0.27678362 59 24
-0.75109982 2.7151923 0.28274569 24 24
-0.73468512 2.7207115 0.28283337 20 24
-0.72203577 2.7405813 0.28423619 45 24
-0.69752645 2.7150495 0.28151819 21 24
-0.66271812 2.6468019 0.2749424 6 24
-0 0 0 10 24
-0 0 0 9 24
-0.60671937 2.6274915 0.27213672 9 24
-0.58535343 2.6078367 0.27003247 12 24
-0.56658429 2.5987263 0.26889268 12 24
-0.55021596 2.6002047 0.26871732 6 24
-0.53225011 2.5937734 0.26784053 7 24
-0 0 0 7 24
-0.49906367 2.593262 0.26722679 50 24
-0.48277813 2.5943165 0.26705143 63 24
-0.46685061 2.59723 0.26705143 78 24
-0.45090553 2.6000457 0.26705143 59 24
-0.42953005 2.5703392 0.2641581 18 24
-0.41375068 2.5729265 0.2641581 25 24
-0.40160304 2.5990446 0.26626235 42 24
-0.38564804 2.6014597 0.26626235 48 24
-0.37625289 2.6501322 0.27038318 6 24
-0.36306289 2.6750946 0.27239975 10 24
-0.338976 2.6179967 0.26713911 39 24
-0.33763185 2.7396584 0.27774808 6 24
-0.3198902 2.7337632 0.27704665 5 24
-0 0 0 6 24
-0.32357246 3.0941563 0.3086105 12 24
-0.27175659 2.7619898 0.27906322 15 24
-0.241198 2.6158042 0.26599932 65 24
-0.22437613 2.6083024 0.26521021 59 24
-0.20828852 2.6086371 0.26512253 58 24
-0.19220527 2.6088724 0.26503485 59 24
-0.17626084 2.6109967 0.26512253 93 24
-0.15993252 2.6070576 0.26468414 83 24
-0.14376868 2.6050057 0.26442111 78 24
-0.12753876 2.6008642 0.26398274 100 24
-0.11149269 2.5996072 0.26380739 105 24
-0.095466845 2.5982516 0.26363203 115 24
-0.079522476 2.5987883 0.26363203 89 24
-0.063696153 2.6042066 0.26407042 124 24
-0.047679648 2.6025565 0.26389506 147 24
-0.031637855 2.5968237 0.26336899 163 24
-0.015674083 2.5919881 0.2629306 183 24
0.00023226567 2.6000047 0.26363203 123 24
0.016147483 2.5939777 0.26310596 96 24
0.031951357 2.5848651 0.26231685 125 24
0.047569714 2.5716727 0.26117706 125 24
0.063175507 2.5643616 0.26056331 99 24
0.079309285 2.5768692 0.26170313 78 24
0.097259618 2.6340711 0.26678839 25 24
0.11225883 2.6065538 0.26442111 73 24
0 0 0 72 24
0 0 0 107 24
0 0 0 126 24
0 0 0 85 24
0.19076465 2.5830085 0.26275524 105 24
0.20597319 2.5738456 0.26205382 77 24
0.22141932 2.5685635 0.26170313 97 24
0.23717555 2.5671566 0.26170313 88 24
0.25292286 2.5656531 0.26170313 225 24
0.26814085 2.5590992 0.26126474 124 24
0.28614891 2.578197 0.26310596 70 24
0.30219525 2.5783713 0.26328132 61 24
0.3177658 2.5744913 0.26310596 75 24
0.33535197 2.586323 0.26433343 50 24
0.35081214 2.5812557 0.26407042 65 24
0.36748594 2.5849717 0.26459646 70 24
0.38773215 2.6122282 0.26722679 43 24
0.4020763 2.5989714 0.26626235 114 24
0.41801572 2.5964553 0.26626235 65 24
0.44858113 2.6812813 0.27406561 37 24
0.45086998 2.5970187 0.26678839 59 24
0.47650719 2.6481242 0.27161065 217 24
0.46097961 2.4747565 0.25635481 108 24
0.47540146 2.4679689 0.2560041 113 24
0 0 0 103 24
0 0 0 98 24
0 0 0 19 24
0 0 0 73 24
0.54541993 2.4279273 0.25381216 96 24
0.55963379 2.4216235 0.25354913 122 24
0.57494289 2.4200823 0.25372449 126 24
0.5904904 2.4194121 0.25398752 116 24
0.60314405 2.4070473 0.25319842 54 24
0.62063223 2.413913 0.25416288 143 24
0.63543206 2.4100595 0.25416288 109 24
0.64994794 2.4051535 0.2540752 135 24
0.66469342 2.4011204 0.2540752 76 24
0.69762462 2.4612062 0.25994956 40 24
0.70438284 2.4281793 0.25731924 5 24
0.7362811 2.4811082 0.26257989 6 24
0.7465713 2.4603395 0.26108938 15 24
0.76490128 2.4661777 0.26205382 16 24
0.78694367 2.4832778 0.26407042 10 24
0.93689132 2.8944416 0.30256075 9 24
1.0500073 3.1771064 0.32930234 152 24
1.0698005 3.1715479 0.32939002 179 24
1.0688107 3.1055849 0.32386634 24 24
0 0 0 5 24
0 0 0 5 24
1.1483366 3.1471457 0.32965305 65 24
1.1749189 3.159647 0.33149427 188 24
1.195343 3.1551728 0.33175731 197 24
1.2157565 3.1505668 0.33202034 211 24
1.2357941 3.144902 0.3321957 201 24
0 0 0 198 24
1.2780515 3.1387255 0.33307248 195 24
1.3014821 3.1409471 0.33403692 200 24
1.3226653 3.1374915 0.33447531 206 24
1.3407137 3.1265702 0.33421227 209 24
1.3618642 3.1228502 0.33465067 198 24
0 0 0 195 24
0 0 0 188 24
0 0 0 196 24
0 0 0 193 24
1.4774702 3.1228251 0.33885917 204 24
1.4974669 3.1154964 0.33903453 208 24
1.5183036 3.1098299 0.33938524 203 24
0 0 0 180 24
0 0 0 180 24
0 0 0 200 24
0 0 0 207 24
1.6366667 3.1067381 0.34385678 171 24
1.6580474 3.1010292 0.34429517 196 24
1.6813203 3.0986769 0.34508428 161 24
1.7022239 3.0917923 0.34543496 189 24
0 0 0 169 24
0 0 0 176 24
0 0 0 177 24
0 0 0 178 24
1.8271947 3.0904253 0.35078329 149 24
1.8517584 3.088553 0.35174775 166 24
1.8753326 3.0847931 0.35253683 181 24
1.8978846 3.0791638 0.35315058 204 24
1.920966 3.0742185 0.353852 158 24
0 0 0 173 24
0 0 0 202 24
1.9957033 3.0667243 0.35683304 200 24
2.0210652 3.0643995 0.35788515 183 24
2.0425982 3.0560813 0.35832354 202 24
2.0674572 3.0525627 0.35928801 177 24
2.0934772 3.0504961 0.3604278 174 24
2.1189806 3.0474069 0.36147994 172 24
2.1428034 3.0416765 0.36226901 193 24
2.1724231 3.0438757 0.3639349 199 24
2.2050686 3.0498614 0.36603916 148 24
2.2319822 3.0475245 0.36726663 155 24
2.2547946 3.0393715 0.36788037 138 24
2.2793863 3.0334423 0.36875716 167 24
2.3082137 3.0328739 0.37024766 134 24
2.3365111 3.0312765 0.37165049 161 24
2.3648756 3.0294454 0.37305334 155 24
2.3939228 3.0281613 0.37454385 166 24
2.423043 3.0266345 0.37603438 212 24
2.4459603 3.0171261 0.3766481 194 24
2.478334 3.0189986 0.37857702 337 24
2.4675167 2.9684994 0.37454385 114 24
2.4690046 2.9334896 0.37226424 96 24
2.4675717 2.8955412 0.36963391 64 24
2.4742277 2.8675258 0.36814341 86 24
2.5107841 2.8740439 0.37068605 47 24
2.5666542 2.9018574 0.37577134 53 24
2.6907489 3.0047786 0.38979971 121 24
2.72118 3.0014949 0.3913779 139 24
2.7523451 2.9986839 0.39304379 125 24
2.7788308 2.9904954 0.3940959 125 24
2.8032713 2.979918 0.394885 126 24
2.8304348 2.9720383 0.39602479 123 24
2.8596811 2.9660881 0.39742765 167 24
2.8813062 2.9520497 0.39786601 166 24
2.9154704 2.9506109 0.39988261 222 24
2.9898844 2.9890034 0.4068968 9 24
3.2038136 3.1637681 0.43109575 66 24
3.2317235 3.1523964 0.43214786 83 24
3.2667882 3.1477122 0.43407676 79 24
3.2997515 3.140656 0.43574265 79 24
3.3312991 3.1319485 0.43723315 104 24
3.3614035 3.1216161 0.4385483 94 24
3.3981135 3.1170917 0.44065258 91 24
3.4363704 3.1135714 0.44293219 90 24
3.4761961 3.1110265 0.44538715 118 24
3.5310471 3.1213036 0.44959566 74 24
3.5673928 3.1146457 0.45161223 77 24
3.605298 3.1089599 0.45380417 90 24
3.6409917 3.1009881 0.45573306 91 24
3.6729109 3.0894887 0.45722359 70 24
3.7071242 3.0796237 0.45897713 80 24
3.7421246 3.0700862 0.46081835 64 24
3.7647622 3.0502024 0.46125674 26 24
0 0 0 4 24
0 0 0 5 24
3.7857084 2.9534311 0.45739895 7 24
3.8069158 2.9325781 0.45774963 19 24
3.8232524 2.9079583 0.45757428 5 24
3.8426166 2.8856406 0.45774963 49 24
3.8738544 2.8720932 0.45924017 120 24
3.9034626 2.8570938 0.46055532 153 24
3.9427218 2.8488393 0.4629226 145 24
4.00879 2.8592966 0.46818325 163 24
4.0686169 2.8644619 0.47274247 137 24
4.1090221 2.8553581 0.47519743 132 24
4.1535764 2.8486826 0.47809079 151 24
4.1965518 2.8404505 0.48080879 143 24
4.2420673 2.8334575 0.4837898 155 24
4.2992988 2.8336859 0.48799834 173 24
4.3566909 2.8333178 0.49220684 136 24
4.406693 2.8275099 0.49562624 160 24
4.4601536 2.8233254 0.49939638 207 24
4.5018978 2.8112044 0.501939 190 24
4.5436602 2.798677 0.50448167 166 24
4.6101274 2.8007398 0.50956696 172 24
4.6725168 2.7995315 0.51421386 156 24
4.7239137 2.7910755 0.51772094 171 24
4.7598872 2.7730682 0.51964986 194 24
4.8381443 2.7790329 0.52587491 393 24
4.8499041 2.7463496 0.5253489 307 24
4.8475275 2.7058592 0.52341998 280 24
4.8500738 2.6683826 0.52201712 246 24
4.8628526 2.6366739 0.52166641 293 24
4.867517 2.6006844 0.52052665 282 24
4.8498859 2.5531383 0.51719487 199 24
4.8530798 2.516912 0.51596737 282 24
4.8613348 2.4834616 0.515266 253 24
4.8729219 2.4517958 0.51491529 279 24
4.8869815 2.4214077 0.51482761 253 24
4.9357691 2.4079711 0.51815933 271 24
4.9693089 2.3866961 0.52000058 323 24
4.9820585 2.3553085 0.51982522 288 24
4.9593854 2.3074684 0.5162304 158 24
4.9671102 2.2740924 0.51561671 233 24
4.9855113 2.2456174 0.51605505 295 24
4.9864454 2.209336 0.51482761 252 24
4.9916887 2.1751175 0.5140385 295 24
4.9857121 2.1362107 0.51219726 356 24
4.9812827 2.0982327 0.51053143 394 24
4.980257 2.0619137 0.50921625 398 24
4.9798965 2.026062 0.50798875 415 24
4.9820595 1.9914016 0.50702429 451 24
4.9728575 1.9524231 0.50500774 453 24
4.9819551 1.9207987 0.50474471 520 24
4.9917841 1.8894886 0.50456935 505 24
4.9818058 1.8508464 0.50255275 338 24
5.000556 1.8229727 0.50325418 449 24
5.0003915 1.7882311 0.50220203 340 24
5.0009294 1.75389 0.50123763 401 24
4.9993501 1.7189621 0.50009781 448 24
4.9946995 1.6831656 0.49869496 191 24
4.9633112 1.638748 0.49483716 93 24
4.956212 1.6027471 0.49325895 121 24
4.9669027 1.5726068 0.49334663 110 24
4.9992952 1.5491756 0.49545091 30 24
5.0020332 1.5164487 0.49483716 25 24
5.0055137 1.4840298 0.49431109 39 24
5.0059137 1.4507936 0.49352199 37 24
5.0060954 1.4176086 0.49273291 36 24
5.004138 1.3839451 0.49176845 40 24
5.0058031 1.3513973 0.4911547 40 24
5.0072579 1.3188813 0.49054098 39 24
5.0104318 1.2868937 0.49010259 48 24
5.0095367 1.2539498 0.48931348 38 24
5.0055227 1.2203577 0.48826137 49 24
5.0003161 1.1866323 0.48712155 49 24
4.9977965 1.1536887 0.48624477 54 24
5.0028372 1.122565 0.48606944 34 24
5.0047646 1.0907868 0.48563105 39 24
5.0055156 1.0588211 0.48510498 45 24
5.0089908 1.0274876 0.48484194 38 24
5.01227 0.99615139 0.48457891 40 24
5.0163312 0.96500176 0.48440355 36 24
5.0182405 0.93347555 0.48405284 40 24
5.0258346 0.90301877 0.48422819 32 24
5.020484 0.87029308 0.48326376 42 24
5.0168867 0.83799523 0.48247465 46 24
5.0189834 0.8067224 0.48221162 29 24
5.0149784 0.77454352 0.48142251 36 24
5.0147095 0.74302799 0.48098415 39 24
5.018188 0.71210444 0.48089647 40 24
5.0224628 0.68130004 0.48089647 42 24
5.0285249 0.65072548 0.48107183 47 24
5.0304456 0.61961538 0.48089647 36 24
5.0341525 0.58873749 0.48089647 53 24
5.0327196 0.5572896 0.48045808 51 24
5.033072 0.52608848 0.48019505 51 24
5.0342226 0.49500144 0.48001969 60 24
5.0351815 0.46392006 0.47984433 56 24
5.0349555 0.43276036 0.4795813 63 24
5.031558 0.40138346 0.47905523 67 24
5.0249853 0.36984548 0.47826615 73 24
5.0192089 0.33847022 0.47756472 91 24
5.0261626 0.30797079 0.47800311 104 24
5.0229845 0.27685133 0.47756472 97 24
5.0235934 0.24597701 0.47747704 119 24
5.024013 0.21510565 0.47738937 185 24
5.0232472 0.18420199 0.47721401 132 24
5.0332441 0.15364932 0.47800311 126 24
5.0460424 0.12305351 0.47905523 88 24
5.0526786 0.092197843 0.4795813 93 24
5.055141 0.061217424 0.47975665 76 24
5.0514369 0.030175015 0.47940594 73 24
5.051527 -0.00082058884 0.47940594 69 24
0 -0 0 75 24
5.0571132 -0.062885314 0.47993201 52 24
5.0596199 -0.093969718 0.48019505 67 24
5.0649233 -0.12516131 0.48072112 43 24
5.0680428 -0.15635993 0.48107183 55 24
5.0699744 -0.18756461 0.48133484 60 24
5.0647469 -0.21849781 0.48098415 63 24
5.0563464 -0.24922659 0.4803704 57 24
0 -0 0 51 24
5.047936 -0.31095034 0.47993201 51 24
5.0509024 -0.34225518 0.4803704 44 24
5.0576482 -0.37390214 0.48115951 54 24
5.0641952 -0.40564477 0.48194858 37 24
5.0685582 -0.4373104 0.48256233 31 24
5.0756989 -0.46932018 0.48343912 26 24
5.0707407 -0.50025952 0.48326376 38 24
5.0705481 -0.53167546 0.4835268 39 24
5.0671902 -0.5627777 0.4835268 39 24
5.0626521 -0.59374273 0.48343912 48 24
5.0618796 -0.62516195 0.48370212 47 24
5.0727663 -0.65813285 0.4850173 32 24
5.0785031 -0.69058937 0.48589408 44 24
5.0889635 -0.7238428 0.48720923 47 24
5.0962501 -0.75681126 0.48826137 47 24
5.0964327 -0.78882927 0.48869973 43 24
5.0875626 -0.81945157 0.48834905 35 24
5.0814562 -0.85048836 0.48826137 39 24
5.0938082 -0.88472128 0.48983955 23 24
5.1000481 -0.91807836 0.49089167 22 24
5.1090083 -0.95209289 0.49220684 23 24
5.1177421 -0.98625189 0.49352199 27 24
5.1233177 -1.0199701 0.49457413 25 24
5.127696 -1.0535932 0.49553859 33 24
5.1250329 -1.0858625 0.49588928 15 24
5.1202202 -1.1177137 0.49606463 34 24
5.1161814 -1.1497653 0.49632767 29 24
5.1129122 -1.1820337 0.49667838 25 24
5.1104088 -1.2145357 0.49711677 29 24
5.1096344 -1.2475241 0.49773052 38 24
5.1096134 -1.2807909 0.49843192 33 24
5.1074467 -1.3136081 0.49895799 34 24
5.1069961 -1.3469549 0.49965942 35 24
5.1015201 -1.3790456 0.49992245 38 24
5.0987225 -1.4119174 0.50044852 28 24
5.1043382 -1.4472531 0.50176364 45 24
5.1307588 -1.4888195 0.50500774 71 24
5.1253467 -1.5214074 0.50535846 127 24
5.1445103 -1.5615091 0.50798875 314 24
5.0492072 -1.5664743 0.50009781 189 24
4.9540396 -1.5703299 0.49220684 187 24
4.8902922 -1.5832049 0.48720923 171 24
4.8010392 -1.5869145 0.47984433 211 24
4.7544007 -1.6039219 0.47642493 326 24
4.7293997 -1.6278756 0.47502208 421 24
4.7399998 -1.6641252 0.47695097 384 24
4.7362642 -1.6955287 0.47756472 448 24
4.7323222 -1.7269489 0.47817847 409 24
4.7468448 -1.7653306 0.48054576 546 24
4.7312665 -1.7926582 0.48010737 415 24
4.7378345 -1.8284709 0.48177323 488 24
4.7413597 -1.8633381 0.48317608 571 24
4.736311 -1.8949863 0.4837898 542 24
4.7458134 -1.932655 0.48580641 615 24
4.7559509 -1.9708927 0.48791066 561 24
4.7575364 -2.0058436 0.4892258 600 24
4.7268295 -2.0271437 0.48747227 97 24
4.7453461 -2.0696511 0.4904533 45 24
4.7443953 -2.1039796 0.49159309 65 24
4.7450175 -2.1391933 0.49290827 60 24
4.7544417 -2.1786439 0.4951002 67 24
4.7572384 -2.2153463 0.49667838 53 24
4.7516594 -2.2483296 0.49746749 62 24
4.7476497 -2.282191 0.49843192 52 24
4.7389278 -2.3139019 0.49895799 45 24
4.7344575 -2.3478048 0.49992245 42 24
4.7333074 -2.383532 0.50123763 42 24
4.7363315 -2.4216011 0.50299114 45 24
4.7364135 -2.4584198 0.50448167 59 24
4.7353401 -2.4948659 0.50588453 35 24
4.7357545 -2.5323305 0.50746268 39 24
4.7393885 -2.5717947 0.50939161 40 24
4.7470784 -2.6138012 0.51175886 33 24
4.7526917 -2.6550267 0.51395082 34 24
4.7553768 -2.6949451 0.51587975 24 24
4.756887 -2.7344997 0.51772094 30 24
4.7606711 -2.7756793 0.51982522 31 24
4.7572694 -2.8129511 0.52122802 26 24
4.7544432 -2.8507979 0.52271855 20 24
4.7606931 -2.8944085 0.52517354 17 24
4.7793059 -2.9460444 0.52894366 12 24
4.7645183 -2.9774261 0.52929437 26 24
4.7857084 -3.031662 0.5334152 7 24
4.7753983 -3.0663524 0.53429198 16 24
4.7865486 -3.1151593 0.53744835 13 24
4.7881322 -3.1581838 0.53964031 13 24
4.791852 -3.2030056 0.54209524 10 24
4.7894273 -3.2440801 0.54393649 25 24
4.7916064 -3.2886276 0.54630375 16 24
4.7917829 -3.332186 0.54849571 30 24
4.7932329 -3.3770173 0.55086297 24 24
4.7918797 -3.4202549 0.55296725 22 24
4.7901759 -3.4636028 0.55507147 32 24
4.8025846 -3.5176539 0.55875397 18 24
4.7993097 -3.5607085 0.56077051 12 24
4.8155942 -3.6188173 0.56497902 15 24
4.8107371 -3.6615713 0.56690794 23 24
4.8189468 -3.714741 0.57032734 27 24
4.8227587 -3.7650833 0.57330835 29 24
4.8269143 -3.8162293 0.57637709 26 24
4.8251796 -3.8632088 0.57883203 20 24
4.8207283 -3.9084277 0.58102399 19 24
4.8159027 -3.953737 0.58321589 20 24
4.8145323 -4.0023179 0.58584625 34 24
4.8127456 -4.0510302 0.58847654 13 24
4.8067513 -4.0966392 0.5906685 13 24
4.8184772 -4.1579466 0.59496468 24 24
4.8108768 -4.2031651 0.59706891 18 24
4.8237929 -4.2669272 0.60162818 27 24
4.8197818 -4.3163834 0.60425848 20 24
4.8308411 -4.3800025 0.60873002 29 24
4.8346953 -4.4378552 0.61241245 27 24
4.8423982 -4.4999886 0.61662096 20 24
4.8429899 -4.5562382 0.62004042 13 24
4.8452363 -4.6147251 0.62372285 24 24
4.8483806 -4.6747928 0.62758064 28 24
4.8466921 -4.7308965 0.63091236 34 24
4.8558331 -4.798358 0.63564694 25 24
4.8572845 -4.8590627 0.63950479 30 24
4.8609729 -4.9228001 0.6437133 47 24
4.8647556 -4.9874778 0.64800948 55 24
4.8706913 -5.0552554 0.65265638 53 24
4.868423 -5.1153545 0.65633881 34 24
4.8649173 -5.1748891 0.65993357 24 24
4.8581519 -5.2316518 0.66317767 20 24
4.8656855 -5.304677 0.66835064 45 24
4.8658156 -5.3706069 0.67264682 31 24
4.8786044 -5.4515839 0.67869651 38 24
4.8793659 -5.5202289 0.68325573 47 24
4.890604 -5.6018448 0.68930548 38 24
4.8867121 -5.6672068 0.69342631 33 24
4.9144926 -5.7706518 0.70193106 23 24
4.9007916 -5.8266187 0.70491207 27 24
4.8916802 -5.8887639 0.7085945 38 24
4.9015741 -5.9748917 0.71499497 35 24
4.8999343 -6.0482011 0.7199049 34 24
4.905045 -6.1310487 0.72586691 57 24
4.9241414 -6.232945 0.73393327 52 24
4.9293041 -6.318809 0.74015832 32 24
4.925087 -6.3939199 0.74515593 36 24
4.9014397 -6.4446354 0.74743557 30 24
4.8935037 -6.5168085 0.75208247 34 24
4.8854585 -6.5899258 0.75681704 53 24
4.9367051 -6.7451839 0.7704947 368 24
4.9658098 -6.8730526 0.78110367 662 24
4.9524632 -6.9439449 0.78548753 625 24
4.9671021 -7.0556593 0.79425526 86 24
4.9924908 -7.1849914 0.80486423 52 24
4.984365 -7.2680683 0.81047559 44 24
4.9982972 -7.385139 0.8196817 19 24
4.9833164 -7.4612312 0.82450396 30 24
5.0092478 -7.6006308 0.83598965 23 24
4.9999857 -7.6888475 0.84203941 38 24
4.9995098 -7.7923269 0.84966737 55 24
4.9899597 -7.883461 0.8559801 36 24
4.9742026 -7.9663191 0.8614161 50 24
5.0103745 -8.1349468 0.87570751 25 24
4.9944968 -8.2217293 0.88149422 34 24
5.0130644 -8.3675842 0.89333063 18 24
5.0102673 -8.4805222 0.9017477 16 24
5.0147948 -8.6083717 0.91165525 23 24
5.0169477 -8.7348652 0.92138743 36 24
5.0182257 -8.8625717 0.93120724 30 24
5.0336585 -9.0184536 0.94383281 62 24
5.0430431 -9.1669998 0.95566922 32 24
5.0583882 -9.3300076 0.96890855 23 24
5.0658183 -9.4821215 0.98100799 27 24
5.052547 -9.5985317 0.98951268 23 24
5.0650907 -9.7673092 1.0031904 37 24
5.0834537 -9.9516773 1.0183586 56 24
5.0684052 -10.07434 1.0273893 47 24
5.1210241 -10.336439 1.0500977 20 24
5.1051059 -10.465256 1.0596546 34 24
5.0882297 -10.595161 1.0692991 19 24
5.0971937 -10.782888 1.0845549 43 24
5.1032023 -10.969313 1.0996355 74 24
5.1286721 -11.20331 1.1192752 33 24
5.1432781 -11.41986 1.1371614 23 24
0 -0 0 33 24
0 -0 0 136 24
5.1283321 -11.97043 1.181 126 24
5.2152371 -12.382667 1.2173861 34 24
5.1677346 -12.483464 1.2239619 17 24
5.1619782 -12.689335 1.2405329 32 24
5.1716318 -12.939999 1.2613125 56 24
5.2486486 -13.370214 1.2990137 21 24
5.2320781 -13.572263 1.3150586 25 24
5.2040558 -13.750382 1.328824 34 24
5.2156653 -14.040721 1.3531107 35 24
5.2450538 -14.389737 1.3828332 16 24
5.2284298 -14.622381 1.4015962 34 24
5.2401285 -14.943719 1.4286008 36 24
5.29568 -15.404221 1.4684939 40 24
5.2567201 -15.601626 1.4838375 38 24
5.2517548 -15.908857 1.5093516 10 24
5.337903 -16.509489 1.5619581 32 24
5.2981286 -16.736622 1.5799319 83 24
5.0942245 -16.442438 1.5498586 219 24
5.0143323 -16.54298 1.556259 126 24
4.5747309 -15.43307 1.4515723 26 24
4.4741278 -15.440757 1.449731 37 24
4.3828282 -15.480379 1.4508709 40 24
4.3005013 -15.553067 1.4550793 48 24
4.5452704 -16.840002 1.5700244 465 24
4.4322181 -16.830967 1.5666926 385 24
4.3253932 -16.844337 1.5654651 496 24
4.2192969 -16.859932 1.5645007 508 24
4.1089263 -16.857437 1.5619581 524 24
3.9996655 -16.858099 1.5597661 523 24
3.8894312 -16.853205 1.5571358 516 24
3.7815883 -16.857313 1.5553823 535 24
3.6780827 -16.880199 1.5553823 520 24
3.5668135 -16.866388 1.5521382 416 24
3.4586539 -16.865513 1.5501215 366 24
3.355104 -16.886417 1.5501215 525 24
3.2521801 -16.910599 1.5504723 452 24
3.2213795 -17.32296 1.5856309 83 24
3.2414577 -18.046371 1.6485833 115 24
3.16468 -18.262226 1.6661187 443 24
3.0446913 -18.234138 1.6619102 514 24
2.9278531 -18.221987 1.6591922 428 24
2.8126466 -18.217951 1.6572633 378 24
2.6926384 -18.179682 1.6523534 500 24
2.5790811 -18.182055 1.6511259 484 24
2.45944 -18.138309 1.6458652 357 24
1.7773676 -13.740015 1.2542106 149 24
1.7336755 -14.080883 1.2834948 29 24
1.8121371 -15.502161 1.4085227 26 24
1.7178601 -15.520909 1.4092242 23 24
1.4606425 -13.980619 1.2720091 45 24
1.7699904 -18.01133 1.6277161 472 24
1.2594734 -13.67709 1.2436893 324 24
1.1775742 -13.70838 1.2457936 776 24
1.0922519 -13.700453 1.2444783 791 24
1.0079478 -13.703917 1.2442154 781 24
0.92344147 -13.703879 1.2436893 769 24
0.83970374 -13.715253 1.2442154 867 24
0.75536853 -13.717163 1.2439523 863 24
0.67079824 -13.71358 1.243251 825 24
0.58651304 -13.714453 1.2429879 807 24
0.50246102 -13.720779 1.243251 835 24
0.41801989 -13.715639 1.2425495 846 24
0.33329767 -13.695041 1.2405329 593 24
0.24947736 -13.70878 1.241585 340 24
0.16553694 -13.724994 1.2429003 211 24
0.081189632 -13.703836 1.2409713 164 24
-0.0029159372 -13.782772 1.2478979 86 24
-0.10446243 -16.445147 1.4822593 167 24
-0.20551555 -16.45615 1.4833114 126 24
-0.30670762 -16.46653 1.4843636 126 24
-0.40776324 -16.465334 1.4844513 113 24
-0.50878495 -16.462523 1.4844513 115 24
-0.54077637 -14.59757 1.3204947 91 24
-0.5183326 -12.002425 1.0921829 100 24
-0.58686012 -11.895545 1.0830644 226 24
-0.65829259 -11.863871 1.0806094 618 24
-0.72647631 -11.785039 1.0740336 181 24
-0.80039239 -11.804213 1.0761379 239 24
-0.87743837 -11.861666 1.0816616 423 24
-0.94638222 -11.808396 1.077453 244 24
-1.0219047 -11.838095 1.0806094 278 24
-1.0920442 -11.80482 1.0782422 241 24
-1.1762999 -11.917849 1.0888511 934 24
-1.250132 -11.917341 1.0894649 1024 24
-1.323562 -11.912416 1.0897279 970 24
-1.3980236 -11.915943 1.09078 902 24
-1.4707456 -11.904175 1.090517 421 24
-1.5655614 -12.062862 1.1054221 575 24
-1.640757 -12.061913 1.1062112 642 24
-1.7141752 -12.047673 1.1058605 820 24
-1.7845525 -12.013281 1.1037563 981 24
-1.8509135 -11.954853 1.0995477 1747 24
-1.9147234 -11.884263 1.0942872 58 24
-2.3319352 -13.928601 1.2777958 141 24
-2.4134333 -13.891458 1.2757792 181 24
-2.493504 -13.847957 1.2732365 304 24
-2.2901485 -12.286119 1.134794 353 24
-2.3128791 -11.998936 1.110332 521 24
-2.3823736 -11.964003 1.1084908 903 24
-2.4557385 -11.94916 1.1084908 675 24
-2.533968 -11.957254 1.1105951 934 24
-2.611114 -11.958999 1.1121733 933 24
-2.6896877 -11.966078 1.1142776 963 24
-2.7664263 -11.963906 1.1155927 992 24
-2.8439307 -11.964151 1.1171709 678 24
-3.3802838 -13.842212 1.2889308 508 24
-3.48066 -13.88305 1.2945422 297 24
-4.4017186 -17.110651 1.5898395 144 24
-3.5829155 -13.582119 1.2711323 73 24
-3.6004012 -13.31659 1.2489499 75 24
-3.6437507 -13.156008 1.2363244 287 24
-3.7184262 -13.112319 1.2343955 357 24
-3.7616031 -12.961063 1.2226467 448 24
-3.8308525 -12.90336 1.2194904 620 24
-3.9073493 -12.871034 1.2187012 430 24
-3.6570597 -11.786014 1.120941 329 24
-3.6763201 -11.59623 1.1055098 363 24
-3.7216251 -11.493848 1.0981449 291 24
-2.3561583 -7.1276984 0.69553059 1523 24
-2.3998487 -7.1131072 0.69553059 1696 24
-2.4476643 -7.1104922 0.69667041 1319 24
-2.512701 -7.1564322 0.70236939 938 24
-0 -0 0 934 24
-0 -0 0 1259 24
-2.5849607 -6.9502492 0.6874643 1592 24
-2.6314414 -6.9445038 0.6884287 1559 24
-2.6811771 -6.9468131 0.69018227 1578 24
-2.7270312 -6.9385748 0.69097137 1643 24
-2.7677038 -6.9170876 0.69053298 1380 24
-2.7834139 -6.8344736 0.68430787 1665 24
-0 -0 0 1323 24
-2.9351981 -6.9613476 0.6997391 1754 24
-2.9833546 -6.9560232 0.7009666 1747 24
-3.0287678 -6.9439783 0.70158035 1421 24
-3.1028225 -6.9962897 0.70841914 10 24
-0 -0 0 4 24
-0 -0 0 5 24
-0 -0 0 6 24
-5.1144438 -10.807788 1.0871853 8 24
-3.7963891 -7.8970413 0.80600405 162 24
-3.850893 -7.8861299 0.80723149 214 24
-3.931078 -7.9266067 0.81354427 312 24
-3.9827774 -7.9085646 0.81415802 361 24
-4.0489163 -7.9185672 0.81757742 721 24
-4.1038532 -7.905952 0.81880492 477 24
-4.1611094 -7.8973665 0.82047081 62 24
-5.1899447 -9.7049322 1.0034534 10 24
-5.2555728 -9.6842861 1.0045933 17 24
-5.3533382 -9.7216625 1.0116074 20 24
-5.6043258 -10.031261 1.0461522 72 24
-5.6343336 -9.9412212 1.0405409 68 24
-5.6286926 -9.7907419 1.0287921 103 24
-5.6445026 -9.680294 1.0210766 88 24
-5.6540999 -9.56145 1.0124842 119 24
-5.6511822 -9.4240608 1.0019629 118 24
-5.6271262 -9.2547274 0.98810989 109 24
-5.6362338 -9.1428623 0.98013121 99 24
-5.6325674 -9.0126524 0.97022367 72 24
-5.6371136 -8.8979826 0.96189433 63 24
-5.6512327 -8.8003626 0.95531851 81 24
-5.6616502 -8.6987324 0.94830436 106 24
-5.6551275 -8.5731936 0.93874753 67 24
-5.6832652 -8.501895 0.93488973 63 24
-5.7001271 -8.4149055 0.92936605 137 24
-5.7657461 -8.4003038 0.93155795 157 24
-5.848464 -8.4097471 0.93638021 148 24
-5.9418416 -8.4331474 0.94278067 154 24
-6.0224128 -8.437068 0.94716454 162 24
-6.0962505 -8.4306297 0.95049626 149 24
-6.1802425 -8.4372635 0.95531851 124 24
-6.2592015 -8.4359818 0.95935172 135 24
-6.3443618 -8.4420109 0.96426165 132 24
-6.4322433 -8.4504814 0.96952224 162 24
-6.5137763 -8.4495115 0.97381848 153 24
-6.6090255 -8.4651308 0.98004353 125 24
-6.6904993 -8.4619265 0.98425204 158 24
-6.7759175 -8.4627047 0.98898661 144 24
-6.8578315 -8.4581089 0.99319512 146 24
-6.9532175 -8.4689922 0.99924487 87 24
-7.0044146 -8.4254026 0.99915719 101 24
-6.9648819 -8.2740526 0.98670703 185 24
-6.9767475 -8.1856737 0.98144639 136 24
-6.9910464 -8.1012335 0.97662413 155 24
-7.0176821 -8.0319309 0.97355545 121 24
-7.1579189 -8.0916805 0.98565489 11 24
-7.2419939 -8.0861931 0.99021411 17 24
-7.3229232 -8.0762882 0.99433494 12 24
