# .PCD v0.7 - Point Cloud Data file format
VERSION 0.7
FIELDS x y z intensity ring
SIZE 4 4 4 4 1
TYPE F F F F U
COUNT 1 1 1 1 1
WIDTH 1401
HEIGHT 1
VIEWPOINT 0 0 0 1 0 0 0
POINTS 1401
DATA ascii
-4.8997293 1.6529617 1.8952291 241 2
-4.8948317 1.6848322 1.8972645 247 2
-4.8844013 1.7148346 1.8972645 240 2
-4.8764443 1.7457238 1.8982822 238 2
-4.8682919 1.77658 1.8992999 226 2
-4.8590627 1.8070737 1.8999783 235 2
-4.8478832 1.8368543 1.8999783 223 2
-4.837399 1.8669046 1.9003175 254 2
-4.8346076 1.8999926 1.9037098 195 2
-4.8027711 1.9215827 1.8959075 157 2
-4.8205109 1.9630811 1.9074414 211 2
-4.8109822 1.9937028 1.9084591 175 2
-4.7821894 2.0162399 1.9020137 233 2
-4.7809668 2.0503659 1.9064237 153 2
-4.7665715 2.0789104 1.9057451 630 2
-4.7795234 2.119561 1.9159222 513 2
-4.1738596 1.8816468 1.6815138 181 2
-4.9960194 2.2893651 2.0122635 285 2
-4.9716454 2.3152106 2.0081928 345 2
-4.94034 2.3376243 2.0014081 205 2
-4.8987737 2.3548501 1.9905528 136 2
-4.9349499 2.4096327 2.0109067 292 2
-4.9217572 2.4407036 2.011585 303 2
-4.9075289 2.4712801 2.0119243 316 2
-4.8981357 2.5043437 2.0142989 347 2
-4.8876867 2.5369515 2.0163343 340 2
-4.879518 2.5708411 2.0193875 354 2
-4.8437433 2.5900853 2.011246 437 2
-4.8261061 2.6188598 2.0105674 282 2
-4.8223066 2.6552298 2.015656 317 2
-4.7656841 2.6622858 1.9990336 204 2
-4.7909966 2.7151346 2.0163343 277 2
-4.7897415 2.7533894 2.0227797 353 2
-4.7686934 2.7803574 2.0210836 323 2
-4.7418275 2.8038189 2.0170128 330 2
-4.7116261 2.8251204 2.011585 293 2
-4.6741085 2.8417585 2.0031044 214 2
-3.5875771 2.211328 1.5502316 7 2
-3.5763342 2.2347951 1.5512493 5 2
-3.5387154 2.2415931 1.5410724 7 2
-4.6441202 2.9820442 2.0207443 30 2
-4.630466 3.0135629 2.0227797 263 2
-4.606391 3.0382922 2.0204051 268 2
-4.5868797 3.0659764 2.0200658 248 2
-4.5648656 3.0919528 2.0187089 229 2
-4.5434813 3.1183069 2.0176914 277 2
-4.524262 3.1461265 2.0176914 237 2
-4.5071797 3.1754532 2.0187089 237 2
-4.4799542 3.1975834 2.0153167 181 2
-4.4129891 3.1908345 1.9942844 98 2
-4.3993983 3.2222993 1.9969982 148 2
-4.424871 3.2828662 2.0173521 270 2
-4.3948684 3.3026078 2.0129421 363 2
-4.3550601 3.3146975 2.004122 361 2
-4.3011141 3.3155107 1.9888567 290 2
-4.2628946 3.327945 1.9807152 290 2
-4.2069755 3.3260326 1.9644321 284 2
-4.1600533 3.3306162 1.9522197 282 2
-4.109581 3.3317876 1.9383113 275 2
-4.0577979 3.3312719 1.9237244 282 2
-4.0032835 3.3278415 1.9077805 246 2
-3.9583209 3.3317444 1.8962468 200 2
-3.9170415 3.3382728 1.886409 208 2
-3.8744075 3.3431914 1.8758929 235 2
-3.8155687 3.333477 1.8575745 166 2
-2.5690992 2.272274 1.2673134 45 2
-2.5466995 2.2804635 1.2632426 61 2
-2.522903 2.2872002 1.2584934 55 2
-2.4977338 2.2924588 1.2530657 63 2
-2.4698393 2.2949331 1.246281 71 2
-2.446805 2.3016646 1.2418711 54 2
-2.4237814 2.3081999 1.2374611 75 2
-2.4149899 2.3282523 1.2401749 81 2
-2.4080632 2.350255 1.2439065 50 2
-2.3942661 2.3656476 1.2442456 31 2
-2.391011 2.3916047 1.2500126 14 2
-2.3723257 2.4022143 1.2479773 37 2
-2.3634527 2.4227865 1.2510303 56 2
-2.3387523 2.4270806 1.2459419 25 2
-2.3238161 2.4413853 1.2459419 29 2
-2.306215 2.4528563 1.2445849 16 2
-2.2879207 2.4635141 1.2428888 20 2
-3.072644 3.3496501 1.6696408 72 2
-3.043191 3.3586802 1.6648915 121 2
-3.0168798 3.3709805 1.6618384 106 2
-2.9892864 3.3816748 1.6581069 116 2
-2.9517775 3.3808186 1.6489477 96 2
-2.9186921 3.3846178 1.642163 102 2
-2.889941 3.393152 1.6377531 100 2
-2.8618009 3.4021811 1.6336824 91 2
-2.8276484 3.4037566 1.6262193 112 2
-2.8090966 3.4239521 1.6275761 91 2
-2.784482 3.436738 1.6255407 89 2
-2.7539401 3.4420054 1.6201131 80 2
-2.7246048 3.448504 1.6153638 66 2
-2.6987653 3.459223 1.61265 92 2
-2.6763411 3.4742265 1.6119716 85 2
-2.6549733 3.4905829 1.6119716 89 2
-2.6368945 3.5113213 1.614007 105 2
-2.6136191 3.5251677 1.6129893 102 2
-2.5908289 3.5396202 1.6123108 125 2
-2.5580437 3.5401998 1.6055262 115 2
-2.5346348 3.5535314 1.6045085 106 2
-2.5100756 3.5651705 1.6028123 116 2
-2.4935205 3.5882304 1.6062046 109 2
-2.5033765 3.650012 1.6265584 34 2
-1.6331487 2.4125571 1.0810758 24 2
-1.6141353 2.4162743 1.078362 27 2
-1.601867 2.4300604 1.0800581 12 2
-1.5766703 2.4240706 1.0732735 34 2
-1.5582111 2.4281569 1.0708989 23 2
-1.5382521 2.4297233 1.0675066 34 2
-1.5168381 2.4287429 1.0630966 54 2
-1.495001 2.4267902 1.0583473 35 2
-0 0 0 23 2
-0 0 0 21 2
-0 0 0 25 2
-1.4174753 2.432673 1.0457958 42 2
-1.3879989 2.4160364 1.0352796 62 2
-1.3856621 2.44661 1.044439 29 2
-0 0 0 25 2
-0 0 0 23 2
-0 0 0 22 2
-0 0 0 30 2
-0 0 0 37 2
-1.7142762 3.3051755 1.3731533 113 2
-1.6888289 3.3055789 1.3690826 112 2
-1.6634415 3.3057947 1.3650117 126 2
-1.6410383 3.3117244 1.3633156 115 2
-1.6194499 3.319195 1.3622979 124 2
-1.610455 3.3528132 1.3717964 61 2
-0 0 0 31 2
-0 0 0 52 2
-1.5676528 3.4238007 1.3884187 56 2
-1.5446839 3.4290664 1.3867224 34 2
-0 0 0 3 2
-0 0 0 3 2
-0 0 0 5 2
-1.1194181 2.6570694 1.0702205 5 2
-0 0 0 9 2
-0 0 0 35 2
-0 0 0 45 2
-0 0 0 65 2
-0 0 0 47 2
-0 0 0 23 2
-0 0 0 32 2
-0 0 0 26 2
-0 0 0 80 2
-0 0 0 51 2
-0 0 0 41 2
-0 0 0 32 2
-0 0 0 45 2
-0 0 0 40 2
-0 0 0 40 2
-0.81795752 2.6389799 1.026799 28 2
-0 0 0 33 2
-0 0 0 23 2
-0 0 0 31 2
-0.76652801 2.7062309 1.0447781 17 2
-0 0 0 5 2
-0.74306518 2.7517619 1.0583473 10 2
-0.70221323 2.6652999 1.0244243 41 2
-0.68350655 2.6604469 1.021032 34 2
-0.65620852 2.6207876 1.0047489 120 2
-0 0 0 64 2
-0 0 0 61 2
-0.59939653 2.5957577 0.9911797 87 2
-0.58016372 2.5847003 0.98575205 98 2
-0.56249112 2.5799391 0.98269898 104 2
-0.54626113 2.5815012 0.9820205 73 2
-0.52927727 2.5792754 0.97998512 82 2
-0.51197475 2.575093 0.97727126 86 2
-0.49456593 2.5698719 0.97421819 81 2
-0.4787882 2.5728581 0.97421819 58 2
-0.46199471 2.5701921 0.97218281 77 2
-0.44669741 2.5757592 0.9732005 49 2
-0.43088445 2.5784516 0.9732005 51 2
-0.41550291 2.5838332 0.97421819 70 2
-0.40121961 2.5965607 0.97794974 87 2
-0.383764 2.5887375 0.97421819 48 2
-0.36892933 2.5984945 0.97693205 49 2
-0.3585389 2.6417251 0.99185818 32 2
-0.35511222 2.7427664 1.0278167 14 2
-0.33781654 2.741159 1.0264597 29 2
-0.32372066 2.7665389 1.0349405 20 2
-0.30777404 2.777823 1.0383327 26 2
-0.29365554 2.8077276 1.0485097 44 2
-0.27191508 2.763603 1.0318874 25 2
-0.24701926 2.679039 1.0006782 22 2
-0.22840324 2.6551983 0.99151897 29 2
-0.20986497 2.628418 0.98134202 23 2
-0.19269869 2.6155837 0.97625357 27 2
-0.17582428 2.6045153 0.9718436 27 2
-0.15989743 2.6064842 0.97218281 22 2
-0.14431491 2.6149304 0.97489667 93 2
-0.12799169 2.6101291 0.97286129 61 2
-0.11185333 2.6080458 0.9718436 67 2
-0.09584856 2.6086831 0.9718436 81 2
-0.07969702 2.6045208 0.97014743 86 2
-0.063645899 2.6021395 0.96912974 88 2
-0.047609918 2.5987189 0.96777284 83 2
-0.031640947 2.5970807 0.96709436 81 2
-0.015704965 2.5972259 0.96709436 80 2
0.00022844967 2.5841036 0.96234512 61 2
0.016006235 2.5718246 0.95793515 36 2
0.031715736 2.5660343 0.95589972 25 2
0.047407407 2.5629697 0.95488203 33 2
0.063202538 2.5654519 0.95589972 38 2
0.079204395 2.573478 0.95895284 33 2
0.095620774 2.5898647 0.96505898 37 2
0.11480012 2.665355 0.99253666 11 2
0.13300762 2.7021828 1.0061059 15 2
0.15813762 2.8553541 1.0617397 56 2
0.16586798 2.6956525 1.0044097 20 2
0 0 0 19 2
0.1921314 2.6014767 0.97116512 41 2
0.20643613 2.5796194 0.96370202 44 2
0.22266516 2.5829904 0.96539819 36 2
0.23738301 2.5693984 0.96098822 42 2
0.25351378 2.5716381 0.96234512 30 2
0.26948464 2.5719051 0.9630236 126 2
0.28442919 2.5627236 0.96030974 90 2
0.30003878 2.5599959 0.95997053 89 2
0.31551021 2.5562396 0.95929205 87 2
0.33106795 2.5533226 0.95895284 102 2
0.34698227 2.5531075 0.95963126 99 2
0.36277387 2.5518615 0.95997053 79 2
0.37842494 2.5495877 0.95997053 62 2
0.3940618 2.5472176 0.95997053 80 2
0.40908518 2.5410368 0.95861357 69 2
0.42358148 2.5319846 0.95623899 50 2
0.44055891 2.5376792 0.95929205 110 2
0.45345381 2.5201151 0.95386434 33 2
0.46839121 2.5145111 0.95284665 64 2
0.48363304 2.5106661 0.95250744 52 2
0 0 0 59 2
0 0 0 44 2
0 0 0 55 2
0 0 0 61 2
0.55670571 2.4781289 0.9464013 60 2
0.57126486 2.4719169 0.94538361 78 2
0.58533365 2.463789 0.94368744 63 2
0.60021698 2.4592373 0.94334823 44 2
0.61506647 2.4545958 0.94300896 64 2
0.63058478 2.4525976 0.94368744 38 2
0.64634168 2.451411 0.94470513 43 2
0.66186219 2.4492152 0.94538361 30 2
0.67738003 2.4469211 0.94606209 44 2
0.69366467 2.4472437 0.9477582 39 2
0.70997876 2.4474585 0.94945437 37 2
0.72605371 2.4466631 0.95081127 59 2
0.74269223 2.4475629 0.95284665 61 2
0.75936908 2.4483504 0.95488203 56 2
0.7757991 2.4481285 0.9565782 56 2
0.79138559 2.4451122 0.95725667 54 2
0.81375599 2.462539 0.9657374 107 2
0.8258428 2.4485865 0.96234512 23 2
0 0 0 5 2
0 0 0 5 2
1.1327194 3.1645072 1.2425495 50 2
1.1534053 3.161032 1.2439065 78 2
1.1721234 3.1521318 1.243228 91 2
1.1924427 3.1475196 1.2442456 74 2
1.2134268 3.1445315 1.2459419 101 2
1.2333868 3.1387777 1.2466203 111 2
0 0 0 82 2
1.2767795 3.1356027 1.2513695 102 2
1.297436 3.1311855 1.2527264 83 2
1.3202795 3.1318336 1.2561188 76 2
1.3413253 3.1279962 1.2578149 88 2
1.3608693 3.1205692 1.2581542 90 2
0 0 0 86 2
0 0 0 108 2
0 0 0 83 2
1.4549152 3.1246054 1.2734195 84 2
1.476072 3.1198709 1.2751156 93 2
1.4964103 3.1132987 1.2761333 123 2
1.5200258 3.1133564 1.2798649 95 2
0 0 0 106 2
1.5593865 3.0969894 1.2808826 117 2
1.57836 3.0873628 1.2808826 108 2
0 0 0 130 2
1.6218288 3.0785804 1.2852926 117 2
1.6486738 3.0835025 1.2913988 160 2
1.6760885 3.0890372 1.2978441 142 2
1.7027253 3.0927029 1.303611 120 2
1.726717 3.0912304 1.3073425 137 2
1.7456518 3.0805771 1.3073425 146 2
1.7682722 3.0763323 1.3100564 123 2
1.7923275 3.0743635 1.3137879 146 2
1.8202559 3.0786924 1.3202333 97 2
1.8449179 3.0771465 1.3243041 119 2
1.8696291 3.0754137 1.3283749 107 2
1.8958695 3.0758953 1.3334633 100 2
1.9221858 3.0761702 1.3385518 100 2
1.9490801 3.0770321 1.3439795 95 2
1.9735154 3.0737216 1.347711 102 2
1.9949042 3.0654967 1.3494072 104 2
2.0152302 3.0555542 1.3504249 89 2
2.0391688 3.0509517 1.3538171 101 2
2.0662923 3.0508432 1.3592448 129 2
2.0956206 3.0536187 1.3660294 104 2
2.1213002 3.0507424 1.3704394 139 2
2.1437724 3.0430517 1.3728141 112 2
2.1706021 3.0413251 1.3779025 96 2
2.1980424 3.0401454 1.3833302 113 2
2.2211022 3.0326722 1.386044 109 2
2.2520008 3.0356066 1.3935071 104 2
2.2807579 3.0352674 1.3996133 97 2
2.3084557 3.0331919 1.405041 84 2
2.335639 3.0301452 1.4101294 108 2
2.3593981 3.0224302 1.4131825 82 2
2.3831501 3.0145373 1.4162356 98 2
2.4080698 3.0079353 1.4199671 94 2
2.4359605 3.0047939 1.4253948 118 2
2.463903 3.0014229 1.4308225 117 2
2.4936996 2.9999919 1.4372679 100 2
2.5247827 2.999747 1.4443917 129 2
2.5577867 3.0013809 1.4525332 105 2
2.5847592 2.9956002 1.4572824 159 2
2.6086621 2.9860594 1.4603355 165 2
2.638778 2.9833837 1.4667809 113 2
2.6727242 2.9846544 1.4752617 102 2
2.707417 2.9863172 1.4840816 98 2
2.7415941 2.9869728 1.4925624 103 2
2.7713974 2.9824975 1.4986686 87 2
2.799315 2.9757133 1.503757 108 2
2.8304973 2.9721038 1.5105417 104 2
2.863699 2.9702547 1.5183439 96 2
2.8923843 2.9633975 1.5237716 114 2
2.9191091 2.9542925 1.5281817 116 2
2.9544802 2.9536161 1.5370016 108 2
2.9886131 2.9512944 1.5451431 123 2
3.029563 2.9552324 1.556677 103 2
3.0693178 2.9574728 1.5675324 113 2
3.1092134 2.9593358 1.5783877 139 2
3.1382797 2.950511 1.5838155 131 2
3.1687334 2.9427207 1.5899216 160 2
3.1985154 2.9340315 1.5956885 155 2
3.2255213 2.9225609 1.6000985 144 2
3.2560117 2.9140058 1.6062046 176 2
3.2456357 2.8690536 1.5926354 126 2
3.2142804 2.8063991 1.5692285 92 2
3.2043662 2.7632816 1.5563377 93 2
3.1489236 2.6819694 1.5220755 64 2
3.1430025 2.6438274 1.5115594 64 2
3.217057 2.6725769 1.5386977 59 2
3.2639422 2.6778443 1.5529455 100 2
3.2671545 2.6471083 1.5468394 46 2
3.2025311 2.5623722 1.509524 65 2
3.1384704 2.4796975 1.472887 90 2
3.0965126 2.4158435 1.4467663 118 2
3.0941362 2.3835959 1.438964 113 2
3.1064572 2.3628576 1.4379463 110 2
3.1193924 2.3426225 1.4372679 91 2
3.1110363 2.3066323 1.4270909 93 2
3.1084299 2.2752779 1.4196279 112 2
3.1185195 2.2534077 1.4179317 90 2
3.136883 2.2375076 1.4199671 51 2
4.0436344 2.8468761 1.8138137 36 2
3.1610143 2.1966977 1.4186102 25 2
3.1697786 2.1740687 1.4165748 44 2
3.1830587 2.1545784 1.4165748 43 2
3.201695 2.138664 1.4189494 31 2
3.2147574 2.1189785 1.4189494 28 2
3.2166576 2.0920341 1.4142002 53 2
4.3901763 2.8169138 1.9115121 64 2
3.2444725 2.0539124 1.4152179 53 2
3.2490346 2.0289841 1.4118255 37 2
3.2702339 2.0144365 1.4155571 45 2
3.2744927 1.989449 1.4121648 28 2
3.2842171 1.9678694 1.4111471 31 2
3.2962298 1.9476808 1.4111471 41 2
3.3146214 1.9312067 1.4138609 67 2
3.3166196 1.9052104 1.4097902 72 2
3.2987776 1.868139 1.3975779 54 2
3.2288563 1.8024771 1.363994 118 2
3.2423282 1.7839915 1.3650117 117 2
3.2540405 1.7645116 1.365351 136 2
3.2565086 1.7400795 1.3619586 133 2
3.2746162 1.7240086 1.3650117 170 2
3.2692659 1.6956558 1.3585664 127 2
3.2628536 1.6670061 1.3517817 124 2
3.2654574 1.6431495 1.3487287 144 2
3.2704206 1.6205766 1.3466933 128 2
3.2701569 1.5955304 1.3426225 138 2
3.2722533 1.5717701 1.3395694 130 2
3.2724805 1.5472404 1.335838 97 2
3.2759421 1.5243542 1.3334633 106 2
3.2749696 1.4995264 1.3293926 104 2
3.277247 1.4763131 1.3266788 91 2
3.2845235 1.4554145 1.3260002 108 2
3.2942543 1.4356093 1.3263395 52 2
4.9502592 2.1210232 1.9725736 232 2
4.9536438 2.0865929 1.968842 407 2
4.9489698 2.0489631 1.9620575 530 2
4.9492497 2.0135961 1.9573083 543 2
4.95365 1.9800482 1.9542551 506 2
4.9455657 1.9417102 1.9464529 640 2
4.9529982 1.9096366 1.9447567 684 2
3.505017 1.3268428 1.3819733 46 2
3.5236745 1.309242 1.386044 60 2
4.9219055 1.794307 1.9196537 240 2
4.9717975 1.7780077 1.9345797 458 2
4.6781268 1.6407058 1.8182237 85 2
4.6854372 1.6110531 1.817206 102 2
4.6898851 1.5804714 1.8151706 103 2
4.6825218 1.5460626 1.8087252 94 2
4.6928153 1.5175914 1.8090645 61 2
4.6876893 1.4842261 1.8036368 41 2
4.6850266 1.4518162 1.7992268 48 2
4.6902456 1.4219507 1.7978699 37 2
4.6925688 1.3912739 1.7954953 31 2
4.6928854 1.3600985 1.7924422 47 2
4.6939011 1.3292279 1.7897284 37 2
4.6938086 1.2981455 1.7866753 43 2
4.693512 1.2671145 1.7836223 45 2
4.6930108 1.236136 1.7805691 47 2
4.6950407 1.2059132 1.7785337 47 2
4.6932259 1.1747987 1.7751415 51 2
4.6902924 1.1435293 1.7714099 56 2
4.6898985 1.1129916 1.7686961 62 2
4.6948061 1.0837709 1.7680176 47 2
4.6986136 1.0543261 1.767 64 2
4.7077522 1.0260768 1.7680176 41 2
4.7139592 0.99717128 1.7680176 43 2
4.7218323 0.96860611 1.7686961 31 2
4.725841 0.93924868 1.7680176 42 2
4.7278204 0.90952325 1.7666607 45 2
4.725913 0.87912107 1.7639469 44 2
4.7275147 0.84944171 1.7625899 44 2
4.7233691 0.81881219 1.7591976 74 2
4.7190256 0.78826559 1.7558053 69 2
4.7209873 0.75884771 1.7547876 76 2
4.7246246 0.7297225 1.7544484 83 2
4.7262216 0.70030558 1.7534307 65 2
4.7239099 0.67036819 1.7510561 63 2
4.7251377 0.64099109 1.7500384 60 2
4.7261829 0.61162412 1.7490207 67 2
4.729847 0.58261329 1.7490207 66 2
4.7314639 0.55336219 1.7483423 76 2
4.7338352 0.52421659 1.748003 91 2
4.7360272 0.49506271 1.7476637 106 2
4.7380395 0.4659017 1.7473246 108 2
4.7436194 0.43707955 1.7483423 167 2
4.7490234 0.40820649 1.74936 221 2
4.7429996 0.37838674 1.7463069 230 2
4.7349119 0.34851837 1.7425753 235 2
4.7397771 0.31964859 1.743593 271 2
4.7463436 0.29084715 1.7452892 298 2
4.764946 0.26264921 1.7513953 451 2
4.759891 0.23308557 1.7490207 472 2
4.751833 0.20347337 1.7456284 426 2
4.7548723 0.17438164 1.7463069 387 2
4.756793 0.14523165 1.746646 317 2
4.7585349 0.11606464 1.7469853 249 2
4.7657413 0.086984254 1.74936 200 2
4.7671261 0.057751898 1.7496991 174 2
4.7749162 0.028544646 1.752413 155 2
4.770298 -0.00075309869 1.7507168 164 2
4.768322 -0.030011088 1.7500384 111 2
4.7671075 -0.059256628 1.7496991 144 2
4.7770004 -0.088698886 1.7534307 114 2
4.7820086 -0.11814821 1.7554661 101 2
4.7821341 -0.14751692 1.7558053 89 2
4.7754984 -0.17664766 1.7537699 84 2
4.7743244 -0.20594624 1.7537699 77 2
4.7663941 -0.23491238 1.7513953 56 2
4.7658024 -0.26420614 1.7517345 68 2
4.7678471 -0.29367524 1.7530915 91 2
4.7668939 -0.32298833 1.7534307 105 2
3.8595195 -0.28523377 1.4260732 11 2
0 -0 0 5 2
3.8857193 -0.33516443 1.4369286 11 2
3.9032605 -0.36082083 1.4440525 8 2
3.90659 -0.38531855 1.4460878 8 2
3.9359615 -0.41261953 1.4576217 8 2
3.9511194 -0.43873668 1.4640671 11 2
3.9689074 -0.46538424 1.4715301 16 2
1.1072906 -0.13644639 0.43280628 33 2
1.1064327 -0.14323802 0.43280628 25 2
3.9978855 -0.54355979 1.4854386 39 2
3.9572222 -0.56277847 1.4718693 6 2
3.9788179 -0.59078181 1.4810286 59 2
3.9769773 -0.61547214 1.4817071 36 2
3.9582665 -0.63746828 1.4762794 13 2
3.9422193 -0.65972406 1.4718693 8 2
0 -0 0 4 2
0 -0 0 6 2
3.9164612 -0.72976196 1.4671202 5 2
3.908215 -0.75306684 1.4657632 6 2
3.8638496 -0.76913208 1.4511763 5 2
0 -0 0 5 2
0 -0 0 6 2
4.8002496 -1.0478411 1.8022798 23 2
4.7964835 -1.0778941 1.8032975 24 2
4.8007774 -1.1098479 1.8073684 20 2
1.1202819 -0.26593095 0.44569704 37 2
1.1186291 -0.27279988 0.44569704 20 2
0 -0 0 4 2
0 -0 0 4 2
4.8281446 -1.2733866 1.8311145 25 2
4.8111591 -1.300532 1.8277222 14 2
4.8339124 -1.3385662 1.839256 35 2
4.8120327 -1.3643513 1.8341676 26 2
4.7954397 -1.3914917 1.8311145 22 2
1.108405 -0.32869861 0.44739321 86 2
1.1054671 -0.33522016 0.44705397 102 2
1.1033895 -0.34199688 0.44705397 85 2
1.1156176 -0.35330972 0.45248166 14 2
1.1187984 -0.36188725 0.45451704 47 2
4.8329682 -1.597471 1.8660553 32 2
3.6099825 -1.2177469 1.4043624 23 2
3.6006637 -1.2392619 1.403684 19 2
4.6855865 -1.645017 1.8212768 33 2
4.569128 -1.6356812 1.7805691 102 2
4.5342627 -1.6546545 1.7710707 134 2
4.529315 -1.6844128 1.7731061 81 2
4.5312095 -1.7168398 1.7778553 47 2
3.5561204 -1.3723077 1.405041 30 2
3.5572634 -1.3978873 1.4087725 49 2
3.5556061 -1.422484 1.4114864 53 2
3.542455 -1.4424998 1.4097902 44 2
3.5317993 -1.4634882 1.4091117 57 2
4.5056858 -1.8996373 1.7937992 31 2
3.5153031 -1.5074604 1.4097902 63 2
3.505125 -1.5286254 1.4094509 29 2
3.4982593 -1.5512478 1.4104687 36 2
3.4929631 -1.574617 1.4121648 33 2
3.4866562 -1.5975876 1.4135218 37 2
3.4699662 -1.6157737 1.4108078 27 2
3.4684894 -1.6410587 1.4142002 42 2
3.4566593 -1.6614949 1.4135218 29 2
3.4531617 -1.6859757 1.4162356 32 2
3.4469655 -1.7092221 1.4179317 33 2
3.436413 -1.7303401 1.4179317 20 2
3.4265687 -1.7518213 1.4182709 29 2
3.41659 -1.7732468 1.4186102 35 2
3.403981 -1.7933 1.4179317 51 2
3.3854475 -1.8101599 1.4148786 33 2
3.3717966 -1.8295524 1.4138609 35 2
3.3646274 -1.8524759 1.4155571 31 2
3.3540187 -1.8735448 1.4158963 30 2
3.3506434 -1.8987281 1.4192886 17 2
3.3332212 -1.9159694 1.416914 40 2
3.3214023 -1.9363855 1.416914 39 2
3.3046002 -1.9538558 1.4148786 55 2
3.2957764 -1.9760308 1.4162356 79 2
3.2932348 -2.0020812 1.4203063 77 2
3.2993057 -2.0336049 1.4281086 56 2
3.3106968 -2.0687683 1.4382856 58 2
3.3114495 -2.0976021 1.4440525 65 2
3.3190966 -2.131098 1.4528724 70 2
3.335917 -2.1709242 1.4657632 65 2
3.3555133 -2.2131085 1.4800109 52 2
3.4834204 -2.3282852 1.5414116 32 2
3.4745202 -2.3533084 1.5437863 40 2
3.4700975 -2.3815043 1.5481962 35 2
3.4585087 -2.4049001 1.5495532 46 2
3.4498394 -2.4304106 1.552267 33 2
3.4463463 -2.4597311 1.5573554 41 2
3.4365246 -2.4846897 1.5597301 118 2
3.4037602 -2.4929433 1.5519278 94 2
3.4027531 -2.5244319 1.5583731 56 2
3.3984792 -2.553741 1.5634617 42 2
3.3827457 -2.5745456 1.5634617 41 2
3.36465 -2.5935302 1.5624439 26 2
3.351639 -2.6164422 1.5638008 32 2
3.3421626 -2.6422095 1.5668539 40 2
3.3317618 -2.6673706 1.5695678 60 2
3.3306768 -2.7002058 1.5766916 70 2
3.3227704 -2.7277551 1.5807624 60 2
3.3160975 -2.7565114 1.5855116 64 2
3.3106358 -2.7865 1.5909393 77 2
4.6494269 -3.9625394 2.2334418 51 2
4.619328 -3.9860764 2.2307281 87 2
4.6103673 -4.0279622 2.2381911 65 2
4.5771108 -4.0486956 2.2341204 71 2
4.5584888 -4.0823526 2.2371733 83 2
4.5403228 -4.1165652 2.2405658 80 2
4.5115137 -4.1411657 2.2388697 77 2
4.4894643 -4.1719718 2.2405658 76 2
4.4822793 -4.216845 2.2497249 56 2
4.4549584 -4.2429709 2.2490466 61 2
4.4051399 -4.2473717 2.2371733 82 2
4.3736105 -4.2690639 2.2344596 87 2
4.3546939 -4.3030934 2.2381911 88 2
4.3355236 -4.3370509 2.2419226 72 2
4.3094912 -4.3642411 2.2422619 62 2
4.2570162 -4.364337 2.2290318 85 2
4.2301569 -4.3903751 2.2290318 93 2
4.2102718 -4.4237442 2.2327635 93 2
4.1894922 -4.4563489 2.2361557 69 2
4.1524687 -4.4716311 2.2310672 81 2
4.1395769 -4.5129714 2.2388697 67 2
4.1086502 -4.5348005 2.2371733 68 2
4.0832572 -4.5627294 2.2385304 43 2
4.0396094 -4.5700765 2.2300496 57 2
4.020153 -4.6046982 2.2347989 37 2
3.9697096 -4.6036305 2.2225864 58 2
3.9401677 -4.6264691 2.2219081 58 2
3.9353199 -4.6786361 2.2351379 36 2
3.8999267 -4.6947346 2.2314065 55 2
3.8871551 -4.7382131 2.2405658 36 2
3.8556404 -4.7590513 2.2392087 44 2
3.8246038 -4.7804155 2.2381911 50 2
3.7917011 -4.7993641 2.2361557 46 2
3.7471385 -4.8032541 2.2273357 55 2
3.7279279 -4.8395705 2.2334418 39 2
3.6975932 -4.8616047 2.2331026 39 2
3.6620452 -4.8766785 2.2297103 44 2
3.6342943 -4.9020796 2.2310672 41 2
3.5913696 -4.9068265 2.2232649 54 2
3.5567873 -4.9226704 2.220551 39 2
3.5297925 -4.948997 2.2225864 58 2
3.4544168 -4.9067159 2.1944304 33 2
3.320652 -4.7787185 2.1289589 26 2
3.2683918 -4.7656436 2.114372 22 2
3.2396162 -4.7863874 2.1147113 27 2
3.206007 -4.7999167 2.1119974 27 2
3.1780477 -4.8218546 2.1130149 23 2
3.1432736 -4.8333774 2.1096227 27 2
3.1100018 -4.8470306 2.1072481 34 2
3.0746684 -4.8572783 2.1035166 34 2
3.0393267 -4.8672752 2.0997851 28 2
3.0059514 -4.8802257 2.0974104 25 2
2.9725318 -4.8929501 2.0950358 25 2
2.9419696 -4.9102902 2.0946965 16 2
2.9074793 -4.9209599 2.0916436 17 2
2.8734422 -4.9322042 2.0889297 24 2
2.8468726 -4.9562688 2.0916436 29 2
2.8150175 -4.9711876 2.0906258 20 2
2.7872124 -4.9932952 2.0926611 26 2
2.7606022 -5.0177212 2.0957143 26 2
2.7311072 -5.0370464 2.0967319 26 2
2.7001491 -5.0537095 2.0967319 31 2
2.6677747 -5.0676847 2.0957143 33 2
2.6387949 -5.0881343 2.0974104 29 2
2.6083808 -5.1059051 2.098089 24 2
2.5803845 -5.1285367 2.1008027 18 2
0 -0 0 5 2
0 -0 0 4 2
0 -0 0 4 2
1.5191004 -3.2129469 1.3120918 13 2
1.4922158 -3.2068546 1.3059857 21 2
1.4772091 -3.2262144 1.3100564 38 2
1.4589307 -3.2386487 1.3114133 42 2
1.4386503 -3.2466795 1.3110741 50 2
1.4220834 -3.2632074 1.3141272 68 2
1.4075904 -3.2848423 1.3192157 65 2
1.3874084 -3.2934172 1.3192157 80 2
1.364296 -3.2949147 1.3165017 101 2
1.3426354 -3.2997384 1.3151449 81 2
1.3167778 -3.2939379 1.3097172 49 2
1.2955106 -3.2993286 1.3086995 33 2
1.2745652 -3.3054602 1.3080211 12 2
1.2342823 -3.2604299 1.2876672 6 2
0 -0 0 4 2
0 -0 0 4 2
0 -0 0 6 2
0 -0 0 4 2
1.8391851 -5.3490858 2.070272 52 2
1.8114349 -5.3754249 2.0760388 39 2
1.7695718 -5.3596396 2.0658619 56 2
1.7699311 -5.4733319 2.1048734 11 2
1.750792 -5.5298281 2.1221743 51 2
1.7602551 -5.6806436 2.1750941 43 2
0 -0 0 12 2
1.6976302 -5.7261686 2.1842535 98 2
1.6671753 -5.7527413 2.1903596 92 2
1.1859906 -4.1879325 1.6000985 32 2
1.5992123 -5.7827406 2.1940911 43 2
1.5627195 -5.7888112 2.1927342 117 2
1.5264519 -5.7955618 2.1917164 126 2
1.4829081 -5.77384 2.1801827 136 2
1.4460825 -5.7773547 2.1781473 150 2
1.4121653 -5.7925167 2.180522 43 2
1.3765965 -5.8010726 2.180522 170 2
1.3399183 -5.8048267 2.1788259 171 2
1.3022164 -5.8037601 2.1754334 175 2
1.2781954 -5.8649516 2.1951089 83 2
1.2273943 -5.8027372 2.1693273 199 2
1.1951675 -5.8267465 2.1754334 170 2
1.1604927 -5.8395061 2.1774688 151 2
1.1249955 -5.8483644 2.1781473 119 2
1.0849622 -5.8329606 2.1700058 153 2
1.0506481 -5.8478413 2.1730587 150 2
1.012177 -5.8393474 2.1676311 187 2
0.98051095 -5.8705006 2.1767905 155 2
0.94715768 -5.8931246 2.1828966 107 2
0.90337408 -5.8495517 2.1649172 162 2
0.8696698 -5.8698735 2.1703451 159 2
0.83561796 -5.8890696 2.1754334 178 2
0.79706645 -5.8763747 2.168988 188 2
0.724195 -5.5966101 2.0655227 76 2
0.68834716 -5.5888109 2.0611129 83 2
0.65436947 -5.5957322 2.0621305 76 2
0.62002242 -5.5996423 2.0621305 80 2
0.5850656 -5.5977273 2.0600951 82 2
0.54850006 -5.578743 2.0519536 95 2
0.51503533 -5.5904346 2.0550065 81 2
0.48136726 -5.6009874 2.0577204 70 2
0.44616911 -5.5935206 2.0539889 79 2
0.41101179 -5.5848947 2.0499182 89 2
0.37730476 -5.5957589 2.0529711 70 2
0.34192845 -5.5810676 2.046865 86 2
0.30772895 -5.5839996 2.0472043 77 2
0.27327663 -5.5820246 2.0458474 80 2
0.23745432 -5.5469422 2.0326173 111 2
0.20454963 -5.5793171 2.043812 87 2
0.1691379 -5.5419164 2.0299037 120 2
0.13558736 -5.5616584 2.0366881 88 2
0.10145911 -5.5623856 2.0366881 107 2
0.067145951 -5.5478535 2.0312605 111 2
0.033009414 -5.5321693 2.0254936 140 2
-0.00093889306 -5.5444965 2.0299037 119 2
-0.035013247 -5.5528526 2.0329566 141 2
-0.069143102 -5.5572367 2.0346527 136 2
-0.1025738 -5.520967 2.0217621 153 2
-0.13635464 -5.5164723 2.0204051 152 2
-0.17011327 -5.512711 2.0193875 165 2
-0.20383087 -5.5087433 2.0183697 186 2
-0.23787175 -5.5130277 2.0204051 166 2
-0.27280778 -5.5340137 2.0285466 131 2
-0.30535072 -5.506876 2.0193875 151 2
-0.33982944 -5.5161657 2.0234582 152 2
-0.37316027 -5.5064683 2.0207443 159 2
-0.40576002 -5.4881268 2.0149775 156 2
-0.43920135 -5.4827204 2.0139596 177 2
-0.47340095 -5.4864831 2.0163343 140 2
-0.50627631 -5.4750447 2.0132813 163 2
-0.54078531 -5.4811964 2.0166736 136 2
-0.5746035 -5.4796462 2.0173521 138 2
-0.60790342 -5.4732127 2.0163343 146 2
-0.64015925 -5.458168 2.0122635 153 2
-0.67375326 -5.455071 2.0126028 133 2
-0.70600122 -5.4415054 2.0092106 154 2
-0.74432254 -5.4734235 2.0224404 110 2
-0.77272367 -5.4324322 2.0092106 150 2
-0.80756271 -5.4378238 2.0129421 141 2
-0.84379256 -5.4513588 2.0197268 123 2
-0.87483102 -5.4312191 2.0142989 153 2
-0.90767378 -5.4229655 2.0132813 150 2
-0.93851572 -5.4033918 2.0081928 163 2
-0.97065222 -5.3919768 2.0061574 156 2
-1.0044081 -5.3896184 2.0075142 168 2
-1.0408428 -5.4009042 2.0139596 137 2
-1.1421314 -5.7366948 2.1398141 206 2
-1.1740898 -5.7139144 2.1340473 213 2
-1.2021058 -5.6734734 2.121835 266 2
-1.2439193 -5.6981573 2.133708 223 2
-1.2817476 -5.7032666 2.1384573 225 2
-1.3179898 -5.7007937 2.1404927 223 2
-1.3512038 -5.6852775 2.1377788 192 2
-0.50580835 -2.0726817 0.79985368 4 2
-0.53247285 -2.1251988 0.82054675 9 2
-0.54972172 -2.1382904 0.82665294 21 2
-0.56211174 -2.1321483 0.82563525 16 2
-0.57420158 -2.1250267 0.8242783 20 2
-0.58697861 -2.1205568 0.82393909 15 2
-0.60177577 -2.1232505 0.82631367 32 2
-0.59197921 -2.0409207 0.79680061 93 2
-0.62109202 -2.0931611 0.81783295 29 2
-0.64512849 -2.1262162 0.83174139 8 2
-0.65955663 -2.1267097 0.8334375 11 2
-1.7492875 -5.5184631 2.1181035 38 2
-1.7764496 -5.487042 2.1103013 59 2
-1.8133322 -5.4858632 2.1140327 36 2
-1.8595911 -5.5120692 2.1282804 14 2
-0.70274001 -2.0423255 0.80935216 5 2
-1.9115083 -5.4444561 2.1113188 102 2
-0.79212618 -2.2133324 0.87821597 38 2
-0.79859579 -2.1889894 0.87075287 48 2
-0.80381292 -2.1620061 0.86227214 46 2
-0.80572885 -2.1271253 0.85073829 45 2
-0.81334525 -2.1080999 0.84531057 78 2
-0.80423981 -2.0470381 0.82359982 32 2
-0.80385327 -2.0097504 0.81104833 31 2
-0.80907249 -1.9873561 0.80426371 39 2
-0.81296682 -1.9623671 0.7964614 37 2
-0.82353032 -1.9538747 0.7951045 39 2
-0.83364934 -1.9444623 0.79340833 20 2
-0.85308737 -1.9565551 0.80019295 19 2
-0.86850923 -1.959023 0.80324602 23 2
-0.88399345 -1.961375 0.80629909 36 2
-0.90267456 -1.9704518 0.81206602 22 2
-0.92110294 -1.9785199 0.81749368 25 2
-0.93564004 -1.9779326 0.81952906 30 2
-0.94816637 -1.9730022 0.81986833 20 2
-0.96438277 -1.9756001 0.82326061 28 2
-0.9739787 -1.9645891 0.82122523 20 2
-0.97543609 -1.937572 0.81274444 45 2
-0.98773474 -1.9323878 0.81308371 13 2
-1.0013068 -1.9296305 0.81444061 10 2
-1.0078653 -1.9134636 0.81036985 20 2
-1.0164816 -1.9014367 0.80799526 24 2
-1.0294757 -1.8976443 0.80901295 40 2
-1.0401925 -1.8896438 0.80833447 28 2
-1.0540618 -1.8873317 0.81003064 29 2
-1.0651585 -1.8800102 0.80969137 17 2
-1.0832382 -1.8848565 0.81444061 13 2
-1.1004696 -1.8879259 0.81851137 35 2
-1.1211312 -1.8965224 0.82495677 40 2
-1.145326 -1.9105831 0.83377677 40 2
-1.1687577 -1.92281 0.84191829 27 2
-1.2027493 -1.9516364 0.85718364 22 2
-1.2371377 -1.9801167 0.87244904 9 2
-1.2568161 -1.984408 0.87753749 16 2
-1.2786268 -1.991698 0.8839829 18 2
-1.3021135 -2.0011599 0.89144593 16 2
-1.3148859 -1.9939177 0.8917852 16 2
-1.3260499 -1.9842482 0.89110672 27 2
-1.3440038 -1.9846413 0.89483827 26 2
-1.3593502 -1.9810107 0.89687365 22 2
-1.3747026 -1.9772663 0.89890903 19 2
-1.386809 -1.9687941 0.89890903 16 2
-1.4037822 -1.9671384 0.9019621 30 2
-1.4125185 -1.9539143 0.89992672 19 2
-1.4228131 -1.9429339 0.89890903 17 2
-1.4532063 -1.9590968 0.91010362 55 2
-1.4663302 -1.9516472 0.9107821 42 2
-1.3130398 -1.7255454 0.81240523 5 2
-0 -0 0 4 2
-0 -0 0 4 2
-0 -0 0 4 2
-1.259738 -1.5738454 0.75744987 6 2
-0 -0 0 6 2
-1.2861199 -1.5669923 0.76152068 7 2
-0 -0 0 4 2
-1.3173691 -1.5654846 0.76830524 7 2
-1.348308 -1.5824291 0.78017831 5 2
-0 -0 0 4 2
-1.3670063 -1.5650557 0.7798391 6 2
-0 -0 0 5 2
-0 -0 0 4 2
-0 -0 0 4 2
-0 -0 0 5 2
-0 -0 0 5 2
-0 -0 0 4 2
-0 -0 0 4 2
-3.8869245 -4.031352 2.0499182 17 2
-3.9451008 -4.0417562 2.067219 187 2
-3.9605689 -4.0081062 2.0624697 193 2
-3.9717808 -3.9704287 2.055685 173 2
-3.9913824 -3.9413571 2.0533104 170 2
-4.0127969 -3.914165 2.0519536 194 2
-4.040803 -3.8933852 2.0539889 189 2
-4.0571203 -3.8613846 2.0502574 207 2
-4.0779953 -3.8338408 2.0489004 198 2
-4.1035109 -3.8106668 2.0499182 181 2
-4.1184959 -3.7777863 2.0458474 181 2
-4.1485701 -3.7587602 2.0492396 196 2
-4.1750603 -3.7363708 2.0509357 160 2
-4.1950884 -3.7081909 2.0495789 83 2
-4.1936674 -3.6613472 2.0380452 130 2
-2.710634 -2.3375919 1.321251 59 2
-2.7148993 -2.3123772 1.3165017 79 2
-2.7268767 -2.293859 1.315484 198 2
-2.7358348 -2.2728767 1.3131095 72 2
-2.7322738 -2.2417288 1.304968 156 2
-2.7372057 -2.2178161 1.3008972 117 2
-2.7382746 -2.1909895 1.2951303 85 2
-2.7420704 -2.1665659 1.2907202 93 2
-2.7427032 -2.1398644 1.2849534 91 2
-2.7438571 -2.113811 1.2795256 66 2
-2.7417998 -2.0855467 1.2727411 184 2
-2.7304726 -2.0506098 1.2618856 110 2
-2.736202 -2.0287757 1.2588326 107 2
-2.7425256 -2.007504 1.2561188 84 2
-2.7502167 -1.9873332 1.2540834 96 2
-2.7585294 -1.9676898 1.2523872 97 2
-2.770551 -1.9507267 1.2523872 99 2
-2.7948291 -1.9422781 1.2578149 71 2
-2.8260896 -1.9383929 1.2662957 55 2
-2.8472791 -1.9273425 1.2703664 36 2
-2.8731325 -1.9192396 1.2764726 54 2
-2.9241288 -1.9274558 1.2934341 86 2
-2.9650803 -1.9284509 1.3059857 125 2
-3.0045693 -1.9279995 1.3178587 137 2
-3.0576763 -1.9356879 1.3354987 58 2
-3.1205647 -1.9487745 1.3572094 34 2
-3.1436772 -1.9364964 1.3619586 56 2
-3.1780124 -1.930845 1.3714571 56 2
-3.1994836 -1.9171098 1.3755279 42 2
-3.7716618 -2.228539 1.6102754 52 2
-3.7746978 -2.1991992 1.6058654 64 2
-3.7799633 -2.1713119 1.6024731 48 2
-3.7915778 -2.1471508 1.6017946 54 2
-3.8046811 -2.1238456 1.6017946 49 2
-3.8184655 -2.100914 1.6021339 44 2
-3.8461704 -2.0855145 1.60824 75 2
-3.8895946 -2.0782757 1.6207916 76 2
-3.9364033 -2.0723345 1.6347001 53 2
-3.9507151 -2.0490081 1.6353785 110 2
-4.0495014 -2.0688019 1.6703192 35 2
-4.1385922 -2.082386 1.7011892 52 2
-4.1968102 -2.0795023 1.7195077 52 2
-4.2805114 -2.0883541 1.748003 79 2
-4.3432765 -2.0860755 1.7680176 112 2
-4.4733615 -2.1148622 1.8148314 63 2
-4.5425472 -2.1135612 1.8372207 57 2
-4.6247139 -2.117363 1.8646983 76 2
-4.6882253 -2.1117365 1.8847129 67 2
-4.7699018 -2.1134109 1.9118513 67 2
-3.9065676 -1.7023712 1.5671932 29 2
-4.9649591 -2.1273205 1.9783405 43 2
-5.0429401 -2.1241992 2.0037827 88 2
-5.0889082 -2.1068881 2.0166736 35 2
-3.8574178 -1.5694789 1.5322524 29 2
-3.8198047 -1.5269299 1.5139339 8 2
-3.8509932 -1.5120562 1.5224147 23 2
-3.8716092 -1.492797 1.5268247 37 2
-3.8789365 -1.4683473 1.5261463 60 2
-3.8764091 -1.4402608 1.5217363 103 2
-3.8825219 -1.415482 1.5207186 106 2
-3.8858194 -1.3897326 1.5186832 107 2
-3.8782945 -1.3602607 1.5125771 127 2
-3.8758926 -1.3327687 1.5085063 108 2
-3.8848889 -1.3092619 1.5088454 105 2
-3.8910625 -1.2848103 1.508167 115 2
-3.8979778 -1.2606217 1.5078278 84 2
-3.9029489 -1.2358288 1.5068101 82 2
-3.9068639 -1.2107439 1.5054532 59 2
-3.9124188 -1.1862034 1.5047747 47 2
-3.9196236 -1.1621748 1.5047747 29 2
-4.9991865 -1.4488444 1.9074414 42 2
-4.986259 -1.411993 1.8992999 81 2
-4.9948292 -1.3813714 1.8992999 101 2
-5.0150175 -1.3538841 1.9037098 111 2
-5.0150433 -1.3209312 1.9006567 93 2
-5.0212317 -1.2896668 1.8999783 60 2
-0 -0 0 5 2
-0 -0 0 5 2
-0 -0 0 5 2
-5.0825343 -1.1732427 1.9115121 29 2
-5.0777049 -1.1393582 1.9071021 122 2
-5.0818429 -1.1075798 1.9060844 123 2
-5.0876226 -1.0761827 1.9057451 126 2
-5.0959735 -1.0453234 1.9064237 123 2
-5.0856833 -1.010736 1.9003175 152 2
-5.0779328 -0.97684723 1.8952291 136 2
-5.0727324 -0.94360763 1.8911582 114 2
-5.0784268 -0.9124642 1.8911582 131 2
-5.0904183 -0.88241059 1.8935329 129 2
-5.095737 -0.85115975 1.8935329 129 2
-5.0943623 -0.81883234 1.8911582 135 2
-5.1039391 -0.78827608 1.8928545 116 2
-5.1068187 -0.75666845 1.892176 121 2
-5.1076398 -0.72479099 1.8908191 127 2
-5.1119909 -0.69343746 1.8908191 140 2
-5.1245456 -0.66314369 1.8938721 97 2
-5.118248 -0.63042337 1.8901405 138 2
-5.1266918 -0.59955251 1.8918368 98 2
-5.1358838 -0.5687052 1.8938721 149 2
-5.1374054 -0.53698587 1.8931937 187 2
-5.1396675 -0.50536126 1.8928545 146 2
-5.1567225 -0.47510886 1.8979429 141 2
-5.1548548 -0.44305643 1.8962468 184 2
-5.1593513 -0.41156799 1.8969252 164 2
-5.1439543 -0.37859246 1.8904798 170 2
-5.1536894 -0.3475284 1.8931937 156 2
-5.1360068 -0.31469277 1.8860698 193 2
-5.1237516 -0.28239745 1.8809813 175 2
-5.149817 -0.25214761 1.8898014 130 2
-5.1625457 -0.22102618 1.8938721 122 2
-5.155344 -0.18903565 1.8908191 142 2
-5.1507649 -0.15722771 1.8887837 147 2
-5.1629181 -0.12589458 1.8928545 135 2
-5.170177 -0.09433277 1.8952291 157 2
-5.1706586 -0.062607378 1.8952291 158 2
-5.171886 -0.030885182 1.8955683 159 2
-5.1785631 0.00085107528 1.8979429 160 2
-5.1775198 0.032620128 1.8976036 161 2
-5.1753411 0.064364642 1.8969252 171 2
-5.1663837 0.095960855 1.8938721 202 2
-5.2797308 -0.38932961 1.8742795 84 3
-5.2867312 -0.35724586 1.8759239 69 3
-5.3010774 -0.32555559 1.8801991 77 3
-5.2992034 -0.29281342 1.8788836 91 3
-5.30373 -0.26043218 1.8798702 103 3
-5.325985 -0.22878037 1.8871053 67 3
-5.2989769 -0.19504808 1.8772393 98 3
-5.2972422 -0.16244304 1.8762527 112 3
-5.3104119 -0.13024041 1.880528 100 3
-5.3158321 -0.097741731 1.8821723 113 3
-5.3238864 -0.06521675 1.8848032 101 3
-5.3204088 -0.03252485 1.8834877 121 3
-5.3308964 0.00011913749 1.8871053 114 3
-5.3307953 0.032828901 1.8871053 90 3
-5.3295493 0.065526024 1.8867764 98 3
-5.3375449 0.098381072 1.8897362 118 3
-5.3472257 0.13138267 1.8933537 109 3
-5.3519826 0.16436286 1.895327 88 3
-5.345211 0.19699147 1.8933537 90 3
-5.337297 0.22950281 1.8910517 74 3
-5.3320155 0.26206291 1.8897362 83 3
-5.3237062 0.29441103 1.8874341 67 3
-5.3227425 0.32712886 1.887763 81 3
-5.3272305 0.36022699 1.8900651 76 3
-4.3746123 0.32299617 1.5582386 44 3
-5.3412366 0.42707449 1.8966424 102 3
-5.2764153 0.45450419 1.8749372 45 3
-5.3036199 0.48964271 1.885461 98 3
-5.3099141 0.52309972 1.8887496 101 3
-5.3150582 0.5565542 1.8917094 99 3
-5.3087273 0.58884454 1.8907229 81 3
-5.3022003 0.62107825 1.8897362 92 3
-5.2992268 0.65371561 1.8900651 82 3
-5.2951159 0.6862188 1.8900651 115 3
-5.2889342 0.71844226 1.8894074 91 3
-5.2376757 0.74424851 1.872964 47 3
-5.2890611 0.78467536 1.892696 102 3
-5.2673473 0.81451958 1.8867764 125 3
-5.2715745 0.84832251 1.8900651 68 3
-5.2522979 0.87831897 1.8851321 127 3
-5.2486706 0.91085243 1.8857899 119 3
-5.2411242 0.94270658 1.8851321 129 3
-5.2166719 0.97139424 1.8785547 145 3
-5.2282333 1.0067738 1.8848032 135 3
-5.2145476 1.0373623 1.8821723 141 3
-5.2025337 1.0682002 1.8801991 126 3
-5.1931095 1.099516 1.8792125 171 3
-5.2037969 1.1351801 1.885461 145 3
-5.1985765 1.167502 1.8861187 122 3
-5.1756721 1.1957674 1.880528 138 3
-5.1811013 1.2305546 1.8851321 170 3
-5.1826286 1.2645587 1.8884207 160 3
-5.1665268 1.2942713 1.885461 141 3
-5.1703792 1.3290019 1.8897362 127 3
-5.1603007 1.3602207 1.8890785 147 3
-5.1436515 1.3896432 1.8861187 137 3
-5.1404891 1.422688 1.8880919 122 3
-5.1380239 1.4560037 1.890394 145 3
-5.1271791 1.4869769 1.8897362 135 3
-5.1206746 1.5192139 1.8907229 88 3
-4.002336 1.2144556 1.4872035 44 3
-4.0074382 1.2429036 1.4918076 109 3
-3.9925337 1.2651892 1.4891766 151 3
-3.9793041 1.2879198 1.4872035 184 3
-3.9713266 1.312312 1.4872035 205 3
-3.9649894 1.3372581 1.4878612 223 3
-3.9638541 1.364018 1.4904921 227 3
-3.9741247 1.3948767 1.4973983 216 3
-3.9788296 1.4240049 1.5023313 197 3
-3.9797771 1.4519495 1.5059489 171 3
-3.983187 1.4809457 1.510553 154 3
-4.0067043 1.5177269 1.5227211 82 3
-4.9912686 1.9254684 1.8936826 65 3
-4.9318905 1.9374224 1.8759239 108 3
-4.9041252 1.9613386 1.8700042 69 3
-4.9173665 2.001713 1.8795414 106 3
-4.8892856 2.0253456 1.8736217 64 3
-4.9124498 2.0703371 1.8871053 115 3
-4.8857651 2.0944898 1.8818434 33 3
-5.2130666 2.2726786 2.0110881 170 3
-5.19557 2.3030925 2.0097725 163 3
-4.1635561 1.8765234 1.6210521 87 3
-5.1437321 2.3560629 2.0008931 93 3
-5.1266098 2.386385 1.9999065 202 3
-5.1050406 2.4145675 1.9972756 249 3
-5.1054521 2.4532049 2.0031953 210 3
-5.0886059 2.4836571 2.0025375 205 3
-5.0698857 2.5131564 2.0012219 175 3
-5.0459337 2.539973 1.9979334 242 3
-5.0470738 2.5794785 2.0045106 190 3
-5.030313 2.6099637 2.0041819 169 3
-5.0208893 2.644299 2.0068128 183 3
-5.0104003 2.6781719 2.0091147 155 3
-4.9971938 2.7106652 2.0104303 151 3
-4.9763303 2.7390003 2.008786 189 3
-4.9717999 2.776387 2.0137188 141 3
-4.9596014 2.809633 2.0156922 112 3
-4.889039 2.8094387 1.9943159 180 3
-4.9019012 2.8569732 2.0064838 58 3
-3.7931299 2.2423437 1.5651449 10 3
-0 0 0 7 3
-3.7411137 2.274013 1.5552789 9 3
-4.7860856 2.9491725 1.9883962 71 3
-4.8079519 3.0034926 2.0048397 110 3
-4.7950182 3.0364728 2.0071416 115 3
-4.7762966 3.0658371 2.0071416 130 3
-4.770062 3.1033237 2.0124035 115 3
-4.7667012 3.1429274 2.0189807 135 3
-4.7434001 3.1694937 2.0173364 132 3
-4.7269917 3.2006562 2.018652 115 3
-4.7041483 3.227464 2.0173364 122 3
-4.6718478 3.2476451 2.0120747 134 3
-4.6371608 3.2659209 2.0058262 171 3
-4.5939684 3.2778618 1.9959601 211 3
-4.4466987 3.2141798 1.9413683 89 3
-4.4947181 3.2910435 1.9706374 150 3
-4.4585085 3.3067498 1.9637312 143 3
-4.3882933 3.2966185 1.942026 116 3
-4.3401709 3.3023303 1.929858 117 3
-4.2876554 3.3041186 1.9157166 153 3
-4.2471967 3.3146818 1.9068373 120 3
-4.1926904 3.3137503 1.8917094 139 3
-4.1464691 3.3187652 1.8801991 124 3
-4.1032796 3.3257163 1.8700042 102 3
-4.069654 3.3400497 1.8640846 86 3
-2.7313182 2.2703331 1.2675205 50 3
-2.7036047 2.2754998 1.2612721 55 3
-2.6680222 2.2736769 1.2514061 36 3
-2.647584 2.2844546 1.2484462 41 3
-2.62498 2.2932038 1.2444998 34 3
-2.6037838 2.3030128 1.2412112 35 3
-2.5853813 2.3151674 1.239238 26 3
-2.5627286 2.3233788 1.2352916 18 3
-2.538681 2.3301227 1.2306875 14 3
-2.5271041 2.3482263 1.232003 19 3
-2.5037031 2.3552792 1.2277277 14 3
-2.4857838 2.367342 1.2260833 18 3
-2.4705312 2.3818948 1.2257545 20 3
-2.4578979 2.3989871 1.2267411 25 3
-2.4417877 2.4126961 1.2260833 23 3
-2.438292 2.4389832 1.2316741 62 3
-2.429255 2.459944 1.2346338 53 3
-3.2624416 3.343869 1.6575564 60 3
-3.2267861 3.3481879 1.6499925 71 3
-3.1925035 3.3535635 1.6430862 68 3
-3.1621597 3.362772 1.6381532 75 3
-3.1286089 3.3682759 1.6315759 64 3
-3.0976648 3.3762779 1.626314 61 3
-3.0711808 3.3889248 1.6233542 44 3
-3.0421386 3.39856 1.619079 52 3
-3.0130939 3.4079669 1.6148037 56 3
-2.9697573 3.4007885 1.6029645 27 3
-2.9593234 3.4311011 1.6085552 42 3
-2.9320891 3.4420071 1.6052666 41 3
-2.906657 3.4548759 1.6029645 50 3
-2.8920443 3.480634 1.606582 40 3
-2.8598466 3.4851756 1.6006625 105 3
-2.8348396 3.4982564 1.5986892 110 3
-2.829258 3.5354891 1.6075686 52 3
-2.8127828 3.5594497 1.6105285 41 3
-2.7868214 3.5714309 1.6082264 49 3
-2.7631254 3.5862195 1.6072397 44 3
-2.7450726 3.6083663 1.6095419 37 3
-2.7183416 3.6191022 1.6069109 40 3
-2.696084 3.6357136 1.6069109 38 3
-2.7183688 3.7131367 1.6332202 15 3
-3.4658167 4.7949996 2.0910027 38 3
-3.4363301 4.816175 2.0910027 49 3
-3.4067137 4.8371692 2.0910027 59 3
-3.3802044 4.8626332 2.0929759 63 3
-3.3278589 4.8505802 2.0791633 26 3
-0 0 0 15 3
-0 0 0 32 3
-0 0 0 18 3
-0 0 0 22 3
-0 0 0 39 3
-0 0 0 39 3
-0 0 0 31 3
-0 0 0 34 3
-0 0 0 19 3
-0 0 0 24 3
-0 0 0 20 3
-0 0 0 19 3
-0 0 0 16 3
-1.7232074 3.0428588 1.2484462 13 3
-1.8164283 3.2537138 1.3283608 49 3
-1.7964298 3.2647979 1.3283608 68 3
-1.7759131 3.274929 1.328032 77 3
-1.7682545 3.309082 1.3372402 155 3
-0 0 0 20 3
-0 0 0 36 3
-0 0 0 41 3
-0 0 0 33 3
-0 0 0 63 3
-0 0 0 61 3
-0 0 0 39 3
-0 0 0 41 3
-0 0 0 41 3
-0 0 0 34 3
-0 0 0 18 3
-0 0 0 42 3
-0 0 0 27 3
-0 0 0 36 3
-1.1054986 2.6248283 1.0225148 27 3
-0 0 0 39 3
-0 0 0 26 3
-0 0 0 76 3
-1.0331492 2.6318316 1.0152798 31 3
-1.0220819 2.6513369 1.0202128 86 3
-0.99374741 2.6257668 1.0083736 20 3
-0.97794652 2.6327 1.0087025 32 3
-0.9578889 2.6280053 1.0047561 29 3
-0.93983579 2.6284988 1.0027828 53 3
-0 0 0 46 3
-0 0 0 29 3
-0.87680298 2.6024015 0.98699725 28 3
-0.85933638 2.6032491 0.98535293 19 3
-0.84625602 2.6174574 0.98864162 26 3
-0.83189195 2.6280022 0.99061483 28 3
-0.82134831 2.6510961 0.99719214 17 3
-0.8105523 2.674159 1.0037695 19 3
-0.80461061 2.7143898 1.0165952 14 3
-0.78794026 2.7192757 1.0165952 35 3
-0 0 0 6 3
-0.76585376 2.7696955 1.0313942 17 3
-0.74662662 2.7661378 1.0284345 29 3
-0.72385901 2.7487514 1.0205417 25 3
-0.68180645 2.6552787 0.98535293 51 3
-0.66779757 2.6685724 0.98864162 40 3
-0.64088202 2.6295011 0.97318488 51 3
-0.62451726 2.6324651 0.97285599 40 3
-0.59899223 2.595763 0.95838588 67 3
-0.58077562 2.5892541 0.95476836 75 3
-0.5652802 2.5946143 0.9554261 46 3
-0.54602116 2.5823283 0.94983536 47 3
-0.52959567 2.582855 0.94884872 50 3
-0.51226228 2.5786464 0.94621783 46 3
-0.49571541 2.5780318 0.94490236 52 3
-0.47919542 2.5773113 0.94358689 54 3
-0.46353966 2.5811324 0.94391572 67 3
-0.44656193 2.577415 0.94161367 33 3
-0.43089473 2.581038 0.94194257 34 3
-0.41519988 2.5845656 0.94227141 49 3
-0.39947796 2.5879979 0.94260025 82 3
-0.38567206 2.6044123 0.94753325 31 3
-0.36755612 2.5917702 0.94227141 44 3
-0.35991952 2.6548011 0.96364772 29 3
-0.35808578 2.7684059 1.0027828 15 3
-0.34838694 2.8295977 1.0235015 14 3
-0.32738721 2.80073 1.0126488 10 3
-0.31134313 2.8130107 1.0162665 14 3
-0.29624426 2.835531 1.0235015 17 3
-0.28486893 2.8983831 1.0448778 37 3
-0.2471607 2.6847336 0.96956736 21 3
-0.22662236 2.6391556 0.95312399 18 3
-0.20944388 2.6282589 0.94884872 27 3
-0.19122352 2.6012404 0.93898273 24 3
-0.17404534 2.5844626 0.93273425 13 3
-0.15777743 2.5788839 0.9304322 15 3
-0.14388621 2.6146917 0.94260025 96 3
-0 0 0 64 3
-0 0 0 83 3
-0 0 0 54 3
-0 0 0 57 3
-0.063239552 2.6027696 0.93733841 52 3
-0.047180228 2.5983875 0.9356941 59 3
-0.031212388 2.5967395 0.93503636 66 3
-0.015248605 2.5921602 0.93339199 63 3
0.00065743458 2.5893719 0.93240541 52 3
0.016444545 2.5723207 0.92648584 36 3
0.032216296 2.5712271 0.92615694 35 3
0.047975242 2.5700366 0.9258281 19 3
0.06408865 2.5838554 0.9307611 23 3
0.080373429 2.5975726 0.9356941 24 3
0.097451285 2.6281741 0.94654667 20 3
0.11991287 2.7756584 0.99817872 5 3
0.13920324 2.8210895 1.0142932 6 3
0.15728959 2.8343263 1.0192262 13 3
0.18599179 3.0180595 1.0836841 74 3
0.19078915 2.813338 1.0126488 9 3
0.19481392 2.6322246 0.94983536 23 3
0.20848413 2.5999138 0.93898273 25 3
0.22144188 2.563772 0.92681468 35 3
0 0 0 31 3
0 0 0 15 3
0 0 0 83 3
0 0 0 65 3
0 0 0 73 3
0.31634966 2.5595078 0.92878789 73 3
0.33168507 2.554709 0.92780125 52 3
0.34722731 2.5516899 0.92747241 55 3
0.36247969 2.5467062 0.92648584 60 3
0.37865269 2.5481708 0.92780125 51 3
0.39413673 2.5448663 0.92747241 65 3
0.41004401 2.5442648 0.92813015 76 3
0.42362535 2.5295918 0.92385489 36 3
0.44042882 2.5343888 0.92648584 64 3
0.45463544 2.5242026 0.92385489 39 3
0.46959707 2.5185802 0.92286825 31 3
0.48522031 2.5165787 0.92319715 37 3
0.49936423 2.5070703 0.9208951 35 3
0.51454818 2.5030339 0.9205662 31 3
0.52872437 2.4942861 0.91859299 33 3
0.54422015 2.4919176 0.91892189 32 3
0.55908656 2.4866884 0.91826415 44 3
0.57348454 2.4795303 0.91694868 42 3
0.58759773 2.4713705 0.91530436 33 3
0.60230339 2.4658835 0.91464663 47 3
0.6176517 2.4630575 0.91497546 46 3
0.63345784 2.4619656 0.9159621 39 3
0.64903325 2.4598589 0.91661984 36 3
0.66460663 2.4576535 0.91727757 26 3
0.67942232 2.4526191 0.91694868 45 3
0.69445854 2.4484041 0.91694868 40 3
0.71078283 2.4486322 0.91859299 46 3
0.72606236 2.4451303 0.91892189 42 3
0.74242157 2.445148 0.9205662 42 3
0.75796974 2.4423506 0.92122394 38 3
0.77436656 2.4421556 0.92286825 50 3
0.78962731 2.4382567 0.92319715 28 3
0.80605364 2.4378498 0.92484146 54 3
0.82129836 2.4337528 0.92517036 37 3
0 0 0 4 3
0 0 0 4 3
1.1289229 3.15362 1.1971431 40 3
1.1472818 3.1439719 1.1961565 75 3
1.1678666 3.1404142 1.197472 58 3
0 0 0 64 3
0 0 0 69 3
0 0 0 52 3
0 0 0 60 3
1.2746805 3.1302299 1.2076668 78 3
1.2963917 3.1284575 1.2099688 56 3
1.3188623 3.1282771 1.2129287 90 3
1.3402637 3.1253343 1.2149018 77 3
0 0 0 57 3
0 0 0 88 3
0 0 0 75 3
0 0 0 64 3
1.4498429 3.1135759 1.2267411 78 3
1.4689202 3.1046214 1.2267411 62 3
1.4924394 3.1049139 1.2303586 85 3
1.5127048 3.0982444 1.2313452 99 3
1.5279136 3.0812883 1.2283854 62 3
1.5616465 3.101382 1.2398957 106 3
0 0 0 94 3
1.6017615 3.0861766 1.2415401 83 3
1.6246268 3.0838113 1.2444998 72 3
1.6479682 3.0821142 1.2477885 81 3
1.6708996 3.0794163 1.2507483 79 3
1.6988672 3.0856545 1.2573256 70 3
1.7237519 3.0858924 1.261601 77 3
1.7463768 3.0818317 1.2642318 75 3
1.7666646 3.0735149 1.2652185 82 3
1.7883424 3.067513 1.2671916 77 3
1.8119342 3.0646131 1.2704803 60 3
1.8345871 3.0599184 1.2731112 66 3
1.8611728 3.061518 1.2783731 88 3
1.8927994 3.0709469 1.2869236 74 3
1.9191095 3.0712907 1.2918566 81 3
1.9449896 3.0706289 1.2964607 82 3
1.9663438 3.0626111 1.2981051 70 3
1.9917915 3.0607803 1.3023804 77 3
2.0157313 3.0563865 1.3056691 66 3
2.0417902 3.0549552 1.3102732 76 3
2.0673778 3.0525367 1.3145485 74 3
2.0962172 3.0545919 1.320797 67 3
2.1208479 3.0502031 1.3244145 75 3
2.1449599 3.0448544 1.3277031 76 3
2.169086 3.0393245 1.3309917 78 3
2.1910126 3.030551 1.332965 108 3
2.2162595 3.026195 1.3369114 76 3
2.245472 3.0269537 1.3431598 70 3
2.2759111 3.0289774 1.3500661 59 3
2.3093174 3.0344994 1.3586166 70 3
2.3405714 3.036732 1.3658516 71 3
2.36555 3.030504 1.3694692 86 3
2.3899546 3.0233426 1.3727579 88 3
2.4155397 3.0174704 1.3767042 72 3
2.4357927 3.0047934 1.3776909 60 3
2.4613714 2.9985526 1.3816372 60 3
2.4881718 2.9935637 1.3862414 61 3
2.5150034 2.9883583 1.3908455 51 3
2.5430892 2.984374 1.3961074 63 3
2.5767705 2.986594 1.4043291 104 3
2.6037426 2.9806869 1.4089332 74 3
2.6369929 2.9816365 1.416826 67 3
2.6678336 2.979475 1.4234033 71 3
2.704453 2.9833453 1.4329405 61 3
2.7354746 2.9806142 1.4395177 58 3
2.7691343 2.9803822 1.4474106 64 3
2.8028936 2.9798486 1.4553034 65 3
2.8334949 2.9755921 1.4615519 71 3
2.8608727 2.9676712 1.466156 59 3
2.8928757 2.9642584 1.4730622 68 3
2.9183083 2.9538441 1.4766797 76 3
2.9497306 2.9492402 1.4832571 79 3
2.9818778 2.9450252 1.4901632 92 3
3.0208414 2.9471228 1.5003581 89 3
3.0585825 2.9475415 1.5098952 78 3
3.0950744 2.9463046 1.5187746 101 3
3.1323531 2.9453771 1.527983 91 3
3.1683528 2.9428167 1.5365335 101 3
3.2009599 2.9367318 1.5434396 98 3
3.2308123 2.9278197 1.5490304 80 3
3.2402744 2.9003801 1.545084 73 3
3.2473998 2.871058 1.540151 81 3
3.1433451 2.7448263 1.4839147 60 3
3.1015003 2.674895 1.4569477 57 3
3.0725741 2.6172214 1.4362291 83 3
3.0965226 2.6050091 1.4398466 76 3
3.1095436 2.5835452 1.4385312 68 3
3.1041703 2.5470386 1.4289941 73 3
3.1006677 2.51248 1.4204435 78 3
3.1270835 2.5022609 1.4253765 52 3
3.139415 2.4806836 1.4240611 57 3
3.1590436 2.4648609 1.4260342 33 3
3.1748559 2.4460075 1.4263631 25 3
3.1913075 2.4276247 1.4270209 23 3
3.1985936 2.402324 1.4237322 41 3
3.2087233 2.3792763 1.421759 31 3
3.211834 2.3511724 1.416826 46 3
3.200181 2.3126063 1.4056445 16 3
3.2204597 2.2973161 1.4082755 35 3
3.2391272 2.2807763 1.4102486 25 3
3.2507348 2.2592409 1.4092621 38 3
