# .PCD v0.7 - Point Cloud Data file format
VERSION 0.7
FIELDS x y z intensity ring
SIZE 4 4 4 4 1
TYPE F F F F U
COUNT 1 1 1 1 1
WIDTH 1290
HEIGHT 1
VIEWPOINT 0 0 0 1 0 0 0
POINTS 1290
DATA ascii
4.9285722 -6.1552463 0.24087653 34 29
4.9310207 -6.2363353 0.24256669 33 29
4.9178901 -6.2987761 0.24363279 20 29
4.9310389 -6.3961201 0.24584299 34 29
4.9298534 -6.4763627 0.24748115 33 29
4.9278669 -6.5568295 0.24911931 49 29
4.9715495 -6.7001257 0.25278565 139 29
4.965796 -6.7788858 0.2543458 371 29
4.9592624 -6.8578258 0.25590596 327 29
4.9763436 -6.9711075 0.25855821 453 29
4.9628482 -7.0431824 0.25988433 65 29
5.0222988 -7.2212119 0.26456478 25 29
5.0186367 -7.3112273 0.26643696 25 29
5.0247126 -7.417191 0.26880318 26 29
5.0202279 -7.5093756 0.27072737 25 29
5.0516887 -7.6576848 0.27439371 13 29
5.047152 -7.7538805 0.2764219 20 29
5.0416236 -7.850307 0.2784501 15 29
5.0495486 -7.9697528 0.28118035 8 29
5.0212197 -8.0336437 0.28219447 24 29
5.0237799 -8.1485386 0.2847687 19 29
5.0121298 -8.2424126 0.28669289 23 29
5.0077429 -8.3501635 0.28903311 24 29
5.030724 -8.5063496 0.29282948 35 29
5.0051308 -8.5828228 0.2942076 19 29
5.0455704 -8.7754202 0.29907006 41 29
5.0532622 -8.9149151 0.30232036 30 29
5.0506511 -9.0391245 0.30510265 47 29
5.0795035 -9.2231731 0.30965307 51 29
5.0724196 -9.3455353 0.31235734 68 29
5.0852442 -9.5078182 0.3162317 58 29
5.1065207 -9.6900616 0.32067811 38 29
5.1285133 -9.8782406 0.32528055 35 29
5.1101441 -9.9922915 0.3276988 33 29
5.1427426 -10.210044 0.33313331 18 29
5.1439781 -10.370359 0.33687767 23 29
5.1289568 -10.501428 0.33976394 27 29
5.1177182 -10.643509 0.34296224 22 29
5.1400027 -10.859934 0.34829274 17 29
5.1336441 -11.020844 0.35201111 11 29
5.1434174 -11.221156 0.35684755 25 29
5.1213279 -11.356386 0.35981184 28 29
5.1646686 -11.642532 0.36706653 67 29
5.1890931 -11.893896 0.37330714 340 29
5.1408501 -11.983387 0.37494528 112 29
4.9607606 -11.762335 0.36782062 61 29
4.8544173 -11.710367 0.36550638 314 29
4.7798319 -11.733453 0.36532438 351 29
4.7248373 -11.805251 0.36652049 169 29
5.276792 -13.422071 0.4109067 33 29
5.2840061 -13.686399 0.41738132 19 29
5.2988033 -13.979355 0.42463601 16 29
5.2924199 -14.225216 0.43056458 19 29
5.2856159 -14.47809 0.43667516 17 29
5.2688251 -14.711645 0.4422397 16 29
5.3060246 -15.106811 0.45225063 18 29
5.3245692 -15.462331 0.46114349 31 29
5.3379879 -15.815793 0.46995834 48 29
5.3720651 -16.244968 0.48082736 37 29
5.4174008 -16.725546 0.49307454 131 29
5.3207183 -16.777529 0.49359459 363 29
5.2170801 -16.807951 0.49354258 115 29
5.0874109 -16.752604 0.49117634 10 29
4.9836693 -16.780628 0.49109834 19 29
4.8747573 -16.790731 0.49055228 17 29
4.7659087 -16.800131 0.49000624 4 29
4.6592646 -16.816534 0.48966819 17 29
4.5512934 -16.827438 0.48920017 17 29
4.4413228 -16.829916 0.48852411 34 29
4.3399663 -16.864595 0.48873213 12 29
4.2230263 -16.83758 0.48730198 107 29
4.1151247 -16.844723 0.48680794 509 29
4.008914 -16.857986 0.48649591 486 29
3.9013431 -16.864737 0.48602787 507 29
3.7936213 -16.869827 0.4855338 530 29
3.6853437 -16.8713 0.48496175 363 29
3.5759466 -16.866215 0.48423368 528 29
3.4711819 -16.881964 0.48407766 540 29
3.3645997 -16.888239 0.48368764 554 29
3.2569354 -16.887953 0.48314157 517 29
3.2522566 -17.43828 0.49718291 129 29
3.2813694 -18.213474 0.51715285 262 29
3.1729774 -18.252964 0.5176729 475 29
3.0548062 -18.235609 0.51671076 470 29
2.9355354 -18.208612 0.51551467 508 29
2.8173234 -18.184792 0.51442254 528 29
2.7008381 -18.169106 0.51356447 529 29
2.5828187 -18.139811 0.51236838 475 29
2.4672844 -18.124611 0.51156229 453 29
2.3529356 -18.115618 0.51093823 469 29
2.2369492 -18.091022 0.50992411 559 29
2.1204202 -18.057743 0.50870204 566 29
2.0057108 -18.035641 0.50779194 582 29
1.891457 -18.013805 0.50690782 600 29
1.7777433 -17.993238 0.50607574 543 29
1.6648148 -17.976933 0.50537372 512 29
1.5521533 -17.959919 0.50467163 554 29
1.4393634 -17.937218 0.50383955 568 29
1.326467 -17.907829 0.50285149 644 29
1.2144601 -17.884712 0.50204539 628 29
1.1030337 -17.864887 0.50134331 580 29
0.99211842 -17.848364 0.50074524 610 29
0.88129932 -17.828156 0.5000692 640 29
0.77119851 -17.817247 0.49965316 599 29
0.66081876 -17.793673 0.49892509 562 29
0.55075741 -17.769415 0.49819702 566 29
0.4412677 -17.754473 0.49772897 592 29
0.33185074 -17.731859 0.4970789 634 29
0.22274053 -17.709572 0.49645486 658 29
0.11392285 -17.687613 0.49585679 666 29
0.005383397 -17.665985 0.49528474 652 29
-0.10284027 -17.635696 0.49450466 632 29
-0.21073961 -17.608746 0.49382859 633 29
-0.31840226 -17.58613 0.49328256 624 29
-0.4258678 -17.565857 0.49281451 613 29
-0.53324807 -17.549925 0.49247646 593 29
-0.64041239 -17.532335 0.49211243 567 29
-0.74763626 -17.520086 0.49190441 692 29
-0.85429585 -17.498196 0.49146238 635 29
-0.96055055 -17.47266 0.49094233 745 29
-1.0661585 -17.440495 0.49026626 672 29
-1.1722796 -17.420658 0.48992822 761 29
-1.2787098 -17.407156 0.4897722 736 29
-1.3852561 -17.395992 0.48969421 716 29
-1.006477 -11.724862 0.34187013 141 29
-1.0773023 -11.70652 0.3415581 307 29
-1.7002463 -17.316809 0.48836809 326 29
-1.8074018 -17.314999 0.4886021 713 29
-1.9137204 -17.304575 0.48862812 692 29
-2.0136039 -17.23889 0.48722398 349 29
-2.0705414 -16.829334 0.47682297 689 29
-2.1756866 -16.831184 0.47721303 741 29
-2.2812006 -16.834358 0.47765505 698 29
-2.3871162 -16.83885 0.47814912 723 29
-2.4912703 -16.829819 0.47830513 685 29
-2.5958607 -16.823109 0.47853914 220 29
-2.0320108 -12.651482 0.36906871 68 29
-2.1151934 -12.672301 0.3699528 126 29
-2.1819949 -12.596044 0.36828867 53 29
-2.2571228 -12.57061 0.36797664 31 29
-2.2754104 -12.240049 0.35960382 487 29
-0 -0 0 742 29
-2.3748317 -11.956268 0.3528432 1190 29
-2.450758 -11.954203 0.35318121 979 29
-2.5308819 -11.971216 0.35403928 1105 29
-2.6070528 -11.96816 0.35437733 1078 29
-2.6841564 -11.96852 0.35481936 1046 29
-2.7609131 -11.966437 0.35520941 1005 29
-2.8384368 -11.96678 0.35567746 412 29
-3.0800209 -12.639706 0.37416521 7 29
-3.1677053 -12.661301 0.37525731 47 29
-6.5370059 -25.468521 0.71971208 309 29
-6.6954446 -25.436632 0.71994615 266 29
-6.8763881 -25.487726 0.72244239 138 29
-7.0427666 -25.481668 0.72343045 242 29
-7.2134118 -25.488956 0.72480857 286 29
-7.3896942 -25.513351 0.72668076 304 29
-7.5625715 -25.523121 0.72818893 259 29
-7.7355566 -25.530771 0.72967106 228 29
-7.9112849 -25.544895 0.73136121 270 29
-8.0832558 -25.544479 0.73268735 252 29
-2.3148458 -7.159493 0.23148963 324 29
-2.35466 -7.1328135 0.2311516 1391 29
-2.3948724 -7.10781 0.23086557 1536 29
-2.4517589 -7.1317434 0.23193167 1106 29
-2.5073755 -7.150528 0.23286776 920 29
-2.5178969 -7.0418143 0.23029351 683 29
-2.5360768 -6.9576659 0.22839534 1539 29
-2.5815041 -6.949471 0.22860336 1696 29
-2.6290486 -6.9465904 0.2289674 1559 29
-2.6791704 -6.9499168 0.22951345 1547 29
-2.7276063 -6.9482365 0.22992948 1567 29
-2.7523878 -6.8868098 0.22868137 1268 29
-2.7750127 -6.8216376 0.22732924 1774 29
-2.8401322 -6.8608284 0.22891539 1226 29
-2.9322114 -6.9621263 0.2322697 1620 29
-2.9772363 -6.9495173 0.23242572 1577 29
-3.0305986 -6.9558644 0.23312779 1025 29
-5.4245038 -12.24686 0.38417616 34 29
-5.4667177 -12.140421 0.38209596 36 29
-5.4870334 -11.988477 0.37871563 32 29
-5.4917817 -11.806832 0.37447724 35 29
-5.5256867 -11.691567 0.37213701 46 29
-5.5259399 -11.508744 0.36784661 38 29
-5.5732312 -11.426998 0.36646849 30 29
-5.6059752 -11.317337 0.36428428 51 29
-5.6631851 -11.258613 0.36358219 75 29
-5.7221589 -11.204065 0.36301014 121 29
-5.7884974 -11.164307 0.36288014 184 29
-5.7982397 -11.01711 0.35960382 34 29
-5.8228774 -10.901082 0.35723761 31 29
-5.8205905 -10.737709 0.35346726 197 29
-5.8680615 -10.668507 0.35247916 91 29
-5.8647361 -10.50921 0.34881279 42 29
-5.8591871 -10.349489 0.34512046 31 29
-5.8872409 -10.251791 0.34327427 197 29
-5.8655214 -10.070345 0.33890587 37 29
-5.9033098 -9.9937096 0.33768374 43 29
-5.9023719 -9.8535261 0.33453745 36 29
-5.7230062 -9.4223633 0.32252431 18 29
-5.5867972 -9.0721025 0.31290337 66 29
-5.6164212 -8.9960985 0.31162927 59 29
-5.6308923 -8.8972654 0.30965307 75 29
-5.6368079 -8.7868147 0.30731285 66 29
-5.6432166 -8.6791449 0.30505064 72 29
-5.6391683 -8.5575371 0.30234638 67 29
-5.6577106 -8.4720602 0.30076024 72 29
-5.6933432 -8.4131737 0.30000615 129 29
-5.7561626 -8.3945723 0.3005262 145 29
-5.7511044 -8.277813 0.29795197 53 29
-5.7753239 -8.2047625 0.29675585 27 29
-5.8238177 -8.1667299 0.29667783 54 29
-5.8866944 -8.1486702 0.29724988 282 29
-5.8232532 -7.9574924 0.29225743 28 29
-5.8523278 -7.8951077 0.29139933 10 29
-5.8460507 -7.7862964 0.28903311 33 29
-5.9197321 -7.7844982 0.29015121 8 29
-5.9435997 -7.7171383 0.28913713 44 29
-5.9988308 -7.6907721 0.28947514 24 29
-6.0923743 -7.7126579 0.29142535 33 29
-6.1633096 -7.7047973 0.29241344 45 29
-6.2350054 -7.6971326 0.29342753 33 29
-6.3017673 -7.682693 0.29423359 62 29
-6.383913 -7.6861806 0.29566374 27 29
-6.4586177 -7.6797667 0.29678184 47 29
-6.545795 -7.6871862 0.29839399 65 29
-6.6287365 -7.6885228 0.29982415 43 29
-6.7053661 -7.6815977 0.30099425 50 29
-6.7695832 -7.6597872 0.30167031 42 29
-7.6142535 -8.5099344 0.33279526 55 29
-7.0409012 -7.7724891 0.30856097 13 29
-7.1512895 -7.7976646 0.31097919 11 29
-7.1833582 -7.7367873 0.31038114 18 29
-7.2238493 -7.6852803 0.31012112 30 29
-7.3211689 -7.6936817 0.31201929 17 29
-0 -0 0 12 29
-8.3292465 -8.5408897 0.34608254 17 29
-8.4734917 -8.5828218 0.34948885 62 29
-8.557086 -8.5617819 0.35063297 94 29
-8.6428728 -8.5421467 0.3518551 100 29
-8.7509108 -8.5434294 0.3538833 37 29
-8.0023623 -7.7171478 0.32494253 24 29
-9.0345821 -8.6064138 0.36033189 71 29
-9.141818 -8.6022005 0.36228207 73 29
-9.2595892 -8.6065226 0.36459631 58 29
-9.3733377 -8.6056643 0.3667545 78 29
-9.4777966 -8.5950012 0.36857468 76 29
-9.5742846 -8.5760403 0.37010881 64 29
-6.3581753 -5.6247907 0.25658202 166 29
-2.7013857 -2.3595092 0.12906589 93 29
-2.6794903 -2.3115344 0.12781776 172 29
-2.7095981 -2.3086698 0.12836382 408 29
-2.6801267 -2.2552986 0.12688167 170 29
-2.7246587 -2.2643788 0.12792177 308 29
-2.6960132 -2.2127225 0.12649164 176 29
-2.700999 -2.1892116 0.12620561 139 29
-2.6995564 -2.1607234 0.12571156 134 29
-2.6986504 -2.132956 0.12524351 141 29
-2.6990817 -2.1065123 0.12482748 151 29
-2.7246218 -2.099679 0.12524351 331 29
-2.7159796 -2.0665703 0.12454145 207 29
-2.7110298 -2.0366507 0.1239694 145 29
-2.7146456 -2.0134242 0.12368337 144 29
-2.7180786 -1.99023 0.12339734 127 29
-2.7229497 -1.9682416 0.12316332 142 29
-2.7317212 -1.9491732 0.12305931 160 29
-2.7493494 -1.9364064 0.12324133 139 29
-2.784977 -1.9360561 0.1239954 99 29
-2.8198786 -1.934775 0.12472347 89 29
-2.8515584 -1.9308949 0.12534752 94 29
-2.8874512 -1.9294767 0.1261016 108 29
-2.9242671 -1.9282408 0.12688167 393 29
-2.9670398 -1.9304432 0.12784377 122 29
-2.9855576 -1.9165238 0.12805179 315 29
-3.0605886 -1.9383035 0.13000198 83 29
-3.1003962 -1.9369756 0.13086006 82 29
-3.137749 -1.9336573 0.13164014 95 29
-3.1811554 -1.9335893 0.13260221 78 29
-3.418416 -2.0492806 0.13944088 44 29
-3.4705038 -2.0516801 0.14063698 30 29
-0 -0 0 4 29
-3.506685 -2.0154161 0.14097501 5 29
-0 -0 0 5 29
-0 -0 0 5 29
-0 -0 0 5 29
-10.373425 -5.6304674 0.34278023 92 29
-10.391029 -5.5577517 0.34228617 573 29
-10.388679 -5.4747767 0.34122008 612 29
-10.388363 -5.3934231 0.34023198 683 29
-10.349173 -5.2927036 0.3381258 570 29
-10.347528 -5.2120104 0.3371377 629 29
-10.347972 -5.1328707 0.3362276 643 29
-10.326277 -5.0433908 0.33469346 767 29
-10.320092 -4.9621706 0.33362734 750 29
-10.308784 -4.8790779 0.33243123 692 29
-10.300469 -4.7980003 0.33133915 678 29
-10.28428 -4.7138762 0.33003902 641 29
-10.279294 -4.6354756 0.32907692 715 29
-10.270993 -4.556098 0.32803681 767 29
-10.270352 -4.4805961 0.32723075 769 29
-9.0133696 -3.8664031 0.29087928 90 29
-10.231536 -4.3149815 0.32460448 731 29
-10.230117 -4.240634 0.32382444 683 29
-10.229097 -4.1668439 0.32307035 766 29
-10.214566 -4.0880246 0.32195225 842 29
-10.195732 -4.0080781 0.32073012 876 29
-10.18936 -3.9335589 0.31987205 894 29
-10.132916 -3.8404865 0.31763583 725 29
-10.033557 -3.7325671 0.31422952 826 29
-10.023406 -3.6589308 0.31331941 834 29
-10.023081 -3.5892684 0.31269535 890 29
-10.024167 -3.5204108 0.3121233 814 29
-9.3745098 -3.2276962 0.29366156 98 29
-9.9567432 -3.3600433 0.30910701 340 29
-10.026525 -3.3152108 0.31045914 696 29
-10.021953 -3.2456162 0.30978307 592 29
-8.3417559 -2.6448348 0.26339468 938 29
-8.3559179 -2.593008 0.26334268 1109 29
-8.3621054 -2.5387828 0.26308265 1023 29
-8.3631516 -2.4831562 0.2626926 1023 29
-8.3705511 -2.4295638 0.26248458 1065 29
-8.3699141 -2.3737912 0.26206854 982 29
-8.3775778 -2.3205209 0.26188654 972 29
-8.3839388 -2.2669847 0.26167852 922 29
-8.4112225 -2.2190711 0.26204255 691 29
-6.2299929 -1.602477 0.20309493 273 29
-8.8091831 -2.208853 0.27200148 275 29
-9.9966145 -2.4416595 0.30343848 1005 29
-6.3440156 -1.5078896 0.20538315 281 29
-9.1863003 -2.1245337 0.28102434 111 29
-9.9316072 -2.2328887 0.30055222 587 29
-9.9470739 -2.1723342 0.30060422 988 29
-9.9162102 -2.1019261 0.2994341 383 29
-9.740921 -2.002373 0.29444161 105 29
-9.8824339 -1.9683573 0.29787394 1048 29
-9.8707685 -1.9031379 0.29724988 1090 29
-9.8694849 -1.8401527 0.29691187 981 29
-9.8933792 -1.7818651 0.29724988 1117 29
-9.8893538 -1.718558 0.29685986 1067 29
-9.8790083 -1.6543759 0.29631379 1060 29
-9.8702221 -1.5907041 0.29581976 1085 29
-9.8630028 -1.5275087 0.2953777 1072 29
-9.8583469 -1.4649031 0.29501367 1093 29
-9.8483458 -1.4017072 0.29451963 1035 29
-9.8428936 -1.3393639 0.2941556 1039 29
-9.828126 -1.2759809 0.29355755 985 29
-9.8198967 -1.2136889 0.29314151 994 29
-9.8132591 -1.1517792 0.29277748 972 29
-9.8131866 -1.0907706 0.29259545 944 29
-8.6197081 -0.90446007 0.26121047 78 29
-9.7920103 -0.96692157 0.29171136 1088 29
-9.7858143 -0.90571374 0.29139933 1149 29
-9.7742558 -0.84418774 0.2909573 1116 29
-9.7613153 -0.7827577 0.29048926 1245 29
-9.584341 0.23217896 0.16314666 307 30
-8.7561913 0.26585159 0.15217724 590 30
-8.7563934 0.3196466 0.15220377 521 30
-8.7812405 0.37452039 0.1525619 578 30
-8.7757807 0.42824766 0.15252212 338 30
-8.7480278 0.48071411 0.15219051 614 30
-8.7189646 0.53279513 0.15184565 556 30
-8.7045574 0.58554494 0.15169974 513 30
-9.5703793 0.70284009 0.16326605 346 30
-8.7206383 0.6942246 0.15201807 333 30
-8.7122297 0.74737829 0.15196502 471 30
-8.7273932 0.80265385 0.15223031 462 30
-8.7083721 0.85482085 0.15204461 625 30
-8.7009745 0.90803069 0.15201807 628 30
-8.6644297 0.95799392 0.15160689 453 30
-8.6494503 1.0100956 0.15148751 579 30
-9.4558868 1.1631635 0.16235082 203 30
-8.6145868 1.1133411 0.1511957 176 30
-8.6026392 1.1655067 0.15112938 206 30
-8.6151257 1.221077 0.15139467 289 30
-8.617363 1.2753798 0.1515273 491 30
-8.5896111 1.3251808 0.15126202 564 30
-8.5556488 1.3737381 0.15091716 227 30
-8.5539627 1.427361 0.15101001 475 30
-9.4406261 1.634957 0.16306709 1292 30
-9.4363213 1.693913 0.16314666 1130 30
-8.5291901 1.5851178 0.15104979 1016 30
-8.5340319 1.6402538 0.15124875 782 30
-8.5512686 1.698041 0.15162015 1229 30
-8.5426474 1.7508802 0.15164667 1352 30
-8.5170689 1.8001617 0.15144771 1111 30
-8.4833918 1.8474928 0.15114264 1017 30
-8.4670181 1.8984171 0.15107632 649 30
-9.3564539 2.1582627 0.16334563 416 30
-8.423625 1.9975623 0.15081105 501 30
-8.4461832 2.0577333 0.15128855 338 30
-8.4372787 2.1104901 0.1513416 546 30
-8.4183588 2.1607287 0.15126202 503 30
-8.3952732 2.2097964 0.15112938 397 30
-8.3815556 2.2612672 0.15112938 472 30
-8.3819799 2.3166492 0.15132834 218 30
-8.3733797 2.3696704 0.15140793 278 30
-8.3404341 2.4157176 0.1511559 154 30
-9.2956591 2.7543681 0.1645792 1348 30
-9.2766695 2.8107734 0.16455266 1281 30
-9.2716646 2.8714871 0.1647251 1342 30
-9.2595911 2.9301331 0.16480468 1248 30
-9.2538061 2.9908919 0.16497712 1358 30
-9.2457256 3.0510633 0.16512302 1284 30
-9.2334633 3.1099708 0.16521586 1281 30
-9.2246094 3.1701429 0.16536178 1342 30
-9.2200813 3.2319775 0.165574 1260 30
-9.2160835 3.2942121 0.16579948 1307 30
-9.2050915 3.3541224 0.16593213 1231 30
-9.2002726 3.4164588 0.16615762 1220 30
-9.1987762 3.4802775 0.16643617 1148 30
-9.1903105 3.5416889 0.16662186 1109 30
-9.1786451 3.6020315 0.16676778 1043 30
-9.1424427 3.6527174 0.1665688 718 30
-8.9309053 3.6318965 0.16386293 841 30
-8.9269304 3.6942749 0.16412821 1113 30
-8.9123888 3.7524724 0.16424759 1154 30
-8.8956299 3.8098431 0.16434044 1170 30
-8.8858366 3.8703439 0.1645394 1143 30
-8.8756351 3.9308677 0.16473836 1144 30
-8.8650246 3.9914117 0.16493732 1144 30
-8.8621883 4.0557184 0.16525567 1146 30
-8.8588953 4.1201406 0.165574 1057 30
-8.8524323 4.1833925 0.16585255 1057 30
-8.8428221 4.2454219 0.16609129 1055 30
-8.8345804 4.3083668 0.16635658 1037 30
-8.8169384 4.3669319 0.16648923 963 30
-8.8042698 4.4281387 0.16670145 994 30
-8.7991962 4.4934468 0.16703305 1037 30
-8.7892132 4.5565581 0.16729833 1088 30
-8.7779016 4.6192498 0.16755036 1073 30
-8.7758522 4.6871567 0.16794828 1146 30
-8.7636299 4.7499695 0.1682003 1117 30
-8.6738663 4.770402 0.16728507 495 30
-8.6444321 4.823534 0.16728507 94 30
-8.7356243 4.9449573 0.16912878 1031 30
-8.7198582 5.0069299 0.16935427 371 30
-7.9692273 4.6411328 0.15830526 116 30
-8.7662373 5.1776352 0.17102554 588 30
-8.8578262 5.3053155 0.17293558 636 30
-8.8524542 5.3761764 0.17336003 712 30
-8.8933744 5.476007 0.17451401 919 30
-8.8909903 5.5500646 0.17500478 494 30
-0 0 0 5 30
-2.7540309 1.7661802 0.079370528 21 30
-2.7439804 1.7835903 0.07938379 41 30
-2.7404995 1.8053451 0.079503164 38 30
-2.7335281 1.8249029 0.079569489 46 30
-2.7330451 1.8489261 0.079741925 32 30
-2.7290709 1.87075 0.079861298 42 30
-2.7273951 1.8943059 0.080020465 45 30
-2.7255325 1.9179115 0.080179639 46 30
-2.725111 1.9427265 0.080365337 35 30
-2.7212448 1.965266 0.080497973 54 30
-2.7163975 1.9872406 0.080617353 45 30
-2.7097762 2.0080385 0.080710202 71 30
-2.7285898 2.0480409 0.081227504 9 30
-2.6626439 2.024194 0.080338806 39 30
-2.6382906 2.031342 0.080139846 47 30
-2.606854 2.0327332 0.079821505 48 30
-2.5762849 2.0344353 0.079516433 49 30
-2.5520408 2.0408361 0.079317473 48 30
-2.5208225 2.041352 0.078999132 44 30
-2.4873753 2.0396597 0.078640997 40 30
-2.4594288 2.0421066 0.078375719 45 30
-2.4307816 2.0436442 0.078097172 45 30
-2.3991632 2.0423148 0.077765569 43 30
-2.3638668 2.0374103 0.077367648 34 30
-2.3347483 2.0374105 0.077075832 31 30
-2.3019731 2.0338202 0.076717705 47 30
-2.2715659 2.0319049 0.076399364 30 30
-2.2434931 2.0317075 0.076120816 39 30
-2.2177196 2.0332704 0.075882062 49 30
-2.1920118 2.0345938 0.075643308 35 30
-2.167829 2.0370483 0.075431086 25 30
-2.1451478 2.0406616 0.075245388 36 30
-2.1232245 2.0447674 0.075072952 55 30
-2.1013317 2.0486815 0.074900523 47 30
-2.0808945 2.0538089 0.074754618 38 30
-2.0668387 2.0651248 0.074728087 47 30
-2.0456939 2.0692337 0.07456892 49 30
-2.0106063 2.058852 0.074144468 38 30
-1.9361593 2.007093 0.07296396 15 30
-1.8796676 1.9725999 0.072115056 5 30
-1.8983639 2.0168655 0.072711945 43 30
-1.869615 2.0108981 0.072393604 55 30
-1.8626511 2.0282245 0.072499715 58 30
-1.8602468 2.0507257 0.072698675 50 30
-1.8596375 2.0755079 0.072937429 46 30
-1.8568059 2.0981126 0.073136397 52 30
-1.8537667 2.1207602 0.073335357 39 30
-1.8537856 2.147234 0.073600635 49 30
-1.8509543 2.1707435 0.073812865 38 30
-1.8479038 2.1942985 0.074025087 38 30
-1.8459123 2.219435 0.074263841 43 30
-1.8443159 2.2454021 0.074515864 43 30
-1.8405806 2.2691026 0.074728087 51 30
-1.8378733 2.2944021 0.07496684 38 30
-1.8355449 2.320538 0.075218856 35 30
-1.8329644 2.3467309 0.07547088 49 30
-1.8356261 2.3801057 0.075842269 36 30
-1.840975 2.4175787 0.07627999 52 30
-1.8423277 2.4504104 0.076638117 29 30
-1.8373876 2.4753189 0.076863609 37 30
-1.8339834 2.5026786 0.077128895 40 30
-1.8244525 2.5219867 0.07726153 40 30
-1.8112675 2.5363891 0.077314585 20 30
-2.6792381 3.8012693 0.097661741 15 30
-2.6901214 3.8668892 0.098457582 164 30
-2.6793599 3.902283 0.098762661 162 30
-2.6037676 3.8424909 0.09754236 85 30
-2.5856991 3.8667073 0.097675003 64 30
-2.5690832 3.8933504 0.097847439 76 30
-2.5576925 3.9283147 0.098152511 108 30
-2.5119262 3.9102814 0.097621948 66 30
-2.4846747 3.9205527 0.09754236 82 30
-2.4393721 3.901809 0.097011797 82 30
-2.1330507 3.4587944 0.089875706 63 30
-2.0400896 3.353919 0.088045254 158 30
-2.0205004 3.3680887 0.088071786 105 30
-0 0 0 7 30
-0 0 0 14 30
-0 0 0 4 30
-1.5462053 2.7268524 0.077553339 6 30
-1.7108893 3.0609999 0.082487591 4 30
-1.7629865 3.2001908 0.084437415 11 30
-1.7581046 3.2381909 0.084848605 18 30
-1.758953 3.2877128 0.085432224 22 30
-1.7597252 3.3382499 0.086029112 105 30
-1.7180145 3.3081627 0.085418962 57 30
-1.6940413 3.3115201 0.085312851 65 30
-1.6669428 3.3084569 0.08511389 86 30
-1.6355027 3.2962289 0.084782287 120 30
-1.5985711 3.2720602 0.084278248 36 30
-1.5732642 3.2709935 0.084119081 33 30
-1.5377643 3.2480488 0.083641574 15 30
-1.4945836 3.2075715 0.082912043 84 30
-1.4919568 3.2539494 0.083455876 14 30
-1.4867612 3.295857 0.083933383 6 30
-1.4458315 3.2583027 0.083256915 9 30
-1.4442048 3.3092711 0.083867058 4 30
-0 0 0 6 30
-1.391829 3.2991049 0.083469138 13 30
-0 0 0 13 30
-0 0 0 31 30
-0 0 0 25 30
-1.3298355 3.3815894 0.084172137 35 30
-1.3108621 3.3943493 0.084238455 33 30
-1.2889469 3.3995237 0.084198661 44 30
-1.2670176 3.4045572 0.084158868 59 30
-1.2423319 3.4019353 0.084012963 76 30
-1.217052 3.3972564 0.083840534 64 30
-0 0 0 157 30
-0 0 0 191 30
-0 0 0 147 30
-0 0 0 122 30
-0 0 0 173 30
-0 0 0 118 30
-0.8477605 2.7301514 0.073892444 119 30
-0 0 0 126 30
-0 0 0 26 30
-0 0 0 25 30
-0.79769474 2.8107376 0.074728087 13 30
-0.79885375 2.8820689 0.075643308 8 30
-0.78715873 2.9091165 0.075948387 5 30
-0.78026396 2.9554651 0.076518744 7 30
-0.76136732 2.9572918 0.076478951 18 30
-0.77239549 3.0782931 0.078070641 20 30
-0.82467633 3.3743799 0.082049876 76 30
-0.79354692 3.3356009 0.081452996 134 30
-0.77283978 3.339433 0.081439726 163 30
-0.75211549 3.3431368 0.081426464 163 30
-0.73137486 3.3467119 0.081413202 153 30
-0.71082604 3.3511364 0.081413202 170 30
-0.6906532 3.3573937 0.081439726 184 30
-0.66613263 3.3419554 0.081174448 111 30
-0.64372092 3.3361616 0.081041805 123 30
-0.62305516 3.3390656 0.081028543 67 30
-0.60237807 3.3418417 0.081015274 66 30
-0.57946438 3.3316829 0.080829576 172 30
-0.5581848 3.3302448 0.080763258 175 30
-0.53710377 3.3296585 0.080710202 160 30
-0.51742858 3.337832 0.08077652 158 30
-0.49782029 3.3468783 0.080856107 171 30
-0.47586557 3.3399706 0.080723464 167 30
-0.45455384 3.3368828 0.080643885 162 30
-0.43329796 3.3336596 0.080564298 167 30
-0.41222143 3.3312938 0.080497973 150 30
-0.39142349 3.3307812 0.080458187 173 30
-0.37020537 3.3261635 0.080365337 161 30
-0.34884989 3.3194225 0.080245957 175 30
-0.32808256 3.3175201 0.080192901 160 30
-0.30725956 3.3144927 0.080126584 161 30
-0.28639999 3.3103383 0.080046996 186 30
-0.26528317 3.3020663 0.079914354 174 30
-0.24464786 3.298646 0.079848036 153 30
-0.22460631 3.3030777 0.07988783 175 30
-0.20421158 3.3023977 0.079861298 181 30
-0.18355629 3.2965999 0.079768449 173 30
-0.1629305 3.2896748 0.079662338 154 30
-0.14239663 3.2826207 0.079556227 167 30
-0.12225217 3.2834325 0.079556227 136 30
-0.10210311 3.2841208 0.079556227 157 30
-0.081801258 3.278688 0.07947664 161 30
-0.061607316 3.2751291 0.079423584 191 30
-0.041422464 3.2684467 0.079330735 169 30
-0.021334777 3.2636399 0.07926441 191 30
-0.0013101918 3.267709 0.079317473 142 30
0.014889661 2.6097248 0.070589684 130 30
0.030758508 2.5975862 0.070430517 89 30
0.046605811 2.5923498 0.070364192 126 30
0.062292993 2.5830183 0.070244819 158 30
0.078110531 2.581588 0.070231549 155 30
0.093584187 2.5710678 0.070098914 185 30
0.1091876 2.5664492 0.070045851 159 30
0 0 0 154 30
0 0 0 211 30
0 0 0 215 30
0 0 0 207 30
0.18778826 2.560895 0.070032589 184 30
0.20381565 2.5636814 0.070085645 124 30
0.21894372 2.555409 0.069992796 190 30
0.23480253 2.5560088 0.070019327 164 30
0.25018829 2.5515347 0.069979534 165 30
0.26615101 2.5529349 0.070019327 133 30
0.28115094 2.5452907 0.06993974 142 30
0.2965312 2.5415313 0.069913216 167 30
0.31187591 2.5376792 0.069886684 143 30
0.32731274 2.5347261 0.069873422 120 30
0.34326223 2.5356426 0.069913216 126 30
0.35923529 2.5364587 0.069953009 153 30
0.37654918 2.5460763 0.070112176 126 30
0.39399457 2.5555766 0.070271343 77 30
0.40919217 2.550149 0.070231549 94 30
0.42647809 2.5574529 0.070364192 196 30
0.43635958 2.5212898 0.069913216 64 30
0.44439992 2.4772296 0.069356121 93 30
0.45575392 2.4538116 0.069077574 103 30
0.46815881 2.437222 0.068891875 109 30
0 0 0 118 30
0 0 0 118 30
0 0 0 127 30
0 0 0 132 30
0.54291862 2.4226902 0.068905137 131 30
0.55777377 2.4193132 0.068905137 145 30
0.57260787 2.4158454 0.068905137 158 30
0.58813059 2.4152007 0.068944931 136 30
0.6031816 2.4125166 0.068958201 124 30
0.61946499 2.4145813 0.06903778 128 30
0.63426894 2.4107349 0.06903778 132 30
0.64852798 2.4048669 0.069011256 142 30
0.66327173 2.4008424 0.069011256 150 30
0.68343705 2.4159696 0.069276534 51 30
0.69240558 2.3915617 0.068997987 63 30
0.71189678 2.4035661 0.069223478 114 30
0.72895128 2.4068081 0.06932959 154 30
0.74518472 2.4070659 0.069395915 147 30
0.76054364 2.4043548 0.069422439 143 30
0.77620482 2.4024973 0.069462232 146 30
0.79030484 2.3957903 0.069435708 118 30
0.80818236 2.4003718 0.069568343 88 30
0.81834531 2.3821292 0.069382653 69 30
0.84154743 2.4015968 0.069727518 21 30
0.8683849 2.430284 0.070205025 5 30
1.101024 3.0224152 0.078640997 15 30
1.1735075 3.1608925 0.08069694 166 30
1.1939418 3.1564381 0.080736727 213 30
1.2154446 3.1546509 0.080816314 224 30
1.2369701 3.1527185 0.080895901 196 30
0 0 0 220 30
1.2800862 3.1484163 0.081055067 225 30
1.3005276 3.1432743 0.081094861 205 30
1.3209541 3.138 0.081134655 192 30
1.3425457 3.1353505 0.081214242 225 30
1.3641546 3.1325541 0.081293821 171 30
0 0 0 242 30
0 0 0 229 30
0 0 0 203 30
1.45285 3.1244249 0.08167848 198 30
1.4762663 3.1244919 0.081811123 213 30
1.5006037 3.1261916 0.081970289 239 30
1.5210723 3.1196215 0.082010083 227 30
0 0 0 226 30
0 0 0 214 30
0 0 0 664 30
0 0 0 63 30
0 0 0 56 30
1.6169642 3.0280058 0.081506051 60 30
1.6269361 3.0022042 0.081267297 77 30
1.630388 2.9650049 0.080856107 67 30
0 0 0 45 30
0 0 0 44 30
0 0 0 31 30
0 0 0 108 30
0 0 0 79 30
0 0 0 82 30
0 0 0 67 30
0 0 0 63 30
0 0 0 91 30
0 0 0 71 30
0 0 0 61 30
0 0 0 82 30
0 0 0 80 30
0 0 0 88 30
0 0 0 119 30
0 0 0 106 30
0 0 0 190 30
0 0 0 169 30
0 0 0 208 30
0 0 0 162 30
0 0 0 239 30
0 0 0 241 30
1.9045603 2.5374765 0.078057379 282 30
1.9255413 2.5329061 0.078176759 335 30
0 0 0 154 30
0 0 0 144 30
0 0 0 145 30
0 0 0 170 30
0 0 0 137 30
0 0 0 269 30
2.0983255 2.5271199 0.079542957 155 30
2.1543362 2.5624101 0.080378599 58 30
2.3554153 2.7668805 0.084172137 27 30
2.4578784 2.8515856 0.085909732 52 30
2.4621782 2.8213847 0.085644454 103 30
2.4834166 2.8107195 0.085724033 72 30
2.5146174 2.8110774 0.086002581 44 30
2.7110529 2.9934623 0.089544103 87 30
2.749644 2.9988797 0.089942023 116 30
2.7815998 2.9966073 0.090207309 162 30
2.8040431 2.983855 0.090286888 106 30
2.842977 2.9883249 0.090684816 151 30
2.8675029 2.9773057 0.090804189 148 30
2.8899062 2.9639502 0.090883777 135 30
2.9382453 2.9767597 0.091454133 211 30
2.9387839 2.9409938 0.09112253 26 30
3.1964386 3.1597819 0.095592536 56 30
3.2386615 3.162462 0.096016988 75 30
3.2688012 3.1529422 0.096215948 87 30
3.2967737 3.1411021 0.096375123 81 30
3.3290927 3.1331484 0.096613877 63 30
3.3672969 3.130362 0.096958742 84 30
3.4092746 3.1306052 0.097369932 80 30
3.443974 3.1237333 0.097648472 88 30
3.4898889 3.12656 0.098125979 93 30
3.5254829 3.1196642 0.098417796 92 30
3.5709109 3.1210022 0.098882034 86 30
3.607404 3.1140594 0.099187113 68 30
3.6454673 3.108083 0.099518716 89 30
3.687417 3.1049759 0.099916637 71 30
3.7256207 3.0982742 0.10024824 77 30
3.7615621 3.0893161 0.10054005 78 30
3.7905433 3.0743649 0.10071249 54 30
0 0 0 4 30
3.7801421 2.9897838 0.099903375 5 30
3.7960515 2.9646869 0.099863581 8 30
3.8157549 2.94256 0.099890113 8 30
3.8233955 2.9112177 0.099717677 13 30
3.8443835 2.8901062 0.099770732 17 30
3.8821187 2.8813598 0.10010234 133 30
3.9198906 2.8722589 0.10043394 133 30
3.9747107 2.8751078 0.10104409 154 30
4.0126224 2.86519 0.10137569 159 30
4.060369 2.8618267 0.10186646 139 30
4.1213584 2.86712 0.10256946 125 30
4.1652527 2.8598871 0.10299391 148 30
4.2017617 2.8471754 0.10329898 144 30
4.2665334 2.8530183 0.10405504 127 30
4.3089976 2.8433051 0.10445297 135 30
4.3548546 2.8353596 0.10490394 171 30
4.4049821 2.8296595 0.10542125 135 30
4.4543576 2.8229148 0.10592528 157 30
4.5055103 2.8167303 0.10645585 121 30
4.5610099 2.8126471 0.10705273 144 30
4.6191902 2.8095469 0.10768941 153 30
4.6714997 2.8022375 0.10823324 143 30
4.7273355 2.7964272 0.10883012 134 30
4.7772274 2.7865105 0.10933416 139 30
4.83671 2.7815685 0.1099841 254 30
4.8562956 2.7533181 0.11002389 269 30
4.8652425 2.7190785 0.10990451 250 30
4.8669453 2.6809742 0.10967903 238 30
4.8657279 2.6415207 0.10941374 251 30
4.8659735 2.6031265 0.10917499 233 30
4.8641629 2.5638967 0.1089097 220 30
4.8691535 2.5284736 0.10875054 262 30
4.8685522 2.4903541 0.10851178 261 30
4.8757038 2.4563859 0.10839241 250 30
4.9050164 2.4335322 0.10860463 194 30
4.9459114 2.416116 0.10898929 207 30
4.9957881 2.402622 0.10950659 286 30
5.0032063 2.3685012 0.10940048 245 30
4.982295 2.3212907 0.10888318 168 30
4.9864459 2.2860932 0.10873728 238 30
4.9702997 2.2418888 0.10829956 203 30
4.9867039 2.2125657 0.10833935 221 30
5.000186 2.1819263 0.10833935 276 30
5.011642 2.1504161 0.10831282 310 30
5.0155292 2.1157391 0.10818018 299 30
5.0108666 2.0776491 0.10792816 362 30
5.0077782 2.040451 0.10770267 385 30
5.0044227 2.0033691 0.10747718 339 30
5.0008011 1.9664055 0.10725169 400 30
5.0118394 1.935324 0.10723843 424 30
5.0208154 1.9034723 0.10719863 351 30
4.9930396 1.8579859 0.10664155 193 30
5.0193744 1.8328005 0.10685377 367 30
5.0116982 1.7952251 0.10658849 258 30
5.0235629 1.7647715 0.10660175 252 30
5.0210605 1.7293566 0.10641605 338 30
5.0306296 1.6981957 0.10640279 394 30
5.0267148 1.6625875 0.10620382 287 30
4.999722 1.6196972 0.10568653 210 30
4.986691 1.581735 0.10536819 90 30
4.9924827 1.5499219 0.10531513 31 30
4.993288 1.5166446 0.10519575 26 30
4.99579 1.4839853 0.1051029 26 30
4.9951987 1.4505161 0.10497026 24 30
4.9963093 1.4176558 0.10486415 21 30
4.9981685 1.3851037 0.1047713 23 30
4.9998169 1.3525821 0.10467845 20 30
5.0012541 1.3200924 0.1045856 27 30
5.0034499 1.2878854 0.10450602 29 30
5.0044689 1.255458 0.10441317 21 30
5.0062499 1.2233038 0.10433359 21 30
5.0078249 1.1911751 0.104254 16 30
5.0150394 1.1604253 0.104254 27 30
5.0191388 1.1289736 0.10421421 19 30
5.0259714 1.0981555 0.10421421 27 30
5.0326152 1.0672961 0.10421421 34 30
5.0351515 1.035591 0.10416115 22 30
5.0394497 1.0042857 0.10413463 35 30
5.0396261 0.97220933 0.10405504 40 30
5.0356669 0.93943542 0.1039224 17 30
5.0334635 0.90710133 0.10381629 21 30
5.0300684 0.87465847 0.10369691 28 30
5.0294237 0.84278703 0.10361733 35 30
5.0315385 0.81143379 0.10357753 22 30
5.0354347 0.78039253 0.10356427 24 30
5.0381503 0.74918699 0.10353774 38 30
5.043642 0.7184003 0.10355101 38 30
5.0469646 0.68730474 0.10353774 28 30
5.0481119 0.65593791 0.10349794 54 30
5.0490646 0.62458289 0.10345816 53 30
5.0488296 0.59312427 0.1034051 55 30
5.0474048 0.56158161 0.10333878 53 30
5.0666666 0.53227109 0.10355101 74 30
5.0748129 0.50166398 0.10361733 82 30
5.0718212 0.46996301 0.10353774 83 30
5.0736132 0.43874797 0.10352448 99 30
5.0642495 0.40664911 0.10336531 79 30
5.0716352 0.37593701 0.10343163 84 30
5.0658655 0.34426919 0.10332552 94 30
5.0579023 0.31256315 0.10319287 112 30
5.0507398 0.28102332 0.1030735 117 30
5.0503716 0.24992858 0.10304697 131 30
5.0618 0.21936755 0.10317961 142 30
5.0720434 0.18863858 0.10329898 152 30
5.0731053 0.15751356 0.10329898 115 30
5.06498 0.12615921 0.10317961 112 30
5.0756559 0.095265582 0.10331225 101 30
5.078145 0.064145252 0.10333878 84 30
5.0784431 0.032985136 0.10333878 100 30
5.0725503 0.0018220736 0.10325919 72 30
0 -0 0 73 30
5.0751901 -0.060462017 0.10329898 67 30
5.0737238 -0.091583535 0.10328572 54 30
5.068068 -0.12259232 0.1032194 66 30
5.0642223 -0.15359592 0.10317961 69 30
5.0681806 -0.18484913 0.10324593 67 30
5.0699482 -0.21607137 0.10328572 60 30
0 -0 0 57 30
0 -0 0 66 30
0 -0 0 50 30
5.0750904 -0.34123492 0.10344489 50 30
5.0798817 -0.37288159 0.10353774 43 30
5.0834785 -0.40452048 0.10361733 42 30
5.0888705 -0.43638855 0.10372344 42 30
5.0930672 -0.4682464 0.10381629 37 30
5.0960689 -0.50007445 0.10389587 22 30
5.0988717 -0.53195691 0.10397546 37 30
5.0984931 -0.56356275 0.10401525 27 30
5.097919 -0.59518397 0.10405504 34 30
5.0981407 -0.6269415 0.1041081 28 30
5.1001477 -0.65898055 0.10418768 34 30
5.1049261 -0.69147062 0.10430706 28 30
5.1094971 -0.72404414 0.10442644 29 30
5.1148496 -0.75684619 0.10455908 27 30
5.1209798 -0.78989357 0.10470498 35 30
5.1140623 -0.82098335 0.10467845 28 30
5.1099148 -0.85251176 0.10469172 24 30
5.1104989 -0.88487357 0.1047713 18 30
5.1098943 -0.91709793 0.10483763 19 30
5.1120353 -0.94989634 0.10494374 20 30
5.1149483 -0.98294425 0.10506311 16 30
5.122551 -1.0170376 0.10524881 23 30
5.1269894 -1.0506588 0.10539471 24 30
5.1282725 -1.0837522 0.10550083 18 30
5.1312962 -1.1173264 0.10563347 37 30
5.1311736 -1.150322 0.10572632 16 30
5.1327872 -1.1838077 0.1058457 19 30
5.1341834 -1.2173564 0.10596507 23 30
5.1343889 -1.2507302 0.10607119 14 30
5.1363182 -1.2846375 0.10620382 26 30
5.1399612 -1.3191127 0.106363 26 30
5.1482091 -1.3549538 0.10658849 34 30
5.1378675 -1.3859961 0.10656196 19 30
5.143723 -1.4214916 0.10676092 26 30
5.1560702 -1.4590173 0.10705273 42 30
5.1815963 -1.5006429 0.10753024 52 30
5.1847539 -1.5361017 0.10770267 120 30
5.179059 -1.5690458 0.10775573 383 30
5.0451655 -1.5623333 0.1060314 148 30
4.9763794 -1.5745546 0.10520902 159 30
4.8952665 -1.581993 0.10421421 175 30
4.820899 -1.5906898 0.10331225 203 30
4.7703013 -1.6065145 0.1027419 343 30
4.7641368 -1.6370543 0.10279495 370 30
4.7624946 -1.669233 0.10291433 380 30
4.754046 -1.6990969 0.10294086 393 30
4.7538652 -1.7320012 0.10308676 407 30
4.7553339 -1.7656634 0.10325919 524 30
4.7593737 -1.8004701 0.10347142 400 30
4.7557006 -1.832516 0.10357753 485 30
4.7685676 -1.8711601 0.1039224 575 30
4.7681389 -1.9048365 0.10408157 565 30
4.7758126 -1.9419684 0.10436012 546 30
4.7702742 -1.9739125 0.10445297 633 30
4.7663665 -2.0066376 0.10457234 581 30
4.7273092 -2.0244284 0.10418768 83 30
4.7441335 -2.066175 0.10461213 57 30
4.7633648 -2.1094189 0.10507638 53 30
4.7630963 -2.1443541 0.10526208 49 30
4.7607594 -2.1785333 0.10542125 43 30
4.7545557 -2.2110775 0.10552736 47 30
4.7499394 -2.2444818 0.10566 42 30
4.7532048 -2.2818079 0.10591201 30 30
4.7534938 -2.3179431 0.10612424 44 30
4.757998 -2.3563869 0.10640279 37 30
4.7622089 -2.3949726 0.10668133 27 30
4.7607813 -2.4309697 0.1068803 44 30
4.7590909 -2.4670393 0.10707926 29 30
4.7597914 -2.5045764 0.10731801 41 30
4.7593274 -2.5417435 0.10754351 38 30
4.755949 -2.5775695 0.1077292 36 30
4.7575665 -2.6163409 0.10799448 37 30
4.7623792 -2.6571777 0.10831282 33 30
4.7633882 -2.6962013 0.1085781 26 30
4.7658315 -2.7363327 0.10886992 20 30
4.7688246 -2.7770987 0.10917499 20 30
4.7732186 -2.8190207 0.10950659 27 30
4.7772765 -2.8611009 0.1098382 19 30
4.7792873 -2.9022985 0.11014327 16 30
4.7860808 -2.9467738 0.11052793 19 30
4.7942038 -2.9925001 0.11093912 11 30
4.7909608 -3.0314853 0.11117787 21 30
4.8000436 -3.0786412 0.11161558 13 30
4.8053737 -3.123842 0.11200024 14 30
4.8111644 -3.1697736 0.11239817 14 30
4.8099184 -3.2114508 0.11268998 16 30
4.8199358 -3.2610772 0.11316749 22 30
4.8138547 -3.3002028 0.11339298 15 30
4.8156867 -3.3450816 0.11375111 16 30
4.8130598 -3.3872285 0.11404292 16 30
4.8117247 -3.43063 0.11436126 18 30
4.809227 -3.4735565 0.11466634 18 30
4.8079967 -3.5177619 0.11499794 21 30
4.8064041 -3.5620825 0.11532954 17 30
4.8148432 -3.6143198 0.11583357 27 30
4.8188415 -3.6637676 0.11627129 31 30
4.8224134 -3.7134001 0.11670901 16 30
4.8326526 -3.768748 0.1172661 18 30
4.8361154 -3.8194022 0.11771708 19 30
4.8453846 -3.8752365 0.11827417 16 30
4.8292856 -3.9111879 0.11840681 19 30
4.8283896 -3.9597697 0.11880474 19 30
4.8332324 -4.013598 0.11930877 14 30
4.8330035 -4.0637727 0.11973322 15 30
4.8323398 -4.1140943 0.12015767 18 30
4.83957 -4.1717424 0.12072803 11 30
4.8432608 -4.2270026 0.12124533 25 30
4.8472037 -4.2831268 0.1217759 21 30
4.8461676 -4.3354568 0.12222688 17 30
4.8491178 -4.3919625 0.12275744 15 30
4.8596621 -4.4561005 0.12343391 28 30
4.8608069 -4.5123677 0.12395121 30 30
4.8578 -4.565392 0.12440219 27 30
4.8615685 -4.6254411 0.12498581 25 30
4.8590207 -4.6801572 0.12546332 26 30
4.8667216 -4.7454872 0.12613979 30 30
4.8666868 -4.8040619 0.12668362 16 30
4.8774309 -4.8741226 0.12743968 19 30
4.8832793 -4.940228 0.12811615 33 30
4.8829112 -5.0008636 0.1286865 18 30
4.889617 -5.0695963 0.12940276 21 30
4.8915234 -5.1342545 0.13003944 13 30
4.9030972 -5.2100487 0.13087508 25 30
4.8832903 -5.2532187 0.13111383 18 30
4.8922162 -5.3280134 0.13192295 23 30
4.8990626 -5.4016318 0.13270552 29 30
4.8931799 -5.4621272 0.13324936 28 30
4.9099283 -5.5489635 0.13425742 24 30
4.9119759 -5.6203971 0.13498695 28 30
4.9100637 -5.6882787 0.13565016 27 30
4.919827 -5.7708049 0.13656539 25 30
4.934557 -5.8605471 0.13759999 20 30
4.9272723 -5.925313 0.13819687 22 30
4.9263577 -5.9987097 0.13893966 27 30
4.9335437 -6.083189 0.13986814 25 30
4.9486275 -6.1789074 0.14098233 19 30
4.9478345 -6.2562141 0.14177819 25 30
4.9327393 -6.3164034 0.14228222 23 30
4.9347968 -6.3996062 0.14317091 23 30
4.9190583 -6.4607935 0.14368822 25 30
4.8985481 -6.5164318 0.14411266 25 30
4.9967151 -6.7326546 0.14718994 180 30
4.9872208 -6.8067441 0.1479062 486 30
4.9629407 -6.8615236 0.14830412 373 30
4.9927888 -6.9927578 0.14994888 478 30
4.9757075 -7.0600419 0.15054576 68 30
4.9768295 -7.1544671 0.15158036 77 30
4.9764123 -7.2483454 0.15260169 74 30
5.0058756 -7.3880148 0.15435256 82 30
5.0221386 -7.5108585 0.15582487 79 30
5.0293708 -7.6224918 0.1571115 48 30
5.0043259 -7.686728 0.15764207 59 30
5.0256929 -7.8241377 0.1593266 71 30
5.0380669 -7.9502707 0.16082545 52 30
5.0252299 -8.0386906 0.1617274 66 30
5.0267148 -8.1519337 0.16301402 40 30
5.0519361 -8.3065023 0.16493732 32 30
5.0379028 -8.3990841 0.16589233 31 30
5.0595727 -8.553771 0.16780236 29 30
5.0765085 -8.7038536 0.16963282 24 30
5.0828185 -8.8388577 0.1712245 26 30
5.0925918 -8.9829617 0.17294885 30 30
5.1154184 -9.1537018 0.17507111 20 30
5.1073947 -9.2725019 0.17639752 19 30
5.1109834 -9.4152737 0.17808206 29 30
5.108294 -9.5496168 0.17963396 23 30
5.1223278 -9.7187767 0.18170317 18 30
5.1132803 -9.847641 0.18316221 24 30
5.1032982 -9.9776468 0.18463454 23 30
5.125648 -10.174873 0.18710166 31 30
5.152431 -10.386181 0.18976775 26 30
5.145215 -10.533503 0.19147882 18 30
5.1251168 -10.657693 0.19284502 29 30
5.1396198 -10.857947 0.1953254 26 30
5.170433 -11.098657 0.19838941 35 30
5.1555667 -11.246521 0.20008722 44 30
5.1415453 -11.400086 0.20186462 35 30
0 -0 0 69 30
0 -0 0 594 30
5.048707 -11.767551 0.20583059 266 30
4.940659 -11.713546 0.20461029 55 30
4.8430381 -11.681754 0.20372158 15 30
4.7682509 -11.703842 0.20361547 17 30
4.6896601 -11.716169 0.20337673 499 30
4.6246338 -11.762405 0.20362873 423 30
0 -0 0 60 30
5.2876148 -13.949138 0.23385766 48 30
5.2939696 -14.228728 0.23735937 43 30
5.3145766 -14.556817 0.24153757 30 30
5.3407922 -14.912041 0.24608716 25 30
5.3459458 -15.220009 0.24996029 19 30
5.3748636 -15.608006 0.2549476 17 30
5.3630857 -15.889861 0.25843605 19 30
5.4334354 -16.430374 0.26553234 16 30
5.4271026 -16.755442 0.26960444 158 30
5.3229818 -16.784615 0.2695514 530 30
5.217226 -16.808365 0.26943201 92 30
5.1000481 -16.794136 0.26879534 28 30
5.5383177 -18.648252 0.29402366 34 30
5.4165421 -18.656918 0.29367882 179 30
5.3169713 -18.74271 0.29440832 84 30
5.5192866 -19.920719 0.31017935 65 30
5.8402057 -21.59318 0.33270183 14 30
5.7037759 -21.614107 0.33250287 21 30
4.3323712 -16.834949 0.26656696 32 30
4.2238841 -16.840847 0.2662884 203 30
4.1169124 -16.851877 0.26608944 580 30
4.0090384 -16.858337 0.26583743 607 30
3.9019167 -16.867033 0.26562521 585 30
3.7954974 -16.877975 0.26545277 604 30
3.6873839 -16.88043 0.26517424 397 30
3.5808351 -16.889044 0.26498854 479 30
3.4731112 -16.891109 0.26472324 582 30
3.3668642 -16.899353 0.26455081 565 30
3.2614043 -16.910858 0.26443145 473 30
3.2631621 -17.49674 0.27207157 155 30
3.2899344 -18.261377 0.28211251 354 30
3.1733711 -18.255606 0.28176764 515 30
3.0561764 -18.244162 0.28135645 501 30
2.9387646 -18.229008 0.28090546 468 30
2.8188989 -18.195312 0.28021574 516 30
2.7011745 -18.171717 0.27967191 548 30
2.5834234 -18.144392 0.27908829 516 30
2.4679973 -18.130178 0.27869037 510 30
2.3521993 -18.110275 0.27822611 541 30
2.2374747 -18.095589 0.27784145 475 30
2.1216199 -18.06826 0.27729762 546 30
2.0071795 -18.049137 0.27687317 571 30
1.8925316 -18.024319 0.27638242 548 30
1.7784607 -18.000763 0.27591816 532 30
1.6657642 -17.987442 0.27559981 517 30
1.5532122 -17.972418 0.27526823 509 30
1.4399478 -17.944733 0.27477744 493 30
1.3278941 -17.927303 0.27443257 477 30
1.2154989 -17.900196 0.27396834 540 30
1.1036713 -17.875381 0.27354389 561 30
0.99208319 -17.847872 0.2730929 600 30
0.88136774 -17.829655 0.27277458 613 30
0.7710861 -17.814749 0.27250928 585 30
0.66087222 -17.795162 0.27219093 599 30
0.55095875 -17.775896 0.27188587 542 30
0.44138107 -17.758949 0.27162057 529 30
0.33201343 -17.74033 0.27134204 549 30
0.22300392 -17.730034 0.27118286 567 30
0.11403055 -17.703072 0.27081147 608 30
0.0053953207 -17.671442 0.27038702 601 30
-0.10290597 -17.649143 0.2700952 570 30
-0.2107776 -17.613186 0.26963097 684 30
-0.31846556 -17.590567 0.26935244 646 30
-0.42590815 -17.568289 0.26908714 708 30
-0.53321087 -17.549353 0.26887491 662 30
-0.64022428 -17.527765 0.26863617 634 30
-0.74746203 -17.516514 0.2685433 665 30
-0.85414678 -17.495619 0.26833108 615 30
-0.96071309 -17.47607 0.26814538 640 30
-1.0673769 -17.460863 0.26802602 659 30
-1.1737559 -17.443012 0.26788011 660 30
-1.2801759 -17.427504 0.26777399 712 30
-1.3859735 -17.405365 0.26758829 733 30
-1.4916331 -17.383583 0.26741585 714 30
-1.5961615 -17.351202 0.26711079 674 30
-1.7023032 -17.338097 0.26707101 749 30
-1.8080328 -17.321358 0.26699141 708 30
-1.9149401 -17.315901 0.26707101 770 30
-2.0118704 -17.224373 0.26600987 344 30
-2.0727017 -16.847483 0.26114193 802 30
-2.1774473 -16.845356 0.26128784 716 30
-2.2826474 -16.845551 0.26147354 658 30
-2.3890548 -16.853006 0.26176536 668 30
-2.494468 -16.851879 0.26195106 593 30
-2.5959923 -16.824398 0.26179188 152 30
-2.0252783 -12.612299 0.20541939 127 30
-2.102957 -12.601607 0.20544593 118 30
-2.1802394 -12.588466 0.20544593 49 30
-2.2554958 -12.564026 0.20530002 106 30
-2.2742491 -12.23635 0.20106876 439 30
-2.3041704 -11.987484 0.19789864 692 30
-2.3778756 -11.9741 0.1979119 1032 30
-2.4531097 -11.968101 0.19803129 930 30
-2.5300143 -11.969454 0.19825678 971 30
-2.6066022 -11.96836 0.19845574 997 30
-2.6848032 -11.973606 0.19874755 922 30
-2.764066 -11.982239 0.19909242 1030 30
-2.8393815 -11.972836 0.19919853 307 30
-3.0811052 -12.645916 0.20862931 14 30
-6.3700743 -25.462978 0.38415334 62 30
-6.5366349 -25.46409 0.3847104 335 30
-6.7080307 -25.48152 0.38550627 164 30
-0 -0 0 5 30
-7.0426021 -25.478241 0.38662046 12 30
-7.2143235 -25.489389 0.38737652 21 30
-7.3831077 -25.487862 0.3879734 28 30
-7.5583944 -25.506313 0.38886207 51 30
-7.7307057 -25.512087 0.3895916 86 30
-7.914022 -25.55109 0.39079866 125 30
-8.078496 -25.526834 0.3911435 157 30
-2.3191969 -7.1758647 0.13600829 554 30
-2.3572292 -7.1434579 0.13575627 1634 30
-2.3987818 -7.1222267 0.13566342 1771 30
-2.449913 -7.1291232 0.13596849 1284 30
-2.5051887 -7.1469827 0.13643274 908 30
-2.5240867 -7.0618014 0.1354512 824 30
-2.5389535 -6.968205 0.13435027 1643 30
-2.5813136 -6.9515576 0.13433701 1692 30
-2.6288731 -6.9486809 0.13452271 1598 30
-2.681169 -6.9576111 0.13488084 1598 30
-2.7303855 -6.9577827 0.1351196 1597 30
-2.7503939 -6.8842583 0.13431048 1329 30
-2.7797749 -6.8357606 0.1338595 1940 30
-2.8491979 -6.8850965 0.13481452 1192 30
-2.9332998 -6.9670115 0.13624704 1659 30
-2.9779618 -6.9534774 0.13631336 1741 30
-3.0273602 -6.9506583 0.13653885 964 30
-5.409327 -12.213541 0.21316564 29 30
-5.4476271 -12.098975 0.21198513 29 30
-5.4564295 -11.922576 0.20990266 36 30
-5.5029144 -11.831753 0.20906703 39 30
-5.5079021 -11.654928 0.2069713 41 30
-5.521749 -11.501028 0.20520717 44 30
-5.55934 -11.399527 0.20421237 11 30
-5.6078777 -11.322192 0.20357569 59 30
-5.6705041 -11.27417 0.20337673 80 30
-5.7195635 -11.199983 0.20279311 188 30
-5.7932405 -11.174441 0.202939 314 30
-5.8016233 -11.024539 0.20122793 55 30
-0 -0 0 53 30
-0 -0 0 234 30
-0 -0 0 85 30
-5.8643208 -10.509495 0.19561721 45 30
-0 -0 0 44 30
-5.8912673 -10.259849 0.19291134 168 30
-0 -0 0 44 30
-0 -0 0 54 30
-5.8962016 -9.8442945 0.18818931 52 30
-5.6367483 -9.2814789 0.18001862 26 30
-5.5918779 -9.0815401 0.17744538 71 30
-5.6210198 -9.0046482 0.17678218 64 30
-5.6526384 -8.9328117 0.17619856 47 30
-5.6312189 -8.7792892 0.17432831 80 30
-5.6430135 -8.6800222 0.17330697 80 30
-5.6615062 -8.5926323 0.17247134 76 30
-5.6480436 -8.4587774 0.17089291 113 30
-5.7043228 -8.4305878 0.17099902 252 30
-5.7536826 -8.3921289 0.17094597 725 30
-5.7400308 -8.263051 0.16943386 78 30
-5.908031 -8.3944817 0.17213973 123 30
-5.9907761 -8.4020357 0.172856 215 30
-5.8062539 -8.0384665 0.16751055 35 30
-5.8377533 -7.9784799 0.16711263 22 30
-5.8621864 -7.9095745 0.1665688 12 30
-5.8463721 -7.7878947 0.16514955 45 30
-5.9352036 -7.8059993 0.16605151 19 30
-5.9384508 -7.7116032 0.16508323 53 30
-6.020709 -7.7199621 0.16583928 30 30
-6.1014328 -7.725246 0.16655554 49 30
-6.178699 -7.7251434 0.16719222 56 30
-6.2605982 -7.7298212 0.16792175 23 30
-6.3339086 -7.7229595 0.16846557 61 30
-6.4175911 -7.7277956 0.16922162 30 30
-6.5176587 -7.7510257 0.17030929 478 30
-6.56704 -7.713172 0.17034908 57 30
-6.6710458 -7.7386198 0.17150305 22 30
-6.742075 -7.7246604 0.17198056 25 30
-6.8370199 -7.737093 0.17293558 16 30
-6.904367 -7.7173514 0.17333351 18 30
-6.985826 -7.7126365 0.17400998 30 30
-7.0512652 -7.6895247 0.17436811 31 30
-7.2098894 -7.7662907 0.17654341 260 30
-0 -0 0 162 30
-0 -0 0 296 30
-0 -0 0 304 30
-0 -0 0 215 30
-0 -0 0 441 30
-0 -0 0 320 30
-7.8560262 -7.7651477 0.18249901 312 30
-7.9872346 -7.7985244 0.1840509 144 30
-8.0514889 -7.7653332 0.18435599 33 30
-9.0314808 -8.6040993 0.20144016 94 30
-9.1496429 -8.6101913 0.20263393 74 30
-9.2660208 -8.6131134 0.20378791 93 30
-9.3790932 -8.6115475 0.20487557 87 30
-9.4873085 -8.6042147 0.20587038 84 30
-9.5808878 -8.5825329 0.20659991 70 30
-6.3352904 -5.6056266 0.14818475 203 30
-2.7148252 -2.3728991 0.083800741 72 30
-2.6952708 -2.3267965 0.083203852 132 30
-2.7231941 -2.3218911 0.083442606 333 30
-2.68767 -2.2632787 0.08258044 165 30
-2.7184215 -2.2608092 0.082872249 258 30
-2.7051957 -2.2218771 0.082408011 165 30
-2.7117882 -2.1995683 0.08228863 141 30
-2.7096236 -2.1703873 0.082023352 131 30
-2.7040663 -2.138835 0.081705011 135 30
-2.7021651 -2.1105103 0.081452996 132 30
-2.7198153 -2.0975537 0.081532575 342 30
-2.7119491 -2.065078 0.08118771 180 30
-2.7165761 -2.0423911 0.081055067 148 30
-2.7218301 -2.0203211 0.080935694 135 30
-2.7253027 -1.9970819 0.08078979 133 30
-2.7302132 -1.9750483 0.080670409 136 30
-2.7365839 -1.9541919 0.08057756 160 30
-2.7477057 -1.9367878 0.080564298 148 30
-2.7964768 -1.9455851 0.081161179 97 30
-2.8248494 -1.9397079 0.081426464 96 30
-2.8491151 -1.9307512 0.081625424 99 30
-2.8850143 -1.9293499 0.082010083 109 30
-2.9260104 -1.9308841 0.082474329 381 30
-2.9763508 -1.9379878 0.083084479 119 30
-3.0024886 -1.928875 0.083309971 295 30
-3.0750806 -1.9489493 0.084264986 74 30
-3.1005478 -1.9385244 0.084477209 91 30
-3.1455779 -1.9399298 0.08499451 65 30
-3.1736543 -1.9304639 0.085246526 86 30
-3.4341168 -2.0601015 0.089093119 30 30
-3.460463 -2.0471358 0.089305349 39 30
-0 -0 0 4 30
-3.5590045 -2.0468831 0.0904328 13 30
