# .PCD v0.7 - Point Cloud Data file format
VERSION 0.7
FIELDS x y z intensity ring
SIZE 4 4 4 4 1
TYPE F F F F U
COUNT 1 1 1 1 1
WIDTH 1304
HEIGHT 1
VIEWPOINT 0 0 0 1 0 0 0
POINTS 1304
DATA ascii
-1.5422269 -0.31546527 -0.038675189 97 35
-1.5362964 -0.30443731 -0.038291365 115 35
-1.5322505 -0.29387179 -0.038003493 124 35
-1.5300969 -0.28373316 -0.037811581 127 35
-1.5229614 -0.2727479 -0.037379779 135 35
-1.522638 -0.26305649 -0.037283823 152 35
-1.5222532 -0.25337932 -0.037187867 179 35
-1.5227929 -0.24387547 -0.037139889 176 35
-1.5193251 -0.23376399 -0.036899999 162 35
-1.5187548 -0.22414403 -0.036804043 181 35
-1.5171348 -0.21439935 -0.036660105 191 35
-1.5144627 -0.20454855 -0.036468193 182 35
-1.5127176 -0.19486701 -0.036324259 158 35
-1.5119022 -0.1853369 -0.036228303 174 35
-1.5130109 -0.17605656 -0.036228303 160 35
-1.5140626 -0.16676959 -0.036228303 190 35
-1.5140641 -0.15737231 -0.036180325 198 35
-1.5150012 -0.14807923 -0.036180325 174 35
-1.5158812 -0.13878056 -0.036180325 160 35
-1.5147139 -0.12930524 -0.036084369 159 35
-1.5144831 -0.11992908 -0.036036391 180 35
-1.4908367 0.036564171 -0.053289037 207 36
-1.4875913 0.045618512 -0.053107459 230 36
-1.4862859 0.054708362 -0.053046931 239 36
-1.4929029 0.064128704 -0.053470612 196 36
-1.4894905 0.073140122 -0.053289037 237 36
-1.4920036 0.082444087 -0.053470612 219 36
-1.4944584 0.091781639 -0.05365219 187 36
-1.4958589 0.10108486 -0.053773243 200 36
-1.4902332 0.10989303 -0.053470612 253 36
-1.4945058 0.11943373 -0.053773243 226 36
-1.4887725 0.1281722 -0.053470612 241 36
-1.4939215 0.1378566 -0.053833768 224 36
-1.4950342 0.14721669 -0.053954821 192 36
-1.4950955 0.15649144 -0.054015346 198 36
-1.4941071 0.16566223 -0.054015346 211 36
-1.4940538 0.17494313 -0.054075871 222 36
-1.4949336 0.18435203 -0.054196924 199 36
-1.4967438 0.1939068 -0.054378502 185 36
-1.4984931 0.2034907 -0.05456008 224 36
-1.4991926 0.21296273 -0.05468113 186 36
-1.5027944 0.22289109 -0.054983761 214 36
-1.4974527 0.23149684 -0.054741658 254 36
-1.5019169 0.2416335 -0.055104814 226 36
-1.5043439 0.25150394 -0.055346917 177 36
-1.5027723 0.26072967 -0.055346917 217 36
-1.5001619 0.26976869 -0.055286389 210 36
-1.501422 0.27951726 -0.055467967 197 36
-1.5035992 0.28948039 -0.055710074 195 36
-1.5037526 0.29909077 -0.055831123 180 36
-1.5018891 0.308312 -0.055831123 226 36
-1.5087574 0.31938431 -0.056375857 210 36
-1.5155458 0.33055243 -0.056920592 188 36
-1.5203061 0.34137797 -0.057344273 164 36
-1.5230454 0.35182449 -0.0576469 173 36
-1.5237713 0.36185569 -0.057828479 193 36
-1.5244312 0.37190902 -0.058010057 165 36
-1.5230888 0.38149852 -0.058070581 168 36
-1.521686 0.39108554 -0.05813111 156 36
-1.522153 0.40117896 -0.058312684 132 36
-1.5822943 0.42744675 -0.06224687 48 36
-1.593109 0.44087783 -0.063094236 28 36
-1.6028577 0.45418525 -0.063881069 28 36
-1.6134611 0.46790698 -0.064728431 21 36
-1.623956 0.48177582 -0.065575793 16 36
-1.6419818 0.49811074 -0.066907369 9 36
-1.6360346 0.50728887 -0.066725791 18 36
-1.6386001 0.51912791 -0.067088939 20 36
-1.635384 0.52917242 -0.067088939 15 36
-1.642531 0.54264367 -0.067754731 18 36
-1.6429536 0.5539884 -0.06799683 20 36
-1.6404673 0.56438386 -0.068057358 22 36
-1.6360316 0.57410824 -0.06799683 14 36
-0 0 -0 5 36
-4.7625055 1.7379663 -0.27027443 241 36
-4.7517519 1.7671558 -0.27027443 469 36
-4.7426858 1.7969862 -0.27039546 472 36
-4.7380891 1.8285692 -0.27081916 556 36
-4.7295671 1.8587025 -0.27100074 541 36
-4.7199264 1.8884294 -0.27112177 513 36
-4.7147212 1.9199905 -0.27154547 529 36
-4.7139168 1.9534698 -0.27227178 580 36
-4.7101192 1.9858477 -0.27281651 544 36
-4.711606 2.0206134 -0.27372441 521 36
-4.7100978 2.0542746 -0.27445072 511 36
-4.6946669 2.0819225 -0.27426913 545 36
-4.6881738 2.1135614 -0.2746928 501 36
-4.675117 2.1422877 -0.2746928 349 36
-4.6890292 2.1835766 -0.2765086 464 36
-4.6683249 2.2088909 -0.27602437 323 36
-8.8126001 4.2365813 -0.55577511 955 36
-8.8034811 4.2988973 -0.55692512 877 36
-8.7894564 4.3590426 -0.55777246 847 36
-8.7759171 4.4196267 -0.55868036 848 36
-8.77174 4.4852076 -0.56025404 857 36
-8.7626572 4.5486035 -0.56152511 890 36
-8.7504778 4.6106606 -0.56261456 959 36
-8.7396269 4.6736803 -0.56382507 985 36
-8.7195578 4.7319794 -0.56443036 950 36
-8.7008514 4.7911706 -0.56515664 655 36
-8.6686754 4.8430071 -0.56497508 215 36
-8.6891613 4.9246535 -0.56848556 221 36
-8.6864719 4.9937973 -0.57042241 645 36
-7.9158406 4.615581 -0.51849115 51 36
-8.4338007 4.9872189 -0.55698568 157 36
-8.6418743 5.1821027 -0.57387239 606 36
-8.6286783 5.2464399 -0.57520396 83 36
-8.7722054 5.4077191 -0.58773279 381 36
-8.7608662 5.4751973 -0.58930647 362 36
-2.7354944 1.7326889 -0.15920937 5 36
-2.7399292 1.7591499 -0.16029884 11 36
-2.724901 1.773206 -0.15999621 50 36
-2.7206352 1.7942895 -0.16048042 50 36
-2.7178724 1.8164967 -0.16108568 56 36
-2.7174184 1.8404169 -0.16187252 44 36
-2.7200649 1.8666592 -0.16290146 37 36
-2.7241297 1.8941427 -0.16405144 42 36
-2.7263274 1.9205961 -0.16508038 42 36
-2.7274899 1.9465675 -0.16604881 41 36
-2.723583 1.9691156 -0.16665407 36 36
-2.7146704 1.9881496 -0.16689616 40 36
-2.7008171 2.0035796 -0.16677512 37 36
-2.6820891 2.015316 -0.16629091 32 36
-2.656965 2.0220616 -0.1653225 30 36
-2.6350219 2.031013 -0.16459619 48 36
-2.6059883 2.0342429 -0.16332513 42 36
-2.5801468 2.0396698 -0.16229619 46 36
-2.5496626 2.0411131 -0.16090409 41 36
-2.5231349 2.045403 -0.15981464 29 36
-2.4881651 2.0424771 -0.15805939 32 36
-2.4494896 2.0360091 -0.15600151 46 36
-2.4224422 2.0387866 -0.15485151 30 36
-2.3886166 2.0354819 -0.15315679 43 36
-2.3609688 2.0370567 -0.15194626 35 36
-2.3333924 2.0383694 -0.15073575 29 36
-2.3081319 2.041405 -0.14970681 31 36
-2.2799485 2.041544 -0.14843577 34 36
-2.2518508 2.0414145 -0.14716472 35 36
-2.2194293 2.0369673 -0.14553052 35 36
-2.1959217 2.0403543 -0.14462264 46 36
-2.1673677 2.0387416 -0.14329106 37 36
-2.1403625 2.038233 -0.14208055 32 36
-2.1141639 2.0381629 -0.14093055 43 36
-2.0916188 2.0413351 -0.14008319 34 36
-2.0698245 2.0450094 -0.13929635 35 36
-2.0508869 2.0513172 -0.13875163 41 36
-2.0193264 2.0446846 -0.13711742 30 36
-2.0011673 2.0513198 -0.13663322 43 36
-1.9227529 1.9952695 -0.13088325 8 36
-0 0 -0 4 36
-1.9165816 2.0383513 -0.13251746 15 36
-1.8734756 2.0171566 -0.12979378 46 36
-1.8610632 2.028614 -0.12979378 46 36
-1.8532718 2.0451734 -0.13021746 39 36
-1.8493408 2.0661764 -0.1310043 36 36
-1.8491876 2.0916953 -0.1321543 44 36
-1.8501033 2.1187937 -0.13342534 44 36
-1.8501036 2.1452253 -0.13463585 43 36
-1.8498487 2.1717362 -0.13584638 36 36
-1.8486953 2.1975603 -0.13699637 35 36
-1.8466563 2.2226834 -0.13808583 39 36
-1.8450114 2.2486358 -0.13923582 38 36
-1.8418603 2.2730997 -0.14026476 43 36
-1.8366075 2.2952707 -0.14111213 30 36
-1.8311517 2.3174624 -0.14195949 49 36
-1.8285619 2.3436084 -0.14310949 50 36
-1.8238926 2.3674369 -0.1440779 35 36
-1.8232287 2.3968575 -0.14546999 40 36
-1.8234707 2.4279549 -0.14698315 31 36
-1.8192382 2.4535317 -0.14807262 29 36
-1.8141705 2.4783418 -0.14910156 35 36
-1.8117893 2.5072272 -0.15043312 48 36
-1.8010075 2.5247984 -0.15091732 35 36
-1.8751125 2.6631324 -0.16035937 6 36
-2.6652019 3.835331 -0.24606405 116 36
-2.6540375 3.8697228 -0.24739562 173 36
-2.5866072 3.8214552 -0.2426746 115 36
-2.544817 3.8098619 -0.24067725 124 36
-2.5082102 3.8054016 -0.23922463 115 36
-2.4684899 3.7956157 -0.23740885 124 36
-2.4332962 3.7922075 -0.23607728 108 36
-2.3977041 3.7876675 -0.23468518 115 36
-2.352216 3.766747 -0.2321431 93 36
-2.3149269 3.7581613 -0.23050889 76 36
-2.0384243 3.3551211 -0.20091173 155 36
-2.0029237 3.3427334 -0.19915648 97 36
-1.9574984 3.312849 -0.1961907 7 36
-0 0 -0 4 36
-0 0 -0 9 36
-1.8607795 3.285779 -0.19183284 87 36
-1.8308544 3.2797024 -0.19062233 106 36
-1.8044418 3.2795053 -0.18983549 87 36
-0 0 -0 81 36
-0 0 -0 70 36
-0 0 -0 65 36
-0 0 -0 76 36
-0 0 -0 64 36
-0 0 -0 77 36
-0 0 -0 84 36
-0 0 -0 107 36
-0 0 -0 109 36
-0 0 -0 80 36
-0 0 -0 102 36
-0 0 -0 83 36
-0 0 -0 103 36
-0 0 -0 82 36
-0 0 -0 123 36
-1.2089969 2.8212516 -0.1489805 68 36
-1.1939877 2.8341362 -0.14934365 48 36
-0 0 -0 48 36
-0 0 -0 70 36
-0 0 -0 39 36
-0 0 -0 45 36
-0 0 -0 37 36
-0 0 -0 13 36
-0 0 -0 9 36
-0 0 -0 7 36
-0 0 -0 9 36
-0 0 -0 18 36
-0 0 -0 33 36
-0 0 -0 11 36
-0 0 -0 7 36
-0 0 -0 8 36
-0 0 -0 11 36
-0 0 -0 11 36
-0 0 -0 11 36
-0 0 -0 13 36
-0 0 -0 25 36
-0.77853566 2.7486465 -0.13608848 9 36
-0.75926173 2.7447131 -0.13554375 5 36
-0 0 -0 4 36
-0.7255227 2.7538238 -0.13554375 5 36
-0.70935661 2.7611239 -0.13572532 13 36
-0 0 -0 13 36
-0 0 -0 4 36
-0 0 -0 9 36
-0.64070827 2.7747831 -0.13554375 13 36
-0.62148577 2.7689226 -0.13493849 5 36
-0.60065955 2.7551286 -0.13384902 7 36
-0 0 -0 5 36
-0.56219316 2.7398021 -0.13245693 7 36
-0.54089803 2.7206824 -0.13106483 6 36
-0 0 -0 4 36
-0.50236118 2.6996374 -0.12937011 4 36
-0.48437551 2.6948094 -0.1288859 6 36
-0.46646807 2.6898627 -0.12840168 8 36
-0.44946146 2.6897206 -0.12822011 7 36
-0.43310753 2.6934135 -0.12828064 5 36
-0.41505009 2.6861553 -0.12767538 7 36
-0.39709809 2.6787775 -0.12707011 5 36
-0.3796728 2.6742456 -0.12664644 13 36
-0.36365908 2.6794922 -0.12682801 9 36
-0.34657106 2.6767237 -0.12652539 8 36
-0.33111605 2.6867254 -0.12700959 10 36
-0.3124229 2.6698694 -0.1258596 16 36
-0.28835025 2.6022885 -0.12162279 53 36
-0.27165166 2.5970592 -0.12119911 59 36
-0.2529785 2.5708625 -0.11950438 84 36
-0.23591819 2.5584509 -0.11865702 102 36
-0.21901979 2.5459273 -0.11780965 130 36
-0.20283906 2.5402582 -0.11738598 141 36
-0.18724851 2.5414548 -0.11738598 170 36
-0.17178507 2.5445478 -0.11750703 124 36
-0.15641266 2.5495391 -0.11774913 124 36
-0.14109518 2.5564308 -0.11811228 131 36
-0.1259914 2.5692122 -0.11883859 122 36
-0.11107706 2.5898819 -0.12004911 84 36
-0.095475748 2.5984948 -0.12053332 122 36
-0.079742543 2.6060157 -0.120957 96 36
-0.064066164 2.6194282 -0.12174384 141 36
-0.048010584 2.62077 -0.12180436 85 36
-0.031700756 2.6020515 -0.12065437 28 36
-0.015540065 2.569258 -0.11865702 12 36
0.00022753325 2.5802848 -0.1193228 6 36
0.015798928 2.5393109 -0.11684124 10 36
0.031392038 2.5401642 -0.11690176 11 36
0.04718234 2.5509017 -0.11756755 12 36
0.062610872 2.5415835 -0.11702282 18 36
0.078111976 2.5381584 -0.11684124 21 36
0.093684353 2.5376313 -0.11684124 18 36
0 0 -0 10 36
0 0 -0 21 36
0 0 -0 18 36
0 0 -0 17 36
0 0 -0 10 36
0 0 -0 12 36
0.19880998 2.4845045 -0.11399652 12 36
0.21379325 2.4802544 -0.11381494 17 36
0.2289158 2.4779022 -0.11375442 4 36
0.24254639 2.4605575 -0.112786 9 36
0.25941041 2.475899 -0.11381494 11 36
0.27371529 2.4663243 -0.11333074 8 36
0.28989029 2.4735205 -0.11387547 7 36
0.30555177 2.4756579 -0.11411758 8 36
0.32176438 2.4816554 -0.11460178 8 36
0.34290659 2.5231526 -0.11726492 17 36
0.35767874 2.5160601 -0.11696229 11 36
0.37545744 2.5296152 -0.1179307 12 36
0.39234656 2.5361416 -0.11847544 9 36
0.4106003 2.5504391 -0.11950438 15 36
0.49564239 2.9623294 -0.1449858 28 36
0.55909395 3.2198415 -0.16102515 93 36
0.57919383 3.2183151 -0.16114621 360 36
0.45843238 2.4610937 -0.1146623 89 36
0.47333577 2.4572542 -0.11460178 80 36
0 0 -0 99 36
0 0 -0 78 36
0 0 -0 64 36
0 0 -0 138 36
0.55746508 2.4815068 -0.11708334 125 36
0.57515478 2.4887369 -0.11774913 192 36
0.58972198 2.4822478 -0.11756755 155 36
0.60494167 2.4785826 -0.11756755 170 36
0.62159514 2.4806333 -0.1179307 117 36
0.63854527 2.4835393 -0.11835439 108 36
0.6542812 2.4815047 -0.11847544 103 36
0.66662908 2.4668443 -0.11780965 88 36
0.68495029 2.4742508 -0.11853597 133 36
0.68868029 2.4296691 -0.11599388 46 36
0.70413202 2.427315 -0.11611493 74 36
0.72071719 2.4286902 -0.11647809 73 36
0.73647571 2.4270875 -0.11665966 73 36
0.7540167 2.4311028 -0.1172044 99 36
0.76952285 2.4283335 -0.11732545 116 36
0.78533083 2.4264147 -0.11750703 81 36
1.0424116 3.1541319 -0.16429356 44 36
1.0690856 3.1694293 -0.16568565 176 36
1.0904623 3.1684725 -0.16604881 117 36
1.0943391 3.1174581 -0.16320409 19 36
1.0946031 3.0580595 -0.15981464 13 36
0.9008044 2.4690018 -0.12222805 20 36
1.1731122 3.1547899 -0.16695669 141 36
1.1924475 3.1475325 -0.16695669 185 36
1.2138947 3.1457438 -0.16731985 171 36
1.2364603 3.1465969 -0.16786458 193 36
0 0 -0 181 36
1.2779931 3.1385822 -0.16834879 184 36
1.2999024 3.1371362 -0.16877247 182 36
1.3230056 3.1382983 -0.16937773 173 36
1.3442044 3.1347082 -0.16968036 191 36
1.365808 3.1318905 -0.17004351 191 36
0 0 -0 239 36
0 0 -0 199 36
0 0 -0 217 36
0 0 -0 195 36
1.4791689 3.1264145 -0.17258561 218 36
1.5017844 3.1244764 -0.1730698 201 36
1.5253079 3.124172 -0.17367508 216 36
0 0 -0 197 36
0 0 -0 191 36
0 0 -0 722 36
0 0 -0 130 36
0 0 -0 117 36
1.6025484 2.9972577 -0.16895404 91 36
1.606625 2.9610498 -0.16713826 107 36
1.6002064 2.9065442 -0.16405144 88 36
0 0 -0 100 36
0 0 -0 66 36
0 0 -0 94 36
0 0 -0 83 36
0 0 -0 117 36
0 0 -0 176 36
0 0 -0 164 36
0 0 -0 147 36
0 0 -0 148 36
0 0 -0 154 36
0 0 -0 140 36
0 0 -0 146 36
0 0 -0 163 36
0 0 -0 163 36
0 0 -0 165 36
0 0 -0 171 36
0 0 -0 179 36
0 0 -0 149 36
0 0 -0 167 36
0 0 -0 181 36
0 0 -0 171 36
0 0 -0 184 36
1.9343556 2.5743687 -0.15811992 134 36
0 0 -0 139 36
0 0 -0 205 36
0 0 -0 181 36
0 0 -0 137 36
0 0 -0 137 36
0 0 -0 143 36
0 0 -0 166 36
2.1215193 2.55234 -0.16411197 134 36
2.1480687 2.5522559 -0.16514091 140 36
2.1746962 2.5519416 -0.16616985 165 36
2.2007482 2.5506406 -0.16713826 129 36
2.2281792 2.5506186 -0.16822773 139 36
2.2497399 2.5436273 -0.16877247 146 36
2.2739625 2.5394411 -0.1695593 129 36
2.2988884 2.5357926 -0.17040667 168 36
2.3204796 2.5282569 -0.1709514 143 36
2.3407059 2.5190892 -0.17137508 139 36
2.3643267 2.5134029 -0.17210139 153 36
2.3893423 2.5089669 -0.17294876 135 36
2.8391225 2.9447687 -0.2108985 78 36
2.9059467 2.9772904 -0.21513532 178 36
2.9255636 2.9608238 -0.21525636 159 36
2.9669731 2.9661031 -0.21725373 97 36
3.2095704 3.1694517 -0.23637991 39 36
3.2375324 3.1580617 -0.23710622 78 36
3.2697883 3.1506026 -0.23819569 81 36
3.3035202 3.1442423 -0.23940621 91 36
3.3423877 3.1423717 -0.24104041 87 36
3.3725781 3.1319916 -0.24194829 125 36
3.4027665 3.1213591 -0.24285619 95 36
3.441828 3.1185155 -0.24449039 102 36
3.4832137 3.117306 -0.24630617 93 36
3.5217216 3.1130614 -0.24787983 107 36
3.5603077 3.1084609 -0.2494535 91 36
3.605773 3.1093695 -0.25157192 80 36
3.6491027 3.1078949 -0.25350875 104 36
3.6940768 3.1072898 -0.25556663 264 36
3.6915736 3.0667074 -0.25387189 32 36
3.7087777 3.0427325 -0.25375086 16 36
3.7242751 3.0174055 -0.25350875 11 36
3.7629852 3.0107086 -0.25508243 36 36
3.7571065 2.9683819 -0.2532061 5 36
0 0 -0 4 36
0 0 -0 6 36
3.8055465 2.8944936 -0.25278243 15 36
3.8264282 2.873486 -0.25302455 12 36
3.8921001 2.8856182 -0.25665608 109 36
3.9242318 2.872293 -0.25774556 150 36
3.9595826 2.8610201 -0.25907713 146 36
4.0120082 2.8615916 -0.26167974 138 36
4.0662212 2.8627756 -0.2644034 135 36
4.112401 2.8577056 -0.26652181 133 36
4.1545544 2.8493533 -0.26833758 122 36
4.1984129 2.8417099 -0.27027443 137 36
4.244823 2.8352976 -0.27239284 167 36
4.2913113 2.8284223 -0.27451125 172 36
4.3362002 2.8199942 -0.2765086 153 36
4.4029903 2.8251345 -0.2800796 140 36
4.4556661 2.8204851 -0.28262171 135 36
4.5067563 2.8142378 -0.28504273 155 36
4.5579362 2.8074689 -0.28746378 122 36
4.6074948 2.7991407 -0.28976375 135 36
4.6751037 2.8010812 -0.29333478 134 36
4.7257199 2.7921426 -0.2956953 130 36
4.7712259 2.7796729 -0.29769266 154 36
4.8245463 2.7712233 -0.30023474 195 36
4.8753352 2.7607481 -0.30259526 370 36
4.8686495 2.7176476 -0.30096105 259 36
4.8677411 2.6781011 -0.29975054 194 36
4.8753071 2.6434257 -0.29914528 228 36
4.8738265 2.6040552 -0.29793477 225 36
4.8729305 2.5652676 -0.29678476 177 36
4.8823762 2.5321031 -0.29636109 258 36
4.8782649 2.4921091 -0.29502952 186 36
4.8845472 2.457644 -0.29442427 201 36
4.9129515 2.434273 -0.29533213 154 36
4.943944 2.4119587 -0.29642162 153 36
4.9883437 2.3958366 -0.29841897 246 36
4.9957309 2.3617711 -0.29793477 222 36
4.9965529 2.3247583 -0.29702687 198 36
4.9962015 2.2874091 -0.29605845 216 36
5.0001316 2.2522013 -0.29539266 204 36
4.9919534 2.211776 -0.29394004 205 36
4.9313078 2.1488118 -0.28903747 189 36
5.0178018 2.1499574 -0.29387954 268 36
5.0171008 2.113317 -0.29297164 274 36
5.0216727 2.0790572 -0.29242691 315 36
5.0260134 2.0448208 -0.29188216 298 36
5.0143666 2.0043125 -0.29030851 335 36
4.997767 1.9622008 -0.28843218 266 36
5.018095 1.9347292 -0.28897694 388 36
5.0186691 1.8996629 -0.28825063 314 36
5.019938 1.86501 -0.28758484 296 36
5.0106549 1.8266535 -0.28625327 245 36
5.0161295 1.7938579 -0.2858901 286 36
5.010087 1.7571009 -0.28480065 232 36
5.0302134 1.7295713 -0.2854059 299 36
5.0341096 1.6964432 -0.2849822 348 36
5.023571 1.6586392 -0.28365064 264 36
4.9937634 1.6148875 -0.28110856 63 36
4.9959655 1.5818062 -0.28062436 46 36
5.0055771 1.5511217 -0.28062436 15 36
5.0121346 1.5195103 -0.28044277 21 36
5.0156217 1.4870259 -0.2800796 25 36
5.0217752 1.4553893 -0.27989805 21 36
5.0229273 1.4223737 -0.27941382 16 36
5.022902 1.3891329 -0.27886909 16 36
5.0265126 1.3569864 -0.27856648 21 36
5.0492229 1.3299313 -0.27947435 9 36
5.0234499 1.2902364 -0.27735594 17 36
5.0215893 1.2569658 -0.27675068 15 36
5.0301771 1.2263665 -0.27681121 11 36
5.0181828 1.1908709 -0.2756007 15 36
5.0195599 1.1587108 -0.27523753 18 36
5.0226793 1.1270157 -0.27499545 24 36
5.0353518 1.0974509 -0.27535859 12 36
5.0361314 1.0652949 -0.27499545 13 36
5.0406175 1.0339726 -0.27487439 14 36
5.0400133 1.0016631 -0.27445072 17 36
5.0392032 0.96939987 -0.27402702 31 36
5.0391684 0.93736684 -0.27366388 20 36
5.0369654 0.90501785 -0.27317965 20 36
5.0365229 0.87307209 -0.27281651 38 36
5.0368624 0.84133029 -0.27251387 26 36
5.0370021 0.80961716 -0.27221125 27 36
5.0399022 0.77839094 -0.2720902 25 36
5.0416212 0.74701333 -0.27190861 23 36
5.0461097 0.71606445 -0.27190861 38 36
5.0504084 0.68508863 -0.27190861 39 36
5.0515475 0.65370297 -0.27172706 43 36
5.0524912 0.62232906 -0.27154547 40 36
5.0532403 0.59096825 -0.27136388 28 36
5.0508189 0.55929232 -0.27100074 41 36
5.051177 0.52797949 -0.27081916 54 36
5.057302 0.49726892 -0.27100074 46 36
5.0542941 0.46567953 -0.27063757 55 36
5.0550671 0.4344874 -0.27051651 57 36
5.0576382 0.4034619 -0.27051651 63 36
5.0620093 0.37256759 -0.27063757 75 36
5.0612125 0.34129944 -0.27045599 58 36
5.0721779 0.31078672 -0.27100074 79 36
5.0739894 0.27965859 -0.27100074 75 36
5.0636463 0.24793504 -0.27027443 85 36
5.0650721 0.21686041 -0.27027443 71 36
5.075285 0.18610615 -0.27081916 99 36
5.0743361 0.15490052 -0.2706981 96 36
5.073195 0.12371355 -0.27057704 81 36
5.0738587 0.09258268 -0.27057704 83 36
5.0813179 0.061532393 -0.27100074 70 36
5.0815997 0.030352853 -0.27100074 92 36
5.0786958 -0.00082710886 -0.27081916 68 36
0 -0 -0 67 36
5.0783033 -0.063150458 -0.27081916 58 36
5.0828104 -0.094402216 -0.27112177 67 36
5.091116 -0.12581059 -0.27166653 56 36
5.0972319 -0.15726273 -0.2720902 59 36
5.1021562 -0.18875767 -0.27245334 59 36
5.0959158 -0.21984486 -0.27215073 49 36
5.0934739 -0.25105947 -0.2720902 39 36
0 -0 -0 37 36
0 -0 -0 44 36
5.0909772 -0.3449738 -0.27227178 40 36
5.0917511 -0.37642595 -0.27245334 13 36
5.0953155 -0.40813991 -0.27281651 31 36
5.096693 -0.43974003 -0.27305862 16 36
5.10185 -0.47174031 -0.27354282 31 36
5.0938931 -0.50254542 -0.27324018 20 36
5.0936918 -0.53410399 -0.27342176 17 36
5.0913105 -0.56545848 -0.27348229 23 36
5.0887365 -0.5968039 -0.27354282 23 36
5.0909228 -0.6287511 -0.27390596 30 36
5.0968676 -0.66126156 -0.27451125 32 36
5.1026044 -0.69386864 -0.2751165 23 36
5.1071448 -0.7264303 -0.27566123 27 36
5.1124649 -0.75922048 -0.27626649 24 36
5.1136284 -0.79149216 -0.27662963 24 36
5.1106467 -0.82317156 -0.27675068 27 36
5.1104217 -0.85533863 -0.27705333 17 36
5.1031103 -0.8863377 -0.27693227 23 36
5.0985584 -0.91781002 -0.2769928 22 36
5.0987182 -0.95017457 -0.27735594 24 36
5.1045537 -0.98370928 -0.27808225 15 36
5.1072321 -1.0167664 -0.27862701 26 36
5.1096969 -1.0498934 -0.27917174 23 36
5.1119466 -1.0830889 -0.27971646 16 36
5.1149569 -1.1165643 -0.28032172 15 36
5.1196957 -1.1505553 -0.28104803 14 36
5.1261544 -1.1850961 -0.2818954 15 36
5.1284976 -1.2188361 -0.28250065 26 36
5.1315885 -1.2528859 -0.28316644 20 36
5.1344547 -1.2870197 -0.28383222 19 36
5.1341944 -1.3204895 -0.28431642 25 36
5.1317863 -1.3534952 -0.28467959 26 36
5.131093 -1.3870422 -0.28516379 23 36
5.1292195 -1.4203651 -0.28558746 24 36
5.1453753 -1.4588917 -0.28716114 39 36
5.1564574 -1.4962788 -0.28843218 38 36
5.1644034 -1.533004 -0.28952166 135 36
5.1682715 -1.5687232 -0.29036903 412 36
5.057497 -1.5690469 -0.28395328 183 36
4.992588 -1.5825521 -0.28044277 170 36
4.9058647 -1.5882477 -0.27554017 175 36
4.833478 -1.5976396 -0.27154547 200 36
4.764946 -1.6074803 -0.26779285 316 36
4.7540493 -1.6363622 -0.26773232 434 36
4.7523956 -1.6684783 -0.26827708 416 36
4.753345 -1.7016449 -0.26900336 383 36
4.7625055 -1.7379663 -0.27027443 455 36
4.7526875 -1.7675037 -0.27033496 551 36
4.7557535 -1.8019385 -0.27124283 441 36
4.7576442 -1.8361177 -0.2720902 443 36
4.7620807 -1.8714833 -0.27311915 511 36
4.7736759 -1.9099392 -0.27463228 409 36
4.7766576 -1.9452186 -0.2756007 475 36
4.7803078 -1.9809884 -0.27662963 458 36
4.7680626 -2.0102825 -0.27662963 384 36
4.7473822 -2.0359595 -0.2760849 48 36
4.7439494 -2.0690417 -0.27669016 46 36
4.7767863 -2.1183469 -0.27971646 24 36
4.7664285 -2.1488478 -0.27989805 27 36
4.7694869 -2.1855395 -0.2809875 25 36
4.7668447 -2.2198207 -0.28171381 34 36
4.7720814 -2.2579944 -0.28298485 29 36
4.7743292 -2.2950182 -0.28407434 39 36
4.7780957 -2.3330302 -0.28528485 39 36
4.7806807 -2.3707311 -0.28643483 27 36
4.7794166 -2.4067552 -0.28734273 39 36
4.7770009 -2.4423983 -0.2881901 40 36
4.7805285 -2.4813216 -0.28946114 35 36
4.7890563 -2.5231717 -0.29109535 35 36
4.7902079 -2.5614533 -0.29224533 44 36
4.8015966 -2.6055574 -0.29412162 48 36
4.7951369 -2.6402671 -0.29478741 28 36
4.7945309 -2.6784034 -0.29587689 39 36
4.7910318 -2.7151546 -0.29678476 28 36
4.7907233 -2.7539537 -0.29793477 37 36
4.7970161 -2.7968733 -0.29956895 25 36
4.8081174 -2.8430221 -0.3015663 32 36
4.8145514 -2.8868449 -0.30326104 37 36
4.8103929 -2.9246299 -0.30422947 23 36
4.8093505 -2.9645674 -0.30543998 28 36
4.8096914 -3.0056601 -0.30677155 16 36
4.808022 -3.0457995 -0.30798206 20 36
4.8068805 -3.0865707 -0.3092531 14 36
4.8070922 -3.1285312 -0.31064519 19 36
4.8069687 -3.17061 -0.31203729 16 36
4.8081689 -3.2139142 -0.31355044 17 36
4.8073654 -3.256232 -0.31494254 16 36
4.8062229 -3.2986608 -0.31633464 18 36
4.8063784 -3.3423374 -0.31784779 28 36
4.8029146 -3.3838396 -0.31911883 11 36
4.8039966 -3.4289045 -0.32075304 22 36
4.8095579 -3.4776192 -0.32275039 18 36
4.8074546 -3.5212214 -0.32420301 16 36
4.8106079 -3.569092 -0.32607931 14 36
4.8133535 -3.6171329 -0.3279556 16 36
4.8172784 -3.6665506 -0.32995296 14 36
4.8357964 -3.7277315 -0.33310032 15 36
4.8293543 -3.7702334 -0.33437136 10 36
4.8405805 -3.8270354 -0.33703449 15 36
4.8528481 -3.8853641 -0.33981869 18 36
4.8591537 -3.9395857 -0.34217921 13 36
4.8595757 -3.9895959 -0.34411603 11 36
4.8534255 -4.0346537 -0.34556866 16 36
4.8514862 -4.083643 -0.34738442 13 36
4.850647 -4.1340547 -0.34932125 16 36
4.8403029 -4.1767831 -0.35053179 10 36
4.8461528 -4.2339888 -0.35307387 20 36
4.8469958 -4.2874541 -0.3552528 16 36
4.8518257 -4.3450842 -0.35779488 25 36
4.8531718 -4.4002519 -0.36009488 24 36
4.8643169 -4.4650488 -0.36324221 19 36
4.8668056 -4.5226727 -0.36572379 22 36
4.8745842 -4.5859656 -0.36868954 23 36
4.8803229 -4.6481462 -0.37153426 29 36
4.8890734 -4.7140331 -0.37468162 31 36
4.8879128 -4.7711368 -0.37704211 34 36
4.8947535 -4.836822 -0.38012895 37 36
4.8939142 -4.8957095 -0.3826105 33 36
4.8876266 -4.9497962 -0.38466838 31 36
4.8989787 -5.0225682 -0.38829994 23 36
4.9033875 -5.0891943 -0.39138678 20 36
4.9064736 -5.1553392 -0.39441305 25 36
4.9027786 -5.215167 -0.39689463 15 36
4.9046454 -5.2817254 -0.39992091 20 36
4.9018307 -5.3440881 -0.40258405 18 36
4.8950839 -5.4029145 -0.40494457 19 36
4.9071007 -5.4834304 -0.40906033 27 36
4.9103799 -5.5553203 -0.41244978 26 36
4.9090214 -5.6229434 -0.41547608 19 36
4.9272227 -5.7141929 -0.42037868 19 36
4.9418983 -5.8028355 -0.42503917 20 36
4.9415355 -5.8750644 -0.42836809 27 36
4.9385576 -5.9452028 -0.43151546 27 36
4.9545283 -6.0394478 -0.43653908 17 36
4.9500494 -6.1100669 -0.43968645 20 36
4.9486299 -6.185533 -0.44319695 21 36
4.9607005 -6.2792253 -0.44809955 51 36
4.9625969 -6.3614907 -0.45209426 49 36
4.9575782 -6.4361057 -0.4554837 82 36
4.9554548 -6.5156641 -0.45923629 68 36
4.9501429 -6.5922441 -0.4627468 42 36
4.9898462 -6.7307467 -0.47091782 302 36
4.9455061 -6.7572098 -0.47061518 247 36
4.9524674 -6.8545837 -0.47563884 183 36
4.9474068 -6.9368544 -0.47951248 213 36
5.0087447 -7.1148171 -0.49046767 51 36
5.024796 -7.2314882 -0.49682289 36 36
5.0486341 -7.3617926 -0.50414652 26 36
5.0386124 -7.4447112 -0.50795966 27 36
5.0432835 -7.5510244 -0.51346755 26 36
5.0270653 -7.6276679 -0.51679647 23 36
5.0264187 -7.7294993 -0.52194113 21 36
5.0274048 -7.8358083 -0.52738845 19 36
5.03795 -7.9592857 -0.53404635 24 36
5.0307798 -8.0569372 -0.5388279 24 36
5.0472002 -8.1947432 -0.54645413 48 36
5.064189 -8.336463 -0.55432248 54 36
5.047823 -8.4256067 -0.5584383 36 36
5.0610137 -8.5664253 -0.56618559 51 36
5.0616112 -8.6887436 -0.57260132 33 36
5.070838 -8.8287001 -0.58022761 35 36
5.0859127 -8.9821224 -0.58876175 23 36
5.1007519 -9.1386719 -0.5974775 25 36
5.1196322 -9.3062315 -0.60691953 32 36
5.0900254 -9.3883657 -0.61043 24 36
5.0897026 -9.5268316 -0.61781418 27 36
5.1227388 -9.7318897 -0.62973779 55 36
5.1153092 -9.8641577 -0.63663775 51 36
5.1214309 -10.026031 -0.64553505 34 36
5.1670251 -10.270381 -0.66000074 17 36
5.1149874 -10.324253 -0.66151392 38 36
5.1570034 -10.571652 -0.67610061 22 36
5.107595 -10.635489 -0.67827958 11 36
5.1599698 -10.9157 -0.69498473 33 36
5.1939373 -11.164364 -0.70951092 54 36
5.1834989 -11.323088 -0.71798456 58 36
5.1667976 -11.472087 -0.72579241 63 36
0 -0 -0 52 36
0 -0 -0 120 36
5.2526903 -12.26073 -0.77167106 34 36
5.2374101 -12.435316 -0.78105259 61 36
5.2354531 -12.647062 -0.79285514 62 36
5.2344766 -12.867567 -0.80520242 38 36
5.2324705 -13.092237 -0.81779182 20 36
5.2512431 -13.376824 -0.83425486 14 36
5.2616906 -13.649086 -0.8498705 27 36
0 -0 -0 274 36
5.3148446 -14.307735 -0.88836503 22 36
5.3807673 -14.762095 -0.91560167 7 36
5.3448629 -14.948037 -0.92546737 13 36
5.3273544 -15.192489 -0.93908572 32 36
5.3605847 -15.593032 -0.96269083 15 36
5.3820844 -15.97373 -0.98496437 10 36
5.445416 -16.49555 -1.0161958 31 36
5.4141078 -16.745199 -1.0299957 249 36
5.3196936 -16.804749 -1.0316904 436 36
5.1946235 -16.766518 -1.0272114 23 36
5.0936747 -16.804762 -1.0276351 12 36
4.9890485 -16.830915 -1.0273325 15 36
4.8756819 -16.826696 -1.0251535 7 36
4.7647305 -16.829405 -1.0234588 15 36
4.6528659 -16.827538 -1.021522 7 36
4.5464053 -16.844206 -1.0207957 14 36
4.4350863 -16.841862 -1.0189193 15 36
4.3309188 -16.865858 -1.0187378 16 36
4.2188697 -16.858223 -1.0166194 341 36
4.1094413 -16.859547 -1.0151062 481 36
4.0029202 -16.871819 -1.0143194 469 36
3.8928127 -16.867857 -1.0125642 468 36
3.7850893 -16.872921 -1.0114142 506 36
3.6776631 -16.878273 -1.0103247 357 36
3.5699008 -16.880989 -1.0091141 418 36
3.4624441 -16.883997 -1.0079643 373 36
3.3574193 -16.898071 -1.0075405 399 36
3.2595146 -16.94874 -1.0094168 210 36
3.2941339 -17.714245 -1.0554165 87 36
3.2810121 -18.266611 -1.0882215 410 36
3.1594956 -18.232306 -1.0848926 131 36
1.4048061 -8.4118633 -0.47999668 45 36
1.3550653 -8.4321508 -0.48072299 195 36
1.2978191 -8.4047928 -0.47854409 330 36
1.2447616 -8.4027243 -0.4779388 533 36
1.1917783 -8.400321 -0.47733355 607 36
1.1386033 -8.395606 -0.47660723 664 36
1.0868114 -8.4004545 -0.47648621 717 36
1.0342711 -8.3990393 -0.47600198 718 36
0.98051465 -8.3863907 -0.474852 678 36
0.92925781 -8.3942337 -0.47497305 673 36
0.8777343 -8.3997774 -0.47497305 697 36
0.82490891 -8.3920908 -0.47418621 689 36
0.77239394 -8.3860607 -0.47352043 628 36
0.72109431 -8.3926315 -0.47364148 648 36
0.66910875 -8.3909273 -0.47327831 688 36
0.61717123 -8.3889027 -0.47291517 656 36
0.56514966 -8.3845644 -0.47243094 673 36
0.51418006 -8.3958445 -0.47291517 711 36
0.46270928 -8.3998375 -0.4729757 706 36
0.41081896 -8.3955402 -0.472552 739 36
0.35904145 -8.3919191 -0.47218886 803 36
0.30776185 -8.3999491 -0.472552 869 36
0.25594151 -8.3927002 -0.47200727 806 36
0.20429452 -8.3881254 -0.47164413 813 36
0.15284024 -8.3902187 -0.47170463 872 36
0.10137996 -8.3929949 -0.47182569 852 36
0.049879607 -8.3934593 -0.47182569 870 36
-0.0016240678 -8.3995962 -0.47218886 821 36
-0.053162992 -8.3994284 -0.47218886 773 36
-0.10473738 -8.4019384 -0.47237042 780 36
-0.15645625 -8.4101191 -0.47291517 713 36
-0.2083289 -8.4199772 -0.47358096 640 36
-0.25992727 -8.4165449 -0.4734599 416 36
-0.3120091 -8.4267616 -0.47418621 230 36
-0.36577758 -8.4725561 -0.47709146 87 36
-0.4243032 -8.602747 -0.4851414 30 36
-0.47719133 -8.6019745 -0.48526245 22 36
-1.0776438 -17.47867 -1.0247298 24 36
-1.1437945 -16.866236 -0.98793012 177 36
-1.2471886 -16.857904 -0.98786962 477 36
-1.3499651 -16.841974 -0.98738539 551 36
-1.4528507 -16.828402 -0.98708278 543 36
-1.5548848 -16.80625 -0.98629594 594 36
-1.6569959 -16.786459 -0.98569065 554 36
-1.760277 -16.778954 -0.98587227 518 36
-1.8877852 -16.989067 -0.9993695 298 36
-1.9851284 -16.918673 -0.99579847 185 36
-2.08021 -16.835838 -0.99150115 566 36
-2.1847584 -16.832657 -0.99210644 578 36
-2.2882698 -16.820913 -0.99222744 383 36
-2.3960788 -16.839167 -0.99422485 516 36
-2.5019975 -16.841919 -0.9953143 582 36
-2.6078873 -16.843019 -0.9963432 561 36
-2.7142024 -16.845425 -0.99749321 585 36
-2.8201504 -16.844204 -0.9984616 571 36
-2.9263563 -16.843302 -0.99949056 558 36
-2.1969087 -12.201045 -0.71459514 264 36
-2.2453883 -12.046034 -0.70587939 755 36
-2.3084886 -11.976163 -0.70242941 732 36
-2.3795898 -11.950026 -0.70170307 640 36
-2.459501 -11.967464 -0.70370048 780 36
-2.5353694 -11.963865 -0.70442677 772 36
-2.6129897 -11.967587 -0.70563728 865 36
-2.6911886 -11.972754 -0.70696884 898 36
-2.7684247 -11.972548 -0.7079978 869 36
-6.0282688 -25.358469 -1.5433764 172 36
-6.2005663 -25.389851 -1.5476737 113 36
-6.3734751 -25.420067 -1.5519711 216 36
-6.5509672 -25.464584 -1.5572368 158 36
-6.7203321 -25.474096 -1.5603842 44 36
-0 -0 -0 5 36
-0 -0 -0 5 36
-0 -0 -0 5 36
-6.8192711 -23.495491 -1.4463533 5 36
-0 -0 -0 7 36
-0 -0 -0 4 36
-0 -0 -0 5 36
-7.2716451 -22.935709 -1.4218403 19 36
-2.3192065 -7.1631041 -0.41941026 716 36
-2.3552814 -7.1250458 -0.41789711 1578 36
-2.3989556 -7.1104603 -0.41789711 1529 36
-2.4584613 -7.1418524 -0.42086288 942 36
-2.5009139 -7.1228662 -0.42062077 847 36
-0 -0 -0 762 36
-0 -0 -0 1426 36
-2.58253 -6.9437151 -0.41208664 1376 36
-2.6318083 -6.9454727 -0.41323662 1284 36
-2.6819241 -6.9487486 -0.41450766 1362 36
-2.7274315 -6.9395933 -0.41499186 1305 36
-2.7421465 -6.8532238 -0.41045243 1289 36
-2.7784972 -6.822403 -0.40954453 1460 36
-0 -0 -0 1189 36
-2.9318233 -6.9533448 -0.42043921 1435 36
-2.9799418 -6.9480672 -0.42128655 1389 36
-3.0512543 -6.9955249 -0.42564443 374 36
-5.3993902 -12.173909 -0.77039999 30 36
-5.4448547 -12.075945 -0.76610267 38 36
-5.4614568 -11.917088 -0.75775009 30 36
-5.4569302 -11.716863 -0.74661332 15 36
-5.4817519 -11.583914 -0.73995548 31 36
-5.5185575 -11.478992 -0.73517394 34 36
-5.5030341 -11.269118 -0.72331083 4 36
-5.6093326 -11.310255 -0.72839504 43 36
-5.6696453 -11.257794 -0.72718453 45 36
-5.7122564 -11.171248 -0.723674 109 36
-5.7848334 -11.143962 -0.72421873 110 36
-5.7651544 -10.941358 -0.71277934 25 36
-0 -0 -0 14 36
-0 -0 -0 188 36
-0 -0 -0 24 36
-5.8313441 -10.437572 -0.68784267 18 36
-5.8431044 -10.309546 -0.68142694 50 36
-5.8699336 -10.21033 -0.67700851 45 36
-0 -0 -0 24 36
-0 -0 -0 25 36
-5.9136486 -9.861721 -0.6601218 25 36
-5.5726447 -9.1651316 -0.61327475 33 36
-5.5873933 -9.0636415 -0.60849321 59 36
-5.5862951 -8.9386187 -0.60201693 49 36
-5.6041751 -8.845994 -0.59784067 65 36
-5.6195121 -8.7509699 -0.59348279 52 36
-5.6191931 -8.6335049 -0.58749074 69 36
-5.6390824 -8.548872 -0.58385915 65 36
-5.653708 -8.4576826 -0.57974339 92 36
-5.6982193 -8.4120903 -0.57895654 284 36
-5.7497277 -8.3769684 -0.57895654 701 36
-5.7514353 -8.2702379 -0.57369077 44 36
-5.8940644 -8.3653431 -0.58337492 381 36
-5.9650002 -8.3566427 -0.58543283 214 36
-6.0670509 -8.3902531 -0.5906986 750 36
-6.1355247 -8.3762197 -0.59245384 859 36
-6.1987009 -8.3544474 -0.59366435 182 36
-5.816258 -7.7393537 -0.54990411 22 36
-6.3884215 -8.3929138 -0.6024406 563 36
-6.4897747 -8.4183788 -0.60740376 708 36
-6.5689497 -8.4138041 -0.61012739 668 36
-6.6569796 -8.4195347 -0.61369842 601 36
-6.7428303 -8.4213829 -0.61702734 568 36
-6.8308387 -8.4248199 -0.62053788 602 36
-6.9432116 -8.4568062 -0.62634832 139 36
-7.0677185 -8.501544 -0.63324827 89 36
-7.1551061 -8.5000153 -0.63657725 95 36
-7.2369118 -8.4908962 -0.63936144 93 36
-7.3351779 -8.4999838 -0.64365876 88 36
-7.4318557 -8.505928 -0.64777452 111 36
-7.5361562 -8.519228 -0.65255606 105 36
-7.6349044 -8.5248737 -0.65679288 84 36
-7.7118769 -8.5052252 -0.65903234 95 36
-7.8226466 -8.521718 -0.66429806 391 36
-7.8924551 -8.492568 -0.66587174 646 36
-8.0005045 -8.5035925 -0.6708349 317 36
-8.0780029 -8.4810839 -0.67307436 300 36
-8.0176449 -8.3149586 -0.66326916 60 36
-8.1047716 -8.3027477 -0.66641647 379 36
-8.0931177 -8.1896753 -0.6610297 554 36
-8.1156836 -8.1123428 -0.65866917 652 36
-8.1546526 -8.0518742 -0.65776128 622 36
-8.243207 -8.0400171 -0.6610902 79 36
-8.3664255 -8.0606165 -0.66732436 132 36
-8.4808044 -8.0710583 -0.67277169 511 36
-8.5803509 -8.0660419 -0.67694801 596 36
-8.6925888 -8.0716515 -0.68215322 534 36
-8.8096294 -8.0802326 -0.68772161 495 36
-8.8960304 -8.0595331 -0.69074792 532 36
-9.0070553 -8.0600414 -0.69577157 226 36
-9.1049566 -8.0475893 -0.69970572 113 36
-2.6775026 -2.3378234 -0.17839609 72 36
-2.6766772 -2.3083148 -0.17718557 138 36
-2.7090294 -2.307379 -0.17863819 305 36
-2.6956353 -2.2675843 -0.17645927 127 36
-2.720248 -2.2599304 -0.17730662 291 36
-2.7085958 -2.2223063 -0.17530927 146 36
-2.7120976 -2.1974769 -0.17452243 125 36
-2.7153971 -2.1726885 -0.17373559 151 36
-2.7106624 -2.1417553 -0.17234349 131 36
-2.7025025 -2.1085072 -0.1707093 134 36
-2.7193432 -2.0949304 -0.17101192 305 36
-2.7146666 -2.0649128 -0.16968036 148 36
-2.7193036 -2.0422239 -0.1690751 125 36
-2.7197549 -2.0165839 -0.1681672 143 36
-2.7208002 -1.991605 -0.16731985 114 36
-2.7248781 -1.9690278 -0.16671459 129 36
-2.7328451 -1.9493734 -0.16641197 135 36
-2.7472036 -1.9342918 -0.16659354 120 36
-2.7852519 -1.9356241 -0.16853036 71 36
-2.8077779 -1.9258362 -0.1693172 84 36
-2.8269818 -1.9136066 -0.16986194 71 36
-2.8743637 -1.9200617 -0.17246455 107 36
-2.9219298 -1.9260066 -0.17506717 312 36
-2.9746966 -1.9347037 -0.17803293 104 36
-2.9940729 -1.9212657 -0.17857766 238 36
-3.0564113 -1.9348872 -0.18220922 83 36
-3.0936267 -1.9319558 -0.184025 63 36
-3.1258209 -1.9254996 -0.18547761 75 36
-3.147814 -1.9125019 -0.18620393 45 36
-10.475539 -6.2758365 -0.70333731 220 36
-10.46916 -6.1850419 -0.70018995 440 36
-10.491389 -6.1116443 -0.69910049 509 36
-0 -0 -0 3 36
-10.430095 -5.9057202 -0.68965846 323 36
-10.41994 -5.8158293 -0.68645054 465 36
-10.427443 -5.7363896 -0.68451375 518 36
-10.319409 -5.5947585 -0.67464805 69 36
-10.362348 -5.5360374 -0.67525327 164 36
-10.368739 -5.4579391 -0.67337698 492 36
-10.370133 -5.3776736 -0.67119807 511 36
-10.34871 -5.2862463 -0.66750598 575 36
-10.347067 -5.2056022 -0.66520596 570 36
-10.331409 -5.1185322 -0.66199809 571 36
-10.315073 -5.0318508 -0.65879023 496 36
-10.303463 -4.9481559 -0.65594554 560 36
-10.290313 -4.8643675 -0.65304029 610 36
-10.285575 -4.7851372 -0.65074027 635 36
-10.276624 -4.7044873 -0.64819819 629 36
-10.26525 -4.6233082 -0.64553505 537 36
-10.264221 -4.547298 -0.6435982 602 36
-10.242515 -4.4627037 -0.64032984 661 36
-10.233004 -4.3840508 -0.63790882 678 36
-10.216475 -4.3029714 -0.63506407 625 36
-10.214094 -4.2283688 -0.63318777 704 36
-10.193617 -4.146812 -0.63016146 602 36
-10.192916 -4.0738153 -0.62846673 671 36
-10.177768 -3.9955132 -0.62586415 643 36
-10.163905 -3.9182689 -0.62338257 717 36
-10.088799 -3.8183818 -0.61696684 589 36
-10.012855 -3.7195654 -0.61055106 761 36
-10.006416 -3.6474617 -0.60867476 754 36
-10.005111 -3.5775936 -0.60716164 747 36
-9.9920225 -3.503916 -0.60492218 254 36
-1.6423712 -0.56498623 -0.068178408 12 36
-1.6429693 -0.55394214 -0.06799683 17 36
-1.6378064 -0.54103476 -0.067452095 30 36
-1.6372963 -0.52974695 -0.067209996 20 36
-1.6329029 -0.51728094 -0.066725791 20 36
-1.6246046 -0.50370735 -0.065999478 24 36
-1.6219332 -0.49199232 -0.065636322 28 36
-1.6182224 -0.48004547 -0.065212637 18 36
-1.61155 -0.46732941 -0.064607382 25 36
-1.6019017 -0.45389774 -0.063820541 41 36
-1.6056186 -0.4443261 -0.063881069 20 36
-1.5967505 -0.43134484 -0.063154757 29 36
-1.5317986 -0.40374756 -0.058917943 95 36
-1.5255458 -0.39210686 -0.058373213 148 36
-1.5201766 -0.38080049 -0.057889003 164 36
-1.5215148 -0.37122935 -0.057828479 188 36
-1.5179367 -0.36050412 -0.057465322 170 36
-1.5230379 -0.35185674 -0.0576469 172 36
-1.5173764 -0.34075722 -0.057162695 177 36
-1.5087106 -0.32910302 -0.056496907 230 36
-1.5155843 -0.32087204 -0.056799538 176 36
-1.5097021 -0.30996254 -0.056315333 200 36
-1.5066804 -0.29972085 -0.056012701 215 36
-1.5094713 -0.29065886 -0.056073226 199 36
-1.5092636 -0.28102651 -0.055952176 217 36
-1.511942 -0.27193701 -0.056012701 169 36
-1.5116152 -0.26231396 -0.055891648 176 36
-1.5131962 -0.25303394 -0.055891648 191 36
-1.5127492 -0.24342771 -0.055770598 198 36
-1.5122415 -0.23383652 -0.055649545 199 36
-1.5087107 -0.22382204 -0.055346917 181 36
-1.5070909 -0.21414007 -0.055165339 210 36
-1.5063982 -0.20462051 -0.055044286 199 36
-1.5026758 -0.19473344 -0.054741658 220 36
-1.4978982 -0.18477784 -0.054378502 225 36
-1.5009867 -0.17581517 -0.054499555 197 36
-1.5000529 -0.16638242 -0.054378502 192 36
-1.4940963 -0.15644929 -0.053954821 236 36
-1.4990016 -0.14766914 -0.054196924 195 36
-1.4968976 -0.13819414 -0.054015346 232 36
-1.4977174 -0.12900676 -0.054015346 214 36
-1.4945006 -0.11949731 -0.053773243 246 36
-1.4942102 -0.11025179 -0.053712718 240 36
-1.4988422 -0.10134974 -0.053954821 204 36
-1.4974433 -0.092029169 -0.053833768 219 36
-1.4949899 -0.082674734 -0.05365219 199 36
-1.494472 -0.073451355 -0.053591665 205 36
-1.4919028 -0.064152204 -0.053410087 196 36
-1.4922683 -0.054996848 -0.053410087 225 36
-1.49158 -0.045809049 -0.053349562 202 36
-1.491833 -0.036656022 -0.053349562 203 36
-1.4920298 -0.027501618 -0.053349562 199 36
-1.4941667 -0.018370196 -0.053470612 189 36
-1.4912568 -0.0091841612 -0.053289037 193 36
-1.4912851 -3.3807941e-05 -0.053289037 203 36
-1.4902591 0.0091101816 -0.053228509 205 36
-1.4921713 0.018279046 -0.053349562 204 36
-1.4920311 0.027434492 -0.053349562 191 36
-1.4890738 -0.10870707 -0.071526498 187 37
-1.4897127 -0.09956824 -0.071526498 192 37
-1.4902956 -0.090425663 -0.071526498 176 37
-1.4888307 -0.081169538 -0.071381062 191 37
-1.4883046 -0.071983755 -0.071308345 187 37
-1.485729 -0.062721796 -0.071090199 196 37
-1.4850892 -0.053567622 -0.071017481 181 37
-1.484393 -0.044423662 -0.070944764 160 37
-1.4836406 -0.035290264 -0.070872054 181 37
-1.4828321 -0.026167771 -0.070799336 190 37
-1.4819674 -0.017056532 -0.070726618 151 37
-1.4840388 -0.0079753129 -0.070872054 174 37
-1.4840598 0.0011307283 -0.070872054 176 37
-1.4850223 0.010242824 -0.070944764 201 37
-1.4839342 0.019342341 -0.070872054 202 37
-1.4837875 0.028447226 -0.070872054 181 37
-1.481591 0.037502129 -0.070726618 183 37
-1.481333 0.046592295 -0.070726618 197 37
-1.4820158 0.055717394 -0.070799336 193 37
-1.4816462 0.064809822 -0.070799336 171 37
-1.4822167 0.073948734 -0.070872054 185 37
-1.4817351 0.083042048 -0.070872054 169 37
-1.4831886 0.092254512 -0.071017481 194 37
-1.4835896 0.10142069 -0.071090199 181 37
-1.4849287 0.11066861 -0.071235634 178 37
-1.4862101 0.11993679 -0.071381062 183 37
-1.4874336 0.12922484 -0.071526498 165 37
-1.4866127 0.13834913 -0.071526498 185 37
-1.4867283 0.14756595 -0.071599208 192 37
-1.4857949 0.15668556 -0.071599208 192 37
-1.4857968 0.16590919 -0.071671925 181 37
-1.4847509 0.17502274 -0.071671925 185 37
-1.4846388 0.18425177 -0.071744643 203 37
-1.4834803 0.19335787 -0.071744643 184 37
-1.4842426 0.2027251 -0.071890071 171 37
-1.4849457 0.21210895 -0.072035506 195 37
-1.4875624 0.2218017 -0.07232637 170 37
-1.4891304 0.23138215 -0.072544515 180 37
-1.489652 0.24083176 -0.07268995 191 37
-1.4901136 0.25029647 -0.072835386 173 37
-1.4914979 0.25994638 -0.073053531 208 37
-1.4928195 0.26962268 -0.073271677 193 37
-1.4940786 0.27932498 -0.07348983 186 37
-1.4952747 0.28905287 -0.073707975 165 37
-1.4964075 0.29880592 -0.073926121 174 37
-1.4994308 0.30898482 -0.074289702 224 37
-1.4994582 0.31859243 -0.074435137 177 37
-1.5003984 0.32842451 -0.074653283 184 37
-1.5012743 0.33828011 -0.074871428 184 37
-1.5020858 0.34815878 -0.075089581 173 37
-1.5028323 0.35806012 -0.075307727 160 37
-1.5035138 0.36798373 -0.075525872 177 37
-1.5050975 0.37817144 -0.075816736 176 37
-1.5056467 0.38814417 -0.076034889 158 37
-1.5070944 0.39839202 -0.076325752 144 37
-1.5065472 0.40815204 -0.07647118 153 37
-1.5078595 0.41845229 -0.076762043 166 37
-1.5081422 0.4285121 -0.076980196 160 37
-1.5112319 0.4394244 -0.077416487 163 37
-1.5142442 0.45039067 -0.077852786 137 37
-1.518133 0.4616999 -0.078361802 86 37
-1.599102 0.49699673 -0.084760807 38 37
-1.6369063 0.5197503 -0.087887593 17 37
-1.6308396 0.52886331 -0.087669447 27 37
-1.6455573 0.5448038 -0.089051053 22 37
-1.6440736 0.55552775 -0.089196481 11 37
-0 0 -0 6 37
-1.6305449 0.57334977 -0.088687472 26 37
-1.6288743 0.58401579 -0.0888329 15 37
-1.6271342 0.59468281 -0.088978335 18 37
-1.6206501 0.60361314 -0.088760182 5 37
-4.7564363 1.8024359 -0.33352223 294 37
-4.7452869 1.831587 -0.33352223 482 37
-4.7367444 1.8617629 -0.33374038 439 37
-4.7261577 1.8911623 -0.3338131 425 37
-4.7190833 1.9220058 -0.33417666 403 37
-4.7164159 1.9547418 -0.33490384 355 37
-4.7172003 1.9890666 -0.33592185 362 37
-4.7168236 2.0230813 -0.33686715 384 37
-4.7070642 2.0531809 -0.33708531 379 37
-4.697113 2.0832367 -0.33730346 434 37
-4.6896977 2.1144767 -0.33773974 484 37
-4.681169 2.1452889 -0.33810332 438 37
-4.6706305 2.1752343 -0.33832148 538 37
-4.6743259 2.2119534 -0.33970308 449 37
-8.8040285 4.2313476 -0.67485112 935 37
-8.7877588 4.2901001 -0.67565095 948 37
-8.7809296 4.3536844 -0.67725074 884 37
-8.7727585 4.4168978 -0.67877775 895 37
-8.7685823 4.4824438 -0.68066835 854 37
-8.7559633 4.5439701 -0.68190455 783 37
-8.7473316 4.6078343 -0.68350428 797 37
-8.7356062 4.6703525 -0.68488592 858 37
-8.7234421 4.7329001 -0.6862675 877 37
-8.7117128 4.7959547 -0.68772185 655 37
-8.502738 4.7491531 -0.67274237 54 37
-8.6678238 4.9113483 -0.68903071 450 37
-8.6833572 4.9907756 -0.69288468 689 37
-8.6749744 5.0570188 -0.69477528 83 37
-8.0127125 4.7371659 -0.64132905 46 37
-8.607132 5.160017 -0.69433898 438 37
-8.7380991 5.3116632 -0.70822775 292 37
-8.7554407 5.3960466 -0.71251798 374 37
-8.7018642 5.4369864 -0.71077281 238 37
-0 0 -0 4 37
-2.7289009 1.752906 -0.19914307 15 37
-2.7339783 1.7799506 -0.20052467 44 37
-2.7263358 1.7988884 -0.20081553 45 37
-2.7177346 1.8172452 -0.20103368 47 37
-2.71314 1.8383601 -0.20161541 39 37
-2.7133229 1.862872 -0.20263343 43 37
-2.7149444 1.8885936 -0.20379689 37 37
-2.7171674 1.9149791 -0.20503306 50 37
-2.7191684 1.9414628 -0.20626923 37 37
-2.7177129 1.9657056 -0.20721453 28 37
-2.7128429 1.9876468 -0.20786898 36 37
-2.7046013 2.0072255 -0.20823257 45 37
-2.6810703 2.0153968 -0.20721453 24 37
-2.6615098 2.0263746 -0.20656009 28 37
-2.6348057 2.0317097 -0.2052512 36 37
-2.6042054 2.0337257 -0.20357874 38 37
-2.5744629 2.036062 -0.20197898 27 37
-2.5393395 2.0337477 -0.19987023 23 37
-2.505892 2.0323358 -0.1979069 34 37
-2.4764132 2.0337541 -0.19630714 30 37
-2.4447107 2.0329754 -0.19448924 37 37
-2.4192169 2.0370216 -0.19325307 25 37
-2.3937659 2.040832 -0.1920169 28 37
-2.361563 2.0385444 -0.19012628 37 37
-2.3362398 2.0418434 -0.18889011 33 37
-2.3079767 2.0422664 -0.18736307 28 37
-2.2790539 2.0417547 -0.18576333 32 37
-2.2472689 2.0382862 -0.1838727 40 37
-2.2148783 2.0338311 -0.18190937 31 37
-2.1848197 2.0310924 -0.18016419 29 37
-2.1548789 2.0280619 -0.17841901 44 37
-2.1308367 2.0302424 -0.17725556 27 37
-2.103977 2.0294366 -0.17580123 36 37
-2.0814912 2.0325568 -0.1747832 28 37
-2.0625944 2.0389824 -0.17412876 37 37
-2.0429921 2.0445478 -0.17340161 38 37
-2.0135868 2.0400159 -0.17165641 41 37
-1.9926729 2.043767 -0.17078383 34 37
-1.9489484 2.0236416 -0.16751161 9 37
-0 0 -0 6 37
-1.8932205 2.0147123 -0.16423939 37 37
-1.8740346 2.0189841 -0.16351223 38 37
-1.8595881 2.0282402 -0.16329408 35 37
-1.8484478 2.0410903 -0.16343951 37 37
-1.8458678 2.0635397 -0.16453025 30 37
-1.8424209 2.0852869 -0.16554828 32 37
-1.8387764 2.107069 -0.1665663 37 37
-1.8401451 2.1349261 -0.16816606 36 37
-1.8405938 2.1621194 -0.16969308 41 37
-1.8401356 2.1886349 -0.17114741 30 37
-0 0 -0 33 37
-1.8422447 2.2465153 -0.17449234 34 37
-0 0 -0 34 37
-1.8351041 2.2946489 -0.17689197 38 37
-1.8327401 2.3207326 -0.17827357 44 37
-1.8270565 2.3429418 -0.17929161 35 37
-1.8223866 2.3667481 -0.18045506 38 37
-0 0 -0 36 37
-0 0 -0 32 37
-0 0 -0 43 37
-0 0 -0 40 37
-0 0 -0 29 37
-1.8012365 2.5263982 -0.18889011 41 37
-1.8218819 2.5887735 -0.19347122 6 37
-2.6701417 3.8430188 -0.30385411 190 37
-2.6521537 3.8675539 -0.30458125 249 37
-2.5791638 3.8110805 -0.29818225 136 37
-2.5402155 3.8036151 -0.29614621 95 37
-2.509692 3.8083055 -0.29520088 100 37
-2.4781189 3.8110931 -0.29411015 83 37
-2.44068 3.8044047 -0.29221955 79 37
-2.3964803 3.7864473 -0.28938362 91 37
-2.3494232 3.7630165 -0.28611138 81 37
-2.3116393 3.753587 -0.28407535 63 37
-2.0300822 3.3424103 -0.24779007 138 37
-2.006459 3.3496711 -0.24735376 113 37
-1.9391778 3.2829304 -0.2406639 14 37
-0 0 -0 9 37
-0 0 -0 13 37
-1.8513825 3.2703407 -0.23666452 119 37
-1.8259321 3.2720604 -0.23586464 154 37
-1.8005307 3.2735915 -0.23506476 147 37
-1.5117211 2.7892563 -0.19398023 83 37
-0 0 -0 95 37
-0 0 -0 74 37
-0 0 -0 75 37
-0 0 -0 94 37
-0 0 -0 59 37
-0 0 -0 66 37
-0 0 -0 84 37
-0 0 -0 78 37
-0 0 -0 90 37
-0 0 -0 110 37
-0 0 -0 117 37
-0 0 -0 98 37
-0 0 -0 116 37
-0 0 -0 111 37
-0 0 -0 73 37
-0 0 -0 50 37
-0 0 -0 49 37
-0 0 -0 50 37
-0 0 -0 44 37
-1.0754092 2.740751 -0.17732827 11 37
-0 0 -0 6 37
-1.02156 2.7005777 -0.17318346 13 37
-0.99871498 2.6899679 -0.17187457 37 37
-0.98219085 2.6960452 -0.17187457 16 37
-0 0 -0 16 37
-0 0 -0 7 37
-0 0 -0 22 37
-0 0 -0 5 37
-0 0 -0 4 37
-0.86571038 2.6791289 -0.1679479 7 37
-0.8510626 2.6900949 -0.16838419 8 37
-0 0 -0 4 37
-0.82030326 2.7079716 -0.16896592 12 37
-0.80679244 2.7234716 -0.1697658 8 37
-0.79339999 2.7398653 -0.1706384 20 37
-0.77874887 2.7523584 -0.17122012 6 37
-0 0 -0 6 37
-0.74569494 2.7645962 -0.17143828 8 37
-0.72566712 2.7575467 -0.17056568 5 37
-0 0 -0 6 37
-0.68886489 2.7546346 -0.16969308 5 37
-0 0 -0 5 37
-0.64809537 2.7337699 -0.16751161 8 37
-0.63041103 2.733808 -0.16722074 12 37
-0.61296922 2.7347052 -0.16700259 10 37
-0.59362704 2.7267218 -0.16613001 12 37
-0.57399279 2.7166526 -0.16511197 6 37
-0.55791473 2.7230544 -0.16533013 8 37
-0 0 -0 6 37
-0.51842177 2.6983562 -0.16300322 5 37
-0.4980211 2.680896 -0.16147618 9 37
-0.48244485 2.6888094 -0.16183975 6 37
-0.46201533 2.6691177 -0.16016729 7 37
-0.44513574 2.668951 -0.15994914 8 37
-0.42875099 2.6716323 -0.15994914 7 37
-0.41265491 2.6761839 -0.16009457 10 37
-0.3946164 2.6678135 -0.15929469 11 37
-0.37795895 2.6682098 -0.15914927 12 37
-0.36171427 2.6714668 -0.15922198 8 37
-0.34595653 2.6785815 -0.15958557 12 37
-0.32475233 2.6420496 -0.15674964 41 37
-0.31039143 2.6598418 -0.15791309 34 37
-0.29054663 2.6299756 -0.15558618 37 37
-0.27045697 2.5940154 -0.15282297 61 37
-0.24935299 2.543021 -0.14896902 101 37
-0.23301113 2.5365582 -0.1483873 115 37
-0.21735711 2.5369465 -0.14831458 109 37
-0.20130965 2.5322673 -0.14787829 149 37
-0.18672225 2.5463853 -0.1488236 117 37
-0.1717 2.5564387 -0.14947805 111 37
-0.15631665 2.5624216 -0.14984162 116 37
