# .PCD v0.7 - Point Cloud Data file format
VERSION 0.7
FIELDS x y z intensity ring
SIZE 4 4 4 4 1
TYPE F F F F U
COUNT 1 1 1 1 1
WIDTH 466
HEIGHT 1
VIEWPOINT 0 0 0 1 0 0 0
POINTS 466
DATA ascii
3.4318478 0.1481964 -1.2300084 37 61
3.445812 0.12762658 -1.23487 65 61
3.4457023 0.064143285 -1.2341754 20 61
3.4512167 0.10662746 -1.2366064 75 61
3.4480562 0.085355081 -1.2352172 65 61
3.8032982 -0.25695497 -0.66397196 41 46
3.8420143 -0.33071744 -0.67213392 130 46
3.8046598 -0.35102922 -0.66560435 16 46
3.7946208 -0.25759074 -0.70897543 6 47
3.7949259 -0.28101358 -0.70936149 8 47
3.8263845 -0.30695102 -0.71592468 92 47
3.8126984 -0.32941356 -0.71360826 35 47
3.7789083 -0.25596446 -0.75178295 88 48
3.7840998 -0.2796523 -0.75321442 91 48
3.758364 -0.2531721 -0.79542297 65 49
3.698813 0.15975796 -0.82711393 126 50
3.6919396 0.1367719 -0.82528985 68 50
3.690763 0.11405607 -0.82483381 61 50
3.6943135 0.09147983 -0.82551783 120 50
3.6977255 0.068864308 -0.82620186 117 50
3.7039201 0.046246521 -0.82756996 120 50
3.7158177 0.02359179 -0.83030611 80 50
3.7392604 0.00079406507 -0.83577836 11 50
3.7537994 -0.022237642 -0.83919853 4 50
3.7448301 -0.045163523 -0.8371464 22 50
3.7133307 -0.067570418 -0.82985008 108 50
3.7031124 -0.09011583 -0.82756996 75 50
3.7384984 -0.11393715 -0.83600634 11 50
3.7309821 -0.15955548 -0.8346383 9 50
3.7250705 -0.18220702 -0.83349824 6 50
3.733604 -0.20559654 -0.83577836 99 50
3.7361596 -0.22874002 -0.83669037 56 50
3.650816 0.15645561 -0.86019146 32 51
3.6666665 0.089565784 -0.86354041 4 51
3.6836507 0.067372926 -0.867607 11 51
3.6626351 0.044502873 -0.86234432 50 51
3.7133286 0.022348244 -0.87478334 5 51
3.7201924 -0.00043539848 -0.87645781 7 51
3.739325 -0.046322342 -0.88124204 8 51
3.696255 -0.06848754 -0.87071675 85 51
3.6753807 -0.090669647 -0.86569333 142 51
3.6728144 -0.11316046 -0.86521488 122 51
3.6982493 -0.13665409 -0.87167358 19 51
3.6992815 -0.15942656 -0.87215203 6 51
3.6933844 -0.18188466 -0.87095594 77 51
3.7174058 -0.20593187 -0.87717545 38 51
3.6389496 0.15717861 -0.90305805 131 52
3.6369433 0.13474026 -0.9023059 55 52
3.6541507 0.11292847 -0.90656805 5 52
3.6683238 0.090838976 -0.91007811 18 52
3.6630046 0.068221308 -0.90857381 88 52
3.6652904 0.045768224 -0.90907526 113 52
3.6664701 0.023283608 -0.90932596 121 52
3.6771927 0.00078729453 -0.91208386 127 52
3.6897128 -0.021851396 -0.91534323 95 52
3.6943493 -0.044549506 -0.91659677 114 52
3.6852951 -0.067057349 -0.91434032 104 52
3.6761045 -0.089455768 -0.91208386 120 52
3.6716158 -0.11189188 -0.91108102 116 52
3.6727951 -0.13448943 -0.91158241 117 52
3.673835 -0.15710567 -0.91208386 104 52
3.6592653 -0.17898141 -0.90857381 22 52
3.61921 0.15572113 -0.94241285 124 53
3.6229908 0.13361879 -0.94319844 130 53
3.6237423 0.11138601 -0.94319844 85 53
3.6243577 0.08914905 -0.94319844 22 53
3.6306262 0.067017466 -0.94476956 97 53
3.6271088 0.044690296 -0.94372213 138 53
3.6350355 0.02248417 -0.94581693 127 53
3.6457212 0.00018352635 -0.94869733 86 53
3.6466188 -0.022191765 -0.94895917 10 53
3.6454489 -0.044555094 -0.94869733 9 53
3.6402822 -0.066835277 -0.94738805 6 53
3.6513815 -0.089450292 -0.95053029 56 53
3.6555872 -0.1119993 -0.95183957 114 53
3.6557956 -0.13446262 -0.95210141 93 53
3.6029158 0.15562601 -0.98252958 97 54
3.6105323 0.13376461 -0.98444027 39 54
3.5849733 0.088783748 -0.97679758 10 54
3.5787177 0.066660404 -0.97488689 6 54
3.6021461 0.044986401 -0.98143774 14 54
3.6302526 0.023057427 -0.98935336 69 54
3.6255157 0.00078165741 -0.98798859 39 54
3.6117849 -0.043545246 -0.98416728 13 54
3.5902886 -0.065318659 -0.97816235 5 54
3.6234813 -0.088169679 -0.98771566 58 54
3.6219103 -0.11037188 -0.98744273 70 54
3.5759833 0.15384728 -1.0180323 95 55
3.5931504 0.13250861 -1.0228548 122 55
3.5833528 0.11013149 -1.0197344 60 55
3.601692 0.066474058 -1.0248406 11 55
3.5771022 0.04405804 -1.0174649 83 55
3.5849764 0.02215844 -1.0197344 91 55
3.5917573 0.00016351206 -1.0217202 104 55
3.5936084 -0.021886155 -1.0222875 108 55
3.6020362 -0.044038415 -1.0248406 109 55
3.6036155 -0.066173859 -1.025408 98 55
3.6012244 -0.088237621 -1.0248406 57 55
3.5605452 0.15442021 -1.0587455 115 56
3.5595157 0.13249932 -1.0581558 86 56
3.5640821 0.11077438 -1.0593352 105 56
3.56565 0.088927224 -1.0596302 90 56
3.5422442 0.066600651 -1.0522583 9 56
3.552141 0.04498456 -1.055207 30 56
3.5599942 0.02323726 -1.0575659 86 56
3.5724916 0.001396633 -1.0613993 109 56
3.5762551 -0.020546159 -1.0625788 128 56
3.5712843 -0.042431984 -1.0611044 102 56
3.5575814 -0.064101733 -1.0569762 33 56
3.5366783 0.15275909 -1.0946425 24 57
3.5232761 0.13052206 -1.0900596 73 57
3.529721 0.10907955 -1.0918928 61 57
3.5779181 0.088613883 -1.1071693 5 57
3.5850585 0.066784844 -1.109308 5 57
3.5968261 0.044932529 -1.1129743 4 57
3.5865602 0.022791995 -1.1096135 10 57
3.5771108 0.0007796525 -1.1065582 21 57
3.5446746 -0.020988114 -1.0961702 75 57
3.5778031 -0.043128222 -1.1068637 18 57
3.5563359 0.15299992 -1.1440675 7 58
3.4955795 0.12890992 -1.1235287 69 58
3.5038912 0.10769135 -1.1260567 89 58
3.512074 0.086375624 -1.1285845 83 58
3.5637624 0.065764003 -1.1456474 12 58
3.5821242 0.044115961 -1.151651 5 58
3.5187614 0.02174975 -1.1304803 61 58
3.5216749 0.00015843977 -1.1314282 57 58
3.4871929 0.14999825 -1.1643111 72 59
3.4918258 0.12873897 -1.1656172 95 59
3.4906604 0.10725242 -1.1649641 70 59
3.490308 0.085808568 -1.1646376 88 59
3.4907687 0.064390823 -1.1646376 93 59
3.4939334 0.043006506 -1.1656172 98 59
3.485625 0.021511974 -1.1626782 46 59
3.6151807 0.00017219945 -1.2074167 6 59
3.4663069 0.14913657 -1.199748 76 60
3.4690385 0.1279341 -1.2004219 90 60
3.4706993 0.10667488 -1.2007588 85 60
3.4703472 0.085354023 -1.2004219 78 60
3.4717469 0.064076036 -1.2007588 74 60
3.5163233 0.043312728 -1.2165946 33 60
3.8360388 0.16512053 -0.52779186 16 43
3.8359256 0.16499777 -0.57490402 112 44
3.845747 0.1417844 -0.57632434 141 44
3.8092055 -0.069987297 -0.57016963 7 44
3.8096917 -0.093383126 -0.57032746 14 44
3.7949483 0.16201764 -0.61447644 16 45
3.823447 0.13974552 -0.61922306 72 45
3.8242323 0.11628266 -0.61922306 130 45
3.8248739 0.092815422 -0.61922306 84 45
3.8017228 0.068908811 -0.61515456 6 45
3.8111517 0.02230525 -0.61668026 7 45
3.8112168 -0.0010799576 -0.61668026 6 45
3.8050039 -0.047776934 -0.61566311 5 45
3.8056245 -0.071141221 -0.61583263 5 45
3.804131 -0.094466589 -0.61566311 7 45
3.8015099 -0.1177461 -0.61532408 11 45
3.8349745 0.16495696 -0.66886914 10 46
3.8152766 0.14066412 -0.66506022 19 46
3.8072214 0.11698045 -0.66342783 104 46
3.8019688 0.093473159 -0.66233957 130 46
3.7975545 0.070052773 -0.66143268 88 46
3.8028295 0.046810113 -0.66233957 7 46
3.8128791 0.023535205 -0.66415334 26 46
3.8178689 0.00013905391 -0.66506022 120 46
3.8177979 -0.023286952 -0.66506022 151 46
3.8175831 -0.046712082 -0.66506022 172 46
3.819191 -0.070171781 -0.66542298 151 46
3.8226211 -0.09370137 -0.66614848 118 46
3.8337696 -0.11751753 -0.66832501 133 46
3.8369074 -0.14118393 -0.66905051 173 46
3.8330212 -0.16459723 -0.66850638 142 46
3.8319392 -0.18811311 -0.66850638 159 46
3.8267851 -0.21140452 -0.66778088 83 46
3.7587202 0.16045986 -0.70086789 62 47
3.7714005 0.1378274 -0.70318437 99 47
3.7692327 0.11459357 -0.70260525 112 47
3.7767313 0.091632538 -0.70395648 101 47
3.7831087 0.068565719 -0.70511472 111 47
3.791307 0.045448206 -0.70665902 92 47
3.7924957 0.02219037 -0.70685202 9 47
3.7827485 -0.0010805787 -0.70492166 52 47
3.7895389 -0.02433306 -0.7062729 127 47
3.7883372 -0.047572758 -0.7060799 115 47
3.7938602 -0.070924893 -0.70723808 77 47
3.8311329 -0.14218917 -0.7149595 7 47
3.8027403 -0.16451484 -0.70955455 22 47
3.7840192 -0.1869787 -0.7060799 40 47
3.8102322 -0.21170928 -0.71148491 3 47
3.799068 -0.23448297 -0.70955455 4 47
3.7195499 0.15935619 -0.7382862 6 48
3.7292614 0.13685262 -0.74012667 5 48
3.7345743 0.091173694 -0.74094468 35 48
3.7272339 0.068114795 -0.73930871 50 48
3.7943509 0.022763224 -0.75321442 5 48
3.7846305 -0.00051655545 -0.75116944 13 48
3.7943444 -0.023801014 -0.75321442 8 48
3.7637846 -0.046702564 -0.74687505 109 48
3.7585337 -0.06970457 -0.74585259 120 48
3.7824993 -0.093371622 -0.750965 33 48
3.8209913 -0.1177893 -0.75914484 12 48
3.8211749 -0.14126851 -0.75934929 16 48
3.7820959 -0.16306378 -0.75137395 112 48
3.781024 -0.18626721 -0.75137395 145 48
3.7856741 -0.20978922 -0.75260097 137 48
3.7784536 -0.23265217 -0.75137395 126 48
3.7533717 0.11606532 -0.7928257 6 49
3.7393734 0.092665508 -0.78957909 84 49
3.7349911 0.069626883 -0.78849691 119 49
3.7333956 0.046683073 -0.78806406 121 49
3.7404456 0.023820169 -0.78957909 80 49
3.7493079 0.00087357149 -0.79152709 15 49
3.7306933 -0.022028064 -0.78741473 108 49
3.7314641 -0.044930201 -0.78763115 119 49
3.7369752 -0.067929819 -0.78892982 116 49
3.74332 -0.091022179 -0.79044485 121 49
3.7495222 -0.11419495 -0.79195994 96 49
3.7575316 -0.13751806 -0.79390788 19 49
3.758568 -0.16065404 -0.79434079 72 49
3.7555611 -0.1836184 -0.79390788 100 49
3.7563136 -0.20676535 -0.79434079 96 49
3.7569232 -0.22992843 -0.79477364 85 49
3.8689008 -0.23877172 -0.62786865 111 45
3.8516304 -0.26144323 -0.62515628 60 45
3.8803833 -0.23826186 -0.67793804 14 46
3.8487256 -0.28376234 -0.67267811 135 46
3.8488727 -0.30752918 -0.67304087 148 46
3.9190655 0.14395164 -0.44271779 146 41
3.9248354 0.1200552 -0.44332629 146 41
3.9364133 0.096240692 -0.44466493 148 41
3.9299829 0.071956247 -0.44381306 138 41
3.921418 0.047729593 -0.44271779 105 41
3.8981826 0.14371228 -0.48771575 173 42
3.9029531 0.11991212 -0.48825032 163 42
3.8847916 0.095500916 -0.48571113 23 42
3.8892679 0.071735196 -0.48624569 16 42
3.9223363 0.048268933 -0.49065584 42 42
3.8967924 0.024044605 -0.48718119 154 42
3.9047949 0.00013336462 -0.48825032 149 42
3.9057131 -0.023832154 -0.48838395 161 42
3.8893762 0.14352927 -0.53552514 44 43
3.8634856 0.11883255 -0.53158551 20 43
3.8765223 0.071635611 -0.53333646 8 43
3.8758998 0.04783586 -0.53319055 6 43
3.8563347 0.023924142 -0.53027236 82 43
3.8870771 0.00027304105 -0.53479558 159 43
3.8790915 -0.023531994 -0.53362828 115 43
3.8867879 -0.047427397 -0.53479558 115 43
3.8844454 -0.071239702 -0.53450376 142 43
3.878001 -0.094929397 -0.53362828 141 43
3.8803122 -0.11881252 -0.53406602 35 43
3.8534536 0.11839625 -0.57742906 155 44
3.8531203 0.094725512 -0.57727122 169 44
3.8516545 0.071045198 -0.57695562 149 44
3.8480682 0.047362342 -0.57632434 94 44
3.8621109 0.023834068 -0.57853377 145 44
3.8661342 0.00013589495 -0.57916498 182 44
3.8680372 -0.023598509 -0.57948065 154 44
3.8668323 -0.047319714 -0.57932281 127 44
3.8968902 -0.11945879 -0.58437282 97 44
3.8783214 -0.14271203 -0.58153218 155 44
3.8783593 -0.16654873 -0.58169001 130 44
3.8851547 -0.1907309 -0.5829525 82 44
3.8476024 -0.024688071 -0.62295252 39 45
3.8479888 -0.14280966 -0.62346107 85 45
3.8490095 -0.16650237 -0.62380016 120 45
3.8567746 -0.19055134 -0.62532586 126 45
3.8634048 -0.21464747 -0.62668198 123 45
3.9643719 0.14614585 -0.39934555 172 40
3.4106851 0.16765422 -1.1381863 12 59
3.6694391 0.49916694 -0.82734191 74 50
3.6627769 0.47539011 -0.82506186 108 50
3.6578944 0.45195246 -0.82323772 111 50
3.6586647 0.4292728 -0.82278174 16 50
3.6573589 0.40638587 -0.82186967 5 50
3.6626887 0.38424155 -0.82255369 8 50
3.6591637 0.36118725 -0.82118565 58 50
3.6768234 0.34016174 -0.82483381 100 50
3.6778712 0.31751111 -0.82460582 122 50
3.6778092 0.29478276 -0.82414979 90 50
3.6737225 0.27178022 -0.82278174 30 50
3.6782353 0.24943088 -0.82346576 46 50
3.6913583 0.22757469 -0.82620186 108 50
3.6946297 0.20502836 -0.82665789 108 50
3.6967907 0.18240255 -0.82688594 95 50
3.6198235 0.51381826 -0.86066985 90 51
3.6277184 0.49225211 -0.86186594 135 51
3.6277821 0.46960869 -0.8611483 101 51
3.6296315 0.44722116 -0.8609091 118 51
3.6352003 0.42528114 -0.86162668 106 51
3.6416016 0.40339682 -0.86258358 94 51
3.6275918 0.37932286 -0.85851699 57 51
3.647244 0.35877374 -0.86282277 112 51
3.6435757 0.33585134 -0.86138749 124 51
3.6407309 0.31307098 -0.86019146 108 51
3.6406476 0.29057086 -0.85971302 128 51
3.6520452 0.26894298 -0.86210513 41 51
3.6245644 0.24455911 -0.85492879 9 51
3.6289041 0.2224938 -0.85564643 17 51
3.6738274 0.20264331 -0.86641091 92 51
3.6750016 0.18009731 -0.86641091 118 51
3.5994527 0.55731398 -0.90305805 63 52
3.6047199 0.53550196 -0.90355945 46 52
3.5927942 0.48874882 -0.89879584 13 52
3.6322062 0.47142559 -0.90832311 60 52
3.6100507 0.44604617 -0.90180445 116 52
3.617527 0.42445046 -0.90305805 74 52
3.6306469 0.40342063 -0.9058159 13 52
3.6397934 0.38184211 -0.90757096 8 52
3.6481342 0.31494704 -0.90807241 28 52
3.6615777 0.2934835 -0.91108102 15 52
3.6748946 0.2718668 -0.91408962 4 52
3.6465523 0.24728569 -0.90631735 6 52
3.6473792 0.20241119 -0.9058159 23 52
3.6379166 0.17950383 -0.90305805 103 52
3.5656884 0.55147237 -0.93848509 28 53
3.5585043 0.52802169 -0.93560469 4 53
3.5626328 0.50631326 -0.93586659 5 53
3.5694973 0.48496482 -0.93691397 11 53
3.5809267 0.44183603 -0.93848509 102 53
3.5835705 0.41985556 -0.93848509 98 53
3.5870383 0.39796603 -0.93874693 38 53
3.5942118 0.3764531 -0.9400562 5 53
3.5974145 0.3544873 -0.94031805 8 53
3.5783801 0.33044803 -0.93455732 60 53
3.6082244 0.31089693 -0.94215101 128 53
3.610064 0.28875142 -0.94215101 115 53
3.607918 0.26630962 -0.94110364 110 53
3.6200757 0.24488677 -0.94398397 61 53
3.6244001 0.22284842 -0.94476956 40 53
3.6131721 0.19990817 -0.94136548 111 53
3.6152947 0.17778212 -0.94162732 121 53
3.5514503 0.54988682 -0.9789812 99 54
3.550951 0.52752012 -0.97788942 121 54
3.5617406 0.5068053 -0.98007303 79 54
3.5476246 0.48260903 -0.97515988 40 54
3.5676918 0.46305913 -0.98007303 111 54
3.5609181 0.4399808 -0.9773435 122 54
3.5606842 0.41778713 -0.97652465 132 54
3.5603123 0.3956129 -0.9757058 95 54
3.5607591 0.37355924 -0.97515988 97 54
3.567771 0.3521758 -0.97652465 38 54
3.5880659 0.33195966 -0.98171073 71 54
3.5967443 0.31051597 -0.98362136 103 54
3.598582 0.28844091 -0.98362136 96 54
3.6031623 0.26656762 -0.98444027 92 54
3.5816941 0.24289432 -0.97788942 29 54
3.5581517 0.21937637 -0.97079265 10 54
3.5584702 0.19748662 -0.97051966 5 54
3.5970886 0.1774936 -0.98116481 45 54
3.5433731 0.52577144 -1.0188833 29 55
3.545583 0.50388455 -1.0185996 78 55
3.5343559 0.48017874 -1.0143445 117 55
3.5372357 0.45848331 -1.0143445 112 55
3.5390306 0.43665287 -1.0140607 103 55
3.5435479 0.41515335 -1.0146281 112 55
3.5669954 0.39573577 -1.0208691 60 55
3.5922446 0.37624642 -1.0276774 9 55
3.5793676 0.28628621 -1.0214365 39 55
3.5829694 0.26446003 -1.0220038 13 55
3.5782883 0.2199983 -1.0197344 6 55
3.5795708 0.19803821 -1.0197344 5 55
3.5845494 0.17626026 -1.0208691 6 55
3.5408001 0.46019739 -1.0608096 26 56
3.5283842 0.43658698 -1.0560917 116 56
3.5272005 0.41448334 -1.0549121 100 56
3.5296774 0.39283305 -1.0549121 111 56
3.5301206 0.37096843 -1.0543224 53 56
3.5420628 0.30642113 -1.0560917 70 56
3.5381615 0.2842232 -1.0543224 99 56
3.5369802 0.26229641 -1.0534377 108 56
3.5404296 0.24071841 -1.0540274 113 56
3.5389788 0.21881361 -1.0531429 84 56
3.544071 0.19730678 -1.0543224 43 56
3.55285 0.1759343 -1.0566814 88 56
3.5126448 0.39030591 -1.0928094 60 57
3.5130796 0.36854604 -1.0921984 87 57
3.506747 0.34613863 -1.0894486 93 57
3.5125973 0.32496724 -1.0906707 83 57
3.5154736 0.30349046 -1.0909762 98 57
3.5182188 0.28199059 -1.0912818 76 57
3.5217819 0.26053903 -1.0918928 107 57
3.5261643 0.23911908 -1.0928094 104 57
3.5342176 0.21789078 -1.0949481 44 57
3.5328214 0.17431514 -1.0937259 12 57
3.4840803 0.32173991 -1.1238447 49 58
3.4973321 0.30133203 -1.1276366 84 58
3.4953322 0.27956498 -1.1263726 82 58
3.4950895 0.25797328 -1.1257406 71 58
3.4937668 0.23633118 -1.1247927 20 58
3.508719 0.19411945 -1.1289004 9 58
3.5449061 0.1743069 -1.1405917 4 58
3.4771802 0.2566171 -1.1630048 78 59
3.4786894 0.23527668 -1.1630048 85 59
3.476294 0.21369419 -1.1616986 79 59
3.4765961 0.1923075 -1.1613719 48 59
3.4642158 0.19166225 -1.199748 64 60
3.4653265 0.17040262 -1.199748 64 60
3.8076642 0.23417573 -0.52414411 7 43
3.8169315 0.2112477 -0.52531141 8 43
3.8233159 0.30576125 -0.57427281 98 44
3.8270895 0.28244123 -0.57458842 127 44
3.8297358 0.25901988 -0.57474625 111 44
3.8273106 0.23527423 -0.57411498 136 44
3.8267102 0.21167699 -0.57379937 54 44
3.7608697 0.18490234 -0.56306803 13 44
3.7933285 0.32557788 -0.61600214 90 45
3.7962372 0.30237487 -0.61617166 85 45
3.7970383 0.27900338 -0.61600214 121 45
3.8055615 0.25616539 -0.61718881 120 45
3.8100128 0.23299143 -0.61769736 111 45
3.8172748 0.20993575 -0.61871451 86 45
3.7958515 0.18539672 -0.61481547 7 45
3.772068 0.37165782 -0.65998167 91 46
3.7870078 0.34968001 -0.66233957 62 46
3.8057384 0.32787004 -0.66542298 8 46
3.8135605 0.3049821 -0.66651124 11 46
3.8258464 0.2587572 -0.66814363 14 46
3.7979152 0.23347022 -0.66270232 40 46
3.8397834 0.18877394 -0.6699574 5 46
3.7305629 0.41262379 -0.69913059 12 47
3.7398555 0.390441 -0.70048183 122 47
3.7412043 0.36739016 -0.70028883 113 47
3.7404571 0.34415701 -0.69970971 106 47
3.7718256 0.32372567 -0.70550078 35 47
3.7256091 0.2737329 -0.69565594 19 47
3.7624609 0.2532509 -0.70260525 118 47
3.7668819 0.23034069 -0.70318437 110 47
3.7652853 0.20706066 -0.70260525 115 47
3.7645249 0.18385707 -0.70221919 119 47
3.6792758 0.43039256 -0.73440081 58 48
3.7324398 0.41340715 -0.74503458 113 48
3.7300382 0.38998911 -0.74401212 111 48
3.7284641 0.36671183 -0.7431941 140 48
3.7238209 0.34319937 -0.74176264 112 48
3.7180543 0.31967396 -0.74012667 91 48
3.7355583 0.29809862 -0.74339861 50 48
3.7535849 0.2532219 -0.74646604 66 48
3.7384584 0.22916913 -0.74298966 106 48
3.7300203 0.20568812 -0.74094468 114 48
3.7302344 0.18274948 -0.74074018 34 48
3.6890311 0.45586109 -0.78438455 94 49
3.6597619 0.42945206 -0.77724206 14 49
3.6603873 0.40677181 -0.77680916 6 49
3.6734946 0.38542846 -0.77919 7 49
3.678705 0.36316973 -0.77983934 19 49
3.6886411 0.34131286 -0.78157085 69 49
3.6789942 0.31766185 -0.77897358 18 49
3.6847665 0.29539528 -0.77983934 8 49
3.6738529 0.27183983 -0.77702564 6 49
3.6735036 0.24915963 -0.77659273 5 49
3.6788609 0.22685634 -0.77745849 13 49
3.7074773 0.20580272 -0.78351879 103 49
3.7067201 0.18295333 -0.78308594 48 49
3.56986 0.57456994 -0.94057989 100 53
3.5565574 0.57304412 -0.98143774 72 54
3.9484563 0.21787876 -0.44673377 31 41
3.9080818 0.19159368 -0.44162253 134 41
3.9151335 0.16786742 -0.44235271 158 41
3.8895249 0.23909236 -0.48718119 106 42
3.8958664 0.21549536 -0.48784938 72 42
3.8931561 0.19139247 -0.48731482 133 42
3.8912866 0.16737345 -0.48691389 150 42
3.893297 0.28746688 -0.53727603 34 43
3.8594549 0.26115745 -0.53202325 111 43
3.9703522 0.17076632 -0.40011248 123 40
