# .PCD v0.7 - Point Cloud Data file format
VERSION 0.7
FIELDS x y z intensity ring
SIZE 4 4 4 4 1
TYPE F F F F U
COUNT 1 1 1 1 1
WIDTH 1408
HEIGHT 1
VIEWPOINT 0 0 0 1 0 0 0
POINTS 1408
DATA ascii
4.863337 -1.0920346 -1.7418699 36 60
4.8556275 -1.1216429 -1.7415329 36 60
4.8486538 -1.1514153 -1.7415329 34 60
4.843327 -1.1815909 -1.7422068 29 60
4.8396387 -1.2122021 -1.7435546 38 60
4.8403168 -1.2439846 -1.7465869 35 60
4.8353238 -1.2743809 -1.7475977 56 60
4.8374114 -1.3067275 -1.751304 43 60
4.8356543 -1.338143 -1.7536625 25 60
4.8345995 -1.3698428 -1.7563579 43 60
4.8324332 -1.4013176 -1.7587165 44 60
4.830965 -1.4330851 -1.7614119 28 60
4.8310905 -1.4654341 -1.7647812 25 60
4.8381948 -1.5000696 -1.770846 45 60
4.8360796 -1.5320033 -1.7735415 39 60
4.8301716 -1.5628077 -1.7748891 50 60
4.8151274 -1.5906432 -1.7728676 72 60
4.8034925 -1.6195565 -1.7721937 145 60
4.7925744 -1.6486934 -1.7718568 157 60
4.7992477 -1.6839933 -1.7782584 147 60
4.8012352 -1.7178508 -1.7829754 178 60
4.7976804 -1.7498597 -1.7856709 169 60
4.8071508 -1.7868112 -1.7934203 102 60
4.8057818 -1.8199424 -1.7971265 63 60
4.7918892 -1.848379 -1.7961158 76 60
4.7848392 -1.8794682 -1.7978004 77 60
4.7968202 -1.9182329 -1.8068976 51 60
4.7962961 -1.9522449 -1.8112776 43 60
4.7850971 -1.981998 -1.8116146 50 60
4.774581 -2.0120528 -1.8122885 35 60
4.775991 -2.0472474 -1.8176794 64 60
4.757298 -2.0738797 -1.8153208 40 60
4.7470655 -2.1041756 -1.8163316 31 60
4.7314897 -2.132103 -1.8153208 35 60
4.7311583 -2.1669767 -1.8203748 28 60
4.7220407 -2.1979525 -1.8220595 19 60
4.6991034 -2.2224565 -1.8183532 45 60
4.7040477 -2.2602198 -1.8257657 34 60
4.6900907 -2.2890408 -1.8257657 37 60
4.6784878 -2.3190303 -1.8267765 34 60
4.6675344 -2.3493867 -1.8281243 43 60
4.6588993 -2.3809817 -1.8304827 33 60
4.6525593 -2.4138601 -1.8338521 33 60
4.6418257 -2.444556 -1.8355367 19 60
4.6342115 -2.4769866 -1.838569 28 60
4.6222363 -2.5071709 -1.8399168 36 60
4.610065 -2.5373015 -1.8412645 15 60
4.5960536 -2.5664587 -1.8419384 24 60
4.5818577 -2.5955396 -1.8426123 19 60
4.5748253 -2.6287651 -1.8463185 25 60
4.5626764 -2.6591568 -1.8480031 21 60
4.5487056 -2.6885402 -1.8490139 21 60
4.5288935 -2.7144637 -1.8476663 19 60
4.5177841 -2.7456245 -1.8500247 31 60
4.4992495 -2.7723055 -1.8493509 27 60
4.480557 -2.7988625 -1.848677 16 60
4.4632993 -2.8263021 -1.848677 20 60
4.4506273 -2.8566868 -1.8506986 28 60
4.4353828 -2.8854821 -1.8517094 27 60
4.4183803 -2.913161 -1.8520464 23 60
4.4129472 -2.9485872 -1.8574373 28 60
4.3978906 -2.9777207 -1.8587849 21 60
4.3888531 -3.0110421 -1.8628281 26 60
4.3733869 -3.0400648 -1.8641758 15 60
4.3608093 -3.0711796 -1.8668712 18 60
4.3449483 -3.1000669 -1.868219 17 60
4.3250818 -3.126117 -1.8678821 17 60
4.3080978 -3.1542652 -1.8688929 14 60
4.2856379 -3.178396 -1.8675451 19 60
4.2698183 -3.2074602 -1.8692298 7 60
4.2418156 -3.2273271 -1.8655236 20 60
4.2249165 -3.2555926 -1.8668712 27 60
4.2041187 -3.2808757 -1.8665344 29 60
4.1824312 -3.3054423 -1.8658605 20 60
4.1753016 -3.3416336 -1.8719252 10 60
4.1547189 -3.3671899 -1.8719252 19 60
4.137619 -3.395606 -1.8736099 24 60
4.1203265 -3.4239392 -1.8752946 21 60
4.1086049 -3.4570374 -1.8796747 22 60
4.0901823 -3.4846249 -1.8810223 16 60
4.080843 -3.5201118 -1.8867502 18 60
2.0289941 -1.7717694 -0.92211694 14 60
2.0202005 -1.7860569 -0.92312771 12 60
2.0092034 -1.798419 -0.92312771 16 60
1.9932476 -1.8062871 -0.92076921 18 60
1.9758837 -1.8127539 -0.91773683 11 60
1.9585156 -1.8190759 -0.91470444 18 60
1.9370297 -1.8213829 -0.9096505 27 60
1.9074073 -1.8157037 -0.90055335 39 60
1.8901297 -1.8214922 -0.89752096 25 60
1.8715055 -1.8258221 -0.89381474 25 60
1.8441923 -1.82139 -0.88572842 72 60
1.8323159 -1.8320057 -0.88539147 40 60
1.8183939 -1.8405346 -0.88404375 20 60
1.8057514 -1.8503096 -0.88336986 20 60
1.7826039 -1.8491516 -0.87730515 31 60
1.7647324 -1.8532352 -0.87393582 39 60
1.7449431 -1.8551116 -0.86955571 29 60
1.7194308 -1.8506067 -0.86214322 42 60
1.6908574 -1.8423901 -0.85304612 21 60
1.6624502 -1.8338933 -0.84394896 19 60
1.6404911 -1.8321332 -0.83822113 19 60
1.6229821 -1.8351109 -0.83485186 18 60
1.6079757 -1.8407797 -0.83283025 26 60
1.5855819 -1.8377777 -0.82676548 54 60
1.5986975 -1.8761415 -0.84024274 31 60
1.5992785 -1.9003249 -0.84698135 23 60
1.5948087 -1.9187922 -0.85102451 23 60
1.5895749 -1.936548 -0.85473078 19 60
1.5764771 -1.944802 -0.85405689 31 60
1.563926 -1.9537034 -0.85371995 34 60
1.5425688 -1.9514431 -0.84832907 28 60
1.5126104 -1.9378605 -0.83788419 46 60
1.4955196 -1.9403927 -0.83485186 43 60
1.4733244 -1.9360443 -0.82878709 43 60
1.4512392 -1.9314972 -0.82272232 36 60
1.4359956 -1.9358279 -0.82070071 27 60
1.4174166 -1.935486 -0.81665754 28 60
1.4005505 -1.9372787 -0.81362516 33 60
1.3820755 -1.9366382 -0.809582 35 60
1.3663719 -1.9396932 -0.8072235 33 60
1.3458468 -1.9356706 -0.80183262 28 60
1.3270205 -1.9337988 -0.79745251 26 60
1.308796 -1.9325489 -0.79340935 31 60
1.2916832 -1.9327142 -0.79004002 44 60
1.2735813 -1.9311705 -0.78599685 37 60
1.2576008 -1.9326347 -0.78330141 41 60
1.2426674 -1.9355606 -0.7812798 32 60
1.2297604 -1.941558 -0.78060597 35 60
1.2213155 -1.9546571 -0.78296447 30 60
1.2112744 -1.9653206 -0.78431219 39 60
1.2104381 -1.9912221 -0.79206163 27 60
1.2112652 -2.0204172 -0.80115873 32 60
1.2103419 -2.0472648 -0.80924511 36 60
1.2010757 -2.0603473 -0.81160361 33 60
1.1954466 -2.0799239 -0.81665754 26 60
1.1849821 -2.091316 -0.81834221 37 60
1.1712097 -2.0969033 -0.81766838 44 60
1.1537819 -2.0958016 -0.81429905 32 60
1.1382074 -2.0978758 -0.81227744 27 60
1.116438 -2.0882125 -0.80553883 40 60
1.0979012 -2.0841932 -0.80115873 26 60
1.0798895 -2.0808616 -0.79711556 37 60
1.0726707 -2.0983477 -0.80149567 46 60
1.038612 -2.0628388 -0.78464913 18 60
1.0276074 -2.0725472 -0.78599685 14 60
1.0136324 -2.0762749 -0.78498608 18 60
0.99598104 -2.0722713 -0.78094286 8 60
0.98606455 -2.0843017 -0.78330141 12 60
0.97127062 -2.0860448 -0.78161675 20 60
0.96237284 -2.1005254 -0.78498608 11 60
0.94637203 -2.0995235 -0.78229058 22 60
0.93690521 -2.1130378 -0.78532296 22 60
0.92580318 -2.1230624 -0.78700763 14 60
0.91201711 -2.1269722 -0.7863338 21 60
0.89968026 -2.1342635 -0.78700763 14 60
0.89341247 -2.1562715 -0.79340935 11 60
0.87697089 -2.1538639 -0.79037696 15 60
0.86373854 -2.1592045 -0.79037696 27 60
0.85047364 -2.1644635 -0.79037696 14 60
0.83514392 -2.1643705 -0.78835535 29 60
0.82384831 -2.1747372 -0.79037696 22 60
0.80950487 -2.1771038 -0.78936619 17 60
0.79226035 -2.1714151 -0.78532296 15 60
0.77606773 -2.1682568 -0.78229058 22 60
0.75963205 -2.1640935 -0.77892131 11 60
0.74572664 -2.1669331 -0.77824742 12 60
0.73211581 -2.1705759 -0.77791053 16 60
1.766149 -5.3461442 -1.9730046 18 60
1.7338921 -5.3586721 -1.9736784 23 60
1.697852 -5.3593369 -1.9699721 34 60
0.68141448 -2.1968822 -0.7812798 8 60
0 -0 -0 4 60
0.65360087 -2.2023709 -0.78026903 10 60
0 -0 -0 5 60
0 -0 -0 4 60
0 -0 -0 5 60
0 -0 -0 4 60
0 -0 -0 7 60
0.57560951 -2.2386143 -0.78532296 4 60
0.56529349 -2.2558038 -0.79037696 7 60
0.54921049 -2.250083 -0.78700763 7 60
0 -0 -0 6 60
0 -0 -0 4 60
0 -0 -0 4 60
0 -0 -0 4 60
0 -0 -0 4 60
0 -0 -0 4 60
0.43684861 -2.1949434 -0.75904238 8 60
0.4194575 -2.1772423 -0.75162989 30 60
0.40626258 -2.1807008 -0.75196683 21 60
0.39170823 -2.1766658 -0.74960828 42 60
0.37657514 -2.1688237 -0.74590206 36 60
0.36217391 -2.164593 -0.74354357 40 60
0.34933394 -2.1695633 -0.74455434 30 60
0.33486477 -2.164222 -0.7418589 37 60
0.32185522 -2.1680987 -0.74253273 31 60
0.30907544 -2.1737614 -0.74388051 31 60
0.29560503 -2.174684 -0.74354357 43 60
0.2829814 -2.1820593 -0.74556512 36 60
0.27154547 -2.1996403 -0.75129294 29 60
0.25760579 -2.1975245 -0.74994522 32 60
0.24422091 -2.1999996 -0.75028217 34 60
0.23248087 -2.2183123 -0.75634694 10 60
0.55465525 -5.63132 -1.9831125 20 60
0.520697 -5.64118 -1.985471 19 60
0.48631576 -5.6470833 -1.9864818 25 60
0.45233139 -5.6584077 -1.9895141 28 60
0.41836476 -5.6714053 -1.9932204 9 60
0 -0 -0 4 60
0.13551648 -2.2018149 -0.74758673 13 60
0.12195195 -2.2016647 -0.74724978 13 60
0.10793298 -2.1920273 -0.74354357 7 60
0.093391038 -2.1672504 -0.73444641 26 60
0.079261035 -2.145201 -0.72636008 30 60
0.066125661 -2.1465881 -0.72669703 36 60
0.052768838 -2.1394234 -0.72400153 26 60
0.039364289 -2.124645 -0.71861064 16 60
0.026269509 -2.1201394 -0.71692598 27 60
0.013208644 -2.1117871 -0.71389365 20 60
0.00025108375 -2.106179 -0.71187204 30 60
-0.012666354 -2.1051996 -0.7115351 12 60
-0.025548531 -2.1022577 -0.71052432 20 60
-0.038412474 -2.1001787 -0.70985043 19 60
-0.051414046 -2.1046097 -0.7115351 8 60
-0.064239889 -2.1014314 -0.71052432 20 60
-0.076993957 -2.097234 -0.7091766 20 60
-0.089415513 -2.086375 -0.70547038 19 60
-0.10226184 -2.0867274 -0.70580727 18 60
-0.11417934 -2.0700791 -0.70007944 22 60
-0.12387352 -2.0204723 -0.68255907 46 60
-0.13525158 -2.0046442 -0.67716813 49 60
-0.14630146 -1.9868749 -0.67110342 55 60
-0.15803944 -1.9803087 -0.66908181 53 60
-0.1747954 -2.0327706 -0.6882869 31 60
-0.19445245 -2.1094756 -0.71625215 17 60
-0 -0 -0 5 60
-0.22218813 -2.1247222 -0.72265381 13 60
-0.2451895 -2.2131543 -0.75499922 70 60
-0 -0 -0 6 60
-0 -0 -0 6 60
-0.74331719 -5.7367787 -2.0282612 12 60
-0.77292544 -5.6910596 -2.0134363 51 60
-0.80928797 -5.6964641 -2.0171425 36 60
-0.8439492 -5.6895285 -2.0164685 57 60
-0.87841183 -5.6814513 -2.0154579 51 60
-0.91535085 -5.6889687 -2.020175 59 60
-0.95179379 -5.6925311 -2.0235441 53 60
-0.98654354 -5.6856561 -2.0232072 63 60
-1.0180771 -5.6609631 -2.0164685 50 60
-1.0543447 -5.66294 -2.019501 46 60
-1.0904965 -5.6637602 -2.0221965 49 60
-1.1243094 -5.6523457 -2.0205119 51 60
-1.1604856 -5.6527185 -2.0232072 50 60
-1.194563 -5.6427283 -2.0221965 56 60
-1.2287623 -5.6334529 -2.0215225 52 60
-1.2645435 -5.631319 -2.0235441 50 60
-1.3018286 -5.6353793 -2.0279243 56 60
-1.3368174 -5.6291175 -2.0285981 47 60
-1.3659744 -5.5988564 -2.0205119 67 60
-1.4057946 -5.612289 -2.0285981 53 60
-1.4423144 -5.6117644 -2.0316305 33 60
-0.62799871 -2.3835599 -0.84024274 21 60
-0.64678746 -2.3951137 -0.84597057 67 60
-0.66147143 -2.3910999 -0.84597057 93 60
-0.67510349 -2.3833728 -0.84462285 101 60
-0.68604279 -2.3665261 -0.8399058 115 60
-0.69974709 -2.3595641 -0.83889502 111 60
-0.71284509 -2.3507214 -0.83721036 78 60
-0.72586095 -2.3418067 -0.83552569 86 60
-0.71348214 -2.2529395 -0.80385417 7 60
-0 -0 -0 4 60
-0 -0 -0 4 60
-0 -0 -0 5 60
-0 -0 -0 4 60
-0 -0 -0 4 60
-0 -0 -0 3 60
-0.83473068 -2.2892175 -0.83013481 4 60
-0.85138619 -2.2911127 -0.83283025 9 60
-0.87043083 -2.2990527 -0.83788419 7 60
-0.88960481 -2.3068449 -0.84293818 5 60
-0 -0 -0 5 60
-0.92833626 -2.3219802 -0.85304612 5 60
-0.95250678 -2.340657 -0.86248016 12 60
-0.9682923 -2.338248 -0.86382788 14 60
-0.98664397 -2.3418062 -0.86753416 6 60
-0 -0 -0 6 60
-1.0228335 -2.3467834 -0.87427276 5 60
-1.0387403 -2.3439062 -0.87562048 5 60
-1.0546502 -2.3409219 -0.8769682 5 60
-1.0670333 -2.3301268 -0.87528354 5 60
-1.0868739 -2.3354855 -0.88000059 14 60
-1.1092359 -2.3457947 -0.88673919 46 60
-1.1301337 -2.3525224 -0.89213008 55 60
-1.1478515 -2.3523126 -0.89482552 54 60
-1.1630999 -2.3469124 -0.89549941 64 60
-1.1850991 -2.3548689 -0.90156418 49 60
-1.198669 -2.3458762 -0.90089029 65 60
-1.2156425 -2.3434913 -0.9029119 58 60
-1.2295601 -2.3351552 -0.90257496 55 60
-1.2176758 -2.2785776 -0.88269603 31 60
-1.2096343 -2.2305114 -0.86618644 16 60
-1.2124006 -2.2032518 -0.85810006 29 60
-1.2185512 -2.1826189 -0.85270917 32 60
-1.205929 -2.1292267 -0.83384103 20 60
-1.2077115 -2.1021955 -0.8257547 30 60
-1.2030441 -2.0646489 -0.81328827 25 60
-1.2061073 -2.0410182 -0.80654961 25 60
-1.2079579 -2.0158134 -0.79913718 28 60
-1.2144355 -1.9987087 -0.79509395 29 60
-1.2217367 -1.983204 -0.79172468 30 60
-1.2333835 -1.9748718 -0.79138774 44 60
-1.247493 -1.9704484 -0.79273546 62 60
-1.2600685 -1.9635491 -0.7930724 43 60
-1.2756875 -1.9613048 -0.7954309 45 60
-1.2939177 -1.9628726 -0.79947406 63 60
-1.3090761 -1.9595932 -0.80149567 68 60
-1.3274105 -1.9608791 -0.80553883 51 60
-1.3431461 -1.9581318 -0.80789733 36 60
-1.3626601 -1.9606763 -0.81261438 42 60
-1.3887619 -1.9722916 -0.8213746 26 60
-1.3964622 -1.957602 -0.81867915 61 60
-1.4178247 -1.9619682 -0.82440698 41 60
-1.4353991 -1.9608279 -0.82777631 30 60
-1.4485253 -1.953496 -0.82845014 27 60
-1.4678366 -1.954357 -0.83283025 31 60
-1.5299743 -2.0112493 -0.86248016 4 60
-0 -0 -0 4 60
-0 -0 -0 5 60
-0 -0 -0 6 60
-0 -0 -0 5 60
-0 -0 -0 3 60
-0 -0 -0 3 60
-0 -0 -0 6 60
-0 -0 -0 4 60
-0 -0 -0 4 60
-0 -0 -0 4 60
-0 -0 -0 4 60
-0 -0 -0 4 60
-0 -0 -0 5 60
-0 -0 -0 4 60
-0 -0 -0 4 60
-0 -0 -0 5 60
-0 -0 -0 5 60
-0 -0 -0 4 60
-2.0521562 -2.1294146 -1.0164576 9 60
-2.0638683 -2.1154351 -1.0157838 40 60
-2.0741625 -2.1000524 -1.014436 57 60
-2.0863433 -2.0866203 -1.0140991 81 60
-2.0984375 -2.0731177 -1.0137621 94 60
-2.1171837 -2.0661206 -1.0167946 61 60
-2.1454141 -2.0681179 -1.024544 40 60
-2.1730661 -2.0691969 -1.0319564 58 60
-2.1939526 -2.0635641 -1.0359997 47 60
-2.2203703 -2.0628786 -1.0427382 44 60
-2.2503304 -2.0651286 -1.0511615 34 60
-2.2755175 -2.0626624 -1.0572263 39 60
-2.2958479 -2.0555687 -1.0609325 30 60
-2.3211141 -2.0526686 -1.0669973 29 60
-2.3407571 -2.0445807 -1.0703665 33 60
-2.3553975 -2.0320244 -1.0713774 26 60
-2.3678212 -2.0175338 -1.0713774 22 60
-2.381597 -2.0041795 -1.0720512 37 60
-2.3924012 -1.988325 -1.0713774 33 60
-2.4001892 -1.9700246 -1.0693557 22 60
-0 -0 -0 25 60
-2.4197729 -1.9368926 -1.0673342 35 60
-2.41536 -1.9091661 -1.0599217 95 60
-2.432225 -1.8983643 -1.0622802 53 60
-2.4386067 -1.8793821 -1.0599217 42 60
-2.4425991 -1.8586832 -1.0565524 45 60
-2.444171 -1.8363099 -1.0521723 55 60
-2.4402666 -1.8100618 -1.0454336 63 60
-2.4551256 -1.7978354 -1.0471183 75 60
-2.4546642 -1.7744647 -1.0420643 82 60
-2.4517093 -1.7495273 -1.0359997 72 60
-2.4654772 -1.7366194 -1.0373473 47 60
-2.4745402 -1.720384 -1.0366734 37 60
-2.4866025 -1.7062334 -1.0373473 35 60
-2.4915674 -1.6872489 -1.0349888 83 60
-2.5104852 -1.6776826 -1.0386951 48 60
-2.5435283 -1.6772754 -1.0484661 20 60
-0 -0 -0 18 60
-2.5702586 -1.6500044 -1.0511615 25 60
-2.5874939 -1.6387354 -1.0541939 16 60
-1.7566135 -1.0976197 -0.69940561 43 60
-1.7617121 -1.0858328 -0.69873172 38 60
-1.762709 -1.0715802 -0.69637322 53 60
-1.7644054 -1.0578403 -0.69435161 62 60
-1.7643784 -1.043162 -0.69165617 102 60
-1.7699324 -1.0318424 -0.69131923 103 60
-1.7770468 -1.0214318 -0.69165617 83 60
-1.7849191 -1.0114369 -0.69233006 94 60
-1.7927358 -1.0013838 -0.69300389 85 60
-1.8004962 -0.99127281 -0.69367778 79 60
-1.8090276 -0.98155308 -0.69468856 81 60
-1.8175074 -0.97176594 -0.69569933 97 60
-1.825102 -0.96147299 -0.69637322 120 60
-1.8326386 -0.95112342 -0.69704705 97 60
-1.840117 -0.94071746 -0.69772094 113 60
-1.8475364 -0.93025559 -0.69839478 115 60
-1.8574276 -0.92099226 -0.70007944 121 60
-1.8655822 -0.91081673 -0.70109028 108 60
-1.8719845 -0.89976031 -0.70142716 103 60
-1.87747 -0.88825709 -0.70142716 91 60
-1.8743489 -0.87274772 -0.69805789 62 60
-1.8890851 -0.86554277 -0.70176411 81 60
-1.8085179 -0.8152588 -0.66807103 10 60
-1.7523708 -0.77706081 -0.64414895 5 60
-0 -0 -0 5 60
-0 -0 -0 5 60
-1.0887375 -0.45915458 -0.38100585 11 60
-1.085445 -0.44994381 -0.37864736 18 60
-0 -0 -0 5 60
-1.1066211 -0.44288173 -0.3847121 5 60
-1.131227 -0.44468775 -0.39313537 4 60
-0 -0 -0 4 60
-1.2572306 -0.47644785 -0.4392949 120 60
-1.25307 -0.46610075 -0.43659946 100 60
-1.2470609 -0.45517761 -0.43323016 35 60
-1.2507168 -0.44783437 -0.43356708 90 60
-1.2507758 -0.43921661 -0.4325563 40 60
-1.2445439 -0.42847142 -0.429187 41 60
-1.245365 -0.42022544 -0.42851314 97 60
-1.2470261 -0.41228083 -0.42817619 85 60
-1.2629696 -0.40896833 -0.43323016 45 60
-1.2430156 -0.39410397 -0.42480689 95 60
-1.2418132 -0.38535446 -0.42345917 142 60
-1.2630754 -0.38346589 -0.43053472 35 60
-1.2491566 -0.37088963 -0.42446995 99 60
-1.3074749 -0.37947285 -0.44535968 4 60
-1.3079668 -0.37092996 -0.44468582 5 60
-2.5788193 -0.7138772 -0.91571528 5 60
-0 -0 -0 4 60
-2.5819225 -0.68073797 -0.91369367 4 60
-2.5842271 -0.66441411 -0.91301984 7 60
-2.6001287 -0.6515184 -0.91739988 6 60
-0 -0 -0 6 60
-0 -0 -0 5 60
-0 -0 -0 5 60
-0 -0 -0 5 60
-1.2472986 -0.27237454 -0.41503587 32 60
-1.2498676 -0.26491109 -0.41537282 17 60
-1.2293341 -0.25269419 -0.40728647 87 60
-1.2308615 -0.24514638 -0.40728647 17 60
-1.2369653 -0.23847911 -0.40897113 32 60
-1.2198926 -0.22743919 -0.4022325 8 60
-1.2157052 -0.21895024 -0.40021092 8 60
-0 -0 -0 5 60
-0 -0 -0 5 60
-0 -0 -0 4 60
-0 -0 -0 4 60
-0 -0 -0 6 60
-0 -0 -0 4 60
-0 -0 -0 4 60
-0 -0 -0 5 60
-0 -0 -0 3 60
-0 -0 -0 6 60
-0 -0 -0 4 60
-0 -0 -0 4 60
-0 -0 -0 4 60
-0 -0 -0 4 60
-0 -0 -0 4 60
-0 -0 -0 5 60
-0 -0 -0 3 60
-0 -0 -0 4 60
-0 -0 -0 5 60
-0 -0 -0 4 60
-0 -0 -0 4 60
-1.2632725 -0.054599252 -0.4106558 10 60
-0 -0 -0 3 60
-0 -0 -0 4 60
-0 -0 -0 4 60
-0 -0 -0 6 60
-0 -0 -0 5 60
-0 -0 -0 4 60
-0 0 -0 4 60
-1.2408922 0.0073063932 -0.4022325 5 60
-0 0 -0 4 60
-1.2369436 0.022463931 -0.40088478 15 60
-0 -0 -0 4 61
-0 -0 -0 5 61
-0 -0 -0 4 61
-0 -0 -0 4 61
-0 -0 -0 5 61
-1.220809 -0.051962428 -0.41046759 19 61
-1.2257905 -0.044645846 -0.41220391 19 61
-1.2119817 -0.036684539 -0.40699497 15 61
-1.2243711 -0.029553097 -0.41150939 21 61
-1.2151533 -0.021862214 -0.40803677 15 61
-1.214327 -0.014393743 -0.40768951 17 61
-1.2153301 -0.0069487682 -0.40803677 18 61
-1.2237898 0.00050388509 -0.41116214 11 61
-1.2181371 0.0079814531 -0.40907857 12 61
-1.2039998 0.015290705 -0.4038696 4 61
-0 0 -0 4 61
-0 0 -0 3 61
-0 0 -0 4 61
-0 0 -0 4 61
-0 0 -0 4 61
-0 0 -0 5 61
-0 0 -0 5 61
-0 0 -0 4 61
-0 0 -0 3 61
-0 0 -0 5 61
-0 0 -0 3 61
-0 0 -0 4 61
-0 0 -0 4 61
-0 0 -0 4 61
-0 0 -0 4 61
-0 0 -0 4 61
-0 0 -0 5 61
-0 0 -0 4 61
-0 0 -0 4 61
-0 0 -0 6 61
-0 0 -0 4 61
-1.2086148 0.17979151 -0.41046759 10 61
-1.2297329 0.19063082 -0.41880193 5 61
-1.2183547 0.1965396 -0.41498202 9 61
-1.2199008 0.20447402 -0.41602382 6 61
-1.2260157 0.21323389 -0.41880193 21 61
-1.2412992 0.22373131 -0.42505264 4 61
-1.2186966 0.2274072 -0.41706559 7 61
-1.2163574 0.2347039 -0.41671833 25 61
-0 0 -0 6 61
-0 0 -0 5 61
-0 0 -0 3 61
-0 0 -0 4 61
-0 0 -0 5 61
-0 0 -0 5 61
-0 0 -0 3 61
-0 0 -0 6 61
-0 0 -0 4 61
-0 0 -0 5 61
-0 0 -0 5 61
-0 0 -0 4 61
-0 0 -0 3 61
-0 0 -0 5 61
-0 0 -0 4 61
-0 0 -0 4 61
-0 0 -0 5 61
-0 0 -0 4 61
-0 0 -0 4 61
-0 0 -0 4 61
-0 0 -0 3 61
-0 0 -0 6 61
-0 0 -0 3 61
-1.2926595 0.45404282 -0.46533516 5 61
-1.309278 0.46890563 -0.47297496 4 61
-0 0 -0 6 61
-0 0 -0 4 61
-0 0 -0 4 61
-0 0 -0 4 61
-0 0 -0 5 61
-0 0 -0 4 61
-0 0 -0 4 61
-1.0403172 0.43151647 -0.37504679 11 61
-1.0341924 0.4364368 -0.37365773 7 61
-1.0332192 0.44351226 -0.37435225 6 61
-1.0193006 0.44497791 -0.36983782 3 61
-0 0 -0 4 61
-0 0 -0 6 61
-0 0 -0 3 61
-4.6554046 2.1651912 -1.8592489 89 61
-4.6403356 2.1929145 -1.8585544 272 61
-4.7468505 2.2789524 -1.9078658 49 61
-4.844893 2.36268 -1.9540517 16 61
-4.8462729 2.4002676 -1.9606497 32 61
-4.7292342 2.3785753 -1.9182836 64 61
-4.9617896 2.5337355 -2.0210736 37 61
-4.9819527 2.582684 -2.0360057 51 61
-4.9983807 2.6302288 -2.0495491 60 61
-4.9755297 2.6573157 -2.046771 35 61
-4.9698501 2.6936018 -2.0512853 43 61
-4.9409022 2.7172697 -2.0460763 35 61
-4.9093938 2.7393136 -2.0398257 28 61
-4.8900447 2.7680001 -2.0387838 41 61
-4.8038344 2.7582767 -2.0092666 15 61
-4.8046498 2.7980793 -2.0169063 30 61
-4.8091946 2.8403788 -2.0262823 31 61
-4.8270788 2.8910275 -2.0415621 41 61
-4.8164639 2.9249709 -2.0446873 45 61
-4.7928352 2.9510286 -2.0422566 38 61
-4.7499743 2.964993 -2.0314913 17 61
-4.7467504 3.0036066 -2.0380893 23 61
-0 0 -0 5 61
-2.7059424 1.7597058 -1.1532632 12 61
-2.7013595 1.7804022 -1.1560413 12 61
-2.6989644 1.8026701 -1.1598612 26 61
-2.6917367 1.8218235 -1.1615975 13 61
-2.6913373 1.8457268 -1.1664592 25 61
-2.6930566 1.8712981 -1.1723627 12 61
-2.6937959 1.8964201 -1.1779189 18 61
-2.6943276 1.9216212 -1.1834751 19 61
-2.6916099 1.9447043 -1.1876422 20 61
-2.6902239 1.9689332 -1.1925039 21 61
-2.6811063 1.987636 -1.193893 15 61
-2.6711102 2.005738 -1.1949347 17 61
-2.654273 2.0186853 -1.1928512 8 61
-2.637378 2.0315018 -1.1907676 9 61
-2.6071129 2.0338092 -1.1824332 11 61
-2.5791276 2.0375652 -1.1751407 11 61
-2.5504625 2.0404696 -1.167501 8 61
-2.5189438 2.0407391 -1.1584722 10 61
-2.4795413 2.0341594 -1.1456234 8 61
-2.4518604 2.0367572 -1.1383309 13 61
-2.4213698 2.0366788 -1.1296493 14 61
-2.3888309 2.0344803 -1.119926 13 61
-2.3606734 2.0356326 -1.1122862 14 61
-2.3311789 2.0352833 -1.1039518 13 61
-2.3024812 2.0352705 -1.0959648 28 61
-2.27527 2.0362325 -1.0886723 11 61
-2.2495246 2.0381966 -1.0820743 11 61
-2.2217672 2.0380208 -1.0744345 12 61
-2.1995966 2.0426848 -1.0695728 8 61
-2.1672006 2.0375228 -1.0595021 16 61
-2.144465 2.0410881 -1.0542933 17 61
-2.1177142 2.0405493 -1.0470008 24 61
-2.0964236 2.0449958 -1.0424863 14 61
-2.074491 2.0485995 -1.0376246 11 61
-2.0559108 2.055325 -1.0344993 18 61
-2.0458984 2.0705683 -1.0358883 20 61
-2.0259471 2.0757036 -1.0320684 22 61
-2.0138237 2.0887704 -1.0324156 10 61
-0 0 -0 4 61
-2.1391029 2.2737792 -1.1140225 6 61
-1.9130889 2.0588734 -0.99873114 10 61
-1.8839257 2.0526171 -0.98970234 11 61
-1.8605832 2.0523314 -0.98379886 27 61
-1.8548398 2.0713911 -0.98761874 19 61
-1.8408519 2.0813289 -0.98692423 15 61
-1.8385398 2.1045866 -0.99282771 16 61
-1.8366241 2.1286035 -0.99907839 12 61
-1.8308313 2.1483948 -1.0032456 24 61
-0 0 -0 14 61
-0 0 -0 13 61
-0 0 -0 19 61
-0 0 -0 12 61
-1.8203598 2.2737999 -1.0365828 17 61
-1.8185931 2.3003702 -1.0438753 13 61
-1.8183004 2.329221 -1.0522096 27 61
-1.816576 2.3566689 -1.0598495 17 61
-0 0 -0 18 61
-0 0 -0 31 61
-0 0 -0 32 61
-0 0 -0 28 61
-0 0 -0 30 61
-1.7738446 2.4852707 -1.0886723 12 61
-1.7526176 2.4876776 -1.0848523 18 61
-0 0 -0 8 61
-0 0 -0 22 61
-0 0 -0 92 61
-0 0 -0 142 61
-0 0 -0 145 61
-0 0 -0 177 61
-1.6948832 2.6395283 -1.1195787 6 61
-1.6897025 2.6673024 -1.1272185 14 61
-1.6718127 2.6752348 -1.1261767 21 61
-1.6533967 2.68225 -1.1247877 22 61
-1.6261832 2.67472 -1.1171478 7 61
-1.6107059 2.6862559 -1.1178423 19 61
-1.5903722 2.6896322 -1.1150643 14 61
-1.5530427 2.6637022 -1.0997847 5 61
-0 0 -0 4 61
-0 0 -0 4 61
-0 0 -0 15 61
-1.4374157 2.6106701 -1.0615858 20 61
-1.3309594 2.4529796 -0.99143863 42 61
-0 0 -0 54 61
-0 0 -0 56 61
-0 0 -0 42 61
-0 0 -0 47 61
-0 0 -0 43 61
-0 0 -0 39 61
-0 0 -0 34 61
-0 0 -0 23 61
-0 0 -0 18 61
-0 0 -0 16 61
-0 0 -0 35 61
-0 0 -0 18 61
-0 0 -0 60 61
-0 0 -0 22 61
-0 0 -0 25 61
-0 0 -0 20 61
-1.1182652 2.6986284 -1.0397081 14 61
-0 0 -0 35 61
-0 0 -0 51 61
-1.0079757 2.5651674 -0.97858989 44 61
-0.98883736 2.5625565 -0.97511727 38 61
-0.96843874 2.5563004 -0.97025561 35 61
-0.94979042 2.554285 -0.96713024 38 61
-0.93055975 2.5503757 -0.9633103 36 61
-0.91204578 2.5480926 -0.96018493 35 61
-0 0 -0 42 61
-0 0 -0 42 61
-0.85628623 2.5386837 -0.95011431 41 61
-0.83774656 2.5349872 -0.94664168 30 61
-0.82015216 2.5338352 -0.94421089 36 61
-0.80317092 2.5343509 -0.94247454 34 61
-0.78593606 2.5338578 -0.94039094 26 61
-0.76737398 2.5287631 -0.93657106 30 61
-0.74970579 2.5262327 -0.93379295 25 61
-0.73392928 2.5298848 -0.93344569 22 61
-0.71583092 2.5253193 -0.92997307 14 61
-0.70057297 2.5305679 -0.93032032 23 61
-0.68233687 2.5248618 -0.92650044 46 61
-0.66443682 2.5199344 -0.92302781 16 61
-0.64826047 2.5212395 -0.92198604 19 61
-0.63277823 2.5251696 -0.92198604 26 61
-0.6134851 2.513519 -0.91608256 8 61
-0.59783369 2.5163238 -0.9157353 10 61
-0.58026683 2.5108087 -0.91226268 19 61
-0.56320214 2.5070028 -0.90948457 20 61
-0.54961199 2.5186565 -0.91260993 12 61
-0.52713746 2.4889576 -0.90010846 36 61
-0.51091009 2.4875526 -0.89837217 37 61
-0.49527025 2.4888015 -0.8976776 39 61
-0.47838968 2.4835067 -0.89455223 39 61
-0.46262571 2.4836297 -0.89351046 42 61
-0.44704476 2.484576 -0.89281595 46 61
-0.43275622 2.4928155 -0.89489949 47 61
-0.41869369 2.5028226 -0.8976776 39 61
-0.40721518 2.5294147 -0.90670645 33 61
-0.39384422 2.5457659 -0.91191542 45 61
-0.38595015 2.6000769 -0.93136215 38 61
-0.37250492 2.6200352 -0.93796015 18 61
-0.35958949 2.6455009 -0.94664168 29 61
-0.3443183 2.6550968 -0.9494198 28 61
-0.32548386 2.6366851 -0.94178003 54 61
-0.30842263 2.631182 -0.93900192 47 61
-0.29019475 2.6143849 -0.93205667 54 61
-0.27277362 2.6030595 -0.92719495 51 61
-0.25633428 2.6000183 -0.92545867 51 61
-0.23976916 2.595006 -0.92302781 50 61
-0.223842 2.5964284 -0.92302781 43 61
-0.2079064 2.5977528 -0.92302781 47 61
-0.19196296 2.5989797 -0.92302781 52 61
-0.17582104 2.5973017 -0.92198604 54 61
-0.15947488 2.5917799 -0.91955519 35 61
-0.14335993 2.5889645 -0.91816616 40 61
-0 0 -0 36 61
-0 0 -0 49 61
-0 0 -0 57 61
-0 0 -0 61 61
-0.06335894 2.5715194 -0.91052634 60 61
-0.047579199 2.5718596 -0.91052634 59 61
-0.031749591 2.5683525 -0.90913731 48 61
-0.015989881 2.5684988 -0.90913731 54 61
-0.00022803269 2.5657353 -0.90809548 52 61
0.015504543 2.563813 -0.90740097 50 61
0.031224513 2.5627317 -0.90705371 48 61
0.046948552 2.5624919 -0.90705371 36 61
0.062715828 2.5640306 -0.90774822 48 61
0.07836248 2.5607855 -0.90670645 38 61
0.09407369 2.5602565 -0.90670645 50 61
0.10986087 2.5615048 -0.90740097 37 61
0.12562141 2.5617192 -0.90774822 48 61
0.14123495 2.5590274 -0.90705371 58 61
0.15699118 2.5590489 -0.90740097 58 61
0.17287847 2.5608444 -0.9084428 67 61
0.18872522 2.5616059 -0.90913731 42 61
0.20429096 2.5585301 -0.9084428 57 61
0.21998595 2.5572283 -0.9084428 58 61
0.23541562 2.5530288 -0.90740097 36 61
0 0 -0 49 61
0 0 -0 41 61
0 0 -0 57 61
0 0 -0 50 61
0.31338993 2.5427446 -0.90670645 50 61
0.32922602 2.542634 -0.90740097 65 61
0.34494683 2.5414953 -0.90774822 64 61
0.36053464 2.539331 -0.90774822 52 61
0.37624601 2.5379984 -0.90809548 53 61
0.39195457 2.5365691 -0.9084428 47 61
0.40706587 2.5313385 -0.90740097 54 61
0.4215112 2.5223179 -0.90497017 74 61
0.43554154 2.5113678 -0.9018448 66 61
0.45259765 2.5178785 -0.90531743 89 61
0.4637599 2.4920037 -0.89663583 85 61
0.46560499 2.4191189 -0.87024385 41 61
0.47843274 2.4060981 -0.86642396 44 61
0.49055403 2.3902552 -0.86156225 54 61
0.50346762 2.3789425 -0.85843688 43 61
0.5178557 2.374892 -0.85808963 43 61
0.53262299 2.3725848 -0.85843688 55 61
0.54696029 2.3683584 -0.85808963 60 61
0.56148201 2.3649576 -0.85808963 46 61
0.57664788 2.3642015 -0.8591314 56 61
0.59273499 2.3669872 -0.86156225 38 61
0.60654861 2.3605807 -0.86052048 47 61
0.62149847 2.3586283 -0.861215 60 61
0.63644713 2.3565814 -0.86190951 47 61
0.65139413 2.3544397 -0.86260408 54 61
0.66608357 2.351301 -0.86295134 54 61
0.68101978 2.3489711 -0.86364585 67 61
0.6964848 2.348345 -0.86503488 50 61
0.71169609 2.34672 -0.86607671 63 61
0.72746807 2.3467882 -0.86781299 50 61
0.74298489 2.3458569 -0.86920208 54 61
0.759094 2.3466082 -0.87128562 47 61
0.77406561 2.3436873 -0.87198013 52 61
0.78962815 2.3424487 -0.87336922 57 61
0.80398631 2.3375597 -0.87336922 47 61
0.81924421 2.3352375 -0.87441099 62 61
0.86573273 2.4202452 -0.90983182 10 61
1.0255935 2.8131764 -1.0667948 8 61
0 0 -0 5 61
0.92008418 2.4302149 -0.9202497 11 61
0.92621583 2.4017706 -0.91122085 25 61
0.93990821 2.3934231 -0.91017908 43 61
0.95701045 2.3937073 -0.91260993 37 61
0.97273916 2.3903966 -0.9136517 39 61
0.98774642 2.3852494 -0.91399896 45 61
1.0027272 2.3800082 -0.91434622 31 61
0 0 -0 37 61
0 0 -0 40 61
0 0 -0 33 61
1.057755 2.3478417 -0.91156816 44 61
0 0 -0 63 61
0 0 -0 48 61
0 0 -0 53 61
1.3767192 2.866509 -1.1355528 59 61
1.3782582 2.8251317 -1.1220095 116 61
1.4192804 2.8645265 -1.1418035 1375 61
1.4435689 2.86917 -1.1473597 5624 61
1.4645571 2.8669405 -1.1501378 5297 61
1.4924749 2.8778834 -1.1584722 1593 61
0 0 -0 78 61
0 0 -0 162 61
0 0 -0 213 61
0 0 -0 207 61
0 0 -0 221 61
1.4477742 2.5565534 -1.0459589 4697 61
1.4718356 2.5622621 -1.0522096 5721 61
1.4884732 2.5548036 -1.0529041 5677 61
1.5060281 2.5488527 -1.0542933 3167 61
0 0 -0 358 61
0 0 -0 652 61
1.499606 2.4344466 -1.0167888 3970 61
1.5130261 2.4228125 -1.0157471 4915 61
1.5173371 2.3968396 -1.0084546 5374 61
1.5502357 2.4159048 -1.020956 5139 61
1.5563439 2.3929794 -1.0150526 4275 61
0 0 -0 1218 61
1.5387409 2.3034997 -0.98379886 5194 61
1.5386616 2.2730412 -0.97442275 5597 61
1.55417 2.265878 -0.97546452 5604 61
1.5701834 2.2593803 -0.97685361 5547 61
1.5877939 2.2550724 -0.97928441 5325 61
0 0 -0 2582 61
0 0 -0 1202 61
0 0 -0 359 61
0 0 -0 297 61
0 0 -0 343 61
0 0 -0 1217 61
1.7037501 2.2115679 -0.99178588 2078 61
1.792815 2.2979598 -1.0372773 5431 61
1.805719 2.285444 -1.0365828 5579 61
1.8197082 2.2743213 -1.0365828 5535 61
1.8359892 2.2660284 -1.0379719 5480 61
1.8427246 2.2460177 -1.0338048 4379 61
1.8630596 2.2426059 -1.0376246 592 61
0 0 -0 7 61
0 0 -0 17 61
0 0 -0 26 61
0 0 -0 70 61
2.2233753 2.5154462 -1.2011855 80 61
2.25002 2.514339 -1.2074362 90 61
2.2823989 2.5192556 -1.2168124 70 61
2.3111203 2.5197213 -1.2241049 69 61
2.3373811 2.517179 -1.2300084 78 61
2.3572769 2.5075741 -1.2324392 84 61
0 0 -0 41 61
1.960548 2.0346215 -1.0042874 53 61
1.9592499 2.008451 -0.99699485 73 61
1.9800991 2.0050693 -1.0015093 50 61
2.0274899 2.0280454 -1.0199142 34 61
0 0 -0 42 61
0 0 -0 37 61
0 0 -0 35 61
0 0 -0 57 61
0 0 -0 72 61
0 0 -0 52 61
2.3813508 2.1858976 -1.1549995 46 61
2.3829119 2.1605322 -1.149096 62 61
2.3311772 2.0876641 -1.1168005 2289 61
2.3481562 2.0770504 -1.1188842 5380 61
2.3629744 2.0644553 -1.119926 5273 61
2.3770168 2.0511432 -1.1206205 5336 61
2.3817091 2.0298254 -1.1168005 4645 61
2.3769057 2.0006738 -1.1084663 779 61
2.4273453 2.017838 -1.1268712 50 61
2.4317105 1.9963577 -1.1230513 44 61
2.4351754 1.9743092 -1.1188842 33 61
2.4413891 1.9546391 -1.116106 30 61
2.4467177 1.9343854 -1.1129807 31 61
2.454107 1.9158721 -1.1108971 29 61
2.463589 1.8990595 -1.1098553 41 61
2.466989 1.8776569 -1.1060355 23 61
2.493453 1.8737574 -1.1129807 9 61
3.4543321 2.5633698 -1.5508794 20 61
3.4760463 2.5465615 -1.5536574 40 61
3.4802103 2.5169387 -1.5484486 22 61
3.4864316 2.488996 -1.5442814 25 61
3.5024045 2.4680972 -1.5446286 20 61
3.5028582 2.4363825 -1.5380306 24 61
3.5239253 2.419091 -1.5408087 25 61
3.5387022 2.397423 -1.5408087 28 61
3.5533459 2.3756649 -1.5408087 23 61
3.571769 2.3564005 -1.5425451 13 61
3.5822315 2.331881 -1.5408087 23 61
3.5933166 2.3078291 -1.5394197 22 61
3.5986974 2.2802138 -1.5355998 18 61
3.6038752 2.25262 -1.5317799 22 61
3.6120424 2.2270179 -1.5293491 24 61
3.6208324 2.2018881 -1.5272654 17 61
3.6342747 2.1796296 -1.5272654 14 61
3.6483874 2.1577666 -1.5276127 19 61
3.6615584 2.13534 -1.5276127 15 61
3.6762173 2.1137681 -1.5283072 17 61
3.6891181 2.0911715 -1.5283072 21 61
3.6994243 2.0671232 -1.5272654 23 61
3.7120383 2.044385 -1.5272654 16 61
3.7121515 2.0148563 -1.5220565 7 61
3.7219641 1.9907135 -1.5210147 7 61
3.7565053 1.9796491 -1.5303909 9 61
3.8035324 1.9747202 -1.5449759 19 61
4.434165 2.2679136 -1.8022978 23 61
4.4630704 2.248261 -1.8085485 42 61
4.4742618 2.219583 -1.8075067 25 61
4.4953794 2.1957936 -1.8106321 36 61
4.5113029 2.169389 -1.8116739 37 61
4.5321569 2.1452801 -1.8147992 41 61
4.5341849 2.1122801 -1.8102849 29 61
4.5470605 2.0844193 -1.8102849 30 61
4.5606194 2.0568655 -1.8106321 27 61
4.5654402 2.025419 -1.8075067 19 61
4.5898142 2.0026209 -1.8123684 26 61
4.6028771 1.9747906 -1.8127156 28 61
4.6149077 1.9465107 -1.8127156 25 61
4.6258984 1.9177982 -1.8123684 32 61
4.6384468 1.8897321 -1.8127156 30 61
4.6499548 1.8612356 -1.8127156 47 61
4.6534338 1.8295789 -1.8095903 28 61
4.6558247 1.7976118 -1.8061177 18 61
4.6658902 1.7686777 -1.8057704 25 61
4.6731396 1.7387062 -1.8043814 24 61
4.66258 1.7022761 -1.7960471 11 61
4.6826482 1.6771154 -1.7998669 21 61
4.6857729 1.6458638 -1.7970889 29 61
4.6718454 1.6088316 -1.7877127 18 61
4.6647487 1.5744334 -1.7811147 25 61
4.644052 1.5357635 -1.7693077 25 61
4.6417909 1.50348 -1.7647934 25 61
4.6357336 1.4701473 -1.7588899 22 61
4.6357117 1.4388932 -1.7554172 23 61
4.6390696 1.4087856 -1.7533337 25 61
4.644031 1.3792255 -1.7519447 24 61
4.6506052 1.350181 -1.7512501 26 61
4.656096 1.3208516 -1.7502084 31 61
4.6604981 1.291255 -1.7488192 27 61
4.667428 1.2623893 -1.748472 29 61
4.6741796 1.2334872 -1.7481247 25 61
4.6798439 1.2043159 -1.7474302 30 61
4.683507 1.1746649 -1.7460412 33 61
4.6824284 1.1439004 -1.7429157 28 61
4.6802363 1.1129762 -1.7394432 23 61
4.6751008 1.0814874 -1.7349287 31 61
4.669755 1.0501037 -1.7304143 14 61
4.6788588 1.0220318 -1.7314562 19 61
4.683207 0.9929142 -1.7307616 18 61
4.691967 0.96472716 -1.7318034 31 61
4.7005572 0.93646997 -1.7328452 18 61
4.7108183 0.9084993 -1.7345815 22 61
4.7190695 0.88009363 -1.7356232 23 61
4.724381 0.85112137 -1.7356232 27 61
4.7267427 0.82163465 -1.7345815 22 61
4.7289209 0.79215091 -1.7335397 31 61
4.7309151 0.76267147 -1.7324979 28 61
4.7327256 0.73319739 -1.7314562 25 61
4.736208 0.70400602 -1.7311089 29 61
4.7292976 0.673343 -1.7269417 18 61
4.7259068 0.64329821 -1.7241637 18 61
4.6972179 0.61005318 -1.7120094 7 61
4.6934276 0.58029771 -1.7092313 8 61
4.7350845 0.55598158 -1.723469 31 61
4.731883 0.52619004 -1.7210382 20 61
4.7378206 0.49744034 -1.72208 24 61
0 0 -0 5 61
0 0 -0 6 61
0 0 -0 18 61
4.7710352 0.38282418 -1.7304143 28 61
4.7592664 0.35249999 -1.7252054 22 61
4.7342076 0.3214421 -1.7151347 7 61
4.4234762 0.27301046 -1.5991489 4 61
4.7621398 0.26468095 -1.7241637 17 61
4.7814698 0.23633999 -1.7307616 28 61
0 0 -0 38 61
0 0 -0 28 61
4.7868843 0.14834729 -1.7314562 40 61
3.6842992 0.091283455 -1.3227276 30 61
3.6885405 0.068746395 -1.3241166 36 61
4.7766142 0.06005501 -1.7269417 31 61
4.7862701 0.030807782 -1.7304143 39 61
4.7919955 0.0014422694 -1.7324979 29 61
4.800354 -0.028008074 -1.7356232 35 61
4.8029051 -0.057494953 -1.736665 37 61
4.8109002 -0.087114692 -1.7397904 42 61
4.8102751 -0.11663218 -1.7397904 37 61
4.8132186 -0.14625829 -1.7411795 36 61
4.8122306 -0.17578889 -1.7411795 29 61
4.8110614 -0.20531288 -1.7411795 34 61
4.806901 -0.23469262 -1.7401377 32 61
4.8044338 -0.26413155 -1.7397904 29 61
4.8027229 -0.29360601 -1.7397904 28 61
4.8008308 -0.32306945 -1.7397904 32 61
4.7959523 -0.35231528 -1.7387487 29 61
4.7918305 -0.38158762 -1.7380542 21 61
4.7912679 -0.41114247 -1.7387487 25 61
4.7886548 -0.4405334 -1.7387487 35 61
4.7877283 -0.47009054 -1.7394432 34 61
4.7912827 -0.50013858 -1.741874 34 61
4.7937164 -0.53014505 -1.7439576 32 61
4.7922363 -0.55976593 -1.7446522 35 61
4.7905731 -0.58938855 -1.7453467 34 61
4.7803559 -0.6179319 -1.7429157 25 61
4.7736864 -0.6468749 -1.741874 34 61
4.7733417 -0.67667907 -1.743263 31 61
4.7728105 -0.70650339 -1.7446522 29 61
4.7758002 -0.73691779 -1.7474302 32 61
4.7823 -0.76798928 -1.7515974 33 61
4.7802725 -0.79778087 -1.7526392 29 61
4.7854524 -0.8288551 -1.756459 26 61
4.7765841 -0.85754049 -1.75507 30 61
4.7758427 -0.8876887 -1.7568064 36 61
4.7666221 -0.91626877 -1.7554172 37 61
4.7783871 -0.94896549 -1.7620152 51 61
4.7550192 -0.9746936 -1.7554172 30 61
4.7544541 -1.0050138 -1.7575009 34 61
4.7646923 -1.037756 -1.7637516 54 61
4.7463388 -1.0643075 -1.7592372 29 61
4.7406325 -1.0936209 -1.7595844 39 61
4.7484331 -1.1261473 -1.7651407 56 61
4.7405229 -1.1550401 -1.7647934 31 61
4.737895 -1.1852425 -1.7665297 39 61
4.7405257 -1.2168537 -1.7703496 29 61
4.7402253 -1.2478262 -1.7731277 44 61
4.7351961 -1.2776204 -1.7741694 35 61
4.7408266 -1.3103952 -1.7793784 41 61
4.7335992 -1.3397149 -1.7797257 38 61
4.7252898 -1.3687345 -1.7797257 31 61
4.7186007 -1.3982351 -1.7804202 40 61
4.7153177 -1.4287919 -1.7825037 35 61
4.7091498 -1.4585294 -1.7835456 30 61
4.709053 -1.4902239 -1.7870182 23 61
4.7096367 -1.5222603 -1.7908381 32 61
4.7224727 -1.5584713 -1.7995197 36 61
4.7217088 -1.5904099 -1.8029923 34 61
4.728713 -1.6251389 -1.8095903 39 61
4.7372384 -1.6606334 -1.8168828 42 61
4.7508039 -1.6981863 -1.8262589 47 61
4.7455816 -1.7292299 -1.8283426 47 61
4.7331233 -1.7576631 -1.8276479 42 61
4.7231269 -1.7870036 -1.8279952 39 61
4.7129483 -1.8162875 -1.8283426 33 61
4.6982226 -1.843802 -1.8269534 29 61
4.698143 -1.8771155 -1.8314679 39 61
4.6917491 -1.9080259 -1.8335514 44 61
4.68082 -1.9371364 -1.8338987 37 61
4.6679816 -1.9654572 -1.8335514 40 61
4.6549716 -1.9936934 -1.8332042 31 61
4.6409311 -2.0214696 -1.8325096 25 61
4.6284404 -2.0499079 -1.8325096 35 61
4.6149201 -2.077884 -1.8321624 19 61
4.6072006 -2.1085017 -1.8342459 38 61
4.5873733 -2.1335692 -1.8314679 24 61
4.5767393 -2.162878 -1.8325096 25 61
4.5676093 -2.1929481 -1.8342459 27 61
4.5565963 -2.2221656 -1.8352878 27 61
4.548759 -2.2529948 -1.8377186 27 61
4.5373626 -2.2821264 -1.8387604 22 61
4.5190983 -2.3077927 -1.8370241 27 61
4.5073504 -2.3367722 -1.8380659 33 61
4.4979072 -2.3670039 -1.8401494 28 61
4.4824719 -2.3941164 -1.8398021 36 61
4.4709954 -2.423362 -1.8411912 26 61
4.4585075 -2.452105 -1.8422331 39 61
4.4466534 -2.4812429 -1.8436221 25 61
4.439507 -2.5130982 -1.8470947 19 61
4.4264436 -2.5416915 -1.8481365 27 61
4.3994184 -2.5621991 -1.8432748 14 61
4.3924971 -2.5943892 -1.8470947 22 61
4.3789096 -2.6227372 -1.8481365 24 61
4.3635359 -2.650043 -1.8484838 24 61
4.3487906 -2.6777501 -1.8491783 24 61
4.3354607 -2.7063692 -1.8505673 18 61
4.3219433 -2.734925 -1.8519564 30 61
4.3129754 -2.7664537 -1.8554291 13 61
4.3006377 -2.7959313 -1.8575126 31 61
4.2881002 -2.8253617 -1.8595961 25 61
4.2784834 -2.8568254 -1.8630688 27 61
4.271749 -2.8903787 -1.8679305 26 61
4.2647634 -2.9239569 -1.8727921 19 61
2.9256859 -2.0328197 -1.2772361 7 61
2.9185266 -2.0545101 -1.2796669 13 61
2.9051018 -2.0718348 -1.2793196 8 61
0 -0 -0 6 61
2.8855138 -2.1117575 -1.2820978 15 61
2.8755162 -2.1316559 -1.2834868 8 61
2.8563817 -2.1447568 -1.2807087 8 61
2.8566072 -2.1724565 -1.2869594 10 61
2.8335629 -2.1825075 -1.2824451 4 61
4.0759592 -3.1788197 -1.8720976 7 61
4.0578499 -3.2049315 -1.8727921 14 61
4.0468979 -3.2367966 -1.8769593 12 61
4.0298767 -3.2639272 -1.8783484 7 61
2.034251 -1.6691252 -0.93240392 7 61
2.0225279 -1.6803778 -0.93170941 20 61
2.012897 -1.6933596 -0.93205667 17 61
2.0031831 -1.7062863 -0.93240392 26 61
1.9983592 -1.7234427 -0.93518203 16 61
1.9884534 -1.7362884 -0.93552929 14 61
1.9840879 -1.7540439 -0.93865466 10 61
1.9753851 -1.7680603 -0.93969643 13 61
1.9624138 -1.7782596 -0.93865466 19 61
1.9507743 -1.7896336 -0.9383074 13 61
1.9363196 -1.7983804 -0.93657106 25 61
1.9266154 -1.8115116 -0.93726557 22 61
1.9086686 -1.8168365 -0.93379295 27 61
1.8914049 -1.82266 -0.93066758 36 61
1.8694409 -1.8237582 -0.92511141 26 61
1.8495376 -1.826632 -0.92059696 72 61
1.8309966 -1.8306561 -0.91677707 39 61
1.8137951 -1.8358552 -0.9136517 36 61
1.7979094 -1.842254 -0.91122085 53 61
1.7787578 -1.8451531 -0.90705371 50 61
1.7525216 -1.8404197 -0.89906669 38 61
1.7302681 -1.8395311 -0.8931632 36 61
1.7010671 -1.8308852 -0.88343984 15 61
1.680285 -1.830929 -0.87823087 15 61
1.6589366 -1.8300927 -0.8726747 14 61
1.6426692 -1.8346505 -0.86989659 21 61
1.6295164 -1.8425887 -0.86885476 16 61
1.6126245 -1.8461987 -0.86572939 28 61
1.6061693 -1.8617368 -0.8685075 36 61
1.5995841 -1.877265 -0.87128562 21 61
1.6013267 -1.9028233 -0.87892544 21 61
1.5860226 -1.9082876 -0.87684184 20 61
1.5820228 -1.9274029 -0.88135624 22 61
1.5802112 -1.9494535 -0.88725972 15 61
1.5605969 -1.9495989 -0.88274533 25 61
1.5369676 -1.9444296 -0.87580007 29 61
1.5186571 -1.9456949 -0.87198013 36 61
1.4946611 -1.9393841 -0.86468762 35 61
1.4770507 -1.9410588 -0.861215 25 61
1.4538399 -1.9350957 -0.85426974 36 61
1.4391438 -1.9402153 -0.8525334 27 61
1.4216677 -1.9414458 -0.84906077 39 61
1.4047806 -1.943295 -0.8459354 36 61
1.3857442 -1.941958 -0.84142101 38 61
1.3673178 -1.9412273 -0.83725387 38 61
1.3494884 -1.9411136 -0.83343399 27 61
1.3306502 -1.9393085 -0.82891953 31 61
1.3113592 -1.9365696 -0.82405788 34 61
1.2931948 -1.9352262 -0.81989068 43 61
1.2781963 -1.9384289 -0.81780714 30 61
1.2611601 -1.9383775 -0.81433451 30 61
1.2456938 -1.940557 -0.81190366 37 61
1.228742 -1.9402438 -0.80843103 37 61
1.2123383 -1.9405911 -0.80530566 27 61
1.1974541 -1.9432048 -0.80322206 27 61
1.1825833 -1.9457089 -0.80113852 34 61
1.1653144 -1.9440836 -0.79731858 35 61
1.1533638 -1.9511971 -0.79731858 25 61
1.1408972 -1.9574274 -0.79697132 29 61
1.1274621 -1.9619524 -0.79592955 39 61
1.1140146 -1.9663864 -0.79488778 45 61
1.1055894 -1.979733 -0.79766589 42 61
1.1002105 -1.9987991 -0.8028748 32 61
1.0883729 -2.0063362 -0.80322206 28 61
1.0853345 -2.0303392 -0.81051463 31 61
1.0750433 -2.0411081 -0.81225091 31 61
1.0728751 -2.0676379 -0.82058525 41 61
1.0550416 -2.0641644 -0.81641805 36 61
1.0436224 -2.0731113 -0.81745988 41 61
1.0317163 -2.0811558 -0.81815439 45 61
1.0143975 -2.0781794 -0.81433451 35 61
0.99715436 -2.0750692 -0.81051463 25 61
0.97637504 -2.0641983 -0.80356932 23 61
0.95497453 -2.0514512 -0.79592955 14 61
0.94471496 -2.0623865 -0.79801315 21 61
0.93127114 -2.0664349 -0.79731858 29 61
0.91248631 -2.0583963 -0.79176241 19 61
0.89908862 -2.0622375 -0.7910679 21 61
0.88456833 -2.0634069 -0.78933156 16 61
0.86824435 -2.0601561 -0.78585893 17 61
0.85558712 -2.0654447 -0.78585893 15 61
0.84395975 -2.0732608 -0.7869007 17 61
0.82913047 -2.0731769 -0.78481716 24 61
0.81536412 -2.0756073 -0.78377533 16 61
0.803289 -2.0823207 -0.7844699 14 61
0.78916663 -2.0837033 -0.78308082 18 61
0.77669358 -2.089385 -0.78342807 12 61
0.76450241 -2.0958731 -0.78412259 18 61
0.74783111 -2.0899312 -0.77995545 7 61
0.73872524 -2.1050968 -0.78412259 16 61
0.72610027 -2.1104765 -0.7844699 23 61
0.71193653 -2.1113384 -0.78308082 19 61
0.69837892 -2.1138864 -0.7823863 15 61
0.68626273 -2.1208079 -0.78342807 26 61
0.67408788 -2.1276603 -0.7844699 23 61
0.66046369 -2.1299653 -0.78377533 16 61
0.6503818 -2.1438475 -0.78759521 10 61
0.63374162 -2.136112 -0.78308082 19 61
0.62166947 -2.1435626 -0.7844699 11 61
0.60619974 -2.1392176 -0.78134453 17 61
0.59481663 -2.1492226 -0.78377533 11 61
0.58039272 -2.1483059 -0.78203905 20 61
0.56672108 -2.1500134 -0.78134453 24 61
0.55562353 -2.1616235 -0.7844699 10 61
0.54326302 -2.1686301 -0.78585893 15 61
0.52838695 -2.1655462 -0.78342807 24 61
0.51812994 -2.1815193 -0.78828979 15 61
0.5055809 -2.1883118 -0.78967881 14 61
0.4944098 -2.2014363 -0.79349869 11 61
0.48009133 -2.2007642 -0.79210967 20 61
0 -0 -0 7 61
0 -0 -0 5 61
1.0672705 -5.356267 -1.9804437 8 61
1.0290509 -5.3350921 -1.9700258 11 61
0 -0 -0 3 61
0 -0 -0 6 61
0 -0 -0 4 61
0 -0 -0 5 61
0.34279057 -2.1304045 -0.75703609 6 61
0.3302874 -2.1361744 -0.75842518 5 61
0 -0 -0 4 61
0 -0 -0 4 61
0 -0 -0 4 61
0 -0 -0 3 61
0 -0 -0 4 61
0 -0 -0 4 61
0 -0 -0 4 61
0.56830508 -5.41117 -1.972804 9 61
0.53878909 -5.4518833 -1.9866945 22 61
0.50628048 -5.4653578 -1.9905143 27 61
0.47306004 -5.4720984 -1.9919034 19 61
0.43985114 -5.4795718 -1.9936397 26 61
0.40761077 -5.5008712 -2.0005848 7 61
0 -0 -0 4 61
0.13371617 -2.1762085 -0.76537043 5 61
0.1205175 -2.1797969 -0.7664122 6 61
0.1059306 -2.1561434 -0.75738335 14 61
0.093188085 -2.1679955 -0.76155049 5 61
0.078938007 -2.1432245 -0.75217444 13 61
0.065493174 -2.1342952 -0.74870181 12 61
0.051925648 -2.1159077 -0.7417565 23 61
0.038799524 -2.1086855 -0.73897845 11 61
0.025679853 -2.0948186 -0.73376948 19 61
0.012744353 -2.082746 -0.72925508 32 61
-4.1513555e-05 -2.0715318 -0.72508788 30 61
-0.012636856 -2.0508618 -0.71744812 10 61
-0 -0 -0 4 61
-0.037484888 -2.0327377 -0.71085012 9 61
-0.050204355 -2.0427818 -0.71467 15 61
-0.06245514 -2.033062 -0.71119738 18 61
-0.07428249 -2.0148346 -0.70459938 32 61
-0.086206578 -2.0040348 -0.7007795 60 61
-0.097773433 -1.9884814 -0.69522327 65 61
-0.11048518 -1.9972078 -0.6986959 33 61
-0.12222479 -1.9880679 -0.69557053 41 61
-0.1343583 -1.9863448 -0.69522327 50 61
-0.14626986 -1.981742 -0.69383425 56 61
-0.16065326 -2.008852 -0.70425212 24 61
-0.17569456 -2.0395966 -0.71605909 21 61
-0.19146182 -2.0739663 -0.72925508 13 61
-0.20326975 -2.0634193 -0.72578245 14 61
-0.21786949 -2.0807877 -0.73272771 9 61
-0.23073572 -2.0803437 -0.73307496 5 61
-0.24360469 -2.0798204 -0.73342222 10 61
-0.25624737 -2.0773556 -0.73307496 10 61
-0.26910895 -2.0766742 -0.73342222 3 61
-0.7388863 -5.453938 -1.9960705 8 61
-0.78232336 -5.5198689 -2.0224626 40 61
-0.8161779 -5.5149646 -2.0224626 41 61
-0.85000175 -5.5098529 -2.0224626 46 61
-0.88409048 -5.5063853 -2.0231571 52 61
-0.91786039 -5.5008574 -2.0231571 42 61
-0.95191538 -5.4969697 -2.0238516 48 61
-0.98562622 -5.4910254 -2.0238516 43 61
-1.0184443 -5.4802642 -2.0221152 39 61
-1.0509906 -5.4683867 -2.0200317 46 61
-1.0876257 -5.4774723 -2.0259352 51 61
-1.1198978 -5.4642644 -2.0235043 41 61
-1.153986 -5.4600425 -2.0245461 50 61
-1.1914535 -5.4711857 -2.0314913 56 61
-1.2258214 -5.4674325 -2.0328803 64 61
-1.2547132 -5.4397044 -2.0252407 50 61
-1.2874184 -5.4291654 -2.0241988 46 61
-1.3220376 -5.426631 -2.0262823 46 61
-1.3487164 -5.3920331 -2.0162117 16 61
-0 -0 -0 6 61
-0 -0 -0 3 61
-0.65206766 -2.41453 -0.88413435 9 61
-0.66412485 -2.4005404 -0.88031447 34 61
-0.66914558 -2.3621294 -0.86711848 79 61
-0.683366 -2.3570783 -0.86677122 152 61
-0.69541997 -2.3447483 -0.86364585 102 61
-0.7016421 -2.3135111 -0.85322797 61 61
-0.71249753 -2.2984121 -0.84906077 39 61
-0.72460783 -2.2877381 -0.84662998 46 61
-0.73229098 -2.2636166 -0.83899015 23 61
-0 -0 -0 6 61
-0.75433034 -2.2375729 -0.83239216 3 61
-0.7735281 -2.248867 -0.8386429 5 61
-0 -0 -0 3 61
-0 -0 -0 3 61
-0.81928331 -2.2465842 -0.84350461 4 61
-0 -0 -0 3 61
-0.85574508 -2.2600448 -0.85288072 7 61
-0.87094444 -2.2582519 -0.85426974 4 61
-0 -0 -0 4 61
-0.91215271 -2.2813597 -0.86781299 11 61
-0.92613369 -2.2757199 -0.86781299 7 61
-0.95083171 -2.2959917 -0.87823087 4 61
-0.97072101 -2.3039441 -0.8837871 13 61
-0.9866845 -2.3022552 -0.88552344 8 61
-1.003038 -2.3013165 -0.88760698 10 61
-1.0243512 -2.3114116 -0.89420497 8 61
-0 -0 -0 4 61
-0 -0 -0 4 61
-0 -0 -0 6 61
-1.0823696 -2.2889686 -0.89559406 3 61
-0 -0 -0 5 61
-1.1190053 -2.2932162 -0.90288657 14 61
-1.1334713 -2.2871475 -0.90323383 11 61
-1.1504318 -2.2860146 -0.90566468 6 61
-1.1601738 -2.27056 -0.90219206 16 61
-1.1831437 -2.2808838 -0.90948457 32 61
-1.1962436 -2.2719214 -0.90879005 26 61
-1.2070701 -2.2587476 -0.9063592 23 61
-1.2159933 -2.2422285 -0.90253931 35 61
-1.2220491 -2.2207546 -0.89663583 26 61
-1.2242334 -2.1927392 -0.88795424 24 61
-1.2261202 -2.1647813 -0.8792727 51 61
-1.2137072 -2.1124835 -0.86017323 30 61
-1.2063606 -2.0701466 -0.84524089 26 61
-1.2085521 -2.0449393 -0.83760113 24 61
-1.2124069 -2.0230024 -0.83135039 34 61
-1.2189578 -2.0059054 -0.82718325 26 61
-1.2243617 -1.9872072 -0.82232153 29 61
-1.2385175 -1.9828397 -0.82371062 48 61
-1.2526658 -1.9783732 -0.82509965 52 61
-1.2642752 -1.9698602 -0.82475239 32 61
-1.2814478 -1.9699291 -0.82822502 38 61
-1.3007318 -1.9729939 -0.83308667 42 61
-1.3164573 -1.9704356 -0.83551753 38 61
-1.330099 -1.9646513 -0.83655936 30 61
-1.3500804 -1.9680564 -0.84176826 29 61
-1.3658745 -1.9651275 -0.84419912 38 61
-1.3849208 -1.9666806 -0.84871352 34 61
-1.4056702 -1.9703647 -0.85426974 40 61
-1.4237719 -1.9700661 -0.85808963 27 61
-1.4358331 -1.961293 -0.85808963 36 61
-1.4534225 -1.9599812 -0.86156225 39 61
-1.4772408 -1.966778 -0.86885476 22 61
-1.5295678 -2.0106869 -0.89351046 7 61
-0 -0 -0 4 61
-0 -0 -0 4 61
-0 -0 -0 4 61
-0 -0 -0 3 61
-0 -0 -0 3 61
-0 -0 -0 6 61
-0 -0 -0 4 61
-0 -0 -0 4 61
-0 -0 -0 3 61
-0 -0 -0 4 61
-1.8571193 -2.1269569 -1.0035928 14 61
-1.8794473 -2.1260645 -1.0088018 9 61
-1.8905818 -2.1123955 -1.00776 6 61
-1.9009901 -2.0979745 -1.0063709 5 61
-0 -0 -0 3 61
-1.9438149 -2.0930486 -1.0157471 6 61
-1.9540527 -2.0783482 -1.014358 5 61
-0 -0 -0 4 61
-1.996321 -2.0717766 -1.0233868 4 61
-2.0377955 -2.0890365 -1.0386664 28 61
-2.0637486 -2.089844 -1.0456116 37 61
-2.0791836 -2.0797954 -1.0470008 36 61
-2.0939064 -2.0689769 -1.0480425 60 61
-2.1132703 -2.0626428 -1.0515151 49 61
-2.1353343 -2.0587533 -1.0563768 33 61
-2.1567512 -2.0540233 -1.0608913 25 61
-2.1747761 -2.0458937 -1.0636693 28 61
-2.1934688 -2.0382586 -1.0667948 28 61
-2.2107685 -2.029202 -1.0692255 28 61
-2.2259557 -2.0181193 -1.0706146 29 61
-2.2403917 -2.0063009 -1.0716563 18 61
-2.2568731 -1.9962457 -1.07374 34 61
-2.2711973 -1.984212 -1.0747818 27 61
-2.2840393 -1.9708518 -1.075129 24 61
-2.304651 -1.9641026 -1.0792962 25 61
-2.3188109 -1.951737 -1.080338 24 61
-2.3242545 -1.9320747 -1.0772126 40 61
-2.3570788 -1.9350408 -1.0872833 24 61
-0 -0 -0 32 61
-0 -0 -0 36 61
-2.6386609 -2.0862536 -1.2036164 40 61
