# .PCD v0.7 - Point Cloud Data file format
VERSION 0.7
FIELDS x y z intensity ring
SIZE 4 4 4 4 1
TYPE F F F F U
COUNT 1 1 1 1 1
WIDTH 476
HEIGHT 1
VIEWPOINT 0 0 0 1 0 0 0
POINTS 476
DATA ascii
3.5229135 0.043393176 -1.2189531 22 60
3.4608455 0.17073983 -1.2411207 4 61
3.4468379 0.14884883 -1.2355646 16 61
3.4523718 0.12787178 -1.2373009 72 61
3.4521542 0.10665674 -1.2369536 71 61
3.4518061 0.085449181 -1.2366064 48 61
3.4466398 0.064161055 -1.2345227 24 61
3.7186666 -0.22766724 -0.83258617 55 50
3.7890983 -0.23264764 -0.66106993 7 46
3.7608733 -0.23213728 -0.70202613 5 47
3.8027542 -0.28159085 -0.71090579 9 47
3.8039 -0.32865611 -0.71187097 28 47
3.7843156 -0.23301372 -0.75260097 127 48
3.7964873 -0.257157 -0.7554639 92 48
3.7997191 -0.28080818 -0.75648636 110 48
3.770566 -0.23075913 -0.79780382 91 49
3.7758977 -0.25434774 -0.79931891 79 49
3.6920037 0.15946455 -0.82551783 108 50
3.6929126 0.13680784 -0.82551783 85 50
3.7180126 0.11489531 -0.83121812 43 50
3.7059937 0.09176784 -0.82825398 124 50
3.7035666 0.068972476 -0.82756996 130 50
3.7029464 0.046234466 -0.82734191 106 50
3.7148442 0.023585709 -0.83007807 87 50
3.7412078 0.00079427747 -0.83623439 13 50
3.7477508 -0.045199051 -0.83783042 17 50
3.7035956 -0.06739226 -0.82756996 125 50
3.7001925 -0.090044461 -0.82688594 99 50
3.717088 -0.11328241 -0.83099014 10 50
3.7065928 -0.13573059 -0.82871002 7 50
3.6949897 -0.15801254 -0.82620186 6 50
3.6910331 -0.18053859 -0.82551783 9 50
3.733604 -0.20559654 -0.83577836 86 50
3.6352949 0.15578549 -0.85636407 52 51
3.7118659 0.13627928 -0.87502253 7 51
3.7097206 0.11341121 -0.87430489 7 51
3.7074347 0.090574592 -0.87358731 7 51
3.702096 0.067716122 -0.87215203 7 51
3.655839 0.04441813 -0.86066985 40 51
3.6987643 0.022256017 -0.8711952 6 51
3.6923716 -0.068416819 -0.86975992 79 51
3.6879997 -0.090976939 -0.86880302 135 51
3.685431 -0.11354518 -0.86832464 108 51
3.6536148 -0.13501889 -0.86066985 21 51
3.6352561 -0.15668748 -0.85636407 13 51
3.7118108 -0.18278626 -0.87550098 88 51
3.7048025 -0.20523764 -0.8740657 46 51
3.6544242 0.15784536 -0.9070695 135 52
3.6708024 0.13599107 -0.91108102 51 52
3.6973567 0.091554865 -0.91759968 16 52
3.6533258 0.06804207 -0.90606666 125 52
3.6536744 0.045624401 -0.90606666 114 52
3.6567898 0.023223154 -0.90681881 148 52
3.6597676 0.0007853937 -0.90757096 119 52
3.6674478 -0.021717208 -0.90957671 119 52
3.6740215 -0.044302251 -0.91133171 109 52
3.6756163 -0.066880219 -0.91183317 137 52
3.6790078 -0.08952672 -0.91283602 134 52
3.6841948 -0.11227654 -0.91434032 124 52
3.6882737 -0.13505785 -0.91559392 114 52
3.6912441 -0.15785198 -0.91659677 92 52
3.6670005 -0.17936057 -0.91057956 16 52
3.6182458 0.15567933 -0.94215101 119 53
3.6152751 0.13333173 -0.94110364 132 53
3.6372473 0.11180548 -0.94686437 82 53
3.6369002 0.089461602 -0.94660252 17 53
3.6258013 0.066926852 -0.94346029 83 53
3.6280739 0.044702496 -0.94398397 119 53
3.6340704 0.022477891 -0.94555509 136 53
3.6370351 0.00018030487 -0.94634068 106 53
3.680397 -0.022386501 -0.95812404 15 53
3.6763301 -0.044922628 -0.95707661 6 53
3.6740553 -0.067444511 -0.95655292 5 53
3.6562057 -0.089566931 -0.95183957 34 53
3.6507638 -0.11185306 -0.95053029 117 53
3.6615825 -0.13467361 -0.95367253 97 53
3.6394739 -0.15623431 -0.9479118 10 53
3.5836365 0.17683128 -0.9773435 24 54
3.5933044 0.15521188 -0.97980005 94 54
3.5951505 0.13319637 -0.98007303 33 54
3.6218624 0.11193404 -0.98744273 12 54
3.6272898 0.089827172 -0.9888075 5 54
3.6393149 0.067782603 -0.99208289 8 54
3.5927343 0.022823123 -0.97870827 80 54
3.6053131 0.00077945367 -0.98225665 56 54
3.6774008 -0.021777192 -1.002728 3 54
3.6743121 -0.044305786 -1.0019091 4 54
3.6379073 -0.088522248 -0.99180996 50 54
3.6219103 -0.11037188 -0.98744273 77 54
3.5816762 0.17611805 -1.0200181 10 55
3.5673611 0.15347351 -1.0154792 58 55
3.5481124 0.13083303 -1.0095218 102 55
3.5632253 0.10950632 -1.013777 61 55
3.576292 0.087951265 -1.0174649 5 55
3.6227844 0.06687019 -1.0310816 11 55
3.5732667 0.044009548 -1.0163302 96 55
3.578264 0.022114765 -1.0177486 109 55
3.5821681 0.0001599556 -1.0188833 126 55
3.5840194 -0.021830874 -1.0194507 100 55
3.5847769 -0.043833002 -1.0197344 90 55
3.5815642 -0.065776072 -1.0188833 87 55
3.5954726 -0.088098563 -1.0231385 36 55
3.5452149 0.17555705 -1.0543224 92 56
3.5443161 0.15371811 -1.0537326 101 56
3.541373 0.13182594 -1.0525532 109 56
3.538295 0.10997567 -1.0513736 103 56
3.5436795 0.088381641 -1.052848 94 56
3.5881019 0.067457892 -1.0664122 21 56
3.5999138 0.045584407 -1.0699507 34 56
3.5762379 0.02334154 -1.0625788 129 56
3.5696251 0.0013958199 -1.0605147 105 56
3.5743439 -0.020534974 -1.0619891 125 56
3.568418 -0.042397622 -1.0602199 113 56
3.5461168 -0.063893922 -1.0534377 23 56
3.5328214 0.17431514 -1.0937259 7 57
3.5309706 0.15251066 -1.0928094 24 57
3.5337429 0.13091329 -1.0934204 80 57
3.5221074 0.10884174 -1.0894486 66 57
3.5722067 0.088470563 -1.1053361 10 57
3.5822024 0.066730708 -1.1083914 5 57
3.5787361 0.044700652 -1.1071693 5 57
3.5798953 0.022747463 -1.1074748 5 57
3.568541 0.00077497849 -1.1038084 20 57
3.5780003 -0.021174425 -1.1068637 90 57
3.5568566 -0.042882584 -1.1001421 17 57
3.5439587 0.17426041 -1.1402757 10 58
3.5411694 0.1523491 -1.1390119 9 58
3.5088532 0.12939794 -1.1279525 75 58
3.5086329 0.10783655 -1.1276366 99 58
3.5101769 0.086329177 -1.1279525 82 58
3.5400474 0.065328963 -1.1377479 22 58
3.5083251 0.021686396 -1.1270045 43 58
3.5216749 0.00015843977 -1.1314282 79 58
3.5126395 0.17270082 -1.1734546 6 59
3.4909701 0.15016198 -1.1656172 69 59
3.4927702 0.12877411 -1.1659437 80 59
3.4897158 0.10722308 -1.1646376 71 59
3.4874732 0.085737929 -1.1636579 92 59
3.4841537 0.064266585 -1.1623516 93 59
3.4873178 0.042922862 -1.1633313 86 59
3.4818444 0.021487372 -1.1613719 43 59
3.4885271 0.00012522579 -1.1636579 4 59
3.478492 0.17104854 -1.204465 69 60
3.4785354 0.14966133 -1.2041281 84 60
3.4728019 0.12807247 -1.2017696 77 60
3.4650526 0.10650197 -1.1987373 89 60
3.4703472 0.085354023 -1.2004219 83 60
3.474571 0.06412784 -1.2017696 83 60
3.792979 0.16193298 -0.61413741 12 45
3.8093903 -0.11798777 -0.61668026 3 45
3.7993577 0.11673964 -0.66197681 116 46
3.8019688 0.093473159 -0.66233957 139 46
3.8014874 0.070124917 -0.66215819 76 46
3.8008628 0.046786107 -0.66197681 4 46
3.7941947 0.023421779 -0.66070718 17 46
3.8109848 0.00013950447 -0.66379058 129 46
3.778326 0.16130289 -0.70472866 66 47
3.778264 0.13808034 -0.7045356 103 47
3.7790401 0.11489476 -0.7045356 108 47
3.7826166 0.091777146 -0.70511472 114 47
3.7899759 0.068692289 -0.70646596 102 47
3.7893448 0.045424081 -0.7062729 77 47
3.7787592 0.022105783 -0.70414954 6 47
3.7798049 -0.0010806428 -0.70434254 56 47
3.7973883 -0.024381053 -0.7078172 117 47
3.7961862 -0.047668912 -0.7076242 134 47
3.7781637 -0.070636272 -0.70414954 68 47
3.7139008 -0.092253529 -0.69160223 5 47
3.7211108 -0.11528047 -0.69314647 10 47
3.7007227 -0.13738874 -0.68928576 4 47
3.7321596 -0.16148296 -0.69565594 19 47
3.8016593 -0.18784492 -0.70955455 42 47
3.7210796 -0.20678292 -0.69391865 4 47
3.6677172 0.157141 -0.72744793 6 48
3.6735034 0.13481233 -0.72847039 8 48
3.7531674 0.091625661 -0.74483007 34 48
3.7526803 0.068577148 -0.74462557 37 48
3.7530303 0.045549847 -0.74462557 7 48
3.7698796 0.02261894 -0.74810201 6 48
3.7826726 -0.00051608565 -0.7507605 10 48
3.7865138 -0.023751084 -0.75157845 11 48
3.7735724 -0.046825036 -0.74892002 103 48
3.7790864 -0.070087872 -0.75014699 114 48
3.7756493 -0.093201824 -0.74953347 20 48
3.7642441 -0.11603414 -0.74728405 9 48
3.7536793 -0.13876629 -0.74523908 12 48
3.7615588 -0.16217621 -0.74707955 120 48
3.7634258 -0.18539844 -0.74769306 128 48
3.771991 -0.20902953 -0.74973798 138 48
3.681438 0.15905966 -0.77724206 9 49
3.6647835 0.13581137 -0.77334613 6 49
3.6626205 0.11323069 -0.77269685 7 49
3.7169256 0.092102192 -0.78460103 107 49
3.7164447 0.069275327 -0.78438455 111 49
3.7167997 0.046470348 -0.78438455 115 49
3.7306828 0.023754941 -0.78741473 81 49
3.7366161 0.00086664915 -0.78871334 29 49
3.7453377 -0.022109935 -0.79066133 108 49
3.7529414 -0.045182064 -0.79239285 134 49
3.7457604 -0.068086758 -0.79087776 111 49
3.740392 -0.090951897 -0.78979558 121 49
3.7475703 -0.11413612 -0.79152709 94 49
3.7282622 -0.13645598 -0.78741473 20 49
3.75174 -0.16036431 -0.7928257 83 49
3.7565362 -0.18366578 -0.79412436 101 49
3.7631373 -0.20713884 -0.79585588 96 49
3.856113 -0.23798637 -0.62566489 103 45
3.8585134 -0.26190835 -0.62634295 91 45
3.8415637 -0.25954416 -0.67104566 33 46
3.8428411 -0.28332788 -0.67158979 130 46
3.8390698 -0.30674493 -0.67122704 117 46
3.8371153 -0.33029523 -0.67122704 127 46
3.8467674 -0.35491851 -0.67340362 27 46
3.8234503 -0.30671653 -0.71534562 94 47
3.9181085 0.16799586 -0.44271779 144 41
3.9210494 0.14402509 -0.44296119 132 41
3.930788 0.12023905 -0.44405645 149 41
3.9304595 0.096093364 -0.44393477 144 41
3.9299829 0.071956247 -0.44381306 132 41
3.9650874 0.048274104 -0.44807243 74 41
3.8912866 0.16737345 -0.48691389 144 42
3.8942211 0.14356664 -0.48718119 169 42
3.8910666 0.1195481 -0.48664662 185 42
3.9204581 0.096374147 -0.49052218 25 42
3.9358385 0.072589502 -0.4925268 8 42
3.9183726 0.048220545 -0.49012128 64 42
3.9275138 0.0242311 -0.49132404 162 42
3.9236245 0.00013213223 -0.49078947 162 42
3.9106681 -0.023862883 -0.48905215 136 42
3.9289207 0.14500047 -0.54136151 64 43
3.8980942 0.11990751 -0.53669238 25 43
3.9145806 0.096381322 -0.53902698 10 43
3.9111416 0.072285786 -0.53844333 5 43
3.9115117 0.048286114 -0.53844333 6 43
3.8889809 0.024136567 -0.53508741 89 43
3.893013 0.00027524255 -0.53567106 138 43
3.8850272 -0.023566214 -0.53450376 132 43
3.8848095 -0.04740385 -0.53450376 148 43
3.8804889 -0.071168326 -0.53392011 135 43
3.8809681 -0.095001131 -0.53406602 118 43
3.8803122 -0.11881252 -0.53406602 31 43
3.8684821 0.16639484 -0.58011186 117 44
3.8546283 0.14211093 -0.57774466 143 44
3.8524666 0.11836603 -0.57727122 144 44
3.8521333 0.094701342 -0.57711345 147 44
3.8625147 0.071244426 -0.57869154 137 44
3.8767028 0.047711883 -0.58090097 96 44
3.8700104 0.023882024 -0.57979625 154 44
3.8602095 0.00013628273 -0.5782181 163 44
3.861125 -0.023555644 -0.57837594 189 44
3.8510339 -0.047124796 -0.57679778 109 44
3.8575833 -0.070881091 -0.5779025 11 44
3.8620117 -0.094670936 -0.57869154 16 44
3.8850462 -0.11909453 -0.58247906 87 44
3.8960838 -0.14336741 -0.58437282 136 44
3.8872383 -0.16693091 -0.58311033 114 44
3.8881135 -0.19087645 -0.58342594 73 44
3.8441288 0.14050774 -0.62278301 82 45
3.8390083 0.11673645 -0.62176585 129 45
3.8278296 0.09288805 -0.61973161 73 45
3.8371956 0.069562636 -0.62125731 9 45
3.834594 0.045980386 -0.62074876 10 45
3.8328984 -0.0010794845 -0.62040973 6 45
3.821979 -0.024531405 -0.618545 41 45
3.8286548 -0.048066672 -0.61973161 6 45
3.8341999 -0.071666665 -0.62074876 12 45
3.8578374 -0.14317219 -0.62515628 108 45
3.8539326 -0.16671385 -0.62464774 133 45
3.8557901 -0.190503 -0.62515628 144 45
3.8575008 -0.21432123 -0.62566489 131 45
3.8261318 0.1645775 -0.66723675 10 46
3.8231387 0.14095317 -0.66651124 19 46
3.8246815 -0.023329642 -0.66632986 151 46
3.8313498 -0.046881933 -0.6675995 166 46
3.8142748 -0.070080951 -0.66451609 151 46
3.8177054 -0.09358038 -0.6652416 110 46
3.8347526 -0.11754777 -0.66850638 136 46
3.8310108 -0.14096637 -0.66796225 160 46
3.8231962 -0.16417432 -0.66669261 165 46
3.8280103 -0.18791983 -0.66778088 136 46
3.8208938 -0.21107846 -0.66669261 84 46
3.955456 0.17012711 -0.39846906 112 40
3.9484792 0.14556152 -0.39759257 158 40
3.9602265 0.12166604 -0.39879775 107 40
3.6568968 0.49746212 -0.82437778 56 50
3.6637425 0.47551534 -0.82528985 113 50
3.6665914 0.45302609 -0.82528985 108 50
3.6934779 0.43335375 -0.83099014 11 50
3.6960676 0.41068286 -0.83099014 5 50
3.6985178 0.38799646 -0.83099014 9 50
3.6756358 0.36281142 -0.82506186 54 50
3.6748843 0.33998254 -0.82437778 101 50
3.672051 0.31700927 -0.82323772 136 50
3.6778092 0.29478276 -0.82414979 123 50
3.6814907 0.27235407 -0.82460582 37 50
3.6811497 0.2496282 -0.82414979 47 50
3.683584 0.2270962 -0.82437778 119 50
3.6878245 0.20465142 -0.82506186 123 50
3.6929007 0.18221103 -0.82597387 91 50
3.628475 0.51504916 -0.86282277 87 51
3.6277184 0.49225211 -0.86186594 120 51
3.6258562 0.4693588 -0.86066985 105 51
3.6277041 0.44698307 -0.86043066 108 51
3.6342361 0.42516801 -0.86138749 87 51
3.6223009 0.40125257 -0.85779935 94 51
3.6217978 0.37871513 -0.85708171 71 51
3.6269522 0.35677117 -0.85779935 93 51
3.6416419 0.33567247 -0.8609091 104 51
3.6552415 0.31432343 -0.8637796 113 51
3.6619406 0.29227716 -0.86497569 115 51
3.6346154 0.26765385 -0.85779935 47 51
3.6381269 0.24547859 -0.85827774 7 51
3.6560397 0.22416626 -0.86234432 12 51
3.6621938 0.20199791 -0.86354041 107 51
3.6633642 0.1795233 -0.86354041 100 51
3.6195431 0.56042242 -0.90832311 45 52
3.6257863 0.53862923 -0.90907526 39 52
3.611979 0.49135655 -0.9038102 10 52
3.6034057 0.46769065 -0.90080154 66 52
3.6119721 0.44628337 -0.9023059 105 52
3.6184883 0.42456317 -0.90330875 76 52
3.6114039 0.40128449 -0.90080154 9 52
3.6109097 0.37881508 -0.90004939 5 52
3.5977519 0.35513195 -0.89603794 4 52
3.6152866 0.33447513 -0.90004939 8 52
3.6201642 0.31253535 -0.90080154 25 52
3.6220138 0.29031655 -0.90080154 9 52
3.6179342 0.26765889 -0.89929724 8 52
3.6368937 0.24663174 -0.9038102 7 52
3.6344738 0.22407368 -0.9028073 6 52
3.6454461 0.20230412 -0.90531451 25 52
3.6533868 0.18026552 -0.9070695 108 52
3.5622375 0.57334059 -0.93848509 84 53
3.6047909 0.55753297 -0.94922101 29 53
3.6090987 0.53554583 -0.94948292 6 53
3.6094503 0.51298243 -0.94869733 6 53
3.6126025 0.46827719 -0.9479118 10 53
3.569433 0.4404141 -0.93534285 83 53
3.5730267 0.4186168 -0.93560469 89 53
3.5937526 0.39871314 -0.94057989 30 53
3.6124485 0.37836915 -0.9450314 5 53
3.5851068 0.33107144 -0.93639028 57 53
3.594763 0.30973268 -0.93848509 100 53
3.5946717 0.28751528 -0.9379614 101 53
3.5982933 0.26559609 -0.93848509 123 53
3.6027439 0.24370871 -0.93927068 74 53
3.5945387 0.22100273 -0.93665212 35 53
3.6228085 0.20044443 -0.94398397 115 53
3.6220422 0.1781161 -0.94346029 109 53
3.5527585 0.5724324 -0.98034596 57 54
3.5600066 0.5512107 -0.98143774 89 54
3.5547574 0.52808517 -0.9789812 109 54
3.5645978 0.50721157 -0.98089188 67 54
3.5657365 0.48507094 -0.98034596 37 54
3.5686457 0.46318287 -0.98034596 103 54
3.5599632 0.43986294 -0.97707051 126 54
3.5654616 0.41834715 -0.97788942 104 54
3.5689175 0.39656815 -0.97816235 131 54
3.5741541 0.37496305 -0.9789812 105 54
3.5447938 0.3499102 -0.9699738 22 54
3.5880659 0.33195966 -0.98171073 81 54
3.5862012 0.30960688 -0.98061889 123 54
3.5841975 0.2872895 -0.97952712 115 54
3.5916493 0.26571712 -0.98116481 76 54
3.594172 0.24373916 -0.98143774 37 54
3.5571914 0.21931727 -0.97051966 9 54
3.5536673 0.19722061 -0.96915495 4 54
3.5092275 0.52069348 -1.0086708 36 55
3.5379884 0.50280273 -1.0163302 103 55
3.5438573 0.48147279 -1.0171813 107 55
3.5438921 0.45934832 -1.0163302 89 55
3.5523539 0.43830115 -1.0180323 101 55
3.5587859 0.41694364 -1.0191669 101 55
3.5565121 0.39456925 -1.0177486 71 55
3.5636344 0.37324047 -1.0191669 11 55
3.5725374 0.3520278 -1.0211527 5 55
3.5909185 0.30940017 -1.025408 8 55
3.5965729 0.28766793 -1.0265427 17 55
3.5982702 0.26559436 -1.0265427 12 55
3.6046157 0.24383594 -1.0279611 5 55
3.6031728 0.22153638 -1.0271101 4 55
3.5569091 0.46228927 -1.0658225 31 56
3.5226943 0.43588355 -1.0543224 93 56
3.5243535 0.41414911 -1.0540274 127 56
3.5220799 0.39198831 -1.0525532 91 56
3.5206175 0.36997083 -1.0513736 56 56
3.4505522 0.34122318 -1.0289632 7 56
3.4459207 0.31942791 -1.0268991 6 56
3.5220711 0.30469382 -1.0498992 70 56
3.5276842 0.28338271 -1.0510788 97 56
3.5341213 0.26208472 -1.0525532 102 56
3.541383 0.24078313 -1.0543224 92 56
3.5475624 0.21934339 -1.0557967 91 56
3.528806 0.19645859 -1.0496044 53 56
3.5202155 0.39114964 -1.0952536 58 57
3.5111859 0.36834672 -1.0915873 85 57
3.5086422 0.34632632 -1.0900596 66 57
3.5107009 0.32479119 -1.0900596 88 57
3.5116792 0.30316159 -1.0897541 83 57
3.5087278 0.28122669 -1.0882264 73 57
3.5075386 0.25948054 -1.0873098 81 57
3.5119145 0.23814802 -1.0882264 76 57
3.5009551 0.21582904 -1.0842546 37 57
3.5183754 0.1952458 -1.0894486 8 57
3.4727433 0.32069424 -1.1200529 50 58
3.4859889 0.30035594 -1.1238447 88 58
3.4839833 0.27865851 -1.1225809 85 58
3.4894123 0.25755489 -1.1238447 84 58
3.517432 0.23792934 -1.1326922 21 58
3.4818933 0.2569665 -1.1646376 84 59
3.4909484 0.23610994 -1.16725 98 59
3.4904447 0.21456882 -1.1665969 85 59
3.4888644 0.19299026 -1.1656172 62 59
3.4764369 0.19233704 -1.2041281 66 60
3.8041294 0.32650822 -0.61786687 78 45
3.8080258 0.30331749 -0.6182059 69 45
3.8049011 0.27958357 -0.61735833 145 45
3.8114614 0.25656432 -0.6182059 110 45
3.7791176 0.18457428 -0.61193365 11 45
3.7867482 0.37310272 -0.66270232 69 46
3.8065929 0.35148641 -0.66596711 38 46
3.7763448 0.32534075 -0.65998167 6 46
3.7928026 0.27991432 -0.66233957 7 46
3.8022983 0.25716695 -0.66379058 12 46
3.8077309 0.2340726 -0.66451609 29 46
3.7412903 0.41381365 -0.70125401 15 47
3.7300971 0.38941917 -0.69855148 98 47
3.7255809 0.36585101 -0.69720024 123 47
3.7287326 0.34307459 -0.6973933 102 47
3.7630274 0.32296783 -0.70376343 34 47
3.7843208 0.27806503 -0.70723808 20 47
3.738966 0.25166219 -0.69797236 117 47
3.7521918 0.22943786 -0.70028883 125 47
3.7633259 0.2069523 -0.70221919 92 47
3.7704051 0.18414606 -0.70337737 90 47
3.7103877 0.43402863 -0.74094468 52 48
3.7110353 0.41103864 -0.74053568 95 48
3.7183554 0.38876885 -0.74155813 110 48
3.7226191 0.36613753 -0.74196714 109 48
3.722846 0.34310964 -0.74155813 112 48
3.7287824 0.3205952 -0.74237615 111 48
3.7092123 0.29599899 -0.73787725 60 48
3.7324359 0.27481318 -0.74237615 9 48
3.7252619 0.25131416 -0.74053568 50 48
3.728688 0.22857122 -0.74094468 86 48
3.7407715 0.20627986 -0.7431941 125 48
3.7458775 0.18351422 -0.74401212 50 48
3.6774044 0.45442063 -0.78178728 95 49
3.6723666 0.43093523 -0.78005576 18 49
3.684175 0.38655248 -0.78157085 4 49
3.6816196 0.3634584 -0.78048867 17 49
3.6886411 0.34131286 -0.78157085 99 49
3.6945565 0.31901056 -0.78243661 22 49
3.7022834 0.29680511 -0.78373528 9 49
3.7188125 0.22933269 -0.78633255 25 49
3.7201495 0.20651016 -0.78633255 81 49
3.7330477 0.1842611 -0.78892982 33 49
3.5929186 0.60092974 -0.9479118 14 53
3.9484563 0.21787876 -0.44673377 37 41
3.9140298 0.19188707 -0.44235271 130 41
3.8766658 0.23830318 -0.48544386 88 42
3.8820131 0.21473047 -0.48597842 78 42
3.8911762 0.19129534 -0.48704755 142 42
3.8624158 0.26135874 -0.53246099 112 43
3.9103553 0.24052291 -0.5393188 9 43
3.9018798 0.2159752 -0.53785968 10 43
3.9051077 0.19212745 -0.5381515 7 43
3.8361123 0.30678332 -0.57632434 90 44
3.8438313 0.28367507 -0.57727122 126 44
3.8494403 0.26035056 -0.5779025 134 44
3.8420949 0.23618154 -0.57648218 120 44
3.8405137 0.21243913 -0.57600874 38 44
3.859498 0.18974116 -0.57884938 14 44
3.8159149 0.23335415 -0.61871451 117 45
3.819243 0.21004458 -0.61905354 82 45
3.8198965 0.21130078 -0.66651124 10 46
