# .PCD v0.7 - Point Cloud Data file format
VERSION 0.7
FIELDS x y z intensity ring
SIZE 4 4 4 4 1
TYPE F F F F U
COUNT 1 1 1 1 1
WIDTH 1302
HEIGHT 1
VIEWPOINT 0 0 0 1 0 0 0
POINTS 1302
DATA ascii
-4.0456505 -5.3175316 1.034771 855 19
-4.0957031 -5.3153286 1.0390675 782 19
-4.1489224 -5.3166099 1.0441047 870 19
-4.209054 -5.3259735 1.0507717 887 19
-4.2879901 -5.357965 1.0618833 835 19
-4.3512897 -5.3692069 1.0691428 85 19
-5.3839765 -6.5611839 1.3053013 121 19
-5.441196 -6.5485649 1.3093015 130 19
-5.4468994 -6.474185 1.3013011 85 19
-5.3153191 -6.2396102 1.2617439 58 19
-5.2785892 -6.1199965 1.244558 272 19
-5.2555542 -6.0182076 1.2307795 14 19
-5.266839 -5.9569478 1.2250016 19 19
-5.2709756 -5.8884077 1.217742 10 19
-5.2638469 -5.8083158 1.2081119 16 19
-5.2572722 -5.7299929 1.1987782 12 19
-5.262722 -5.66574 1.1922593 18 19
-5.2655506 -5.5994759 1.1852961 18 19
-5.245266 -5.5097504 1.1734437 5 19
-5.2940702 -5.4931307 1.1767031 16 19
-5.3000546 -5.4322248 1.170777 17 19
-5.299933 -5.3658233 1.1636655 11 19
-5.2991972 -5.2996297 1.1565541 7 19
-5.3189535 -5.2545018 1.1538873 12 19
-5.3298635 -5.2010422 1.1494427 13 19
-5.3396063 -5.1469612 1.1448499 10 19
-5.3159456 -5.0615816 1.1334419 651 19
-5.3310566 -5.0139594 1.1301825 279 19
-5.3436103 -4.9643235 1.1264787 257 19
-5.3353567 -4.895997 1.1186265 360 19
-5.3132801 -4.8160033 1.1081076 266 19
-5.3007383 -4.7457032 1.0996627 13 19
-5.32235 -4.7065368 1.0981811 175 19
-2.7117453 -2.367733 0.57312113 24 19
-2.697022 -2.325851 0.56734312 107 19
-2.6991997 -2.2989945 0.56497264 189 19
-2.7064457 -2.2766573 0.56363922 172 19
-2.7059147 -2.2479959 0.56082428 129 19
-2.7250078 -2.2357433 0.5618614 284 19
-2.7071788 -2.1934443 0.55578703 119 19
-2.7159545 -2.1730833 0.55489814 117 19
-2.7144976 -2.1447237 0.55208319 107 19
-2.711236 -2.115247 0.54897195 128 19
-2.7147651 -2.0913258 0.54719406 136 19
-2.7204635 -2.0692382 0.54586071 220 19
-2.7236218 -2.045377 0.54408282 124 19
-2.7297668 -2.0239124 0.54289758 113 19
-2.7317622 -1.9995276 0.54097158 110 19
-2.7319586 -1.9740357 0.53874928 118 19
-2.7383852 -1.9532137 0.53771216 119 19
-2.7535522 -1.938653 0.53830481 94 19
-2.7775745 -1.9301906 0.54052711 95 19
-2.8146424 -1.9304606 0.54511988 57 19
-2.8362601 -1.9198095 0.54689777 58 19
-2.8792295 -1.9232552 0.55252767 96 19
-2.9388578 -1.9371359 0.56112063 360 19
-2.9697523 -1.9314748 0.56452817 77 19
-3.0164986 -1.9356601 0.57075065 293 19
-3.0675838 -1.9419899 0.57771391 54 19
-3.0911832 -1.9304687 0.57978809 63 19
-3.1240165 -1.9244393 0.58349198 51 19
-3.1518214 -1.9149965 0.58630687 68 19
-3.2432396 -1.9434292 0.60023344 11 19
-5.4701018 -3.2332923 0.98573178 19 19
-5.4727511 -3.1897047 0.98276871 6 19
-0 -0 0 5 19
-0 -0 0 6 19
-0 -0 0 4 19
-5.4818101 -3.0172274 0.97121263 4 19
-9.4821129 -5.1444292 1.649909 11 19
-9.521349 -5.0903487 1.6512424 33 19
-9.542779 -5.0267601 1.6496127 31 19
-9.5181446 -4.9394073 1.6402789 13 19
-0 -0 0 6 19
-5.5423374 -2.7898371 0.96336043 6 19
-8.4476862 -4.1882048 1.4463445 220 19
-8.4785576 -4.1388955 1.4472334 111 19
-8.6116428 -4.1386414 1.4651601 35 19
-8.6359816 -4.0853004 1.4650121 18 19
-8.6635752 -4.0334868 1.4654565 13 19
-8.6396122 -3.9580035 1.4574561 289 19
-8.6556215 -3.9012589 1.4561228 399 19
-8.6640272 -3.8412595 1.4536041 26 19
-5.5482759 -2.4187832 0.94054461 238 19
-5.5630126 -2.3846941 0.94054461 398 19
-8.6630964 -3.651546 1.4421962 36 19
-8.6725483 -3.5930204 1.440122 27 19
-6.3368654 -2.5795684 1.058772 67 19
-6.3002372 -2.5196958 1.0503272 496 19
-6.3008523 -2.4752026 1.0479567 468 19
-6.3030047 -2.4315093 1.0458826 458 19
-6.3159556 -2.3920882 1.0455862 382 19
-5.573215 -2.0716238 0.92454392 274 19
-6.4553885 -2.3547499 1.0632167 200 19
-8.5590773 -3.0631442 1.3956757 875 19
-8.5646477 -3.0059822 1.3936015 892 19
-8.5670338 -2.9479015 1.3910829 968 19
-8.5634079 -2.8880081 1.3876753 935 19
-8.5481024 -2.8245454 1.3824899 929 19
-8.5163469 -2.756201 1.3747859 948 19
-8.4218569 -2.6686285 1.3573036 956 19
-8.3691216 -2.5955088 1.3464884 736 19
-8.4038162 -2.5498533 1.3494514 908 19
-8.3576784 -2.4799459 1.3398213 697 19
-8.4097795 -2.4393671 1.3455994 1090 19
-8.4008026 -2.3809748 1.3418956 933 19
-8.4114418 -2.3283277 1.3413029 1176 19
-8.4207954 -2.2753818 1.3405621 1115 19
-6.3002362 -1.6606685 1.009881 367 19
-8.553441 -2.1989748 1.3568591 472 19
-8.6003475 -2.1548676 1.3620446 965 19
-8.6057215 -2.1001794 1.3608593 981 19
-8.6049757 -2.0441344 1.3587852 781 19
-8.5990486 -1.9870639 1.3559703 372 19
-8.6033602 -1.9325287 1.354785 954 19
-8.6198874 -1.8807578 1.3555257 1012 19
-8.6293297 -1.8274218 1.3552295 971 19
-8.6316614 -1.7726471 1.353896 767 19
-8.7325792 -1.7376118 1.3676745 992 19
-8.7518158 -1.6856815 1.3690078 72 19
-6.3226933 -1.1772918 0.99728787 45 19
-6.3259048 -1.1377733 0.99669522 47 19
-6.3298435 -1.0984291 0.99625075 43 19
-6.3286614 -1.0582629 0.99506551 58 19
-6.323319 -1.0175235 0.99328768 72 19
-6.3323755 -0.97915912 0.99373215 53 19
-6.3441334 -0.94115776 0.99462104 73 19
-6.351747 -0.90249181 0.99491739 60 19
-6.4081221 -0.8704322 1.0026214 110 19
-8.8034067 -1.1412597 1.3636743 49 19
-8.7660761 -1.0817651 1.3570073 192 19
-8.7686195 -1.0274962 1.3564147 721 19
-8.7511692 -0.97105283 1.352859 128 19
-8.6045094 -0.9013477 1.329895 1066 19
-8.7998257 -0.8672803 1.3584888 131 19
-8.8059664 -0.81336033 1.358637 158 19
-8.810791 -0.75931263 1.358637 139 19
-8.8399296 -0.70721126 1.3623409 206 19
-8.8337822 0.2155067 1.2460216 265 20
-8.8332834 0.26973599 1.2461574 262 20
-8.8284922 0.32382184 1.2457498 243 20
-8.8045635 0.37705287 1.2427603 271 20
-8.6783915 0.42500648 1.2257742 336 20
-8.8507128 0.48790792 1.2498264 694 20
-8.8159084 0.54026508 1.245478 298 20
-8.6681099 0.58460855 1.2256383 1005 20
-8.7216663 0.64200503 1.2335198 218 20
-8.7699051 0.69968635 1.2407219 158 20
-8.7387953 0.75119215 1.2370529 228 20
-8.7626314 0.80743581 1.2409937 214 20
-8.7318773 0.85866505 1.2374606 263 20
-8.7165909 0.91119623 1.2361017 276 20
-8.7137899 0.96499032 1.2365093 334 20
-8.7086887 1.0185541 1.2366452 412 20
-8.7062082 1.0724552 1.2371888 452 20
-8.7024117 1.1262368 1.2375965 547 20
-8.7601309 1.1884055 1.2465651 715 20
-8.7104959 1.2361467 1.2407219 960 20
-8.7194071 1.2920394 1.243032 902 20
-8.7446051 1.3506597 1.2476523 877 20
-8.781148 1.4115249 1.2539032 835 20
-8.8348618 1.4758282 1.2625999 856 20
-8.8832331 1.539997 1.2706174 811 20
-8.9018946 1.5995569 1.2745582 777 20
-8.9113922 1.6577725 1.2772759 795 20
-8.9166183 1.715416 1.2794502 785 20
-8.9088402 1.7706745 1.2798578 631 20
-6.5685954 1.3473847 0.95372546 127 20
-6.5330648 1.3819212 0.94992054 90 20
-6.5021987 1.4171276 0.94679511 100 20
-6.4711475 1.4520075 0.94366968 96 20
-6.4495673 1.4887888 0.94190311 112 20
-6.4393468 1.5281059 0.94176728 99 20
-6.4221492 1.5657104 0.94068015 100 20
-6.423954 1.6079739 0.94231081 85 20
-6.4254813 1.6503185 0.94394147 89 20
-6.4775066 1.7061192 0.95277423 151 20
-8.9719048 2.4222434 1.3086661 79 20
-8.9778805 2.4830592 1.3116558 144 20
-8.9653358 2.5389097 1.3120633 129 20
-8.9257994 2.5869763 1.3086661 877 20
-8.8014765 2.6095855 1.2931749 1106 20
-8.8383923 2.6796405 1.3007846 1043 20
-8.8435488 2.7405674 1.30391 1131 20
-8.844512 2.8004618 1.306492 1119 20
-8.8450718 2.8604708 1.3090738 1143 20
-8.8452282 2.9205921 1.3116558 1199 20
-8.8393469 2.978924 1.3134223 1235 20
-8.8405762 3.0398712 1.316276 1267 20
-8.8479338 3.1032407 1.3200808 1229 20
-8.852047 3.1658139 1.323478 1291 20
-8.8520021 3.2271965 1.3263316 1280 20
-8.8552504 3.2900777 1.3297288 1280 20
-8.8506479 3.3503137 1.332039 1216 20
-8.8696718 3.4198847 1.3378822 1057 20
-8.8688087 3.4822104 1.3408717 1087 20
-8.8711939 3.5461249 1.3444048 1090 20
-8.9079981 3.6243889 1.3531017 1040 20
-8.9450903 3.7036164 1.3619344 1175 20
-8.9349785 3.7638178 1.3638369 1067 20
-8.9281073 3.8255951 1.3662829 1043 20
-8.9162731 3.8854506 1.3680494 1013 20
-8.9058504 3.9461074 1.3700877 976 20
-8.8923101 4.0055618 1.3717184 996 20
-8.8819771 4.066648 1.3738927 992 20
-8.868535 4.1265039 1.3756592 1051 20
-8.857378 4.1876187 1.3778334 1013 20
-8.8466988 4.2491803 1.3801435 1020 20
-8.8373766 4.3116369 1.3827254 1060 20
-8.8285084 4.374579 1.3854432 1117 20
-8.8218555 4.4389105 1.3885686 1043 20
-8.8138618 4.5028734 1.3915582 998 20
-8.8036556 4.5659933 1.3942759 1006 20
-8.7938833 4.6296182 1.3971295 943 20
-8.7889032 4.6960964 1.4007986 893 20
-8.7808247 4.7612705 1.4040599 896 20
-8.7644653 4.8222232 1.4060982 858 20
-8.7511473 4.8850856 1.4086801 888 20
-8.7408361 4.9499192 1.4118055 960 20
-8.7334938 5.0167837 1.4154745 942 20
-8.7170992 5.0787559 1.4177846 900 20
-8.8819475 5.2480717 1.449039 667 20
-8.9660053 5.3722372 1.4676557 785 20
-8.9464207 5.4353819 1.4698299 782 20
-8.9339886 5.5031643 1.4732271 801 20
-8.9193811 5.5699492 1.4763526 879 20
-8.9059639 5.6378212 1.4797498 810 20
-8.9037209 5.7132287 1.4850495 466 20
-6.7698035 4.4027286 1.1416593 15 20
-6.7376981 4.4409127 1.1408439 18 20
-6.7160892 4.4860234 1.1417952 17 20
-6.6892571 4.5277033 1.1419309 10 20
-6.6588988 4.5669813 1.1415234 24 20
-8.8452282 6.1467657 1.5114118 292 20
-8.8284073 6.2157531 1.5149449 611 20
-8.8312359 6.2991486 1.5218753 769 20
-8.8076763 6.3642426 1.5244571 671 20
-8.8108292 6.4491811 1.5316591 531 20
-8.8029251 6.5267253 1.5370947 332 20
-8.7967758 6.6061993 1.5429379 701 20
-8.7702694 6.6708474 1.5453839 675 20
-8.7495775 6.7402558 1.5489171 282 20
-8.7322702 6.8127079 1.5531296 492 20
-8.6856394 6.8624744 1.5523143 697 20
-8.6735373 6.9397798 1.5576138 330 20
-8.6038513 6.9710388 1.5528578 618 20
-8.6053381 7.0601487 1.5607393 215 20
-8.5892897 7.1356091 1.5656313 607 20
-8.5339727 7.1786108 1.563593 459 20
-8.4150982 7.1672401 1.55014 486 20
-8.3357 7.1883287 1.5437533 682 20
-8.3018847 7.2484632 1.5456557 766 20
-8.2060366 7.2539887 1.5362794 435 20
-8.1082201 7.2566309 1.5264955 439 20
-7.9849877 7.2350636 1.5119554 436 20
-7.8849597 7.2330222 1.5016278 351 20
-7.7518668 7.1990137 1.4850495 476 20
-7.6461973 7.1887574 1.4734989 377 20
-7.5416651 7.1781607 1.4620843 421 20
-7.4432607 7.1720538 1.4517567 477 20
-7.3338699 7.1539421 1.439255 469 20
-7.2306237 7.1403298 1.4278404 463 20
-7.125721 7.1236205 1.4160181 492 20
-7.027565 7.1122379 1.4054188 499 20
-6.9194388 7.0892859 1.3927811 516 20
-6.8242388 7.0781159 1.3825895 483 20
-6.587328 6.9168158 1.344133 527 20
-6.5121803 6.9224663 1.3376104 491 20
-6.4061918 6.8940701 1.3248369 536 20
-6.322906 6.8887234 1.3165478 535 20
-6.2412596 6.8840842 1.3085303 500 20
-6.1460304 6.863204 1.2976592 549 20
-6.077549 6.8711019 1.2922237 566 20
-5.2407465 5.9987321 1.1265756 278 20
-5.2167845 6.0457778 1.1292933 103 20
-5.1840878 6.082952 1.1302446 89 20
-4.8206778 5.7273088 1.0608056 29 20
-4.9627628 5.9701118 1.0988543 32 20
-4.9373522 6.0142345 1.1013004 35 20
-5.6097102 6.9194674 1.2558055 70 20
-2.7611699 3.4485834 0.63995892 80 20
-2.7461019 3.473233 0.64131778 97 20
-2.7418077 3.5118845 0.64512271 115 20
-2.7437952 3.5592446 0.65042233 115 20
-2.7399037 3.5996649 0.65449899 123 20
-2.7290726 3.631458 0.65708089 134 20
-2.7268078 3.6751885 0.66170108 159 20
-2.7217669 3.7158296 0.66577774 170 20
-2.7180707 3.758955 0.67026204 200 20
-2.7179756 3.8078189 0.67569757 182 20
-2.7236586 3.8657315 0.68262792 163 20
-2.715158 3.9043331 0.68629688 185 20
-2.7012408 3.9356234 0.68874288 181 20
-2.6953745 3.9791937 0.69322723 207 20
-2.6945796 4.0310764 0.69907039 255 20
-2.6997941 4.0930223 0.70654428 214 20
-2.693001 4.1377444 0.71116447 207 20
-2.6884365 4.1867042 0.71646416 173 20
-2.6791306 4.2290668 0.72067666 193 20
-2.6720304 4.2756734 0.72556865 208 20
-2.0682299 3.354969 0.57459652 130 20
-2.0455468 3.3642101 0.57405299 163 20
-2.0055077 3.3444088 0.56888926 33 20
-0 0 0 5 20
-0 0 0 7 20
-1.8828832 3.2751062 0.55217493 76 20
-1.8495647 3.2633247 0.54850596 117 20
-1.819361 3.256448 0.54565233 128 20
-1.7940897 3.2580035 0.54415751 122 20
-0 0 0 6 20
-0 0 0 6 20
-0 0 0 5 20
-0 0 0 8 20
-0 0 0 8 20
-0 0 0 9 20
-0 0 0 5 20
-0 0 0 5 20
-0 0 0 9 20
-0 0 0 6 20
-0 0 0 18 20
-0 0 0 28 20
-0 0 0 15 20
-0 0 0 6 20
-0 0 0 16 20
-1.1646932 2.7152255 0.43925163 14 20
-1.1364658 2.6949332 0.43517497 22 20
-0 0 0 27 20
-0 0 0 42 20
-0 0 0 78 20
-0 0 0 67 20
-0 0 0 75 20
-0 0 0 84 20
-0 0 0 65 20
-0 0 0 78 20
-0 0 0 91 20
-0 0 0 86 20
-0 0 0 108 20
-0 0 0 88 20
-0 0 0 116 20
-0 0 0 81 20
-0.82021451 2.5868142 0.40623072 117 20
-0.80520719 2.5946369 0.40663838 86 20
-0 0 0 86 20
-0 0 0 96 20
-0 0 0 80 20
-0.7358852 2.594553 0.40392062 86 20
-0.72444528 2.6152511 0.40623072 63 20
-0.71226197 2.6339931 0.40826905 11 20
-0 0 0 6 20
-0.67519742 2.6243048 0.40568715 6 20
-0 0 0 6 20
-0 0 0 6 20
-0 0 0 5 20
-0.60322809 2.6082304 0.40120283 5 20
-0.5789603 2.5751507 0.39603907 120 20
-0.5623036 2.5747828 0.39549553 121 20
-0.54546797 2.5733385 0.39481607 118 20
-0.52867126 2.5717847 0.39413664 133 20
-0.51210761 2.5710936 0.39359307 101 20
-0.49613461 2.5732145 0.3934572 124 20
-0.47997344 2.5742624 0.39318541 119 20
-0.46416903 2.5771589 0.39318541 124 20
-0.44766921 2.5760541 0.39264187 120 20
-0.43479723 2.5963409 0.39508787 37 20
-0.42389792 2.63026 0.3994363 17 20
-0 0 0 5 20
-0.38620603 2.5990043 0.3944084 37 20
-0.37638783 2.6444829 0.40038753 8 20
-0.35868669 2.6359439 0.39889273 13 20
-0.34352538 2.6459551 0.39997986 9 20
-0 0 0 5 20
-0.31114492 2.6509554 0.40011573 20 20
-0.29356143 2.6409986 0.39848506 11 20
-0.27745429 2.6437356 0.39862096 11 20
-0.25918588 2.6246834 0.3957673 29 20
-0.24207345 2.6153727 0.39427254 49 20
-0.22568083 2.6128604 0.39372897 36 20
-0.20980248 2.6161711 0.39400074 47 20
-0.19360003 2.6154332 0.39372897 40 20
-0.17748146 2.6155834 0.39359307 39 20
-0.1614292 2.6166232 0.39359307 76 20
-0.14542565 2.6185536 0.39372897 85 20
-0.12930705 2.618407 0.39359307 77 20
-0.11298248 2.6132123 0.39277777 49 20
-0.096945986 2.6138566 0.39277777 52 20
-0.080875345 2.6134119 0.39264187 63 20
-0.064667277 2.606926 0.39169064 47 20
-0.048688605 2.6082642 0.39182654 73 20
-0.032646883 2.6055419 0.39141887 65 20
-0.016609468 2.5977676 0.39033177 62 20
-0.00066901289 2.5928669 0.38965231 63 20
0.015192765 2.5848966 0.38856521 78 20
0.030956708 2.5768294 0.38747811 70 20
0.046821639 2.5795627 0.38788578 55 20
0.062551834 2.5752652 0.38734221 66 20
0.078352183 2.5748329 0.38734221 74 20
0.097494505 2.6653888 0.39984396 32 20
0.11957551 2.7983654 0.4181889 17 20
0 0 0 26 20
0 0 0 86 20
0 0 0 117 20
0 0 0 86 20
0.1901487 2.5868788 0.38978821 89 20
0.20530839 2.5767751 0.38856521 45 20
0.22094552 2.5734925 0.38829345 67 20
0.23582253 2.562223 0.38693455 122 20
0.25202459 2.5656576 0.38761398 104 20
0.26920512 2.577858 0.38951644 66 20
0.28490838 2.5751729 0.38938054 92 20
0.30139479 2.5792804 0.39019588 82 20
0.31951746 2.5960648 0.39277777 55 20
0.33442301 2.5861952 0.39169064 107 20
0.35308304 2.6047108 0.3945443 69 20
0.37031183 2.6113234 0.3957673 76 20
0.38763499 2.6178222 0.3969903 77 20
0.40716964 2.6379137 0.40011573 102 20
0.41941595 2.6109118 0.39671853 40 20
0.47477803 2.8437889 0.42946765 11 20
0.46885905 2.7061124 0.41071504 16 20
0.4512797 2.5130403 0.38421679 33 20
0.46324745 2.4917178 0.38163489 43 20
0 0 0 27 20
0 0 0 41 20
0 0 0 25 20
0 0 0 32 20
0 0 0 62 20
0.54293072 2.420778 0.37429693 142 20
0.55888855 2.4222276 0.37497637 130 20
0.57488459 2.4235725 0.3756558 118 20
0.59021401 2.4219246 0.3759276 109 20
0.60530418 2.4192185 0.37606347 134 20
0.62260193 2.4250546 0.37742236 81 20
0.63671291 2.4183147 0.3770147 87 20
0.65205592 2.4162753 0.37728646 84 20
0.66528487 2.4064996 0.37647113 158 20
0.68030834 2.4033253 0.37660703 161 20
0.71131617 2.4552474 0.38462445 36 20
0.72580457 2.4489369 0.38435268 8 20
0.74484211 2.4577107 0.38625512 12 20
0.7607882 2.4559331 0.38666278 27 20
0.77853513 2.4597192 0.38788578 21 20
0.79696685 2.465265 0.38938054 8 20
1.0453912 3.1668351 0.49143279 86 20
1.0027814 2.9763503 0.46479866 14 20
0 0 0 6 20
1.0720236 3.0573082 0.4783875 16 20
0.94995683 2.6570115 0.42104256 12 20
1.1495076 3.1537549 0.49442235 105 20
1.1702174 3.150357 0.49496591 179 20
1.1902272 3.1449704 0.49523768 150 20
1.2123536 3.1450031 0.49632478 191 20
1.2338009 3.143038 0.49714011 189 20
0 0 0 175 20
1.2767588 3.1386728 0.49877077 194 20
1.2997837 3.1399331 0.50012964 177 20
1.3197948 3.1337247 0.50040144 181 20
1.3401688 3.1282995 0.50080913 189 20
1.3629009 3.1281915 0.5020321 220 20
0 0 0 213 20
0 0 0 201 20
0 0 0 206 20
1.4492917 3.1153595 0.50529343 197 20
1.4747323 3.119843 0.50733173 198 20
1.4964213 3.1160936 0.50814706 213 20
1.5194232 3.1148667 0.50937009 182 20
0 0 0 189 20
0 0 0 213 20
0 0 0 190 20
0 0 0 204 20
1.6345648 3.105365 0.51534915 186 20
1.6568567 3.1013937 0.51630038 183 20
1.6796335 3.0981362 0.51738751 178 20
1.7048208 3.0990558 0.51915407 171 20
0 0 0 185 20
0 0 0 148 20
0 0 0 170 20
0 0 0 185 20
1.8217621 3.0836847 0.52526903 176 20
1.8452321 3.080097 0.526492 197 20
1.8687265 3.0763369 0.52771503 166 20
1.893803 3.074935 0.52934569 205 20
1.9173579 3.0708196 0.53056866 165 20
0 0 0 188 20
0 0 0 195 20
1.9897622 3.0599225 0.53464532 177 20
2.0155885 3.0584092 0.53641188 160 20
2.0436721 3.059989 0.53872198 185 20
2.0690739 3.0572369 0.54035264 167 20
2.0956392 3.0559216 0.5422551 183 20
2.1211355 3.052768 0.54388577 146 20
2.1518049 3.0567069 0.5467394 211 20
2.1762733 3.0515115 0.54809833 172 20
2.2042406 3.0509489 0.55027252 147 20
2.2293563 3.0461602 0.55176729 162 20
2.2550864 3.0419736 0.55339795 143 20
2.2784688 3.0344169 0.55448508 134 20
2.3012433 3.0258989 0.55543625 152 20
2.3282316 3.0227094 0.55733871 173 20
2.3558762 3.0200832 0.55937701 157 20
2.3805051 3.0133445 0.56073594 147 20
2.4113293 3.0141525 0.56345367 152 20
2.4391341 3.0108464 0.56549203 168 20
2.4644752 3.0042484 0.5669868 183 20
2.486028 2.9928803 0.56766623 160 20
2.4437563 2.9055469 0.55475682 21 20
2.4705322 2.9010565 0.55665928 32 20
2.4902275 2.8880937 0.55706692 39 20
2.5776253 2.9526107 0.57160699 71 20
2.6514697 2.9998312 0.58315754 136 20
2.6830411 2.9982698 0.58587527 138 20
2.7140274 2.9956994 0.58845717 134 20
2.7430735 2.9906709 0.59063137 131 20
2.7687886 2.9817688 0.59212619 137 20
2.799248 2.9777157 0.59457219 144 20
2.8352258 2.9791415 0.59810525 152 20
2.8623891 2.970963 0.59987181 160 20
2.8909421 2.9639814 0.60191011 146 20
2.9250858 2.9624 0.6050356 160 20
2.9621205 2.9633131 0.60870457 170 20
2.9992757 2.9638824 0.61237353 164 20
3.0308766 2.958571 0.61495543 166 20
3.0625248 2.9529829 0.61753732 170 20
3.0949354 2.9478004 0.62025511 165 20
3.1273971 2.9423308 0.62297285 183 20
3.1635365 2.9399452 0.62637007 183 20
3.1931949 2.9311972 0.62854427 197 20
3.2258003 2.9248571 0.63126206 190 20
3.2614 2.9208705 0.63452339 135 20
3.2762923 2.8981786 0.6339798 108 20
3.2723756 2.8591192 0.63003904 49 20
3.2966084 2.8448112 0.63126206 47 20
3.3124936 2.8232448 0.63099027 38 20
3.3661382 2.833488 0.63751292 72 20
3.4124131 2.8368449 0.64267671 108 20
3.4389446 2.8233964 0.64430737 69 20
3.4769835 2.819087 0.64797634 29 20
3.5011766 2.803272 0.64919931 38 20
3.5237517 2.7860372 0.65015054 39 20
3.7016594 2.8899431 0.67814356 106 20
3.7452171 2.8871343 0.68262792 143 20
3.7936089 2.8874989 0.68792754 163 20
3.8326402 2.8802359 0.69159657 153 20
3.8693376 2.8708315 0.6948579 200 20
3.9076614 2.8622551 0.69839096 164 20
3.9556599 2.8602815 0.70355475 172 20
4.0005541 2.8555236 0.70817494 182 20
4.0576868 2.85888 0.7148335 143 20
4.0954881 2.8480682 0.71823066 171 20
4.1431108 2.8436263 0.72325855 210 20
4.190012 2.838151 0.72815055 213 20
4.2345295 2.8305547 0.73263484 224 20
4.2849002 2.8263366 0.73807043 238 20
4.3411899 2.8253887 0.74445719 211 20
4.3826213 2.8142207 0.74839795 248 20
4.4257526 2.8037105 0.75261045 268 20
4.4773202 2.7980258 0.75818193 254 20
4.552599 2.8063681 0.76755822 344 20
4.5815849 2.7855859 0.76946062 151 20
4.6614699 2.795119 0.7795164 193 20
4.7032647 2.781086 0.78345716 194 20
4.7613239 2.7761252 0.78997982 267 20
4.8109083 2.7656186 0.79514354 335 20
4.8320971 2.7384894 0.79582304 398 20
4.8418899 2.7049236 0.79473591 402 20
4.8505845 2.6708632 0.79351288 369 20
4.8485947 2.6311283 0.79065925 382 20
4.8445525 2.5905848 0.78753382 330 20
4.8331842 2.5464962 0.78332126 269 20
4.8460803 2.5154233 0.78291363 377 20
4.8508377 2.4802294 0.78128296 330 20
4.8500366 2.4423988 0.77883697 325 20
4.8587184 2.409513 0.77788574 253 20
4.9464154 2.4152958 0.78902858 364 20
4.9602494 2.3844707 0.78889269 408 20
4.9738913 2.3535664 0.78875679 346 20
4.965785 2.3125484 0.78535962 223 20
4.975378 2.2799721 0.78468013 321 20
4.9766288 2.243701 0.78277773 336 20
4.9721885 2.205091 0.78005993 301 20
4.9729114 2.1689966 0.77815753 356 20
4.9797525 2.1357095 0.7772063 452 20
4.9808955 2.100111 0.77543974 471 20
4.978128 2.0630624 0.77312964 514 20
4.9805999 2.0283687 0.77163488 572 20
4.9773145 1.9915146 0.76932478 503 20
4.9728427 1.954415 0.76687878 551 20
4.9819679 1.9227954 0.76647109 626 20
4.9871869 1.8897336 0.76551986 610 20
4.9810448 1.8525368 0.76293802 419 20
4.9923182 1.8219388 0.76293802 520 20
4.9838152 1.784261 0.76008433 348 20
4.9881258 1.7513503 0.7591331 590 20
4.9903464 1.7178092 0.75791013 622 20
5.0017319 1.6874733 0.75804603 580 20
4.9894152 1.6492906 0.7547847 323 20
4.9796472 1.6122379 0.75193101 37 20
4.9847236 1.5801566 0.75125158 38 20
4.989594 1.5480735 0.75057214 55 20
4.992363 1.515415 0.74962091 34 20
4.9949188 1.4827808 0.74866968 43 20
4.9877477 1.447412 0.74635959 29 20
4.9870033 1.4140785 0.74500072 38 20
4.9812636 1.379487 0.74296242 39 20
4.9791141 1.3460534 0.7414676 38 20
4.9776998 1.3129507 0.74010873 46 20
4.9779859 1.2804096 0.7390216 35 20
4.9790215 1.2481554 0.73807043 34 20
4.9836988 1.2168764 0.73766273 36 20
4.9872165 1.1853579 0.7371192 39 20
4.9943957 1.1547346 0.7371192 43 20
5.0042868 1.1247194 0.73752683 35 20
5.0033503 1.0923026 0.73643976 54 20
5.0080199 1.0611714 0.73616797 37 20
5.0086141 1.0292268 0.73535264 39 20
5.0031748 0.99615449 0.73372197 42 20
5.0023832 0.96412486 0.73277074 50 20
5.0023608 0.93232399 0.73195541 43 20
5.004087 0.90091068 0.73141187 40 20
5.0046401 0.86934179 0.73073244 25 20
5.007926 0.83829057 0.73046064 41 20
5.0119972 0.8073892 0.73032475 39 20
5.0148988 0.77631801 0.73005301 35 20
5.0185876 0.74538708 0.72991711 33 20
5.0201244 0.71416122 0.72950941 28 20
5.0214667 0.68294454 0.72910178 36 20
5.0235977 0.65186572 0.72882998 42 20
5.0206199 0.62017953 0.72787875 44 20
5.0203948 0.58890051 0.72733521 39 20
5.0229292 0.55797559 0.72719932 43 20
5.0242877 0.52693844 0.72692758 52 20
5.0234823 0.49571121 0.72638398 53 20
5.0313621 0.46533418 0.72706342 52 20
5.0370841 0.43470889 0.72747111 49 20
5.0396566 0.40379372 0.72747111 57 20
5.0400629 0.37271741 0.72719932 55 20
5.0432439 0.34185207 0.72733521 53 20
5.048213 0.31108344 0.72774285 72 20
5.056951 0.28048587 0.72869408 57 20
5.0734196 0.25018254 0.73073244 80 20
5.0877266 0.21960233 0.732499 112 20
5.0592771 0.18728328 0.72842234 64 20
5.0563698 0.15611462 0.72787875 60 20
5.0542612 0.12501311 0.72747111 58 20
5.050971 0.093925022 0.72692758 63 20
5.0484805 0.062894277 0.72651988 45 20
5.0378733 0.031848144 0.72502512 52 20
5.0250945 0.00093432778 0.72325855 59 20
0 -0 0 69 20
5.023737 -0.060719334 0.72312266 47 20
5.0311942 -0.091688283 0.72420979 73 20
5.0335083 -0.12263001 0.72461742 52 20
5.0326614 -0.15351273 0.72461742 48 20
5.0375648 -0.1846078 0.72543275 41 20
5.0452456 -0.21589614 0.72665578 64 20
5.0557003 -0.24743117 0.72828645 49 20
0 -0 0 50 20
5.0641499 -0.3101815 0.72991711 47 20
5.0700588 -0.34178239 0.73100418 54 20
5.0747828 -0.37339467 0.73195541 47 20
5.0723963 -0.40452591 0.73195541 35 20
5.0737667 -0.43598151 0.732499 43 20
5.06705 -0.46674156 0.73195541 49 20
5.0591607 -0.49733859 0.73127598 48 20
5.0530581 -0.52806252 0.73086834 45 20
5.0477533 -0.55883938 0.73059654 40 20
1.1436073 -0.13341671 0.19193457 65 20
1.1427672 -0.14043124 0.19193457 81 20
1.1409014 -0.14731328 0.19179869 81 20
1.1429212 -0.15471062 0.19220635 88 20
1.1497976 -0.16283453 0.19329345 63 20
5.0600243 -0.7496292 0.73562443 34 20
5.0670786 -0.78247809 0.7372551 25 20
5.0690293 -0.8146553 0.73820627 33 20
5.069798 -0.8467226 0.7390216 45 20
5.0742688 -0.87950706 0.74038053 41 20
5.0804782 -0.91272873 0.74201119 35 20
5.0816002 -0.94515342 0.74296242 28 20
5.083488 -0.97781342 0.74404949 30 20
5.0841947 -1.0103389 0.74500072 37 20
5.0837226 -1.0427108 0.74581605 42 20
5.0840139 -1.0753198 0.74676728 32 20
5.0850639 -1.1081827 0.74785435 39 20
5.0868688 -1.1413159 0.74907738 31 20
5.0903883 -1.1749587 0.75057214 33 20
5.0956144 -1.2091451 0.75233871 34 20
5.1015744 -1.2436745 0.75424111 30 20
5.1053801 -1.2778412 0.75587177 36 20
5.107039 -1.3116083 0.7572307 41 20
5.1103916 -1.3459486 0.75886136 39 20
5.1106448 -1.3796045 0.76008433 39 20
5.1173615 -1.415163 0.76225853 34 20
5.1219268 -1.4503157 0.76416099 39 20
5.1443329 -1.4908185 0.76864529 52 20
5.1417375 -1.524327 0.76959652 118 20
5.1484051 -1.5607349 0.77190661 447 20
5.0128722 -1.5532864 0.75383347 213 20
4.9673562 -1.5726497 0.74866968 195 20
4.881259 -1.5784031 0.73766273 215 20
4.8065701 -1.5868881 0.72828645 196 20
4.7413516 -1.597681 0.72026902 335 20
4.7258377 -1.6248102 0.71945369 425 20
4.7167139 -1.6541047 0.71958959 461 20
4.7204685 -1.6880198 0.72162789 555 20
4.7230535 -1.7217035 0.72353035 498 20
4.7281876 -1.7565176 0.72584045 760 20
4.7247334 -1.7883024 0.72692758 635 20
4.7293859 -1.823319 0.72923768 744 20
4.7337861 -1.8584597 0.73154777 749 20
4.7379327 -1.8937228 0.73385787 652 20
4.7491655 -1.9320937 0.7372551 638 20
4.7491202 -1.9661252 0.7390216 637 20
4.748836 -2.0002286 0.74078816 760 20
4.7346525 -2.0285487 0.74051642 91 20
4.7302904 -2.0611243 0.74173939 32 20
4.7257061 -2.0937223 0.74296242 43 20
4.7227068 -2.1271555 0.74445719 38 20
4.722177 -2.1618681 0.74635959 40 20
4.7249913 -2.1983259 0.74880558 45 20
4.7293262 -2.2357464 0.75152338 40 20
4.7324867 -2.2728736 0.75410527 41 20
4.7344785 -2.3096888 0.75655127 36 20
4.7379718 -2.3474936 0.759269 49 20
4.737638 -2.3836467 0.7614432 52 20
4.7379212 -2.4203343 0.76375335 41 20
4.7423291 -2.4593959 0.76674289 34 20
4.7420521 -2.4962945 0.76905298 36 20
4.7458696 -2.5356166 0.77204251 28 20
4.7424145 -2.571301 0.77394497 22 20
4.7482481 -2.6122918 0.7773422 32 20
4.7494311 -2.651036 0.78005993 25 20
4.7511787 -2.6903811 0.78291363 21 20
4.7509031 -2.7288599 0.78549546 23 20
4.7563262 -2.7709274 0.78902858 27 20
4.7528815 -2.8081238 0.79120278 25 20
4.7500091 -2.8458912 0.79351288 21 20
4.7502379 -2.8857865 0.79636657 53 20
4.7450943 -2.9226737 0.79840487 39 20
4.7539616 -2.9685276 0.80275333 28 20
4.759933 -3.0130098 0.80669409 14 20
4.7605333 -3.054466 0.80981952 21 20
4.759973 -3.0955026 0.81280905 21 20
4.754952 -3.1339204 0.81511921 31 20
4.7611713 -3.1800973 0.81933171 30 20
4.7653613 -3.2253573 0.82327247 30 20
4.7667232 -3.2691064 0.82680559 29 20
4.7726083 -3.3163857 0.83115405 22 20
4.7772813 -3.3632891 0.83536655 26 20
4.7823639 -3.4109495 0.839715 27 20
4.7846317 -3.4570575 0.84365577 18 20
4.7905102 -3.5062468 0.84827596 21 20
4.7959642 -3.5556378 0.85289615 20 20
4.800199 -3.6046319 0.85738051 20 20
4.800858 -3.651412 0.86132127 21 20
4.7987685 -3.6965213 0.86485434 22 20
4.800992 -3.7453985 0.86920279 21 20
4.8027954 -3.7944415 0.87355125 29 20
4.8034029 -3.8430278 0.87776375 43 20
4.8043642 -3.8923874 0.88211221 34 20
4.8026018 -3.9400175 0.88605297 32 20
4.8080554 -3.994103 0.89135259 15 20
4.8031693 -4.0401115 0.89488572 28 20
4.8092117 -4.0958462 0.90045714 29 20
4.8034964 -4.1421008 0.90399027 28 20
4.820528 -4.2086391 0.91173589 45 20
4.8176236 -4.2584801 0.91594845 35 20
4.8246231 -4.3176932 0.92206341 37 20
4.8237348 -4.3704991 0.9268195 38 20
4.8377104 -4.43752 0.93442929 19 20
4.8241839 -4.4799299 0.93701118 28 20
4.8334155 -4.5440574 0.94394147 41 20
4.8219476 -4.5893397 0.9470669 29 20
4.8372145 -4.6607752 0.95535612 55 20
4.8411469 -4.7221918 0.96160698 58 20
4.8409824 -4.7803502 0.9671784 46 20
4.8486924 -4.8470888 0.97438049 35 20
4.8460164 -4.9042339 0.97968012 41 20
4.8518162 -4.9707451 0.98674631 38 20
4.8576684 -5.0382242 0.9939484 42 20
4.8615074 -5.1045256 1.0008787 34 20
4.8633566 -5.1696191 1.0075372 36 20
4.8679605 -5.238555 1.0148753 22 20
4.855823 -5.2902231 1.0189519 40 20
4.8592033 -5.3595548 1.0262899 36 20
4.8632364 -5.4306011 1.0338997 43 20
4.8646097 -5.4996715 1.0411017 40 20
4.879005 -5.58463 1.0511575 36 20
4.8770065 -5.651968 1.0579519 44 20
4.8653679 -5.7089329 1.0628439 22 20
4.8831959 -5.8015928 1.0741227 39 20
4.8874025 -5.879446 1.0826836 39 20
4.8964939 -5.9644594 1.0924675 27 20
4.9078431 -6.0536518 1.102931 30 20
4.9089937 -6.1316042 1.1113561 31 20
4.9099851 -6.2105742 1.119917 46 20
4.9156771 -6.296814 1.129701 52 20
4.9102125 -6.3700156 1.1371748 34 20
4.902833 -6.4418087 1.144377 47 20
4.8715467 -6.4828596 1.1462795 36 20
4.8470235 -6.5333166 1.1498126 140 20
4.9367962 -6.7403789 1.1799798 504 20
4.9661598 -6.8684945 1.1965581 699 20
4.9486694 -6.9335132 1.2024014 614 20
4.947113 -7.0220628 1.2121854 161 20
4.9865074 -7.1710453 1.232025 40 20
4.9625931 -7.2309146 1.236917 37 20
4.9336872 -7.2841969 1.2407219 57 20
4.9698238 -7.4354157 1.2606975 76 20
4.9890151 -7.5641904 1.2768682 29 20
4.9981651 -7.6801901 1.2908648 32 20
4.9943013 -7.7782426 1.3018718 39 20
4.9841199 -7.8681645 1.3115199 54 20
4.9850965 -7.9775772 1.3242934 46 20
4.9890742 -8.0940418 1.338154 66 20
4.9810014 -8.1930742 1.3491609 34 20
4.9856539 -8.3152523 1.3638369 37 20
4.9804211 -8.423295 1.3762027 35 20
4.9820318 -8.5452766 1.3907428 65 20
4.9917111 -8.6839132 1.4078648 57 20
5.0106201 -8.8419485 1.4279763 41 20
5.0311565 -9.0065928 1.449039 31 20
5.015934 -9.1101971 1.4604536 42 20
5.0043526 -9.2226582 1.4732271 31 20
5.0032568 -9.3571606 1.4893979 43 20
5.0154719 -9.5200405 1.509917 21 20
5.0235929 -9.6790218 1.5297568 27 20
5.0186749 -9.8164024 1.5461992 45 20
5.0331984 -9.9956741 1.5690285 35 20
5.0241432 -10.131994 1.5851992 30 20
5.0257726 -10.293504 1.6051749 16 20
5.0389113 -10.48309 1.6293631 24 20
5.0511808 -10.675908 1.6539588 36 20
5.0637798 -10.874653 1.6793699 22 20
5.0340986 -10.986581 1.6916 24 20
5.0533104 -11.209645 1.7205442 36 20
3.8539832 -8.6909351 1.3380181 346 20
3.799 -8.7107859 1.3374746 343 20
3.7462611 -8.735754 1.3377463 509 20
3.6783497 -8.7247972 1.3327184 354 20
3.6239877 -8.7453728 1.3324467 258 20
3.8202043 -9.3813038 1.4233561 458 20
3.7622018 -9.4036484 1.4232202 491 20
3.6997211 -9.4145679 1.4214536 544 20
3.6429546 -9.4398651 1.4218613 491 20
3.6267307 -9.5722904 1.438032 316 20
3.6259365 -9.7503691 1.4608613 234 20
3.8380475 -10.517931 1.569708 489 20
3.7697661 -10.531022 1.5682132 483 20
3.6978588 -10.533389 1.5652237 368 20
3.6679764 -10.657055 1.5798995 231 20
3.9558878 -11.727018 1.7315512 264 20
3.8835468 -11.75013 1.7314153 511 20
3.8067999 -11.759599 1.7293769 444 20
3.7309811 -11.771402 1.7277462 429 20
3.6536932 -11.777987 1.7254362 500 20
3.5741637 -11.776484 1.722039 521 20
3.4973273 -11.782996 1.7198647 551 20
3.4197176 -11.786155 1.7172829 502 20
3.3419309 -11.787853 1.714565 548 20
3.2645164 -11.789995 1.7119832 559 20
3.190562 -11.804066 1.7111678 474 20
3.1155477 -11.813841 1.7098089 480 20
3.0405333 -11.823139 1.7084501 472 20
2.9662449 -11.834846 1.7074989 487 20
2.8898129 -11.837424 1.7053246 457 20
2.8139191 -11.841439 1.7034222 466 20
2.7394235 -11.85076 1.7023351 484 20
2.6625309 -11.848979 1.6997533 473 20
2.5868194 -11.851542 1.6978508 454 20
2.5107663 -11.851684 1.6956766 151 20
1.8848158 -9.1738358 1.318586 46 20
1.8277172 -9.1813412 1.3180425 63 20
1.7644126 -9.1563883 1.3130146 233 20
1.704205 -9.1456146 1.3100251 311 20
1.6477056 -9.1539488 1.3097533 271 20
1.5911679 -9.1619349 1.3094815 274 20
1.5339406 -9.1656628 1.3086661 242 20
1.4770422 -9.17099 1.3081226 316 20
1.4198333 -9.1740055 1.3073072 245 20
1.3622067 -9.1737251 1.3060843 375 20
1.3049159 -9.175045 1.3051331 330 20
1.2505959 -9.1976042 1.3071713 96 20
1.1975771 -9.2316322 1.3108404 192 20
1.1416386 -9.2447062 1.3116558 65 20
0.99849778 -8.5145311 1.2098752 497 20
0.94546962 -8.5136042 1.2089241 576 20
0.89238721 -8.511363 1.2078369 554 20
0.86017209 -8.7197828 1.2358299 132 20
0.92215717 -9.9748182 1.4080007 47 20
1.0266429 -11.902098 1.6725756 314 20
0.95422614 -11.916074 1.6736627 364 20
0.88028961 -11.910836 1.6721679 413 20
0.80652028 -11.906129 1.670809 425 20
0.7332679 -11.907887 1.6704013 459 20
0.66002429 -11.909194 1.6699936 478 20
0.58684099 -11.91104 1.6697218 494 20
0.51383048 -11.916397 1.6699936 474 20
0.44070315 -11.919325 1.6699936 469 20
0.36728477 -11.912892 1.6687707 451 20
0.29432824 -11.920865 1.6695859 521 20
0.22117765 -11.922446 1.6695859 497 20
0.14801873 -11.923579 1.6695859 558 20
0.074878991 -11.928226 1.6701295 708 20
0.0016867197 -11.922516 1.6693143 722 20
-0.071426697 -11.915367 1.668363 685 20
-0.14462101 -11.921639 1.6693143 690 20
-0.21787687 -11.926471 1.6701295 724 20
-0.29124585 -11.932833 1.6712166 761 20
-0.36461028 -11.935772 1.6718961 785 20
-0.43780357 -11.932321 1.6717602 855 20
-0.51109552 -11.931389 1.672032 841 20
-0.58415002 -11.925059 1.6716243 934 20
-0.65791017 -11.932133 1.6731191 1011 20
-0.73159713 -11.935781 1.6742063 1006 20
-0.80535358 -11.938976 1.6752933 1015 20
-0.87954068 -11.946654 1.6770599 1021 20
-0.95369458 -11.951896 1.6785547 1003 20
-1.0275215 -11.951742 1.6793699 1002 20
-1.1015643 -11.953104 1.6804571 1020 20
-1.1767293 -11.964853 1.6830389 977 20
-1.251874 -11.974159 1.6853491 1005 20
-1.3251044 -11.964283 1.6850773 782 20
-1.3983757 -11.954943 1.6849414 303 20
-1.3242421 -10.749477 1.5195651 64 20
-1.3836876 -10.691041 1.5126348 102 20
-1.4456635 -10.655844 1.5089658 28 20
-0 -0 0 302 20
-1.7779425 -11.997564 1.697579 845 20
-1.8530375 -11.99622 1.6989379 799 20
-1.9284974 -11.996362 1.7005686 839 20
-2.0050085 -12.001892 1.7030146 926 20
-2.0796285 -11.995221 1.7038299 856 20
-2.1565204 -12.000761 1.7064117 934 20
-2.2330148 -12.002888 1.708586 877 20
-1.9372584 -10.069476 1.440478 207 20
-1.9414409 -9.7678308 1.3999833 80 20
-1.9621094 -9.5645447 1.3732132 52 20
-1.985895 -9.3875504 1.3501122 34 20
-2.0257323 -9.2938776 1.3386976 57 20
-2.7021508 -12.041131 1.7266592 310 20
-2.7759831 -12.024324 1.7266592 499 20
-2.8593206 -12.04755 1.7323664 387 20
-1.8839908 -7.7273235 1.1249449 560 20
-1.8815606 -7.5166788 1.0968161 270 20
-1.9187721 -7.470448 1.0919241 266 20
-2.0319638 -7.7143292 1.1282063 461 20
-2.0759022 -7.6892819 1.1264397 388 20
-2.1206665 -7.6678061 1.1252167 432 20
-2.1679454 -7.6556025 1.1253526 362 20
-2.2137752 -7.63835 1.124809 331 20
-2.2521515 -7.5961275 1.1207324 491 20
-2.3024554 -7.594491 1.122499 358 20
-2.3454914 -7.5688643 1.1208683 380 20
-2.3817196 -7.5222178 1.116248 485 20
-2.4144149 -7.4659858 1.110269 405 20
-2.361387 -7.1518707 1.0670564 1432 20
-2.3995297 -7.120348 1.0646105 1617 20
-2.4492958 -7.123291 1.0671923 1240 20
-2.5182083 -7.1801138 1.0776558 880 20
-0 -0 0 841 20
-0 -0 0 1087 20
-2.5833426 -6.95331 1.0514293 1310 20
-2.6294663 -6.9465933 1.0527881 1489 20
-2.6766744 -6.9423456 1.0545547 1592 20
-2.7264638 -6.9442344 1.0572724 1718 20
-2.7690215 -6.9273744 1.0572724 1564 20
-2.786083 -6.8478527 1.048032 1461 20
-0 -0 0 1335 20
-2.9360654 -6.9701848 1.0714048 1586 20
-2.9795589 -6.9538598 1.0716766 1560 20
-3.0257335 -6.9436207 1.0728997 1401 20
-3.1015966 -7.0001035 1.0841783 104 20
-3.3984165 -7.5445957 1.1689728 47 20
-3.4343336 -7.5010819 1.1655756 117 20
-3.3987873 -7.3047128 1.1390773 13 20
-3.4371917 -7.2702861 1.1370391 14 20
-3.471441 -7.2276263 1.1337777 17 20
-3.8107157 -7.8107619 1.226046 515 20
-3.8849642 -7.8404951 1.2341993 1024 20
-3.8368051 -7.6253524 1.2048473 707 20
-3.9705188 -7.7719383 1.2310739 754 20
-4.0204129 -7.7518268 1.2317532 862 20
-4.0692859 -7.7296419 1.2321609 872 20
-4.1026297 -7.6783142 1.2280843 681 20
-4.1364417 -7.6286111 1.2242794 658 20
-4.1549931 -7.5518746 1.216262 475 20
-3.8796186 -6.9501157 1.1257603 881 20
-3.8841085 -6.8589382 1.1151609 693 20
-3.7899115 -6.597877 1.0776558 201 20
-3.4956465 -6.0001135 0.98647457 45 20
-3.6059833 -6.1030803 1.0063143 82 20
-3.6555851 -6.1012354 1.0095756 185 20
-3.7006693 -6.0913906 1.011614 263 20
-3.7343383 -6.0626645 1.0106627 224 20
-3.7782903 -6.050561 1.0124292 119 20
-3.7888474 -5.9854102 1.0056348 58 20
-3.7891171 -5.9053507 0.9963944 38 20
-3.8214991 -5.8761764 0.99544322 36 20
-3.8662069 -5.8658524 0.99761742 24 20
-4.1998534 -6.2877045 1.0711331 303 20
-5.2980037 -7.8271866 1.3304083 101 20
-5.3509741 -7.8018842 1.3316313 107 20
-5.2381721 -7.5378571 1.293039 130 20
-5.9374084 -8.4330969 1.4486313 104 20
-5.9993973 -8.4110241 1.4510773 157 20
-6.0996366 -8.4415064 1.462492 56 20
-5.2155948 -7.1256371 1.2452062 63 20
-5.2297144 -7.0537095 1.2384118 39 20
-5.2229199 -6.9549441 1.2269971 29 20
-5.2540998 -6.9077845 1.2244153 108 20
-5.2250395 -6.7828064 1.2083805 24 20
-5.2299933 -6.7037525 1.2002271 18 20
-5.2421598 -6.6350002 1.1938404 39 20
-5.2450151 -6.5555229 1.1855512 30 20
-5.2552023 -6.4862685 1.1790285 22 20
-5.2597103 -6.4110103 1.1714188 13 20
-5.2755232 -6.350421 1.1663909 21 20
-5.2722964 -6.2678943 1.1574223 24 20
-5.2778931 -6.1969614 1.150492 19 20
-5.2776423 -6.1201949 1.1424745 206 20
-5.2779531 -6.0451593 1.1347289 14 20
-5.261795 -5.9525375 1.123722 22 20
-5.2565937 -5.873632 1.1151609 33 20
-5.2619333 -5.807497 1.1089101 16 20
-5.2693391 -5.7444386 1.1032028 25 20
-5.271451 -5.6764278 1.0965443 32 20
-5.2749639 -5.610774 1.0902934 26 20
-5.2765045 -5.5438566 1.0837708 15 20
-5.2849855 -5.4849806 1.0787429 14 20
-5.2957115 -5.4290466 1.0742586 12 20
-5.3150005 -5.3823524 1.0715407 15 20
-5.3262115 -5.3279195 1.0673282 14 20
-5.299603 -5.2366481 1.0559136 66 20
-5.3585773 -5.2303267 1.0610774 9 20
-5.3370752 -5.1457777 1.0508857 32 20
-5.3046951 -5.0521264 1.0387917 795 20
-5.3125024 -4.9977603 1.0344431 814 20
-5.3292785 -4.9522567 1.0318613 715 20
-5.3201494 -4.8832889 1.0245234 465 20
-5.3169823 -4.8206096 1.0184083 237 20
-5.3316994 -4.7746763 1.0156906 65 20
-5.3230481 -4.7083979 1.0087603 175 20
-2.7224784 -2.3787527 0.52988923 52 20
-2.7017674 -2.3315849 0.52350247 111 20
-2.7122526 -2.3117504 0.52282304 197 20
-2.7263863 -2.2950647 0.52282304 217 20
-2.7198458 -2.2611942 0.51915407 143 20
-2.7283087 -2.2400627 0.51820284 242 20
-2.7127569 -2.1995726 0.51303905 122 20
-2.7122803 -2.1717412 0.51059306 113 20
-2.7131195 -2.1452279 0.50841886 131 20
-2.7168596 -2.1212249 0.50678819 132 20
-2.7156997 -2.0936282 0.5043422 144 20
-2.7316482 -2.0793254 0.50488573 275 20
-2.7150493 -2.0405052 0.49985787 118 20
-2.7259271 -2.0226271 0.49958611 129 20
-2.7334907 -2.0023508 0.49877077 117 20
-2.7360909 -1.9785753 0.49714011 131 20
-2.7393091 -1.9554191 0.49564534 147 20
-2.7512555 -1.9385742 0.49564534 138 20
-2.7818074 -1.9346646 0.49877077 89 20
-2.8205831 -1.9360582 0.50325507 68 20
-2.8381515 -1.9226038 0.5042063 80 20
-2.8762531 -1.9227693 0.50855476 80 20
-2.9343123 -1.9356295 0.51616448 363 20
-2.9768584 -1.9375817 0.52119237 106 20
-3.0112007 -1.9337313 0.5248614 348 20
-3.0656941 -1.942255 0.53179169 105 20
-3.1069605 -1.941782 0.53654778 73 20
-3.1382148 -1.9346373 0.53967321 76 20
-3.161032 -1.9220353 0.54143977 72 20
-3.2076044 -1.9234899 0.5470112 16 20
-8.5503654 -5.0555472 1.3964502 27 20
-8.4245949 -4.9116783 1.3715825 508 20
-8.6246452 -4.9576459 1.3984884 26 20
-6.2345109 -3.533149 1.0169135 18 20
-6.2379088 -3.4846828 1.0140599 59 20
-6.2331362 -3.4320078 1.0099833 37 20
-6.236661 -3.384248 1.0072654 39 20
-6.2354665 -3.3342388 1.0038683 44 20
-6.2584376 -3.2973013 1.0042759 39 20
-6.2926211 -3.26614 1.0064502 25 20
-6.3187184 -3.2306244 1.0074013 34 20
-6.3499255 -3.1975846 1.0091679 34 20
-6.4235702 -3.1854081 1.0174571 69 20
-8.4692974 -4.1351852 1.3267393 121 20
-8.6275587 -4.1470881 1.3469868 40 20
-8.6492605 -4.0923772 1.3464432 39 20
-8.6903744 -4.0467567 1.3488891 56 20
-8.6339788 -3.9562175 1.3366592 387 20
-8.654479 -3.9015374 1.3361156 378 20
-8.6411219 -3.8318963 1.3305442 251 20
-8.4946508 -3.7047482 1.3051331 702 20
-8.6446991 -3.7072175 1.3241575 536 20
-8.6453733 -3.6448684 1.3208961 574 20
-8.6437778 -3.5818927 1.317363 586 20
-8.6499949 -3.5224369 1.315053 568 20
-8.668685 -3.4681911 1.3146453 549 20
-8.6639843 -3.4047909 1.3108404 452 20
-8.6782417 -3.3490689 1.3098892 308 20
-8.4938784 -3.2181907 1.2798578 847 20
-8.6889715 -3.2312722 1.3055407 292 20
-8.577405 -3.1300154 1.2863804 755 20
-8.5498104 -3.0606332 1.2795861 896 20
-8.5581465 -3.0045054 1.2780913 879 20
-8.5595579 -2.9461341 1.2756453 908 20
-8.5586987 -2.8872252 1.2729275 871 20
-8.5508547 -2.826262 1.2692585 901 20
-8.5227919 -2.7590971 1.2627358 983 20
-8.4243402 -2.6702349 1.2461574 1030 20
-8.3998766 -2.6058731 1.2403142 836 20
-8.4024363 -2.5502555 1.2384118 955 20
-8.4150763 -2.4978056 1.2380042 1047 20
-8.4140692 -2.441432 1.2356941 1057 20
-8.4107809 -2.3846245 1.2331122 1005 20
-8.4157057 -2.3303285 1.2317532 1084 20
-8.4193258 -2.2758036 1.2302585 1132 20
-6.2537279 -1.6494219 0.92111218 323 20
-8.5636797 -2.2024145 1.2468369 510 20
-8.6029797 -2.1563296 1.2505059 1177 20
-8.6064234 -2.1011529 1.2491471 1046 20
-8.6075878 -2.045557 1.2475164 848 20
-8.5948792 -1.9869027 1.2439833 476 20
-8.6069088 -1.9341282 1.2439833 1059 20
-8.6157112 -1.8806471 1.2435756 1022 20
-8.622242 -1.8267201 1.2428962 1027 20
-8.6468744 -1.7765715 1.2447985 820 20
-8.6741314 -1.7267693 1.2471087 36 20
-6.4733095 -1.2475054 0.93823415 11 20
-6.490582 -1.209577 0.93959302 10 20
-8.6088896 -1.5496185 1.2337916 13 20
-8.6240931 -1.4977831 1.234607 20 20
-8.6311665 -1.4445114 1.2343352 19 20
-6.7080679 -1.0804791 0.96595538 19 20
-8.6355152 -1.3365157 1.2325686 20 20
-8.636693 -1.2824857 1.2316175 29 20
-8.6424379 -1.2291888 1.2313457 17 20
-8.6380367 -1.1745354 1.229715 16 20
-6.6083651 -0.85738343 0.94801813 16 20
-8.7579918 -1.0815543 1.244391 247 20
-8.7861109 -1.0303335 1.2473805 851 20
-8.7262945 -0.96907997 1.2382759 181 20
-8.6098957 -0.9027136 1.2214258 1177 20
-8.7966862 -0.86775488 1.2464292 208 20
-8.7959261 -0.81321615 1.2456139 272 20
-8.8066721 -0.75974071 1.2464292 261 20
-8.8101807 -0.70561063 1.2462933 239 20
-8.8331175 -0.65292591 1.2488753 447 20
-8.833992 -0.59851384 1.2484676 351 20
-8.8315649 -0.54393303 1.2476523 250 20
-8.8377037 -0.48989773 1.2480599 258 20
-8.8751764 -0.43736658 1.252816 317 20
-8.8757133 -0.38281599 1.2525442 308 20
-8.8650246 -0.32787296 1.2507777 329 20
-8.692585 -0.26810434 1.2268614 1151 20
-8.7089224 -0.21512891 1.2288996 554 20
-6.3634553 -0.11823088 0.9069798 284 20
-8.8436537 -0.10988445 1.2471087 455 20
-8.8540688 -0.055680614 1.2484676 367 20
-8.8532524 -0.0013519151 1.2483317 381 20
-8.8521032 0.052964676 1.2481958 346 20
-8.8535929 0.10730327 1.2484676 405 20
-6.4308534 0.11730307 0.91622019 184 20
-8.6421394 -0.63650584 1.1181672 659 21
-8.6508331 -0.58380139 1.1187878 665 21
-8.664156 -0.5313186 1.120029 620 21
-8.6771603 -0.4786942 1.1212703 512 21
-8.6898451 -0.42593023 1.1225115 505 21
-8.7200527 -0.37379593 1.1259868 466 21
-8.7608547 -0.32170886 1.1308275 410 21
-8.67836 -0.26535818 1.1202773 1026 21
-8.6818094 -0.21215253 1.1205255 591 21
-6.3534999 -0.11594233 0.82908928 307 21
-8.8157206 -0.10721976 1.1370336 395 21
-8.8241501 -0.05317438 1.1380266 343 21
-8.8411789 0.00097022078 1.1401366 356 21
-8.8400145 0.055212591 1.1400125 315 21
-8.8464546 0.10953794 1.1408814 294 21
-8.8575211 0.16403562 1.1423708 122 21
-8.8503962 0.21823528 1.1416261 247 21
-8.8409557 0.27229285 1.1406331 221 21
-8.8361444 0.32642531 1.1402608 208 21
-8.8349667 0.38067931 1.1403849 180 21
-8.6431694 0.42558715 1.1166778 398 21
-8.8454819 0.48994523 1.1423708 564 21
-8.8393373 0.5440284 1.1419984 209 21
-8.6625814 0.58654767 1.1202773 931 21
-8.7538195 0.64669472 1.1321929 150 21
-8.8298044 0.7067976 1.1422467 161 21
-8.8915386 0.76666546 1.1505628 225 21
-8.8945713 0.82193792 1.1515558 147 21
-8.8617105 0.87377584 1.1480803 42 21
-8.8680248 0.92937338 1.1495699 64 21
-8.9025908 0.98825234 1.1546588 99 21
-8.91607 1.045167 1.1571412 131 21
-0 0 0 69 21
-8.9006052 1.1542472 1.156893 70 21
-8.8510752 1.2030972 1.1515558 686 21
-8.7089376 1.2382655 1.1345512 918 21
-8.6727114 1.2874576 1.1309516 631 21
-8.9009771 1.3771824 1.1608648 77 21
-8.9021559 1.4333478 1.162106 66 21
-8.9010229 1.4892524 1.1630991 73 21
-8.897584 1.5448577 1.1638438 79 21
-8.8898907 1.5997745 1.1640919 77 21
-8.8964911 1.6573789 1.1662021 67 21
-8.9075899 1.7160624 1.1689327 89 21
-8.9134369 1.7739766 1.1710428 80 21
-8.7245083 1.7921214 1.1483287 10 21
-6.7660103 1.43341 0.89934182 16 21
-6.9131737 1.5089406 0.91932529 48 21
-6.8824854 1.5465481 0.91659462 103 21
-6.8767333 1.5896424 0.91709113 242 21
-6.8639541 1.6311196 0.91671878 215 21
-6.8644204 1.6757921 0.91808408 108 21
-6.8001065 1.7043794 0.91113329 49 21
-6.7654948 1.7398975 0.90803027 33 21
-8.9001436 2.3468029 1.185565 73 21
-8.9430523 2.4168944 1.1930122 100 21
-8.9490938 2.4775443 1.1957428 65 21
-8.9470882 2.5361953 1.1974806 97 21
-8.9427948 2.5943618 1.19897 773 21
-8.7868671 2.6077034 1.1807243 1088 21
-8.8105822 2.6736665 1.1859373 997 21
-8.8423471 2.7426627 1.1922675 1318 21
-8.8395405 2.8013613 1.1941293 1330 21
-8.8372908 2.8604341 1.1961153 1332 21
-8.8384171 2.9208295 1.1985977 1209 21
-8.8438349 2.9829314 1.2017007 1110 21
-8.8394403 3.0419817 1.2035625 1059 21
-8.8374624 3.1020756 1.2057967 993 21
-8.8434868 3.1652679 1.2091479 1059 21
-8.8481359 3.2283108 1.212375 1031 21
-8.8523436 3.2915294 1.2156023 1117 21
-8.8551798 3.3545697 1.2187053 1063 21
-8.8557224 3.4170539 1.22156 1088 21
-8.854908 3.4793081 1.2242907 1009 21
-8.8499765 3.5402069 1.2265248 977 21
-8.906208 3.6262388 1.2370752 663 21
-8.926877 3.6986642 1.2429088 1059 21
-8.9168158 3.7587633 1.2446465 1037 21
-8.9081764 3.8196599 1.2466325 1067 21
-8.9009447 3.8813848 1.2488667 1048 21
-8.8951044 3.9439688 1.2513491 1130 21
-8.8870211 4.0058112 1.2535833 987 21
-8.876709 4.0668769 1.2555692 1027 21
-8.8659821 4.1279664 1.2575551 947 21
-8.8584261 4.1907735 1.2600375 908 21
-8.8495388 4.2532139 1.2623959 822 21
-8.8313007 4.3113503 1.263513 790 21
-8.82335 4.374711 1.2661195 750 21
-8.811409 4.4363518 1.2682296 825 21
-8.7999268 4.4984617 1.2704637 893 21
-8.7888937 4.5610547 1.272822 907 21
-8.7809353 4.6255307 1.2756768 941 21
-8.7707653 4.6891446 1.2782834 912 21
-8.7645063 4.7551732 1.2815105 852 21
-8.7551584 4.8198657 1.2843653 889 21
-8.7505436 4.8875246 1.2879648 768 21
-8.742837 4.9538407 1.2911919 736 21
-8.7303438 5.0177741 1.2937984 716 21
-8.7122507 5.0787425 1.2956603 710 21
-8.856039 5.2356038 1.3211051 457 21
-8.9420509 5.3607502 1.3383579 737 21
-8.9301891 5.4283996 1.3414609 762 21
-8.9161434 5.4950638 1.3443158 669 21
-8.9024563 5.5622854 1.3472947 607 21
-8.8832483 5.6263604 1.3495288 609 21
-8.8677654 5.6930885 1.3523836 55 21
-6.7058697 4.3638258 1.0350062 39 21
-6.6731687 4.4010673 1.0341372 35 21
-6.6435633 4.4402761 1.033765 40 21
-6.6178365 4.4820695 1.0340132 30 21
-6.5926652 4.5242753 1.0343856 49 21
-6.5721135 4.5697393 1.0355026 40 21
-8.8333683 6.2222943 1.3857722 343 21
-8.8103704 6.2873273 1.3881304 633 21
-8.7981644 6.3604498 1.3922265 635 21
-8.7829905 6.4318995 1.3959501 639 21
-8.7935715 6.5229077 1.4037697 193 21
-8.7874966 6.6023674 1.409107 599 21
-8.7578754 6.6645737 1.4108447 527 21
-8.7238922 6.7236362 1.4119617 240 21
-8.7153273 6.8026776 1.4171748 486 21
-8.6664162 6.8504887 1.4160577 574 21
-8.6528835 6.926476 1.4206502 387 21
-8.5955734 6.9675684 1.4182919 477 21
-8.587944 7.0491343 1.4240015 287 21
-8.5681877 7.1213555 1.4278492 562 21
-8.5205345 7.1706009 1.4272286 492 21
-8.4008427 7.1583986 1.4148165 393 21
-8.3342209 7.1903672 1.4110929 462 21
-8.2884502 7.2400641 1.4108447 538 21
-8.2141352 7.2644939 1.4058797 410 21
-8.1006508 7.2532082 1.3943366 395 21
-7.9898219 7.242805 1.3831656 347 21
-7.8713861 7.2239375 1.3706294 398 21
-7.7738414 7.2228007 1.3615686 437 21
-7.6715493 7.2159824 1.3516389 87 21
-7.5020814 7.1438689 1.3300419 177 21
-6.9265552 6.6774559 1.2376958 178 21
-6.8080397 6.6442981 1.2241666 36 21
-6.7007842 6.6203995 1.2124993 46 21
