# .PCD v0.7 - Point Cloud Data file format
VERSION 0.7
FIELDS x y z intensity ring
SIZE 4 4 4 4 2
TYPE F F F F U
COUNT 1 1 1 1 1
WIDTH 684
HEIGHT 1
VIEWPOINT 0 0 0 1 0 0 0
POINTS 684
DATA ascii
2.3399777 0.8433665 -0.30540472 56 4
2.3506019 0.84673214 -0.21858667 41 5
2.3115399 0.83174974 -0.12874642 42 6
2.3334684 0.83872157 -0.043281838 73 7
2.3541267 0.83919203 -0.30686715 56 4
2.3591735 0.84052837 -0.21910961 72 5
2.3163111 0.82434499 -0.12885109 40 6
2.3062351 0.81985348 -0.042723361 52 7
2.3570414 0.8309713 -0.30686718 59 4
2.3357852 0.82301778 -0.21666925 58 5
2.3248258 0.81824541 -0.12916511 42 6
2.3597844 0.82314974 -0.30686718 49 4
2.3329992 0.81289434 -0.21614632 49 5
2.3143237 0.805933 -0.12843241 45 6
2.4254842 0.83753026 -0.40641671 1 3
2.3476303 0.80972874 -0.30491725 40 4
2.3469837 0.80904859 -0.21719217 46 5
2.3208997 0.79914945 -0.12864174 45 6
2.3561561 0.81037068 -0.043491263 2 7
2.3947437 0.81756985 -0.40078509 7 3
2.3648808 0.80599248 -0.21858667 19 5
2.3236744 0.79104477 -0.12864174 45 6
2.3400385 0.79570287 -0.043142214 1 7
2.3431799 0.79266739 0.043177199 2 8
2.3938398 0.80794173 -0.40015936 36 3
2.3321009 0.78483939 -0.12895577 42 6
2.3502462 0.79048818 -0.043281838 1 7
2.4077473 0.80375344 -0.40203655 74 3
2.3935075 0.79807013 -0.30979174 1 4
2.3572176 0.78505719 -0.2173665 2 5
2.3346908 0.77710086 -0.12895577 37 6
2.3454008 0.77975643 -0.043142218 1 7
2.4030347 0.79286748 -0.40078503 48 3
2.4038198 0.79219621 -0.3107667 1 4
2.3863015 0.78596133 -0.21980685 1 5
2.3517721 0.773224 -0.043212019 1 7
2.3168721 0.75771904 0.042548914 54 8
2.4056509 0.78489482 -0.40078506 49 3
2.376235 0.77437979 -0.30686718 1 4
2.3814523 0.77515942 -0.21910961 1 5
2.3380268 0.76057434 -0.12885109 12 6
2.3658688 0.76871723 -0.043421458 2 7
2.3290169 0.75270104 0.04272344 68 8
2.4158964 0.7789169 -0.40203655 57 3
2.3713658 0.76364595 -0.30589193 1 4
2.3803504 0.76562226 -0.218761 1 5
2.3596818 0.75852001 -0.1298978 36 6
2.3494976 0.75434154 -0.043072406 2 7
2.3316302 0.7445671 0.04272344 69 8
2.4224999 0.7712549 -0.40266228 57 3
2.3929334 0.76138186 -0.30832961 1 4
2.3754134 0.75489426 -0.21806376 2 5
2.3624458 0.74986678 -0.1298978 59 6
2.3521166 0.74613512 -0.043072406 2 7
2.3190863 0.73120511 0.042444196 69 8
2.415755 0.7598322 -0.40109795 63 3
2.4108586 0.7573663 -0.31027925 1 4
2.3742323 0.74540484 -0.21771514 3 5
2.349803 0.73683423 -0.12906042 51 6
2.3623393 0.7403124 -0.043212023 2 7
2.3253169 0.72470015 0.042514008 66 8
2.4163754 0.75123 -0.40078506 59 3
2.4019825 0.74583477 -0.30881679 1 4
2.365401 0.73357207 -0.21666922 21 5
2.3426952 0.72608101 -0.12853707 42 6
2.3534474 0.72851455 -0.043002598 3 7
2.3316543 0.71775705 0.042583816 67 8
2.3214276 0.7137208 0.1272811 2 9
2.4227602 0.74394989 -0.40141085 59 3
2.3893876 0.73279101 -0.30686715 1 4
2.3452148 0.71790057 -0.12853707 42 6
2.3578887 0.72087902 -0.043037504 22 7
2.3341455 0.70961314 0.042583816 66 8
2.4311419 0.73678434 -0.40234947 63 3
2.3653331 0.71638972 -0.30345482 2 4
2.4009778 0.7262705 -0.21945825 72 5
2.3535669 0.71103138 -0.12885109 45 6
2.3508184 0.70975459 -0.042862978 43 7
2.3443921 0.70335233 0.042723432 66 8
2.4824526 0.74382681 -0.50373578 1 2
2.4318061 0.72772652 -0.40203655 59 3
2.3945708 0.71567428 -0.30686691 2 4
2.3691351 0.70762074 -0.2163206 58 5
2.3541198 0.7022422 -0.12874642 42 6
2.3457384 0.69884938 -0.042723361 21 7
2.3314943 0.69062048 0.042444196 64 8
2.3154883 0.68499994 0.12654839 47 9
2.4436169 0.72290492 -0.49534026 1 2
2.428648 0.717556 -0.40109795 63 3
2.3989582 0.70787245 -0.30711064 12 4
2.3696806 0.6987825 -0.21614635 49 5
2.3584728 0.69458407 -0.12885109 45 6
2.3338907 0.68247819 0.042444196 64 8
2.3158295 0.67675805 0.12644371 36 9
2.4329338 0.71051759 -0.49266896 10 2
2.431138 0.70907348 -0.40109795 63 3
2.3721046 0.69050819 -0.21614632 51 5
2.3570471 0.68523276 -0.12864174 45 6
2.381166 0.69179374 -0.043281842 1 7
2.3399837 0.67584532 0.042514011 63 8
2.4353745 0.70155376 -0.40141082 59 3
2.399905 0.69042909 -0.3066234 7 4
2.3745008 0.68222314 -0.21614632 48 5
2.3554673 0.67630965 -0.12843239 45 6
2.3835661 0.68347704 -0.043281838 1 7
2.3461745 0.66876876 0.042583816 38 8
2.3262606 0.66221446 0.12675773 2 9
2.4244955 0.69017893 -0.48999754 47 2
2.4416089 0.69412822 -0.40203658 57 3
2.3901677 0.67815149 -0.21736652 54 5
2.3558919 0.66753942 -0.12832773 42 6
2.3859372 0.6751532 -0.043281838 1 7
2.3343267 0.65570998 0.12707175 2 9
2.42311 0.68064916 -0.48923433 50 2
2.3671143 0.66447437 0.21510024 1 10
2.4440167 0.68560159 -0.40203655 57 3
2.4256938 0.67954832 -0.30930457 1 4
2.3790894 0.66604471 -0.21614632 49 5
2.3639784 0.66092449 -0.12864174 38 6
2.3767235 0.66359335 -0.043072406 2 7
2.358494 0.65451205 0.04272344 2 8
2.340451 0.64862502 0.12728111 2 9
2.4349308 0.67480892 -0.49114245 67 2
2.331017 0.64557272 0.21161403 1 10
2.4425876 0.67601299 -0.40141085 57 3
2.4050908 0.66473162 -0.30637944 1 4
2.3890812 0.65985817 -0.21684355 34 5
2.3739724 0.65479338 -0.12906043 9 6
2.3905928 0.65847856 -0.043281838 2 7
2.3626931 0.64680266 0.042758342 2 8
2.3427007 0.64045084 0.1272811 2 9
2.4372714 0.66630471 -0.49114242 52 2
2.4392152 0.66592246 -0.40047222 50 3
2.422718 0.66050863 -0.30832931 1 4
2.4044552 0.65327603 -0.043491267 1 7
2.3514223 0.63490307 0.042514008 10 8
2.3372085 0.63018996 0.12686242 3 9
2.4433737 0.65881568 -0.49190569 52 2
2.420543 0.65175372 -0.39703065 11 3
2.4211748 0.65101749 -0.30784187 1 4
2.4417336 0.65608847 -0.22120135 2 5
2.3939183 0.64234471 -0.1298978 2 6
2.3989947 0.64280814 -0.043351647 1 7
2.3336031 0.62048858 0.12654838 8 9
2.4285822 0.64574289 -0.48847109 48 2
2.3222454 0.61703354 0.21021955 51 10
2.4195948 0.64154375 -0.30735436 1 4
2.4324536 0.64449888 -0.22015549 2 5
2.4038692 0.63602734 -0.1303165 2 6
2.4012234 0.63443166 -0.043351647 1 7
2.3732047 0.62304276 0.042828154 74 8
2.4422164 0.64024818 -0.49076086 30 2
2.3205302 0.60791415 0.2098709 56 10
2.4632535 0.64484447 -0.40328801 1 3
2.4256613 0.6340974 -0.3078419 1 4
2.4192667 0.63197607 -0.218761 2 5
2.3906143 0.62359875 -0.12947913 4 6
2.3918128 0.62302101 -0.043142214 2 7
2.3579419 0.61024517 0.042514008 54 8
2.3226378 0.59981084 0.2098709 60 10
2.4578393 0.63426727 -0.40203658 2 3
2.4317038 0.62661886 -0.30832931 1 4
2.4098818 0.62054574 -0.21771514 21 5
2.4094682 0.61864614 -0.043421455 2 7
2.3600578 0.60200995 0.042514008 65 8
2.3496504 0.59848171 0.12707175 62 9
2.4694567 0.62899774 -0.49534026 2 2
2.3247175 0.59169912 0.2098709 60 10
2.4638667 0.62665945 -0.40266231 2 3
2.4338765 0.61812609 -0.30832931 1 4
2.3949091 0.60689497 -0.12947911 36 6
2.3961039 0.60630792 -0.043142214 2 7
2.3679628 0.59523106 0.042618722 67 8
2.3459136 0.58881706 0.12675773 58 9
2.3344986 0.58551991 0.21056814 60 10
2.4583747 0.61613357 -0.40141082 2 3
2.4224331 0.60667509 0.30662319 1 11
2.4283161 0.60769928 -0.30735436 1 4
2.4412148 0.61047459 -0.22015549 76 5
2.4105771 0.60191905 -0.13021182 65 6
2.4098477 0.60084218 -0.043351647 3 7
2.3700264 0.58696109 0.042618722 67 8
2.3401988 0.57870835 0.12633903 58 9
2.3384628 0.57784486 0.21074246 56 10
2.4758532 0.61133617 -0.40391383 22 3
2.3705716 0.58490241 0.29979855 1 11
2.4342778 0.600169 -0.30784187 2 4
2.4162476 0.59527636 -0.21771514 66 5
2.3893902 0.58777523 -0.12895575 55 6
2.3828008 0.58527219 -0.042828076 22 7
2.3759463 0.57963306 0.04268853 66 8
2.4934721 0.6078434 -0.59252101 6 1
2.342205 0.57053542 0.12633905 60 9
2.4530182 0.59752834 -0.49076086 50 2
2.3327222 0.56779307 0.2100452 35 10
2.4549387 0.59708846 -0.40015936 39 3
2.3629546 0.57427937 0.29857987 12 11
2.4402163 0.59260446 -0.30832934 2 4
2.4028208 0.58308011 -0.21632062 54 5
2.3914278 0.5794304 -0.12895577 42 6
2.3945472 0.57930273 -0.043002598 45 7
2.3701777 0.56946784 0.042548917 67 8
2.4955785 0.59913522 -0.59252095 38 1
2.3557367 0.56556219 0.12696707 51 9
2.4627254 0.5907945 -0.49228731 63 2
2.4704554 0.59173584 -0.40234947 67 3
2.4461305 0.58500797 -0.30881679 10 4
2.4125934 0.57654095 -0.2170179 54 5
2.3992636 0.57247031 -0.12926976 40 6
2.4042358 0.57321328 -0.043142214 18 7
2.368161 0.56068277 0.042479102 64 8
2.4956553 0.59040815 -0.59207106 43 1
2.3576963 0.55733609 0.12696707 12 9
2.4666834 0.58264518 -0.49266896 56 2
2.3560205 0.55607164 0.21178834 2 10
2.462791 0.58127183 -0.40078506 48 3
2.3436236 0.55271399 0.29565501 47 11
2.4145906 0.56811637 -0.21701787 54 5
2.3894837 0.56176889 -0.12864175 45 6
2.3739991 0.55332011 0.042548914 64 8
2.5109866 0.58478773 -0.59522039 70 1
2.4686019 0.57446253 -0.49266896 56 2
2.3481486 0.54599899 0.21091679 2 10
2.4686532 0.57356626 -0.40141082 49 3
2.3184676 0.53824455 0.29224268 50 11
2.432652 0.56430566 -0.3066234 57 4
2.4164615 0.56010669 -0.2170179 56 5
2.3953216 0.55432457 -0.12885109 40 6
2.4198692 0.55911559 -0.043351647 2 7
2.3798139 0.54592466 0.042618722 63 8
2.4883196 0.57035851 -0.58937168 51 1
2.3634768 0.54130858 0.12707175 2 9
2.4629371 0.56408805 -0.49114242 56 2
2.3655767 0.54135519 0.21231152 2 10
2.4821942 0.56758678 -0.40328801 57 3
2.3454902 0.53589684 0.29541129 12 11
2.4423485 0.5575785 -0.30759811 15 4
2.4300568 0.5543263 -0.21806374 54 5
2.4050312 0.54773444 -0.12926976 38 6
2.4218063 0.5506658 -0.04335165 2 7
2.3856065 0.53849423 0.04268853 63 8
2.4940972 0.56252718 -0.59027147 33 1
2.3770421 0.53569025 0.12769978 2 9
2.4572306 0.55376148 -0.48961601 56 2
2.3596778 0.53134322 0.21161403 1 10
2.4880154 0.55978554 -0.40391383 57 3
2.3395996 0.52596515 0.29443634 5 11
2.4222569 0.54365814 -0.2171922 48 5
2.4127755 0.54064554 -0.12958379 13 6
2.4159071 0.54046291 -0.043212019 1 7
2.3796632 0.52843136 0.042548917 59 8
2.3827975 0.5282535 0.12790914 2 9
2.4706485 0.54772961 -0.49190563 56 2
2.3615179 0.52310473 0.21161403 2 10
2.4745243 0.54768276 -0.40141082 43 3
2.455873 0.54265684 -0.30881679 1 4
2.4163575 0.5334819 -0.21649495 49 5
2.4334033 0.53546399 -0.043491263 1 7
2.3775856 0.5192675 0.042479105 16 8
2.3650229 0.51609021 0.12686242 2 9
2.4725454 0.53910261 -0.49190563 52 2
2.359436 0.51400954 0.2112654 2 10
2.3529129 0.51172823 0.29565501 47 11
2.4732711 0.53745252 -0.31076673 1 4
2.4013262 0.52181858 0.38920903 1 12
2.4220989 0.5258888 -0.21684355 51 5
2.4379623 0.52844322 -0.13073519 1 6
2.4273481 0.52569783 -0.043351647 2 7
2.3910248 0.51390076 0.042688526 37 8
2.3785264 0.51034719 0.12749043 2 9
2.4782519 0.53129107 -0.49266896 56 2
2.3768015 0.50910819 0.2126599 2 10
2.3410091 0.50101531 0.29394886 64 11
2.463393 0.5267567 -0.3093043 1 4
2.3838155 0.5093053 0.38608035 4 12
2.439508 0.52076006 -0.21823806 43 5
2.4279811 0.51785535 -0.13010713 1 6
2.4213443 0.51555747 -0.043212019 2 7
2.3928044 0.5055508 0.04268853 51 8
2.3881106 0.50368965 0.12790914 2 9
2.4723155 0.52144969 -0.49114242 52 2
2.3823762 0.50204468 0.21300851 4 10
2.5109606 0.52868515 -0.40641671 1 3
2.3505137 0.49447459 0.29492378 66 11
2.4807575 0.52142042 -0.31125417 1 4
2.4571412 0.51511341 -0.13157254 2 6
2.4270444 0.50792086 -0.043281838 1 7
2.4004283 0.49841657 0.042793252 65 8
2.3859425 0.49454021 0.12769976 2 9
2.4761326 0.51278347 -0.49152404 50 2
2.5128813 0.51947784 -0.40641665 1 3
2.3600018 0.48787367 0.29589874 56 11
2.4670098 0.50954729 -0.30930457 1 4
2.3582938 0.48666227 0.38138732 67 12
2.4704027 0.50934786 -0.2206784 32 5
2.4316249 0.50046784 -0.13010713 2 6
2.4248848 0.49863949 -0.043212019 2 7
2.3924415 0.48761892 0.042618722 66 8
2.3856974 0.48580956 0.1275951 3 9
2.4836795 0.50531054 -0.49266896 52 2
2.5069361 0.50913101 -0.40516526 1 3
2.3637192 0.47961575 0.29614246 62 11
2.5037913 0.50803739 -0.31369185 1 4
2.3774018 0.48196003 0.38420314 61 12
2.4448276 0.49518475 -0.21823806 41 5
2.4529335 0.49593413 -0.13115385 2 6
2.4422917 0.49334008 -0.043491263 2 7
2.3920846 0.47928905 0.042583816 67 8
2.4872668 0.49745592 -0.49305055 48 2
2.3640575 0.47238612 0.21091679 51 10
2.4776158 0.49462771 -0.40015933 1 3
2.3536162 0.4694443 0.29468003 58 11
2.4704213 0.49274185 -0.30930457 1 4
2.371238 0.47252992 0.38295171 67 12
2.4718587 0.49213275 -0.22050413 76 5
2.4388928 0.4846845 -0.1303165 3 6
2.4360685 0.48368123 -0.043351647 2 7
2.401509 0.47289875 0.04272344 66 8
2.4850497 0.48844838 -0.49228731 46 2
2.3792963 0.46723071 0.21213695 59 10
2.5257652 0.49553549 -0.40766823 2 3
2.3571081 0.46201921 0.29492378 56 11
2.4565413 0.48106402 -0.30735436 2 4
2.3748116 0.46462852 0.38326454 66 12
2.4519684 0.4797242 -0.21858667 61 5
2.4306858 0.47467944 -0.12979315 19 6
2.4514813 0.47785228 -0.043595977 22 7
2.4109986 0.46603155 0.042863056 67 8
2.3788068 0.45894784 0.12696707 47 9
2.4867394 0.47977152 -0.49228731 37 2
2.3789561 0.45854601 0.21196264 62 10
2.5119615 0.48372701 -0.40516526 2 3
2.366504 0.45528919 0.29589874 65 11
2.469902 0.47473484 -0.30881679 2 4
2.3705993 0.4552179 0.38232595 57 12
2.4477587 0.47003448 -0.21806376 56 5
2.4165401 0.45835862 0.042932868 64 8
2.3941314 0.45324135 0.12769978 62 9
2.3648808 0.44727755 0.21056816 58 10
2.5058708 0.47348922 -0.40391383 2 3
2.370029 0.4473933 0.29614243 60 11
2.469593 0.46574178 -0.30857331 18 4
2.3682911 0.44620913 0.38170016 66 12
2.4454684 0.46075013 -0.21771514 54 5
2.467309 0.46397337 -0.13157256 66 6
2.4488616 0.45961943 -0.043491263 73 7
2.4063294 0.44772512 0.04272344 66 8
2.3937352 0.44451737 0.1275951 29 9
2.3703456 0.43974602 0.21091676 60 10
2.50945 0.46509963 -0.40422663 7 3
2.3754807 0.43984097 0.29662997 60 11
2.3717768 0.43829909 0.38201305 62 12
2.4431431 0.45148742 -0.2173665 54 5
2.4355233 0.44920018 -0.12979315 65 6
2.4307847 0.44744778 -0.043142214 74 7
2.4118125 0.44003996 0.042793252 67 8
2.3777473 0.43253845 0.21143973 52 10
2.4896793 0.45245257 -0.40078506 25 3
2.3730948 0.4308365 0.29614246 60 11
2.484504 0.45061502 -0.3100355 60 4
2.3848794 0.43254602 0.38389027 59 12
2.4564667 0.44508827 -0.21841235 56 5
2.4311802 0.43962902 -0.12947911 43 6
2.4342232 0.4397417 -0.043177128 50 7
2.4211316 0.43344972 0.042932864 67 8
2.3986714 0.4285647 0.12769978 2 9
2.3870881 0.42563543 0.21213695 14 10
2.5125577 0.44800758 -0.40422663 48 3
2.3725564 0.42261705 0.29589874 41 11
2.4840302 0.44202638 -0.30979174 74 4
2.3824849 0.42352763 0.38326454 53 12
2.4619291 0.43720701 -0.218761 54 5
2.4404912 0.43295938 -0.1298978 42 6
2.4495265 0.43368167 -0.043421455 31 7
2.4226303 0.42499635 0.042932868 64 8
2.4001529 0.42018849 0.12769978 2 9
2.5432949 0.44433314 -0.40891966 63 3
2.4836025 0.43301228 -0.30954832 52 4
2.3742182 0.41351324 0.38170016 26 12
2.4672911 0.42972365 -0.21910961 56 5
2.4478905 0.42546555 -0.13021183 12 6
2.4280405 0.41721377 0.043002676 64 8
2.4173529 0.41450876 0.12853715 2 9
2.3958213 0.41038623 0.2126599 2 10
2.5234127 0.43178964 -0.40547815 54 3
2.3754492 0.40604323 0.29589874 2 11
2.4811852 0.42367139 -0.30906081 47 4
2.4609201 0.41976783 -0.21841235 56 5
2.4524949 0.41657016 -0.043421458 2 7
2.4176502 0.40674573 0.042793252 61 8
2.4227247 0.40672877 0.12874649 2 9
2.4011693 0.40268037 0.21300851 2 10
2.5190597 0.4219988 -0.40453953 54 3
2.4023044 0.40200746 0.29906735 3 11
2.4924386 0.41664484 -0.31027925 30 4
2.456475 0.4101924 -0.21788946 58 5
2.4764123 0.41263315 -0.13157254 1 6
2.4578788 0.40866208 -0.043491263 2 7
2.4170818 0.39797851 0.042758342 25 8
2.4398961 0.4008615 0.12958388 2 9
2.3946955 0.39300489 0.21231152 2 10
2.5205178 0.4132024 -0.40453956 41 3
2.3919384 0.39169621 0.29760492 3 11
2.4677231 0.40322089 -0.218761 54 5
2.4778378 0.40398568 -0.13157254 1 6
2.4632378 0.40072396 -0.043561075 1 7
2.4136734 0.38790473 0.12811846 2 9
2.4039223 0.3859061 0.21300854 2 10
2.5031273 0.40048745 -0.31125417 1 4
2.4710829 0.3949194 -0.2189353 51 5
2.4910672 0.39722034 -0.13220058 1 6
2.4804199 0.39463609 -0.043840304 1 7
2.4347434 0.38257673 0.12916519 2 9
2.5123546 0.39297622 -0.31222939 1 4
2.4921315 0.38936621 -0.2206784 20 5
2.5003319 0.38975465 -0.13261926 1 6
2.4738793 0.38474557 -0.043700691 2 7
2.4281673 0.37286353 0.12874649 2 9
2.3860981 0.36512479 0.29638621 60 11
2.5097868 0.3836036 -0.31174165 1 4
2.4954453 0.38096473 -0.22085273 3 5
2.4937792 0.37982094 -0.13220058 1 6
2.4633446 0.37430578 -0.043491259 2 7
2.4342675 0.36597666 0.04296777 48 8
2.4492061 0.36734715 0.12979323 2 9
2.3999493 0.3595323 0.21231125 51 10
2.4128809 0.36060736 0.29955482 68 11
2.5150368 0.37542707 -0.31222939 2 4
2.4990411 0.37170187 -0.13240995 2 6
2.484417 0.36863923 -0.043840308 2 7
2.4375093 0.35776705 0.04300268 61 8
2.4346635 0.35648134 0.12895584 2 9
2.4071043 0.35201705 0.21283421 59 10
2.3925176 0.34903094 0.29687369 56 11
2.5202608 0.36721754 -0.3127169 2 4
2.4921923 0.36223945 -0.22032979 41 5
2.4845109 0.36068019 -0.13157254 1 6
2.4797511 0.35910547 -0.043735594 22 7
2.4466615 0.35038969 0.043142296 64 8
2.4279842 0.3468501 0.12853715 2 9
2.4142957 0.34403592 0.21335714 62 10
2.3956864 0.34095648 0.29711741 58 11
2.5175965 0.35785851 -0.31222939 6 4
2.5072501 0.3554951 -0.22154996 66 5
2.4858162 0.35157213 -0.13157256 2 6
2.4479291 0.34142038 0.043142296 66 8
2.4154818 0.33560571 0.21335714 62 10
2.4028187 0.33299151 0.29784864 55 11
2.4946604 0.34483179 -0.22032979 61 5
2.4909852 0.34343776 -0.13178189 2 6
2.4881413 0.34260309 -0.043840311 67 7
2.4530101 0.33383948 0.043212097 64 8
2.4244092 0.32908642 0.12822312 33 9
2.4087408 0.32610339 0.21265988 58 10
2.4098115 0.32582006 0.29857984 49 11
2.5357718 0.34239873 -0.31417903 51 4
2.4899254 0.33532447 -0.21980686 54 5
2.498049 0.33597344 -0.13209592 16 6
2.4576111 0.32966271 -0.043281842 69 7
2.450196 0.32475108 0.043142293 64 8
2.4334073 0.32209259 0.12864181 4 9
2.4137597 0.31863594 0.21300851 62 10
2.4109344 0.31740561 0.29857984 21 11
2.5349834 0.33328816 -0.31393531 39 4
2.4910238 0.32706511 -0.21980686 54 5
2.478519 0.32410327 -0.043630887 60 7
2.4512594 0.31662348 0.043142293 64 8
2.4563072 0.31640258 0.12979324 2 9
2.4227619 0.31122315 0.21370575 62 10
2.496103 0.31887209 -0.22015549 56 5
2.4804659 0.31643572 -0.1310492 50 6
2.48757 0.3164584 -0.043770503 60 7
2.4523501 0.30806443 0.043142296 61 8
2.437525 0.30577001 0.12874649 2 9
2.4237807 0.30318657 0.21370575 62 10
2.4991236 0.31083933 -0.22032979 51 5
2.4875016 0.30851215 -0.13136321 6 6
2.494559 0.30894542 -0.043875214 57 7
2.4612978 0.30090159 0.043281917 64 8
2.4584036 0.2996769 0.12979323 2 9
2.4287798 0.29520428 0.21405438 62 10
2.5041492 0.30259243 -0.2206784 51 5
2.4856954 0.2990422 -0.043700691 54 7
2.4663043 0.29278019 0.043351725 61 8
2.4594347 0.29109296 0.12979323 2 9
2.4257882 0.28668255 0.21370575 60 10
2.4972754 0.29292044 -0.21998119 49 5
2.529218 0.29621971 -0.13345666 1 6
2.4767931 0.28920341 -0.043526169 34 7
2.4534056 0.28256714 0.04310739 23 8
2.4564672 0.282051 0.12958388 2 9
2.4189053 0.27688277 0.21300854 60 10
2.5022416 0.28465238 -0.22032979 49 5
2.5104411 0.28469759 -0.13240993 1 6
2.4693465 0.27480051 0.1302119 1 9
2.4277775 0.26931664 0.21370575 62 10
2.519063 0.27766302 -0.22172429 51 5
2.5312729 0.27811468 -0.13345666 1 6
2.5045927 0.27474087 -0.043979932 1 7
2.4871285 0.26887107 0.043665867 2 8
2.4702907 0.26617858 0.1302119 2 9
2.4405892 0.26211643 0.21475165 62 10
2.5140734 0.26823336 -0.22120135 54 5
2.5162928 0.26802605 -0.13261926 1 6
2.4975822 0.26515138 -0.043840308 2 7
2.4840736 0.25977227 0.043596055 2 8
2.4592409 0.25674149 0.12958387 2 9
2.4434264 0.25422832 0.21492594 56 10
2.5248585 0.26091829 -0.2220729 43 5
2.5370805 0.26128754 -0.13366598 1 6
2.5103834 0.2580941 -0.04404974 2 7
2.4829321 0.2513313 0.043561149 3 8
2.4799941 0.25015944 0.13063058 2 9
2.4343867 0.2447018 0.21405438 58 10
2.5138586 0.25091651 -0.22102705 12 5
2.5220337 0.25128797 -0.13282861 1 6
2.5092788 0.24913259 -0.044014834 3 7
2.43209 0.23718332 0.042653628 16 8
2.4808941 0.24106865 0.13063058 2 9
2.433243 0.23600973 0.21388008 54 10
2.5348668 0.24318753 -0.13345666 1 6
2.489675 0.23315148 0.13104928 2 9
2.4439707 0.22844115 0.21475163 38 10
2.5396779 0.23470463 -0.13366599 1 6
2.4874582 0.22506356 0.043596052 49 8
2.4705429 0.22309837 0.13000257 3 9
2.5166085 0.22371639 -0.13240993 2 6
2.5177257 0.22337286 -0.044119548 69 7
2.4842074 0.21646698 0.043526251 48 8
2.4473922 0.21282749 0.12874649 12 9
2.5491765 0.21809433 -0.13408469 2 6
2.5124753 0.21451151 -0.044014834 57 7
2.4888968 0.20856109 0.043596059 56 8
2.5478952 0.20947541 -0.13398002 3 6
2.5191877 0.20623124 -0.044119548 60 7
2.4916029 0.20003134 0.043630961 61 8
2.4707181 0.19748795 0.12989788 42 9
2.5178988 0.19727951 -0.044084642 57 7
2.4882984 0.1910284 0.043561153 64 8
2.4733841 0.18901384 0.13000257 44 9
2.5353541 0.19063561 -0.13324732 36 6
2.5245545 0.18893622 -0.044189356 60 7
2.4969273 0.18292519 0.04370077 59 8
2.4640689 0.17965333 0.1294792 51 9
2.5360041 0.18178377 -0.13324732 41 6
2.5331774 0.18069239 -0.044328976 60 7
2.5035355 0.17462614 0.043805491 54 8
2.4686658 0.17132691 0.12968855 56 9
2.527807 0.17144223 -0.044224262 57 7
2.4772205 0.16323444 0.13010722 54 9
2.5243993 0.16236134 -0.044154458 57 7
2.4817622 0.1548356 0.13031657 53 9
2.5249507 0.1535479 -0.044154458 50 7
2.5451508 0.15076421 0.044503585 1 8
2.4862754 0.14640583 0.13052593 51 9
2.5234745 0.14461933 -0.044119548 20 7
2.5416684 0.14165585 0.044433776 1 8
2.4887412 0.13827154 0.1306306 40 9
2.5301418 0.13259913 0.044224344 1 8
2.5363832 0.12804413 -0.044328973 10 7
2.5265949 0.12357165 0.044154532 2 8
2.5350015 0.11511362 0.044294156 2 8
2.5352175 0.11024805 -0.04429407 47 7
2.5253983 0.10584473 0.04411963 11 8
2.5355871 0.10139715 -0.04429407 10 7
2.4718006 0.094957896 0.043177206 29 8
2.5100875 0.087654434 0.04384039 39 8
2.5403585 0.079834796 0.044363961 49 8
2.5246308 0.070519455 0.044084724 48 8
2.5288599 0.061803456 0.044154532 48 8
2.5370569 0.053143755 0.044294152 48 8
2.5392268 0.044322874 0.044329058 42 8
2.5553617 0.035682958 0.044608295 15 8
2.3150525 1.0114222 -0.22102703 3 5
2.2964194 0.98424715 -0.21858667 41 5
2.3053432 0.97855991 -0.21910959 66 5
2.3032346 0.96819115 -0.21858665 61 5
2.3066006 0.96014482 -0.21858667 47 5
2.3005624 0.94869339 -0.21771514 40 5
2.3240421 0.93897396 -0.13136321 1 6
2.3361042 0.93532169 -0.22015549 1 5
2.2900572 0.91642058 -0.12926976 14 6
2.3415351 0.92897189 -0.30930457 1 4
2.3430593 0.92862892 -0.22050411 1 5
2.2989717 0.91022718 -0.12958379 36 6
2.3449249 0.92038172 -0.30930457 7 4
2.3390276 0.91712636 -0.21980686 1 5
2.3078709 0.90398079 -0.1298978 36 6
2.3310697 0.90463156 -0.21876097 1 5
2.3352218 0.90530378 -0.13125855 65 6
2.3605571 0.90755165 -0.31052297 49 4
2.3528128 0.90363169 -0.22050409 1 5
2.2990541 0.88252449 -0.12906043 51 6
2.3414464 0.890836 -0.30759811 63 4
2.3446226 0.89157611 -0.21945824 1 5
2.2909179 0.8702389 -0.12843239 40 6
2.335253 0.87915975 -0.30637941 74 4
2.3663681 0.89040238 -0.22120135 1 5
2.2995508 0.86434442 -0.12874644 42 6
2.3327272 0.8689236 -0.30564818 52 4
2.3395867 0.87101495 -0.21841235 2 5
2.306298 0.85770404 -0.12895577 42 6
2.3506503 0.87326592 -0.043770503 1 7
2.3431962 0.86352146 -0.30662313 52 4
2.3388739 0.86146504 -0.21806374 3 5
2.3111522 0.8503384 -0.12906043 40 6
2.3142684 0.850568 -0.0430375 6 7
2.3535063 0.85846794 -0.30759811 52 4
2.334379 0.85056794 -0.21736652 21 5
2.3065989 0.83953398 -0.12864174 45 6
2.3376691 0.84391761 -0.30516073 52 4
2.3074913 0.83120281 -0.12853707 42 6
2.3292654 0.83858824 -0.043212019 47 7
2.3443394 0.83708805 -0.30564818 52 4
2.35888 0.84135175 -0.21910961 70 5
2.3139977 0.82488692 -0.12874642 42 6
2.3227601 0.82709807 -0.043037504 61 7
2.3491187 0.82956117 -0.30589193 49 4
2.3373768 0.82449573 -0.21684356 61 5
2.3170054 0.81640065 -0.12874642 42 6
2.310544 0.81367069 -0.042758267 7 7
2.3558915 0.82225442 -0.30637968 49 4
2.328953 0.8123951 -0.21579768 48 5
2.3217268 0.80896664 -0.12885109 40 6
2.3767946 0.82118052 -0.39828217 1 3
2.3643773 0.81596786 -0.30711064 41 4
2.3393087 0.80685854 -0.21649492 46 5
2.3245366 0.80085683 -0.12885109 45 6
2.3560147 0.81078202 -0.043491263 1 7
2.3964696 0.81862748 -0.40109795 12 3
2.3540602 0.80322182 -0.30540445 9 4
2.3571968 0.80383408 -0.21788944 13 5
2.3216462 0.79080516 -0.12853707 42 6
2.351258 0.79997587 -0.043351643 1 7
2.3506181 0.79564065 0.043316819 2 8
2.3918266 0.80772853 -0.39984649 42 3
2.3262851 0.78333408 -0.12864174 40 6
2.3237109 0.78156328 -0.04279317 2 7
2.4133687 0.80562997 -0.40297517 67 3
2.3633769 0.78802365 -0.30589193 1 4
2.3646419 0.78798699 -0.21806376 1 5
2.3271105 0.77457774 -0.12853707 36 6
2.3338799 0.77637839 -0.04293279 1 7
2.4028966 0.79328692 -0.40078506 48 3
2.3810587 0.78515595 -0.30784187 1 4
2.3635929 0.77848196 -0.21771511 1 5
2.3334603 0.76810592 -0.12874642 8 6
2.3479731 0.77197498 -0.043142214 1 7
2.3130708 0.75647575 0.042479105 54 8
2.4056509 0.78489482 -0.40078506 51 3
2.3837848 0.77684015 -0.30784187 1 4
2.3888953 0.77804303 -0.21980686 1 5
2.339926 0.76119214 -0.12895577 20 6
2.3391104 0.76047415 -0.04293279 1 7
2.3212748 0.75064623 0.042583816 68 8
2.4157605 0.77933854 -0.40203655 57 3
2.3787901 0.76649511 -0.30686718 1 4
2.3953893 0.77092093 -0.22015549 2 5
2.3443384 0.75403935 -0.12906042 32 6
2.3645966 0.75964463 -0.043351647 2 7
2.3238807 0.74253947 0.042583816 64 8
2.4147027 0.76970077 -0.40141085 54 3
2.3776684 0.75698179 -0.30637941 1 4
2.398066 0.76255524 -0.22015551 2 5
2.3717012 0.75371474 -0.13042116 65 6
2.3634219 0.75017667 -0.043281838 2 7
2.3340862 0.73683167 0.04272344 67 8
2.4212754 0.76203173 -0.40203655 57 3
2.3916576 0.75225294 -0.30784187 1 4
2.3626964 0.74223626 -0.21666922 2 5
2.3420517 0.73485267 -0.12864174 47 6
2.3469455 0.73593819 -0.04293279 2 7
2.3214989 0.72351015 0.042444199 64 8
2.4201484 0.75240302 -0.40141085 59 3
2.3792329 0.73877084 -0.30589193 1 4
2.3768194 0.73711324 -0.21771514 21 5
2.3484185 0.72785485 -0.12885109 40 6
2.3343449 0.72260129 -0.042653553 3 7
2.3240101 0.71540391 0.042444203 66 8
2.3328822 0.71724248 0.12790914 1 9
2.4191127 0.7423678 -0.40078506 59 3
2.4007747 0.7362833 -0.30832961 2 4
2.3434305 0.71690601 -0.12843239 45 6
2.3464148 0.71737111 -0.042828076 22 7
