# .PCD v0.7 - Point Cloud Data file format
VERSION 0.7
FIELDS x y z intensity ring
SIZE 4 4 4 4 2
TYPE F F F F U
COUNT 1 1 1 1 1
WIDTH 1254
HEIGHT 1
VIEWPOINT 0 0 0 1 0 0 0
POINTS 1254
DATA ascii
4.1912994 -7.9934144 2.4184055 20 15
1.3684844 -2.6176691 -0.79146868 4 0
1.5281337 -2.9242933 0.057592869 48 8
1.3885485 -2.6583078 -0.69239956 45 1
1.5224791 -2.9159513 0.17239469 43 9
1.3811586 -2.6452851 -0.58005947 43 2
1.5145721 -2.9020417 0.28639397 46 10
1.3878438 -2.660352 -0.47524786 66 3
1.5208654 -2.9165816 0.40387493 47 11
1.5359547 -2.9467731 -0.40801844 46 4
1.5251869 -2.9273617 0.52280408 45 12
1.5245136 -2.9260695 -0.28865993 42 5
1.5216675 -2.9218502 0.64035481 53 13
1.5309045 -2.9408405 -0.17375533 43 6
5.266727 -10.121601 2.634177 14 14
1.5280532 -2.9378662 -0.057802193 52 7
4.1856499 -8.0508471 2.4313467 25 15
1.3717855 -2.6464422 -0.79871565 4 0
1.5133175 -2.920732 0.057418346 37 8
1.3747797 -2.6544867 -0.69014966 48 1
1.5122912 -2.9212482 0.17239471 45 9
1.3719163 -2.6500902 -0.58005947 46 2
1.5044329 -2.9073112 0.28639361 46 10
1.3703812 -2.6493895 -0.47243208 70 3
1.5052053 -2.9112928 0.40241253 47 11
1.3771032 -2.664664 -0.36828899 45 4
1.5203992 -2.943198 0.52468127 46 12
1.5106329 -2.9242923 -0.28796268 40 5
1.5114591 -2.9271443 0.64035481 56 13
1.5133015 -2.9319675 -0.17291795 46 6
5.2188549 -10.115679 2.6278784 22 14
1.5150394 -2.9378502 -0.057697479 48 7
4.1964674 -8.1409626 2.4541225 25 15
1.3678375 -2.6615236 -0.80182141 3 0
1.5067675 -2.9331112 0.057557959 49 8
1.3601646 -2.6488683 -0.68745035 44 1
1.4966133 -2.915848 0.17176668 46 9
1.3626577 -2.6548626 -0.58005947 45 2
1.4970037 -2.9178631 0.28691655 48 10
1.3620265 -2.6559143 -0.47274491 77 3
1.4968448 -2.9200623 0.40290001 45 11
1.3551201 -2.6447213 -0.36487702 71 4
1.5110166 -2.9502454 0.52499419 43 12
1.369629 -2.6741874 -0.26286182 47 5
1.5066001 -2.942888 0.64264452 56 13
1.495779 -2.9230082 -0.17208056 45 6
5.1888385 -10.144243 2.6305778 36 14
1.5029546 -2.9395599 -0.05762767 49 7
4.4045143 -8.6183014 2.5933673 37 15
1.3673092 -2.6834953 -0.8069979 4 0
1.4974276 -2.9401355 0.057592873 49 8
1.3509102 -2.6535995 -0.68745029 45 1
1.4833111 -2.9136753 0.17134799 46 9
1.3480397 -2.6491046 -0.57776976 46 2
1.4868095 -2.9230704 0.28691691 47 10
1.3500611 -2.6553702 -0.47180629 72 3
1.4857436 -2.9234998 0.40265626 41 11
1.3413848 -2.6405864 -0.36365834 66 4
1.4967517 -2.946434 0.52342981 45 12
1.3476572 -2.6540809 -0.26042145 73 5
1.4945412 -2.9446278 0.64188135 53 13
1.3599622 -2.6806321 -0.15753119 46 6
5.1763124 -10.207483 2.6422753 24 14
1.4733011 -2.9052913 -0.056859769 31 7
4.3724174 -8.6259661 2.5912969 41 15
1.3466103 -2.6658351 -0.80026859 4 0
1.4840629 -2.9379451 0.057453252 52 8
1.3421031 -2.6580651 -0.68745035 44 1
1.4767309 -2.9259677 0.17176668 45 9
1.3299417 -2.636266 -0.57395357 48 2
1.4730086 -2.9211268 0.28621927 48 10
1.340359 -2.6580689 -0.47149348 77 3
1.4760406 -2.9284105 0.40265623 42 11
1.3344076 -2.6485655 -0.36414546 62 4
1.4829036 -2.9445841 0.52217841 42 12
1.3294261 -2.6409729 -0.25867832 59 5
1.4821198 -2.9443066 0.64073682 50 13
1.3304182 -2.6440918 -0.15512376 56 6
5.1599464 -10.259412 2.6512733 28 14
1.3257275 -2.6370621 -0.051519345 58 7
4.3197279 -8.5962973 2.5778384 23 15
1.3334359 -2.6616499 -0.79768038 6 0
1.434402 -2.8644338 0.055917442 41 8
1.3310719 -2.6592484 -0.6865505 44 1
1.4620399 -2.9221735 0.1712433 48 9
1.3247058 -2.6476843 -0.57548004 51 2
1.4615315 -2.9224317 0.28587067 48 10
1.326656 -2.6538966 -0.4699291 72 3
1.4693588 -2.9406481 0.40363124 42 11
1.326041 -2.654983 -0.36438954 70 4
1.4796748 -2.9638808 0.52468127 42 12
1.3224412 -2.6489322 -0.259027 66 5
1.4674505 -2.9406791 0.6388284 49 13
1.3220718 -2.650507 -0.15522841 58 6
5.2006211 -10.430833 2.6908648 26 14
1.3209741 -2.6506228 -0.051693872 82 7
4.2922788 -8.6165104 2.579391 36 15
1.303472 -2.6258268 0.05117039 62 8
1.3174505 -2.6551499 -0.68430132 45 1
1.3932604 -2.8091667 0.16433495 34 9
1.313711 -2.6487751 -0.57471681 48 2
1.4495516 -2.9239452 0.28552243 48 10
1.3156298 -2.6549716 -0.46930337 72 3
1.4555604 -2.9386439 0.40265623 42 11
1.3141229 -2.654259 -0.36365834 73 4
1.470196 -2.9707983 0.52499419 43 12
1.3096516 -2.6463892 -0.25832972 63 5
1.4536946 -2.9387443 0.63730186 48 13
1.3048445 -2.6389925 -0.15428635 56 6
5.1641798 -10.448922 2.6908648 15 14
1.3152567 -2.662389 -0.051833488 86 7
4.2570438 -8.621048 2.5762851 24 15
1.3071427 -2.6552947 -0.7930215 78 0
1.2907667 -2.623184 0.051030774 68 8
1.3055942 -2.6544869 -0.68295133 45 1
1.2856361 -2.6150608 0.15271638 55 9
1.3027251 -2.649821 -0.57395363 47 2
1.3883706 -2.8252745 0.27541235 35 10
1.307225 -2.6613207 -0.46961623 81 3
1.4391695 -2.9312334 0.40095007 41 11
1.3004776 -2.6499193 -0.3624396 70 4
1.4632968 -2.983006 0.52624565 43 12
1.2986511 -2.6473672 -0.25798109 63 5
1.4451561 -2.9473259 0.63806546 48 13
1.2929878 -2.6381509 -0.15397234 52 6
5.1216726 -10.454634 2.6877153 31 14
1.3085934 -2.6723514 -0.051938199 96 7
4.2507048 -8.6844387 2.5907791 14 15
1.3054906 -2.6754673 -0.79768038 68 0
1.288615 -2.6420522 0.051310007 71 8
1.2980281 -2.6625311 -0.68385106 44 1
1.273875 -2.6141462 0.15240237 60 9
1.2900273 -2.6472926 -0.57242715 47 2
1.2755488 -2.6187415 0.25484324 56 10
1.2970628 -2.6640921 -0.46930343 81 3
1.3142675 -2.7006264 0.36877662 40 11
1.2894827 -2.6508729 -0.36195183 70 4
1.4468288 -2.9756603 0.5240556 45 12
1.2920156 -2.6572595 -0.258504 65 5
1.434001 -2.950587 0.63768387 44 13
1.2855166 -2.6462407 -0.15418167 52 6
4.6842256 -9.6467819 2.475811 27 14
1.282667 -2.6427224 -0.051275011 67 7
1.2877328 -2.6626167 -0.79250395 65 0
1.2776443 -2.6429336 0.051240202 71 8
1.2895738 -2.6688004 -0.68430126 45 1
1.2664791 -2.622174 0.1526117 60 9
1.2790707 -2.6482434 -0.57166386 48 2
1.2638015 -2.617795 0.25432062 67 10
1.2877555 -2.6686029 -0.46930337 81 3
1.268611 -2.6301024 0.35853955 68 11
1.2810831 -2.6571457 -0.36219588 73 4
1.3198035 -2.7386782 0.48150542 31 12
1.2784077 -2.6527791 -0.25763246 61 5
1.427101 -2.9626496 0.63921034 48 13
1.2762715 -2.6507123 -0.15418169 58 6
4.6420755 -9.6455154 2.4713123 24 14
1.2699671 -2.6399751 -0.051135391 68 7
1.2792656 -2.6688373 -0.79302156 56 0
1.2632263 -2.6365569 0.051030774 73 8
1.2768836 -2.666255 -0.68250167 45 1
1.2590431 -2.6301816 0.15282103 58 9
1.2715142 -2.6562343 -0.57242715 50 2
1.2529358 -2.6185966 0.2539717 69 10
1.2733189 -2.662389 -0.46742615 81 3
1.2594223 -2.6345146 0.35853955 71 11
1.2735121 -2.6651835 -0.362683 66 4
1.2591543 -2.6363184 0.46273327 57 12
1.2674227 -2.65363 -0.25728387 63 5
1.259428 -2.6380754 0.56822902 43 13
1.2670112 -2.6551511 -0.15418169 52 6
1.2607437 -2.6443923 -0.051135391 71 7
1.3629631 -2.86008 0.8489266 1 15
1.2715997 -2.6767764 -0.79405683 53 0
1.2523 -2.6373374 0.050960962 73 8
1.2650617 -2.6654148 -0.68115163 45 1
1.2447183 -2.6237338 0.15219302 60 9
1.2571857 -2.6500134 -0.57013738 48 2
1.2437878 -2.6229541 0.2539717 67 10
1.2623253 -2.6632483 -0.46680045 81 3
1.2434192 -2.6245434 0.35658967 74 11
1.2633519 -2.6678185 -0.3624396 70 4
1.2550148 -2.6514103 0.46461049 78 12
1.2598566 -2.6616395 -0.25763246 61 5
1.2434946 -2.6282582 0.56517607 60 13
1.2509046 -2.6451132 -0.1533443 58 6
1.2506516 -2.6469693 -0.051100492 65 7
1.2589229 -2.6656804 0.78991586 4 15
1.2606024 -2.6777031 -0.7930215 55 0
1.2413838 -2.6380739 0.050891157 73 8
1.2540914 -2.6662874 -0.68025184 45 1
1.2338527 -2.6244476 0.15198368 60 9
1.251269 -2.6614926 -0.57166392 48 2
1.2329292 -2.6236734 0.25362304 67 10
1.2513418 -2.6640623 -0.46617472 83 3
1.230876 -2.62168 0.35561472 71 11
1.245598 -2.6542418 -0.36000222 63 4
1.2440743 -2.6521978 0.46398473 74 12
1.2471738 -2.6588054 -0.25693521 61 5
1.234313 -2.6325827 0.56517607 73 13
1.2416635 -2.6494637 -0.1533443 58 6
1.242252 -2.6531293 -0.051135391 67 7
1.2528812 -2.6855886 -0.79405683 56 0
1.2321671 -2.6423912 0.050891154 73 8
1.2439533 -2.6688826 -0.67980194 45 1
1.2238406 -2.6269283 0.15187901 62 9
1.2386546 -2.658726 -0.57013738 51 2
1.2254457 -2.6315734 0.2539717 69 10
1.2437019 -2.6719959 -0.46680045 83 3
1.2250664 -2.6331601 0.35658967 71 11
1.2354885 -2.6567733 -0.35975847 66 4
1.2289803 -2.6439853 0.46179464 76 12
1.2378851 -2.6631427 -0.25693521 59 5
1.2218068 -2.6297536 0.56364965 70 13
1.2273602 -2.6429129 -0.15271628 52 6
1.2200679 -2.6284115 0.6690045 75 14
1.2296168 -2.6501937 -0.050995771 71 7
1.2386358 -2.6794248 -0.79095113 56 0
1.2246139 -2.6503067 0.050960965 75 8
1.2362638 -2.6767471 -0.68070215 46 1
1.2146634 -2.6311843 0.15187901 62 9
1.2227832 -2.6487734 -0.56708443 55 2
1.2112441 -2.6249804 0.25292581 69 10
1.2327126 -2.6727333 -0.46617469 83 3
1.2142053 -2.6338146 0.35610217 74 11
1.2262067 -2.6610701 -0.35975847 66 4
1.218091 -2.644671 0.46116894 76 12
1.2252475 -2.6602089 -0.25623795 63 5
1.21262 -2.6340024 0.56364965 70 13
1.2214667 -2.654439 -0.15313497 58 6
1.2149571 -2.6415057 0.67125392 71 14
1.2170175 -2.6472025 -0.050856158 68 7
1.220453 -2.6558971 0.7831865 63 15
1.2276661 -2.6802192 -0.7899158 55 0
1.2120249 -2.6472926 0.050821345 75 8
1.2285347 -2.6845899 -0.68160194 45 1
1.2042694 -2.6315656 0.15166967 62 9
1.2151634 -2.6565962 -0.56784767 55 2
1.2004164 -2.6255686 0.25257719 72 10
1.2209125 -2.6716297 -0.46523607 90 3
1.2050045 -2.6380372 0.3561022 74 11
1.2177353 -2.6671402 -0.36000189 63 4
1.2093141 -2.6486959 0.46116894 76 12
1.2142998 -2.6608448 -0.25588936 63 5
1.1993444 -2.6292882 0.56174189 77 13
1.2138509 -2.6623209 -0.1533443 58 6
1.2016885 -2.6368647 0.66900444 68 14
1.2098908 -2.6548631 -0.05092597 67 7
1.1972244 -2.6282849 0.7738691 61 15
1.2198997 -2.6880066 -0.79095113 56 0
1.2015871 -2.6476555 0.050751533 75 8
1.2156006 -2.6797755 -0.67935205 48 1
1.1975504 -2.6412103 0.15198368 60 9
1.2075033 -2.6643984 -0.56861097 56 2
1.1912445 -2.6297426 0.25257719 72 10
1.2104161 -2.6720653 -0.46461034 86 3
1.191337 -2.6311686 0.35463977 74 11
1.2113392 -2.6765893 -0.36073312 66 4
1.2008755 -2.6547008 0.46148184 72 12
1.2033627 -2.6614366 -0.25554073 61 5
1.1898098 -2.6314621 0.56135994 74 13
1.195145 -2.6444914 -0.15208825 52 6
1.1953448 -2.6461632 0.67035425 66 14
1.1997932 -2.6572473 -0.05089106 63 7
1.1928108 -2.6430128 0.77697486 65 15
1.2101864 -2.6902752 -0.79043341 58 0
1.1906977 -2.6481862 0.050681729 75 8
1.2038425 -2.6786702 -0.67800242 49 1
1.1825945 -2.6326208 0.15125096 64 9
1.1970524 -2.6648059 -0.56784767 56 2
1.1849657 -2.6391318 0.25310016 74 10
1.2026989 -2.6798782 -0.46523607 90 3
1.1829576 -2.6371224 0.35488349 77 11
1.1922432 -2.659065 -0.35780823 58 4
1.1907932 -2.6570737 0.46116892 76 12
1.1945301 -2.6654122 -0.25554073 60 5
1.1814198 -2.6373911 0.56174189 77 13
1.1834584 -2.643178 -0.15177423 56 6
1.1781397 -2.6325319 0.66585511 59 14
1.1929599 -2.6668952 -0.050995771 68 7
1.183578 -2.6471605 0.77697486 67 15
1.2000022 -2.6927185 -0.7899158 56 0
1.1822602 -2.6541526 0.050716627 80 8
1.1928992 -2.679296 -0.67710263 46 1
1.1733977 -2.6367328 0.15125096 64 9
1.1845502 -2.6617937 -0.56632119 49 2
1.1733171 -2.6377904 0.25257722 72 10
1.1925346 -2.6822553 -0.4649232 97 3
1.1729388 -2.6394215 0.35463974 74 11
1.1781191 -2.6523254 -0.35634583 57 4
1.1750987 -2.6467705 0.45866597 76 12
1.1827935 -2.664103 -0.25501782 65 5
1.1706136 -2.6379097 0.56097829 77 13
1.1766539 -2.6527705 -0.15208825 61 6
1.167364 -2.6330652 0.66495532 59 14
1.1771625 -2.6564178 -0.050716542 67 7
1.17433 -2.6512759 0.77697486 70 15
1.1882548 -2.6915889 -0.78836286 58 0
1.1721811 -2.6564341 0.050681729 77 8
1.1811805 -2.6780941 -0.67575282 48 1
1.1625757 -2.6371579 0.15104163 62 9
1.1705002 -2.6551335 -0.56403148 48 2
1.1608886 -2.6345773 0.25187996 72 10
1.1815723 -2.682786 -0.4642975 76 3
1.1629186 -2.6416829 0.35439602 80 11
1.1720514 -2.6636896 -0.35732079 60 4
1.1658524 -2.6508563 0.45866597 76 12
1.1742891 -2.6700389 -0.2551921 63 5
1.1621884 -2.6437771 0.56135994 74 13
1.1689938 -2.6605184 -0.15229757 58 6
1.1581658 -2.6371243 0.66495538 59 14
1.1638637 -2.651355 -0.050542012 65 7
1.1588588 -2.641206 0.77283376 67 15
1.1742079 -2.6851006 -0.7852571 58 0
1.1604984 -2.6550126 0.050577011 80 8
1.1749455 -2.6893437 -0.6775524 48 1
1.1549616 -2.6448603 0.15125096 64 9
1.1620106 -2.6610024 -0.56441313 56 2
1.1508882 -2.6367872 0.25170597 74 10
1.1682506 -2.6778414 -0.46273312 78 3
1.1536906 -2.645726 0.35439602 69 11
1.1611602 -2.664125 -0.35683331 60 4
1.15817 -2.6585317 0.4592917 76 12
1.1617786 -2.6668153 -0.25449485 61 5
1.1466825 -2.6334178 0.55830699 74 13
1.1589031 -2.6627514 -0.15219292 56 6
1.1497307 -2.6429379 0.66540521 61 14
1.1585885 -2.664571 -0.050716542 68 7
1.1480918 -2.6416917 0.77179843 70 15
1.1655958 -2.6909554 -0.78577471 56 0
1.1456624 -2.6462016 0.05033268 77 8
1.1609071 -2.6826982 -0.67485303 48 1
1.1457222 -2.648876 0.15125097 62 9
1.1527147 -2.6650424 -0.56441313 56 2
1.1424679 -2.642617 0.25187993 72 10
1.1620305 -2.6891561 -0.46398458 78 3
1.1365771 -2.6315134 0.35195863 69 11
1.1518532 -2.6681621 -0.35683331 60 4
1.1481006 -2.6607447 0.45897886 74 12
1.152463 -2.6708543 -0.25449488 63 5
1.138261 -2.6392071 0.55868894 77 13
1.1440663 -2.6539421 -0.15146022 52 6
1.1397271 -2.6451452 0.66495532 59 14
1.1492807 -2.6685991 -0.050716542 76 7
1.1396277 -2.6474576 0.7723161 77 15
1.1569574 -2.6967831 -0.78629225 58 0
1.1403583 -2.6593738 0.050507199 80 8
1.149233 -2.6813607 -0.6735034 49 1
1.1317501 -2.6418443 0.15062295 64 9
1.1457243 -2.6744642 -0.56555802 59 2
1.1324519 -2.6447575 0.25170597 74 10
1.1487503 -2.6841159 -0.46242023 88 3
1.1250422 -2.6299894 0.35122743 66 11
1.1394111 -2.6648655 -0.35585868 57 4
1.1388059 -2.6647363 0.45897886 72 12
1.1400011 -2.6675329 -0.25379762 63 5
1.1290414 -2.6431644 0.55868894 79 13
1.1316587 -2.6505721 -0.15104154 52 6
1.1258976 -2.6383533 0.66225594 59 14
1.1383889 -2.6689155 -0.05064673 68 7
1.1296221 -2.6496425 0.77179849 70 15
1.1467812 -2.6990271 -0.78577471 56 0
1.1310687 -2.6633382 0.050507203 80 8
1.1406273 -2.6871498 -0.67395324 48 1
1.1225213 -2.6457787 0.15062295 68 9
1.1294804 -2.6621811 -0.56212342 66 2
1.124769 -2.6523628 0.25205424 74 10
1.1386031 -2.6862905 -0.46210739 78 3
1.1174037 -2.6375566 0.35171491 66 11
1.1270063 -2.6615148 -0.35488343 63 4
1.1248775 -2.6577799 0.45710161 74 12
1.1337887 -2.6788349 -0.25449488 63 5
1.1213378 -2.6507053 0.55945182 83 13
1.1223992 -2.6545062 -0.15104154 50 6
1.1174397 -2.6440625 0.66270578 56 14
1.1267315 -2.6673467 -0.050542012 73 7
1.12262 -2.6589088 0.77335143 73 15
1.1336067 -2.6941109 -0.7831865 52 0
1.1209903 -2.665427 0.0504723 77 8
1.1319958 -2.6929111 -0.67440313 49 1
1.1125054 -2.6478388 0.15051825 70 9
1.120181 -2.6661074 -0.56212342 66 2
1.1077888 -2.6379032 0.25031114 74 10
1.1276906 -2.6866059 -0.46148166 78 3
1.1066544 -2.6377795 0.35122743 64 11
1.1177086 -2.6654325 -0.3548834 55 4
1.1148295 -2.6598685 0.45678872 79 12
1.1174995 -2.6662388 -0.25292605 65 5
1.1105615 -2.6509821 0.55868864 83 13
1.1169835 -2.6676192 -0.1515649 56 6
1.1059463 -2.6425538 0.66135609 57 14
1.1135556 -2.66204 -0.050367493 67 7
1.1066253 -2.6467702 0.76869273 78 15
1.1062974 -2.6564019 0.05022797 80 8
1.1255845 -2.7040429 -0.67620283 49 1
1.1040232 -2.6535504 0.15062293 66 9
1.1108676 -2.6700013 -0.56212342 66 2
1.0985744 -2.6417542 0.25031117 76 10
1.1175474 -2.6887021 -0.46116883 85 3
1.0989631 -2.6452928 0.35171488 68 11
1.1114428 -2.6766508 -0.35585868 58 4
1.1055385 -2.663744 0.45678878 76 12
1.1074224 -2.6682832 -0.25275177 63 5
1.0982914 -2.6475885 0.5571624 83 13
1.1076653 -2.6715019 -0.1515649 56 6
1.1004457 -2.6554003 0.66360569 64 14
1.1057867 -2.669605 -0.050437294 68 7
1.0981185 -2.6524019 0.76921034 73 15
1.1169809 -2.7073164 -0.78473938 6 0
1.0970182 -2.6602473 0.05022797 82 8
1.1087126 -2.6899385 -0.67170376 49 1
1.0947539 -2.6573882 0.15062295 66 9
1.1015408 -2.6738627 -0.56212342 69 2
1.0908637 -2.6492572 0.25065976 78 10
1.1043961 -2.6834528 -0.45960447 78 3
1.0874569 -2.643605 0.35098368 69 11
1.0998279 -2.6750064 -0.35512713 67 4
1.0969843 -2.6694138 0.45710161 83 12
1.1011308 -2.6795042 -0.25344902 61 5
1.0875514 -2.647774 0.55639887 83 13
1.0899892 -2.6550283 -0.1504135 50 6
1.0896904 -2.6556189 0.66270578 61 14
1.0949441 -2.669749 -0.050367493 71 7
1.0888531 -2.6562188 0.76921034 73 15
1.100949 -2.6951034 -0.78008062 3 0
1.0884808 -2.6659114 0.050262865 73 8
1.0993162 -2.6937916 -0.6717037 50 1
1.0801909 -2.6482475 0.14989021 70 9
1.0914593 -2.6758738 -0.56174183 63 2
1.0816091 -2.6530492 0.25065979 83 10
1.0965132 -2.6909504 -0.4602302 78 3
1.0759764 -2.6418695 0.35025245 68 11
1.0882386 -2.6733136 -0.35439593 60 4
1.0884038 -2.6750562 0.45741451 79 12
1.0910197 -2.6814857 -0.25327468 65 5
1.0768232 -2.6479175 0.55563569 79 13
1.081467 -2.6606672 -0.15051818 45 6
1.0760131 -2.6485741 0.6600064 61 14
1.0856179 -2.6735549 -0.050367493 67 7
1.0781219 -2.6564233 0.76817507 77 15
1.0929831 -2.7025115 -0.78111583 4 0
1.0791687 -2.6696944 0.050262865 71 8
1.0869864 -2.6903856 -0.66990411 49 1
1.0701921 -2.6501508 0.14978556 62 9
1.077701 -2.668745 -0.55945212 63 2
1.0708504 -2.6531129 0.25031114 78 10
1.0863744 -2.6929293 -0.45991731 85 3
1.0689745 -2.6511323 0.35098365 71 11
1.0759325 -2.6697309 -0.3534213 57 4
1.0716789 -2.6605165 0.45428583 76 12
1.0809087 -2.68343 -0.2531004 63 5
1.0661073 -2.6480179 0.55487245 77 13
1.0714273 -2.6625731 -0.1504135 47 6
1.0645797 -2.6468902 0.65865672 59 14
1.0747871 -2.6736166 -0.050297678 68 7
1.073164 -2.6709259 0.77128083 73 15
1.0691819 -2.6704416 -0.77076316 3 0
1.0705864 -2.6753018 0.050297774 63 8
1.0804833 -2.7014008 -0.6717037 50 1
1.0606564 -2.6518302 0.1496809 56 9
1.0669215 -2.6688445 -0.55868888 59 2
1.0556682 -2.6420338 0.248917 65 10
1.0791656 -2.7022083 -0.4608559 82 3
1.0567706 -2.6474733 0.35000873 69 11
1.0666064 -2.6734705 -0.3534213 58 4
1.0650462 -2.6695597 0.45522442 86 12
1.067845 -2.677933 -0.2522288 65 5
1.0583115 -2.6553705 0.55563569 83 13
1.0621266 -2.666297 -0.1504135 47 6
1.0560546 -2.6524005 0.65910655 64 14
1.0629563 -2.669735 -0.050158061 71 7
1.0585868 -2.6601102 0.76713973 77 15
1.0584303 -2.6705654 -0.76972783 3 0
1.0565513 -2.6658244 0.05005344 48 8
1.0686483 -2.697722 -0.66990411 31 1
1.0528638 -2.6592305 0.14989023 56 9
1.0575992 -2.6725523 -0.55868888 63 2
1.0464398 -2.6457028 0.24891667 63 10
1.0643862 -2.691077 -0.45835295 82 3
1.0494449 -2.654655 0.3504962 71 11
1.0577352 -2.6769927 -0.3534213 60 4
1.0549959 -2.6714239 0.45491153 76 12
1.0548337 -2.6723781 -0.25135726 69 5
1.045175 -2.6479082 0.55334592 83 13
1.0540118 -2.6716621 -0.15051816 52 6
1.0472534 -2.6558878 0.65910655 64 14
1.0536311 -2.6734293 -0.050158065 71 7
1.0485865 -2.6619921 0.76662213 80 15
1.0495685 -2.6740606 -0.76972783 3 0
1.0486997 -2.6732197 0.050123252 45 8
1.0499775 -2.6778502 -0.66405541 20 1
1.0435752 -2.6628895 0.14989023 27 9
1.0494471 -2.6778727 -0.55907047 66 2
1.0391138 -2.6528687 0.2492653 55 10
1.0542665 -2.6929367 -0.45804009 85 3
1.0380019 -2.6527565 0.34976497 78 11
1.0498303 -2.684366 -0.35390878 57 4
1.0449452 -2.6732507 0.4545987 83 12
1.0481417 -2.681428 -0.25188017 65 5
1.0330679 -2.6442258 0.5518195 86 13
1.0410475 -2.666023 -0.14999482 56 6
1.0401016 -2.6649733 0.6604563 59 14
1.0450194 -2.6789539 -0.050192971 73 7
1.0385866 -2.6638365 0.76610458 77 15
1.0444252 -2.6885128 -0.77283376 3 0
1.0393623 -2.6768641 0.050123252 48 8
1.0413287 -2.683316 -0.6645053 18 1
1.0335513 -2.6646538 0.14978556 39 9
1.0386732 -2.6778588 -0.55830723 66 2
1.0312877 -2.6601949 0.24961391 57 10
1.0462869 -2.7002845 -0.45866585 88 3
1.026585 -2.6508105 0.34903377 71 11
1.0361545 -2.6769066 -0.35244632 58 4
1.0377456 -2.6824086 0.45553729 76 12
1.0409321 -2.690645 -0.25240314 67 5
1.0280797 -2.6588027 0.55410922 83 13
1.0302954 -2.6659148 -0.14978547 56 6
1.0244732 -2.6522274 0.65640718 61 14
1.0378221 -2.6881816 -0.050297681 68 7
1.0299767 -2.6692476 0.76662213 80 15
1.0281016 -2.6741104 -0.76765728 4 0
1.0292948 -2.6786087 0.050088342 52 8
1.0326544 -2.6887536 -0.6649552 18 1
1.0206647 -2.6589222 0.14926219 41 9
1.0243944 -2.6686382 -0.55563593 63 2
1.0212815 -2.6619184 0.24943992 65 10
1.0354404 -2.7002311 -0.45804009 76 3
1.0151947 -2.6488166 0.34830254 66 11
1.0253836 -2.6768 -0.35195854 58 4
1.0234321 -2.6731012 0.45334724 86 12
1.0267913 -2.6832774 -0.25135726 67 5
1.0159862 -2.6550407 0.55258304 83 13
1.0231233 -2.6750913 -0.15009949 58 6
1.0152088 -2.6557872 0.65640718 61 14
1.0212958 -2.6731081 -0.04994864 78 7
1.0199641 -2.6710219 0.76610452 73 15
1.0176069 -2.676055 -0.76713973 4 0
1.0206488 -2.6840546 0.050123248 48 8
1.0232627 -2.6923418 -0.6649552 21 1
1.0120862 -2.6643357 0.14936686 45 9
1.0132127 -2.6687043 -0.55487269 63 2
1.0072773 -2.6544669 0.24839371 65 10
1.0248361 -2.7021608 -0.45772722 78 3
1.0066463 -2.6542003 0.3485463 71 11
1.0160336 -2.6803627 -0.35195884 60 4
1.0126951 -2.6729624 0.45272142 86 12
1.014596 -2.6793921 -0.25066 67 5
1.0090277 -2.6660914 0.55410922 86 13
1.0154315 -2.6844275 -0.1504135 56 6
1.005468 -2.6594901 0.65640712 64 14
1.0119581 -2.6766567 -0.049948636 76 7
1.0065374 -2.663723 0.7629987 73 15
1.004858 -2.6705501 -0.76455146 4 0
1.0072849 -2.6784189 0.049948726 52 8
1.0120164 -2.692426 -0.66405541 35 1
1.0016122 -2.6661577 0.14926219 46 9
1.0073433 -2.6814134 -0.55678076 66 2
0.99520385 -2.6505058 0.24769647 65 10
1.0160915 -2.7075715 -0.45804009 85 3
0.99900293 -2.6634476 0.34927747 68 11
1.0062028 -2.6840687 -0.35195884 60 4
1.0042777 -2.6803563 0.45334724 86 12
1.0033712 -2.6793613 -0.2503114 72 5
0.99420673 -2.6548889 0.55105627 79 13
1.0025547 -2.6786027 -0.14989014 52 6
0.99754435 -2.6666343 0.65730697 64 14
1.0042417 -2.685967 -0.050053351 73 7
0.99676722 -2.6673944 0.7629987 77 15
0.99438947 -2.6724045 -0.76403379 6 0
0.99653488 -2.6781702 0.049878918 50 8
0.99989504 -2.6886363 -0.66225582 36 1
0.99090725 -2.6658938 0.14905286 56 9
0.99682498 -2.6832473 -0.55639917 59 2
0.98825687 -2.6616068 0.24839371 67 10
1.0047864 -2.7075732 -0.45741433 85 3
0.98624623 -2.6576138 0.34805882 69 11
0.99958879 -2.6950095 -0.35293347 57 4
0.99491549 -2.6838453 0.45334721 86 12
0.99539697 -2.6865838 -0.25066 67 5
0.98446971 -2.6585147 0.55105627 83 13
0.99134374 -2.6785133 -0.14968079 58 6
0.98641175 -2.6666172 0.65640718 64 14
0.99347246 -2.6857047 -0.049983531 73 7
0.98611057 -2.6672335 0.76196337 77 15
0.98999697 -2.6863916 -0.76713973 6 0
0.98626584 -2.6777072 0.049809106 56 8
0.99030048 -2.6901088 -0.66180593 41 1
0.97792381 -2.6579187 0.14842483 45 9
0.98771238 -2.6845233 -0.55601758 69 2
0.97989029 -2.6646986 0.24839373 65 10
0.99286836 -2.7014463 -0.45585001 82 3
0.97537422 -2.6552794 0.34732759 68 11
0.98517329 -2.6834013 -0.35098389 60 4
0.98600966 -2.68713 0.45334721 83 12
0.98557925 -2.685957 -0.2503114 69 5
0.97881657 -2.6689672 0.55258304 86 13
0.98086208 -2.6759882 -0.14936677 56 6
0.97400731 -2.6587243 0.6537078 61 14
0.9866237 -2.6946185 -0.05008826 68 7
0.97925198 -2.6759317 0.76351643 84 15
0.98326039 -2.6970911 -0.76921028 6 0
0.97828233 -2.6848912 0.049878918 53 8
0.97957033 -2.6898866 -0.66090608 33 1
0.96863991 -2.6613162 0.14842483 58 9
0.97497815 -2.6787302 -0.55410939 63 2
0.9692204 -2.6643577 0.2480451 65 10
0.98343235 -2.7048955 -0.45585001 82 3
0.96813387 -2.6642652 0.34805882 71 11
0.97444493 -2.6830928 -0.35049611 58 4
0.97190601 -2.6775572 0.45115709 79 12
0.97755736 -2.6931264 -0.25066003 72 5
0.96815532 -2.6686764 0.5518198 86 13
0.9721958 -2.6812742 -0.14947146 58 6
0.96472067 -2.6621079 0.6537078 61 14
0.97176397 -2.6830044 -0.049809016 76 7
0.9705627 -2.68115 0.76403391 77 15
0.96925247 -2.6877854 -0.76558673 6 0
0.96890396 -2.6882899 0.049878918 60 8
0.96951473 -2.6914561 -0.66045618 20 1
0.95934451 -2.664681 0.14842483 58 9
0.96562207 -2.6821175 -0.55410945 63 2
0.95721579 -2.6602259 0.24734783 67 10
0.97599 -2.7138884 -0.45678863 88 3
0.95949954 -2.6694963 0.34830254 68 11
0.96507335 -2.6864772 -0.35049641 60 4
0.96322113 -2.6827929 0.45146996 83 12
0.96411079 -2.6852708 -0.24961412 74 5
0.96082294 -2.6775837 0.55296433 88 13
0.96417916 -2.6884112 -0.14968079 58 6
0.95542246 -2.6654589 0.65370774 61 14
0.9596945 -2.6788499 -0.049669396 78 7
0.95794207 -2.6754274 0.76144576 80 15
0.95791757 -2.6856937 -0.76403385 9 0
0.95615709 -2.6822376 0.049704388 66 8
0.96534616 -2.7095098 -0.66405541 21 1
0.95137674 -2.6717768 0.14863418 60 9
0.95361912 -2.6780741 -0.55258304 63 2
0.94792414 -2.6635506 0.24734816 67 10
0.96518689 -2.7135558 -0.45616287 85 3
0.94951022 -2.6709592 0.34805882 73 11
0.95569026 -2.6898298 -0.35049608 60 4
0.95385063 -2.6861391 0.45147002 83 12
0.95206481 -2.6811101 -0.24891688 69 5
0.94556111 -2.6642694 0.54953009 83 13
0.95412117 -2.689878 -0.14957611 56 6
0.94611251 -2.6687779 0.6537078 61 14
0.95300937 -2.689723 -0.049809016 78 7
0.94730741 -2.6751132 0.76041055 80 15
0.94917929 -2.6908429 -0.76455146 12 0
0.94412905 -2.6780155 0.049564775 68 8
0.95134884 -2.6999969 -0.66090608 21 1
0.94071811 -2.6713135 0.14842483 58 9
0.94622159 -2.6869416 -0.55372781 66 2
0.93729764 -2.663085 0.24699922 65 10
0.95439804 -2.713182 -0.45553717 85 3
0.93754762 -2.6667662 0.34708384 69 11
0.9476108 -2.6968951 -0.35098389 63 4
0.94577736 -2.6931798 0.45209575 83 12
0.94534063 -2.6919363 -0.24961412 67 5
0.93625563 -2.6675541 0.54952979 86 13
0.94274253 -2.6875381 -0.1492621 58 6
0.93808031 -2.6757421 0.65460759 61 14
0.94295371 -2.6911461 -0.049774114 81 7
0.93924069 -2.68205 0.76144576 80 15
0.93978113 -2.69414 -0.76455152 4 0
0.93609154 -2.6850705 0.049634576 70 8
0.93935347 -2.6959405 -0.65910649 21 1
0.93073106 -2.6726944 0.14832014 62 9
0.93683696 -2.690228 -0.55372781 66 2
0.92799634 -2.6663404 0.24699922 65 10
0.94232541 -2.709034 -0.45428568 85 3
0.92692918 -2.6662729 0.34659639 71 11
0.93558544 -2.6926863 -0.35000867 63 4
0.93637085 -2.6964645 0.45209575 83 12
0.93332428 -2.6876915 -0.24891691 69 5
0.92693812 -2.6708062 0.54952979 79 13
0.93335575 -2.6908123 -0.1492621 61 6
0.92490488 -2.6679528 0.65190816 64 14
0.93551761 -2.7000897 -0.049878825 83 7
0.92797625 -2.6798353 0.75989276 77 15
0.93226033 -2.7028828 -0.76610446 6 0
0.9280169 -2.6921029 0.049704388 71 8
0.93311119 -2.708415 -0.66135597 22 1
0.92074543 -2.6740391 0.14821549 58 9
0.92552257 -2.6879129 -0.55258292 59 2
0.91997993 -2.6733313 0.24734783 67 10
0.93414819 -2.716043 -0.45491141 85 3
0.92019796 -2.6770012 0.34757134 69 11
0.92553544 -2.6940582 -0.34976488 65 4
0.92182064 -2.6847699 0.44959274 83 12
0.92781872 -2.7022393 -0.24996276 69 5
0.9188841 -2.6777387 0.55029297 83 13
0.92266136 -2.6902754 -0.14905275 58 6
0.91305852 -2.6637917 0.65010858 66 14
0.92090261 -2.6882045 -0.049599588 78 7
0.92049354 -2.6885419 0.76144576 80 15
0.91907895 -2.6951497 -0.76299858 6 0
0.91990393 -2.6991117 0.049774203 70 8
0.92490798 -2.7153454 -0.66225582 21 1
0.90883136 -2.6696739 0.14779679 56 9
0.91486925 -2.6874101 -0.55181968 63 2
0.90807569 -2.668982 0.24665062 65 10
0.92402577 -2.717417 -0.45459855 82 3
0.90957057 -2.6764376 0.34708384 69 11
0.91548735 -2.6953931 -0.34952116 63 4
0.91180843 -2.686101 0.44927984 79 12
0.91325706 -2.6903684 -0.24856828 72 5
0.90953141 -2.6809299 0.55029297 79 13
0.91326493 -2.69348 -0.14905275 58 6
0.90625656 -2.674345 0.65190816 64 14
0.91087157 -2.6895089 -0.049564682 81 7
0.90676785 -2.6789296 0.75782228 73 15
0.91213435 -2.7056639 -0.76506913 13 0
0.90536904 -2.6871459 0.049494959 70 8
0.91604584 -2.7204039 -0.66270566 23 1
0.9025228 -2.6802444 0.14821549 60 9
0.90423012 -2.6868663 -0.5510565 59 2
0.89621323 -2.6645815 0.24595337 65 10
0.91264653 -2.7150083 -0.45365992 88 3
0.90022206 -2.6795964 0.34708384 71 11
0.90654391 -2.6984141 -0.34952116 63 4
0.90541118 -2.6966002 0.45053136 90 12
0.90386063 -2.6935401 -0.24856828 72 5
0.89642215 -2.6729205 0.54800332 83 13
0.90385723 -2.6966515 -0.14905275 58 6
0.89738297 -2.6773355 0.65190816 64 14
0.90258366 -2.694411 -0.049599592 78 7
0.89849222 -2.6837533 0.75833982 80 15
0.91110063 -2.7324979 -0.77179837 34 0
0.89645308 -2.6901338 0.049494963 73 8
0.89963025 -2.7012398 -0.65730715 22 1
0.89362967 -2.6832225 0.14821549 58 9
0.89531541 -2.6898499 -0.5510565 59 2
0.88925886 -2.6732106 0.24647631 63 10
0.90239179 -2.7142711 -0.45303422 85 3
0.88757592 -2.6712642 0.34562144 71 11
0.89759094 -2.7014055 -0.34952116 63 4
0.89584148 -2.6977134 0.4502185 83 12
0.89492351 -2.6965225 -0.24856828 72 5
0.88755333 -2.6758783 0.54800361 79 13
0.89239633 -2.6920507 -0.14863408 61 6
0.88727349 -2.6765969 0.65100831 66 14
0.89490092 -2.7011855 -0.049669396 76 7
0.88958764 -2.6867185 0.75833988 80 15
0.90505934 -2.744678 -0.77438658 43 0
0.88752717 -2.6930916 0.049494959 71 8
0.89798349 -2.7264194 -0.66270566 47 1
0.87988657 -2.6730454 0.14748278 62 9
0.88761812 -2.6965334 -0.55181968 63 2
0.88163435 -2.67993 0.24682492 63 10
0.89462006 -2.7210016 -0.45365992 85 3
0.87871265 -2.6741929 0.34562144 73 11
0.88505882 -2.6950917 -0.34830278 65 4
0.8882671 -2.7064548 0.45115712 90 12
0.88550532 -2.69963 -0.24856828 72 5
0.87867528 -2.6788073 0.54800338 83 13
0.8809756 -2.6874042 -0.14821541 63 6
0.87671119 -2.6759741 0.65010852 66 14
0.88422227 -2.7004919 -0.049599588 78 7
0.8808049 -2.6916432 0.75885755 77 15
0.8997795 -2.7626722 -0.7785278 52 0
0.87750208 -2.6942718 0.049460057 82 8
0.88966703 -2.7332439 -0.66360551 55 1
0.87055087 -2.6761005 0.14748278 64 9
0.87530124 -2.6923006 -0.55029327 63 2
0.87057465 -2.6793537 0.24647631 60 10
0.88464075 -2.7242622 -0.45365992 88 3
0.86998558 -2.6791315 0.34586516 78 11
0.87442046 -2.6943884 -0.34781528 65 4
0.87271988 -2.6907487 0.44802839 76 12
0.87607634 -2.7027042 -0.24856827 74 5
0.8688513 -2.6820095 0.54800332 83 13
0.87111992 -2.6906149 -0.14821541 63 6
0.86509782 -2.6736069 0.64875883 68 14
0.87232792 -2.6959517 -0.049459971 78 7
0.86962026 -2.6891868 0.75730467 80 15
0.88006896 -2.7345333 -0.76972783 53 0
0.86884576 -2.7012773 0.049529865 85 8
0.87904716 -2.7346308 -0.66315562 51 1
0.86303782 -2.6848273 0.14779679 70 9
0.86589795 -2.6953394 -0.55029327 59 2
0.85817146 -2.6728907 0.24560472 67 10
0.87572962 -2.7292144 -0.45397279 92 3
0.86197883 -2.6879735 0.34659639 75 11
0.86575085 -2.7013559 -0.34830278 65 4
0.86332226 -2.6937783 0.44802836 90 12
0.86420572 -2.6981561 -0.24787103 76 5
0.8594836 -2.6850262 0.54800332 86 13
0.86293948 -2.6974432 -0.14842473 67 6
0.85754025 -2.682179 0.65010852 66 14
0.8616938 -2.6951704 -0.049390156 78 7
0.8590523 -2.6885259 0.75626945 80 15
0.87051827 -2.7375886 -0.76972783 63 0
0.85624731 -2.6927097 0.049320441 85 8
0.86938393 -2.7356737 -0.66270566 55 1
0.85486978 -2.6916308 0.14800614 72 9
0.85529631 -2.6946034 -0.54953009 59 2
0.84943867 -2.6777697 0.24577908 82 10
0.86249334 -2.7189233 -0.45178273 88 3
0.8524608 -2.6889248 0.3463527 68 11
0.85558879 -2.7004273 -0.34781495 67 4
0.85510629 -2.7005422 0.44865417 90 12
0.8547824 -2.7011561 -0.24787103 72 5
0.84702122 -2.6766305 0.5457139 83 13
0.85519445 -2.7040989 -0.14863408 67 6
0.84864092 -2.6850078 0.65010846 66 14
0.85408759 -2.7038827 -0.04949487 81 7
0.84849942 -2.6878235 0.75523406 80 15
0.86085624 -2.7386174 -0.76921022 65 0
0.84684294 -2.695682 0.049320441 88 8
0.85749406 -2.7312548 -0.66090608 55 1
0.845469 -2.6945987 0.14800616 72 9
0.8475312 -2.7011712 -0.55029327 59 2
0.84055436 -2.6805716 0.24577907 78 10
0.85240656 -2.7200325 -0.45146987 92 3
0.84010291 -2.6824121 0.34513396 73 11
0.84615761 -2.7033975 -0.34781495 65 4
0.84508485 -2.7016253 0.44834128 86 12
0.84582019 -2.7039759 -0.24787103 72 5
0.83767283 -2.6795712 0.5457136 77 13
0.8421762 -2.6956296 -0.14800605 65 6
0.84042519 -2.6916742 0.65100831 64 14
0.84285736 -2.7011206 -0.04939016 76 7
0.84141207 -2.6981459 0.75730467 80 15
0.8547287 -2.752676 -0.77231616 65 0
0.83920574 -2.7043514 0.049425155 91 8
0.84680074 -2.7305083 -0.66000658 60 1
0.83132797 -2.6822712 0.14716876 79 9
0.83635378 -2.698487 -0.54914838 56 2
0.83119178 -2.6834891 0.24577905 85 10
0.84465933 -2.7286525 -0.45240849 85 3
0.831321 -2.6872244 0.34537765 78 11
0.83437002 -2.6987486 -0.34684032 67 4
0.8368156 -2.7083337 0.44896704 86 12
0.83637631 -2.706912 -0.24787103 72 5
0.83063114 -2.6899822 0.54724038 79 13
0.82922781 -2.6871018 -0.14737801 63 6
0.82815284 -2.6852806 0.64875883 68 14
0.83460158 -2.7078686 -0.049459971 76 7
0.83085161 -2.6973743 0.75626945 80 15
0.84171617 -2.744561 -0.76921028 66 0
0.82683098 -2.6977046 0.049250629 88 8
0.83954722 -2.740901 -0.66180587 57 1
0.82079065 -2.6813371 0.14695941 72 9
0.82635444 -2.6995127 -0.54876673 59 2
0.82298571 -2.6901848 0.24612768 85 10
0.83570641 -2.7334731 -0.4527213 92 3
0.82251573 -2.6920087 0.34562144 73 11
0.82610428 -2.7054417 -0.3473275 65 4
0.82389718 -2.6999018 0.44708982 86 12
0.82761163 -2.7137704 -0.24821962 74 5
0.82123619 -2.6928651 0.54724038 83 13
0.82217258 -2.6976218 -0.14779669 63 6
0.81763875 -2.6844265 0.64785904 68 14
0.82281488 -2.7031131 -0.049320351 83 7
0.82255495 -2.7039542 0.75730467 84 15
0.82997245 -2.74208 -0.76765722 58 0
0.81856811 -2.7044022 0.049320441 88 8
0.82828176 -2.738219 -0.66045618 48 1
0.8125819 -2.6880095 0.14716876 73 9
0.81588727 -2.700644 -0.54838514 56 2
0.81081653 -2.6855536 0.24543042 81 10
0.82511193 -2.734627 -0.45240849 88 3
0.81311417 -2.6948633 0.34562144 75 11
0.81722814 -2.7102096 -0.34757155 72 4
0.81389809 -2.70087 0.44677699 79 12
0.81468695 -2.7051966 -0.24717379 74 5
0.81192654 -2.697737 0.54762197 92 13
0.8122794 -2.7006171 -0.14779669 67 6
0.80779457 -2.6874053 0.64785904 70 14
0.81337452 -2.7059691 -0.049320355 83 7
0.80810964 -2.6901577 0.75264591 73 15
0.81818253 -2.7375569 -0.76558673 57 0
0.8063612 -2.6997201 0.049180821 88 8
0.82102728 -2.7505729 -0.66270566 60 1
0.80205172 -2.6870017 0.14695941 73 9
0.80701607 -2.7053568 -0.54876673 63 2
0.80029887 -2.6845491 0.24508183 77 10
0.81330502 -2.7299175 -0.45115694 85 3
0.80209857 -2.6940203 0.34513396 71 11
0.80672342 -2.7112839 -0.3473275 67 4
0.8050285 -2.7055876 0.44708979 83 12
0.80523896 -2.7080238 -0.24717377 72 5
0.79859036 -2.6873813 0.54495066 77 13
0.80625945 -2.7149241 -0.14842474 63 6
0.80062634 -2.6976819 0.64965868 73 14
0.8050614 -2.7126255 -0.04939016 86 7
0.79871452 -2.6929619 0.75264591 77 15
0.80971539 -2.744102 -0.76662207 58 0
0.79740411 -2.7023795 0.049180821 82 8
0.80694062 -2.7364585 -0.6586566 48 1
0.79492539 -2.6974485 0.1473781 75 9
0.7981227 -2.7100408 -0.54914844 69 2
0.7920481 -2.6911488 0.24543042 77 10
0.8031323 -2.7288096 -0.45053127 88 3
0.79091978 -2.6890476 0.34415898 73 11
0.79772824 -2.7139442 -0.3473275 67 4
0.79557931 -2.7083814 0.44708982 83 12
0.7957812 -2.7108183 -0.24717377 74 5
0.7885682 -2.6862471 0.54418743 83 13
0.79162943 -2.6984177 -0.14737801 63 6
0.79496574 -2.7115419 0.65235806 73 14
0.79390109 -2.7096622 -0.049285442 81 7
0.79093772 -2.7012956 0.75419885 84 15
0.80061108 -2.7467721 -0.76662207 51 0
0.78796577 -2.7051463 0.049180821 85 8
0.79683912 -2.7373869 -0.65820664 55 1
0.78327334 -2.6925354 0.14695939 77 9
0.78858292 -2.7107873 -0.54876673 63 2
0.78311944 -2.6937604 0.24543042 81 10
0.79305124 -2.7296996 -0.45021841 82 3
0.78208232 -2.6936986 0.34440276 78 11
0.78659022 -2.7109933 -0.3465963 69 4
0.78612041 -2.7111418 0.44708982 83 12
0.7885322 -2.7212341 -0.24787103 74 5
0.78137267 -2.6965265 0.5457136 83 13
0.7822054 -2.7011645 -0.14737801 67 6
0.78007865 -2.695581 0.64785904 74 14
0.78554887 -2.7162588 -0.049355254 81 7
0.78150386 -2.7040401 0.75419885 80 15
0.80761951 -2.8091009 -0.7831865 9 0
0.77851856 -2.7078805 0.049180821 88 8
0.78620255 -2.7364058 -0.65730715 46 1
0.77276748 -2.6914141 0.14675006 75 9
0.77593464 -2.7042241 -0.54685873 56 2
0.77433968 -2.700443 0.24577907 85 10
0.78304064 -2.7325878 -0.45021838 92 3
0.77212733 -2.6945033 0.34415895 73 11
0.77384347 -2.7022719 -0.34513384 69 4
0.77447826 -2.7062731 0.44583833 83 12
0.77683681 -2.7163079 -0.24717379 72 5
0.77148408 -2.6993721 0.5457136 83 13
0.77339685 -2.7078543 -0.14758734 67 6
0.76805419 -2.6909268 0.64605951 74 14
0.77331835 -2.7093701 -0.049180731 83 7
0.77047044 -2.7011783 0.75264591 77 15
0.81837404 -2.8843842 -0.80337441 9 0
0.77077031 -2.718411 0.049320441 88 8
0.78519922 -2.771143 -0.6649552 7 1
0.76289803 -2.6942284 0.14675006 72 9
0.76542097 -2.7031381 -0.54609549 56 2
0.76165366 -2.6916268 0.24473317 81 10
0.77511024 -2.7410071 -0.451157 88 3
0.76278657 -2.6992264 0.34440276 81 11
0.76609188 -2.7127316 -0.34610879 69 4
0.7634809 -2.705291 0.4452126 83 12
0.76363081 -2.7076313 -0.24612789 72 5
0.76099056 -2.6982696 0.54495037 77 13
0.76339793 -2.7086148 -0.14748268 67 6
0.75971317 -2.6973426 0.64695925 76 14
0.76229918 -2.7083364 -0.049110919 83 7
0.7584725 -2.6965454 0.75057536 77 15
0.79322296 -2.8352723 -0.78888047 3 0
0.75804424 -2.7095304 0.049111009 85 8
0.8180232 -2.9258854 -0.7013973 13 1
0.75456333 -2.7007225 0.14695942 75 9
0.76501113 -2.7399621 -0.55296463 20 2
0.74964172 -2.6867239 0.24403593 77 10
0.76134479 -2.73051 -0.44896692 82 3
0.75495911 -2.7076082 0.34513393 75 11
0.75715077 -2.7173014 -0.34635255 65 4
0.75403327 -2.7079396 0.4452126 83 12
0.75631154 -2.717958 -0.24682516 76 5
0.75004411 -2.6972573 0.54418743 79 13
0.75346529 -2.711395 -0.14748268 65 6
0.75086462 -2.7038643 0.64785904 73 14
0.75498116 -2.718688 -0.049250547 86 7
0.74905545 -2.6991763 0.75057536 77 15
0.79098654 -2.8599567 -0.79509217 1 0
0.74739736 -2.7041891 0.048971396 82 8
0.82491022 -2.9866714 -0.71534419 4 1
0.74607521 -2.7030797 0.14695942 73 9
0.7887643 -2.8596921 -0.57662487 10 2
0.7437852 -2.696619 0.24473317 78 10
0.75796413 -2.749896 -0.45178273 15 3
0.74381369 -2.7003977 0.34391525 78 11
0.74861032 -2.7196667 -0.34635255 67 4
0.74866557 -2.7217228 0.44708979 86 12
0.74882507 -2.7241628 -0.24717377 74 5
0.7394864 -2.6920278 0.54266095 79 13
0.74282885 -2.7060447 -0.147064 69 6
0.74387044 -2.7098389 0.64875889 74 14
0.74696529 -2.7229745 -0.049285442 81 7
0.74210417 -2.7071059 0.75212824 80 15
0.7571246 -2.7771008 -0.77128083 1 0
0.73958343 -2.7146273 0.049111009 85 8
0.80781496 -2.9671116 -0.70994544 1 1
0.73511416 -2.7019413 0.14675006 75 9
0.81072778 -2.9819164 -0.60066688 8 2
0.73389697 -2.699327 0.24473317 81 10
0.7877602 -2.8994384 -0.47587359 12 3
0.73183066 -2.6954429 0.3429403 81 11
0.74019653 -2.7281396 -0.34708375 25 4
0.73765081 -2.7206359 0.44646409 83 12
0.7377938 -2.7230434 -0.24682517 72 5
0.73166704 -2.7023003 0.54418743 86 13
0.73186243 -2.7048934 -0.14685465 63 6
0.72884357 -2.6937358 0.64425981 76 14
0.73698032 -2.7256939 -0.049285442 81 7
0.73318487 -2.7135372 0.75316352 80 15
0.73340577 -2.7294841 -0.75730461 13 0
0.7296288 -2.7173197 0.049111009 88 8
0.81309575 -3.0302815 -0.72434235 1 1
0.72313702 -2.6969011 0.14633138 73 9
0.72399843 -2.7019987 0.24473317 78 10
0.80420685 -3.0034387 -0.49245566 11 3
0.72297263 -2.7019427 0.34342781 84 11
0.76147205 -2.8478155 -0.36195183 8 4
0.72512448 -2.7137787 0.44489971 90 12
0.73445553 -2.7487004 -0.24891688 34 5
0.72273642 -2.7067344 0.54456902 74 13
0.72447598 -2.7151501 -0.14727335 63 6
0.71896559 -2.6963892 0.64425981 74 14
0.72338086 -2.7148509 -0.049041111 83 7
0.7237317 -2.7180731 0.75368118 73 15
0.72269845 -2.7295153 0.049285531 93 8
0.71474004 -2.7032707 0.14654073 73 9
0.779854 -2.949543 -0.59303451 1 2
0.7125265 -2.6968048 0.24403596 78 10
0.71454948 -2.7082887 0.34391528 78 11
0.77885473 -2.9541085 -0.37511402 7 4
0.71413761 -2.7105627 0.44396108 83 12
0.74668342 -2.8340929 -0.25641227 21 5
0.71278387 -2.7073424 0.54418743 83 13
0.71702647 -2.7253888 -0.14769202 39 6
0.71054035 -2.7026517 0.64515966 76 14
0.71288395 -2.7134919 -0.048971307 86 7
0.71031457 -2.7056346 0.74954003 77 15
0.74802315 -2.8635075 -0.79302156 3 0
0.70761043 -2.7107379 0.04890158 88 8
0.79192048 -3.0358839 -0.72434229 1 1
0.70677972 -2.7094908 0.14675005 77 9
0.77450502 -2.9712453 -0.59685075 1 2
0.70411283 -2.7031312 0.24438456 78 10
0.77227288 -2.9669228 -0.48557255 1 3
0.70559102 -2.7126873 0.34415898 71 11
0.70812666 -2.7243874 0.44583833 86 12
0.74379855 -2.8636796 -0.25885266 25 5
0.70234269 -2.7060137 0.54342419 83 13
0.73608977 -2.8380725 -0.15365832 29 6
0.7025525 -2.7087657 0.64605945 74 14
0.71291184 -2.750684 -0.049599588 67 7
0.70037013 -2.7042353 0.74850482 73 15
0.73852348 -2.8659723 -0.79302156 21 0
0.69861722 -2.7130697 0.04890158 88 8
0.72454548 -2.8157964 -0.6712538 2 1
0.6977908 -2.7118199 0.14675006 72 9
0.76758105 -2.9852054 -0.59914035 1 2
0.69514531 -2.7054513 0.24438456 83 10
0.76046491 -2.9618144 -0.48432112 1 3
0.69215143 -2.6977067 0.34196532 78 11
0.76664525 -2.9880517 -0.37877011 1 4
0.69810742 -2.7228935 0.4452126 86 12
0.78127337 -3.0494857 -0.27541226 3 5
0.69336528 -2.7083278 0.54342419 79 13
0.72469431 -2.8327584 -0.15323964 36 6
0.69453198 -2.7148569 0.6469593 74 14
0.72656959 -2.8421531 -0.05120521 46 7
0.6923548 -2.7102859 0.74954003 77 15
0.69650763 -2.7425056 0.049390245 17 8
0.71088988 -2.8011835 -0.66720498 22 1
0.68635666 -2.7064955 0.14633138 70 9
0.77022523 -3.0372126 -0.60906243 1 2
0.68616974 -2.7077415 0.24438456 81 10
0.77682394 -3.0677264 -0.50121605 1 3
0.68514973 -2.707685 0.3429403 81 11
0.75231767 -2.9753134 -0.37681988 1 4
0.69005013 -2.7310591 0.44615117 76 12
0.7823292 -3.098557 -0.27959573 2 5
0.68438023 -2.7106123 0.54342419 77 13
0.68219292 -2.7059267 0.64425981 74 14
0.72543687 -2.8795757 -0.051833488 86 7
0.68430501 -2.7183065 0.75109297 80 15
0.77759039 -3.1071899 -0.858244 1 0
0.72382575 -2.8923507 0.05204301 9 8
0.7162357 -2.8641453 -0.68160194 11 1
0.67835754 -2.7146878 0.1466454 18 9
0.75338107 -3.017158 -0.60448301 1 2
0.67720538 -2.7141042 0.24473348 81 10
0.77417684 -3.1050537 -0.50684768 2 3
0.6761741 -2.7119861 0.34318402 73 11
0.74384713 -2.985626 -0.3777948 1 4
0.67526335 -2.7123661 0.44270968 86 12
0.77824253 -3.1283371 -0.2820361 2 5
0.6734935 -2.7092922 0.54266065 83 13
0.7140488 -2.8745773 -0.15522839 3 6
0.6722706 -2.7084088 0.64425981 74 14
0.71249062 -2.8704453 -0.051624056 78 7
0.67574191 -2.7244289 0.75212824 70 15
0.77043861 -3.1248906 -0.86238509 1 0
0.75340134 -3.0580823 0.054975014 22 8
0.70325255 -2.856673 0.15418178 8 9
0.69688541 -2.8329403 -0.56708443 10 2
0.66820312 -2.7183867 0.24490748 31 10
0.75296742 -3.0655332 -0.49996451 1 3
0.66622967 -2.7144465 0.34318405 75 11
0.74992102 -3.057739 -0.38656941 1 4
0.66720271 -2.7204621 0.44364825 79 12
0.76921511 -3.1387749 -0.28273332 2 5
0.66496634 -2.71544 0.54342419 79 13
0.70353562 -2.8751123 -0.15512374 3 6
0.66373807 -2.714525 0.64515966 74 14
0.70246649 -2.8729148 -0.051624056 67 7
0.66301841 -2.7136347 0.74850482 73 15
0.78551245 -3.2345662 -0.89189047 4 0
0.78215951 -3.223212 -0.76573324 3 1
0.72998774 -3.0105095 0.1623462 13 9
0.70178646 -2.8964128 -0.57929623 2 2
0.68637127 -2.8349531 0.25519189 9 10
0.71676713 -2.9604986 -0.4824439 2 3
0.66095871 -2.7320764 0.34513396 27 11
0.73977739 -3.060209 -0.38656944 1 4
0.65909427 -2.7285349 0.44458687 83 12
0.76760322 -3.1801763 -0.28621954 1 5
0.65457594 -2.711905 0.54227906 74 13
0.73614341 -3.0521722 -0.16454421 16 6
0.65564579 -2.7205002 0.64605945 74 14
0.68915665 -2.8617411 -0.051379729 47 7
0.65308994 -2.7140539 0.74798715 70 15
0.78827202 -3.2935174 -0.90741968 39 0
0.76466197 -3.1973338 0.057383437 63 8
0.77015018 -3.2252603 -0.64455289 8 2
0.71442133 -2.9941902 0.26931107 15 10
0.68489677 -2.8726711 -0.46773908 31 3
0.67304003 -2.8251257 0.35658965 9 11
0.72817123 -3.0589101 -0.38608193 1 4
0.65139425 -2.7385061 0.44583833 39 12
0.75741935 -3.1867132 -0.28656819 2 5
0.64465183 -2.7122629 0.54189771 77 13
0.64614546 -2.7227726 0.64605951 74 14
0.68377727 -2.8835866 -0.051728778 47 7
0.64450294 -2.7200768 0.74902242 67 15
0.75532937 -3.2077696 0.057523061 88 8
0.76053119 -3.232388 -0.76663303 9 1
0.75146276 -3.1963475 0.17208068 58 9
0.73667938 -3.1383846 0.28203583 33 10
0.7582643 -3.2328744 -0.52593267 52 3
0.70623797 -3.011059 0.3797448 20 11
0.73198384 -3.1232808 -0.39388156 1 4
0.66390103 -2.8350072 0.46116894 9 12
0.73630375 -3.1466582 -0.28273335 2 5
0.63783532 -2.7279892 0.54456902 28 13
0.75654083 -3.2382357 -0.17427868 88 6
0.63350344 -2.7137358 0.64336002 74 14
0.68552649 -2.9365869 -0.052636299 60 7
0.63675976 -2.7298353 0.75109297 80 15
0.7529065 -3.2482605 -0.89344335 1 0
0.74492115 -3.216361 0.057627775 90 8
0.743406 -3.2123711 -0.76123422 6 1
0.73839253 -3.1932425 0.17176668 86 9
0.74660909 -3.2287757 -0.64417124 5 2
0.73738194 -3.1914093 0.28656793 48 10
0.75052923 -3.2508996 -0.52843559 24 3
0.73580223 -3.1896479 0.40192503 52 11
0.67014772 -2.9073584 -0.36633945 25 4
0.6911909 -3.0010448 0.48776281 15 12
0.7360478 -3.1958065 -0.28691682 1 5
0.6520853 -2.8335149 0.56517613 10 13
0.72956711 -3.1727309 -0.17061517 52 6
0.62315434 -2.7121322 0.64246023 21 14
0.72174156 -3.1437232 -0.056301288 66 7
0.62502199 -2.7246192 0.74902242 70 15
0.71234763 -3.122793 -0.858244 1 0
0.73680007 -3.2325897 0.057872113 85 8
0.73435217 -3.2244468 -0.76348376 6 1
0.72901416 -3.2035904 0.17218536 82 9
0.72662157 -3.1930764 -0.63653892 5 2
0.7271207 -3.197849 0.28691691 73 10
0.72517264 -3.1918581 -0.5184238 4 3
0.72730017 -3.2038121 0.40338746 56 11
0.72088164 -3.1806786 0.51654673 52 12
0.66587543 -2.9379797 -0.26355907 23 5
0.68078244 -3.0061879 0.59914041 16 13
0.70923108 -3.1343503 -0.16841707 53 6
0.64462578 -2.8511457 0.67485321 10 14
0.7261861 -3.2144926 -0.057522956 61 7
0.6172092 -2.7343218 0.75109297 22 15
0.72244853 -3.221483 0.057627775 88 8
0.72607529 -3.2403014 -0.76663303 1 1
0.71838689 -3.2059901 0.17218536 80 9
0.72190517 -3.2243307 -0.64226323 5 2
0.71508372 -3.1964793 0.28656793 85 10
0.72221351 -3.230999 -0.52436835 5 3
0.71914148 -3.2198927 0.40509361 86 11
0.72247082 -3.2374556 -0.40728718 84 4
0.72280705 -3.2389624 0.52561992 83 12
0.70634758 -3.1678085 -0.28395352 36 5
0.70785517 -3.1771781 0.6327225 60 13
0.71781558 -3.2245359 -0.17312729 75 6
0.66597939 -2.9941454 0.70814592 10 14
0.69251102 -3.1134274 -0.055673007 44 7
0.63328534 -2.849504 0.78215128 9 15
0.70219094 -3.1805096 -0.87273788 1 0
0.71003759 -3.2160504 0.057488158 88 8
0.73883426 -3.3492587 -0.79182756 1 1
0.70719099 -3.208478 0.17218535 82 9
0.70563418 -3.2067394 0.28726515 82 10
0.71234441 -3.2372341 -0.52499402 27 3
0.70590228 -3.2106276 0.40363124 90 11
0.71471244 -3.2534056 -0.40899336 99 4
0.70726138 -3.2221711 0.52249122 68 12
0.65900636 -3.004833 -0.26913702 5 5
0.7006799 -3.1948495 0.63577545 53 13
0.70498085 -3.2171435 -0.17260392 67 6
0.6927253 -3.1638584 0.74773735 35 14
0.70129776 -3.2056868 -0.057278622 64 7
0.65633726 -3.0026805 0.82356232 12 15
0.68179452 -3.1375136 -0.86031455 1 0
0.69923139 -3.2204638 0.057523064 85 8
0.69485402 -3.2029984 0.17176668 85 9
0.70534807 -3.2541127 -0.64722425 64 2
0.69499618 -3.2090616 0.28726515 82 10
0.69385213 -3.2091916 0.40314376 86 11
0.69790244 -3.2306561 -0.40582475 63 4
0.69907498 -3.236084 0.52436846 86 12
0.69200665 -3.2087903 0.6380651 79 13
0.68449104 -3.1766312 -0.17030115 41 6
0.68823987 -3.1967382 0.75493574 77 14
0.68897986 -3.200175 -0.057139006 56 7
0.67887801 -3.1559329 0.86497343 26 15
0.68980181 -3.2286313 0.057627779 88 8
0.6845023 -3.2093108 0.17197601 82 9
0.68989241 -3.2373536 -0.64340806 66 2
0.68462044 -3.2153656 0.28761381 82 10
0.69975489 -3.2864456 -0.53219002 85 3
0.68320614 -3.2114747 0.40314373 90 11
0.68759793 -3.2348945 -0.4060685 66 4
0.68531275 -3.2269108 0.52249128 85 12
0.68940616 -3.2489755 -0.29057732 46 5
0.68380749 -3.2225907 0.64035487 97 13
0.6793381 -3.2042837 -0.1716619 82 6
0.68005824 -3.2104418 0.75763518 78 14
0.68443 -3.2338622 -0.057697479 86 7
0.68384486 -3.233885 0.88567889 63 15
0.67934901 -3.2349334 0.057697583 88 8
0.64428043 -3.0706079 -0.72434229 1 1
0.67329544 -3.2116807 0.17197601 85 9
0.67875063 -3.2377021 -0.64302647 82 2
0.67150325 -3.2059178 0.28656793 82 10
0.68423235 -3.2695334 -0.52906138 66 3
0.66955405 -3.2021816 0.40168133 79 11
0.6767081 -3.2392182 -0.40631226 70 4
0.6732372 -3.2254157 0.52186549 88 12
0.67984962 -3.2570951 -0.29110029 85 5
0.67175233 -3.2211142 0.63959157 94 13
0.67263067 -3.2281427 -0.17281328 67 6
0.66964221 -3.2166114 0.75853497 78 14
0.67313707 -3.2362313 -0.057697475 86 7
0.66744268 -3.2116637 0.87894958 70 15
0.66643643 -3.2294509 0.057557959 88 8
0.66127449 -3.2100992 0.17176668 82 9
0.66784072 -3.2419744 -0.64340806 77 2
0.65950543 -3.2043395 0.2862193 82 10
0.67201948 -3.2680318 -0.52843559 81 3
