# .PCD v0.7 - Point Cloud Data file format
VERSION 0.7
FIELDS x y z intensity ring
SIZE 4 4 4 4 2
TYPE F F F F U
COUNT 1 1 1 1 1
WIDTH 481
HEIGHT 1
VIEWPOINT 0 0 0 1 0 0 0
POINTS 481
DATA ascii
2.3886511 -0.52430505 -0.38733169 1 3
2.3328238 -0.52059293 -0.37857136 10 3
2.3001697 -0.52174139 -0.3735655 25 3
2.2965016 -0.5289228 -0.3732526 48 3
2.3177226 -0.5423367 -0.37700704 69 3
2.3042846 -0.54768318 -0.37512988 57 3
2.3042789 -0.55618674 -0.37544271 45 3
2.2985845 -0.56288517 -0.37481695 45 3
2.2966056 -0.57090533 -0.37481695 43 3
2.3847523 -0.59370148 -0.30174866 1 4
2.2965138 -0.57940173 -0.37512985 36 3
2.3037565 -0.58208442 -0.29175508 7 4
2.294019 -0.58815056 -0.29078013 24 4
2.3363876 -0.60684192 -0.38232583 1 3
2.3182449 -0.60991031 -0.4659557 3 2
2.3495369 -0.61901993 -0.38482878 1 3
2.2783403 -0.60111278 -0.2893177 51 4
2.2895451 -0.61091268 -0.46061295 10 2
2.3282771 -0.622118 -0.38170007 1 3
2.2954047 -0.6141932 -0.29175508 52 4
2.2930841 -0.62043941 -0.46175787 18 2
2.3299048 -0.63127482 -0.38232583 1 3
2.2741957 -0.61660695 -0.28931797 30 4
2.3023744 -0.63115424 -0.46404755 29 2
2.3468478 -0.64422667 -0.38545451 1 3
2.2797956 -0.6262483 -0.29029268 19 4
2.3172939 -0.64351362 -0.46748212 42 2
2.329473 -0.64777166 -0.38295156 2 3
2.2834437 -0.63540131 -0.29102388 38 4
2.3227072 -0.65332097 -0.46900865 38 2
2.3311152 -0.65656406 -0.38357732 2 3
2.3004305 -0.64835525 -0.29346126 43 4
2.3048244 -0.65046209 -0.20952247 3 5
2.3238411 -0.66371787 -0.46977186 37 2
2.3379569 -0.66863233 -0.38514167 25 3
2.2938776 -0.65689236 -0.29297379 44 4
2.3117714 -0.66245323 -0.21039404 19 5
2.3252816 -0.67291707 -0.47053504 37 2
2.2878737 -0.66338986 -0.29248631 44 4
2.3192692 -0.67952031 -0.4697718 42 2
2.3390377 -0.68619895 -0.38608021 48 3
2.2874486 -0.67193151 -0.29273006 40 4
2.2938278 -0.67424023 -0.20917383 42 5
2.3244119 -0.68984622 -0.47129831 40 2
2.3424308 -0.69563878 -0.38701889 54 3
2.2966239 -0.68290794 -0.29419273 41 4
2.2914603 -0.68224317 -0.20917383 49 5
2.3333931 -0.70093936 -0.47358802 38 2
2.3362045 -0.70267314 -0.38639313 42 3
2.2980282 -0.69206542 -0.29467997 40 4
2.2852502 -0.68908733 -0.20882523 33 5
2.8758221 -0.86771423 -0.15742652 2 6
2.4350142 -0.74027801 -0.5875721 1 1
2.3355033 -0.71180695 -0.38670599 45 3
2.3031933 -0.7023989 -0.29565492 39 4
2.3801374 -0.7331354 -0.57497483 2 1
2.342442 -0.72286731 -0.38827032 47 3
2.2892234 -0.70731986 -0.29419273 40 4
2.3317778 -0.72091395 -0.21353163 1 5
2.8447359 -0.88059282 -0.15606576 12 6
2.374526 -0.74094659 -0.48351011 1 2
2.3493316 -0.73398507 -0.38983464 43 3
2.2943192 -0.71767688 -0.29516745 39 4
2.3330503 -0.73023939 -0.21388027 1 5
2.7063286 -0.84811187 -0.14863408 3 6
2.3972614 -0.75677377 -0.58037364 67 1
2.3719251 -0.74923062 -0.48351011 1 2
2.342989 -0.74098992 -0.38920897 31 3
2.3012629 -0.72867751 -0.29638615 32 4
2.3114936 -0.73236096 -0.21213716 1 5
2.3035603 -0.73073232 -0.12665299 14 6
2.3743184 -0.75819814 -0.57542473 32 1
2.365555 -0.75630987 -0.48274684 1 2
2.350662 -0.75380993 -0.21597201 1 5
2.3144367 -0.74263877 -0.12738569 30 6
2.3827832 -0.77007723 -0.57812417 46 1
2.3854504 -0.77139914 -0.48732629 1 2
2.3642013 -0.76543927 -0.39358911 2 3
2.3491232 -0.76146364 -0.30321106 1 4
2.3290653 -0.75586057 -0.21422888 1 5
2.3819327 -0.77899575 -0.578574 46 1
2.3751435 -0.77769333 -0.48579979 1 2
2.3726423 -0.77779144 -0.3954663 3 3
2.327589 -0.76347196 -0.30077341 1 4
2.3453419 -0.7702021 -0.21597198 1 5
2.2881923 -0.75231928 -0.12623428 47 6
2.3920112 -0.79200846 -0.58172333 43 1
2.3575053 -0.78103995 -0.48274684 1 2
2.3285432 -0.77324921 -0.30126092 2 4
2.3426392 -0.77838421 -0.21597201 1 5
2.2741814 -0.7565195 -0.12560627 38 6
2.3910799 -0.80097228 -0.58217323 41 1
2.3659332 -0.79300791 -0.48503652 1 2
2.3295932 -0.78263706 -0.30174839 4 4
2.3210225 -0.78020853 -0.21422888 1 5
2.2790985 -0.76700151 -0.12602495 39 6
2.3919609 -0.81056464 -0.58307302 40 1
2.3687289 -0.80315298 -0.48618138 1 2
2.3643675 -0.80259454 -0.3954663 49 3
2.3258302 -0.79087138 -0.21492615 1 5
2.2915332 -0.78010148 -0.12686233 38 6
2.3854299 -0.81764549 -0.58217323 40 1
2.3826249 -0.81714892 -0.48961601 5 2
2.3615515 -0.81084287 -0.39546633 45 3
2.3503544 -0.80791563 -0.30516073 40 4
2.3456645 -0.80676126 -0.2170179 2 5
2.2755766 -0.78354394 -0.12612961 36 6
2.3310137 -0.80354267 -0.043037504 1 7
2.3899262 -0.8285206 -0.58397281 40 1
2.3699031 -0.82296944 -0.39734352 45 3
2.3156447 -0.8050335 -0.30101714 41 4
2.3296611 -0.81036216 -0.21579768 10 5
2.2841451 -0.79542345 -0.12675765 37 6
2.3151176 -0.80666238 -0.04279317 16 7
2.3945217 -0.83901894 -0.5857724 40 1
2.3620415 -0.82856375 -0.48656306 46 2
2.3746164 -0.83344042 -0.39859498 43 3
2.3167083 -0.81402409 -0.30150467 43 4
2.3193007 -0.81584466 -0.21510047 29 5
2.2909145 -0.80630881 -0.12728101 38 6
2.3104014 -0.81407404 -0.042758264 36 7
2.3915787 -0.84737223 -0.58577245 25 1
2.3611312 -0.83704811 -0.48694465 42 2
2.3716927 -0.84172434 -0.39859498 43 3
2.3269463 -0.82675809 -0.30321079 39 4
2.3316009 -0.82887024 -0.21649496 41 5
2.2880859 -0.81430089 -0.12728101 38 6
2.3000112 -0.81944942 -0.042618647 47 7
2.4227684 -0.86699957 -0.68949395 5 0
2.360043 -0.84594727 -0.48732629 37 2
2.3650219 -0.84866357 -0.39796931 45 3
2.3371234 -0.8395735 -0.30491698 40 4
2.3136933 -0.83161265 -0.21510045 21 5
2.2946265 -0.82566386 -0.12780437 36 6
2.28773 -0.82408452 -0.042444121 57 7
2.4506097 -0.88662457 -0.69829381 33 0
2.4277468 -0.87931132 -0.59612024 1 1
2.3773794 -0.86153811 -0.4915241 6 2
2.3694727 -0.85960847 -0.39922071 45 3
2.3360445 -0.84840417 -0.30516073 14 4
2.2917299 -0.83366859 -0.12780437 37 6
2.279202 -0.83001232 -0.042339403 40 7
2.4565711 -0.89849126 -0.70088202 41 0
2.4429619 -0.89448041 -0.60061926 1 1
2.3775852 -0.87195522 -0.40109795 43 3
2.3807695 -0.87453765 -0.2218986 1 5
2.2906806 -0.84235251 -0.12790905 38 6
2.446172 -0.90438104 -0.69881141 53 0
2.4507899 -0.90706104 -0.60331863 1 1
2.3639426 -0.87538707 -0.4899976 1 2
2.3763793 -0.88093591 -0.40141082 42 3
2.3561192 -0.87436092 -0.30857331 1 4
2.3627598 -0.87729448 -0.22050411 1 5
2.297087 -0.85382271 -0.12843239 37 6
2.3220804 -0.86403531 -0.043246932 1 7
2.4321427 -0.90885699 -0.69570565 55 0
2.3694203 -0.88588995 0.04415454 1 8
2.4549098 -0.91834158 -0.60511827 1 1
2.397646 -0.8973971 -0.49762991 1 2
2.3603411 -0.88437396 -0.39922071 20 3
2.3381836 -0.87700301 -0.30662313 1 4
2.3708754 -0.88973677 -0.22154999 1 5
2.3053105 -0.86605 -0.12906043 35 6
2.3153071 -0.87072796 -0.043177128 1 7
2.419919 -0.91392845 -0.69311744 46 0
2.3120656 -0.87365681 0.043142293 6 8
2.4589803 -0.92966169 -0.60691786 1 1
2.3908267 -0.90437192 -0.49686676 1 2
2.3738661 -0.89890355 -0.40203655 9 3
2.335108 -0.88515943 -0.3066234 1 4
2.3565779 -0.89376819 -0.22050413 1 5
2.3190784 -0.88047206 -0.13000248 19 6
2.3086677 -0.87698066 -0.043107308 1 7
2.4311531 -0.92788082 -0.69725859 46 0
2.4376788 -0.93085903 -0.60241884 1 1
2.4059932 -0.91972184 -0.50068283 2 2
2.4003928 -0.91806114 -0.40704247 48 3
2.3692377 -0.9070937 -0.31149793 1 4
2.3534434 -0.90198869 -0.22050411 1 5
2.3049567 -0.88386703 -0.12937444 41 6
2.3167939 -0.88933378 -0.043316741 1 7
2.4406805 -0.94080162 -0.70088202 49 0
2.2836764 -0.88073939 0.04272344 37 8
2.4344146 -0.93936241 -0.60241884 1 1
2.3919415 -0.92345291 -0.49839321 11 2
2.3842754 -0.9214499 -0.40485236 39 3
2.3549483 -0.91106075 -0.31003577 1 4
2.3614278 -0.91451544 -0.22154996 1 5
2.2962704 -0.88974255 -0.12906043 35 6
2.3211331 -0.90030801 -0.043456361 1 7
2.4516163 -0.95535219 -0.70502311 49 0
2.2861781 -0.89088374 0.042828154 48 8
2.4274898 -0.94643861 -0.60151905 1 1
2.3864019 -0.93233901 -0.40579098 40 3
2.3517542 -0.91927576 -0.31003553 1 4
2.3489444 -0.9191227 -0.2206784 3 5
2.3022923 -0.90179497 -0.12958379 40 6
2.3291466 -0.91278261 -0.043665782 1 7
2.428493 -0.95611924 -0.69932902 46 0
2.2866185 -0.90072286 0.042897962 52 8
2.4330697 -0.95890224 -0.60376859 7 1
2.3743138 -0.93622452 -0.4961035 29 2
2.3978324 -0.94646549 -0.40829393 42 3
2.3742158 -0.93810171 -0.31344783 2 4
2.3195591 -0.9179101 -0.13073519 39 6
2.3036354 -0.91207367 -0.043246932 2 7
2.4341161 -0.96816039 -0.70191723 49 0
2.2799025 -0.9068225 0.04282815 48 8
2.3929174 -0.95322502 -0.50068283 39 2
2.3855054 -0.95075506 -0.40672958 41 3
2.3618729 -0.94229156 -0.31222942 12 4
2.3609734 -0.94288832 -0.22242153 41 5
2.3220663 -0.92782021 -0.1310492 39 6
2.317148 -0.9267931 -0.043561075 22 7
2.4470267 -0.98270619 -0.70657605 48 0
2.2804344 -0.91626638 0.042897962 50 8
2.4192538 -0.97253382 -0.60196894 38 1
2.3970294 -0.96408558 -0.50220942 40 2
2.3913345 -0.96276516 -0.40829396 42 3
2.3522904 -0.94847721 -0.2218986 49 5
2.3188136 -0.93592006 -0.1310492 38 6
2.4435813 -0.99124217 -0.70657605 45 0
2.2883389 -0.92873299 0.043107383 50 8
2.4194555 -0.98243904 -0.60286874 15 1
2.3407388 -0.9509514 0.13241002 1 9
2.4009247 -0.97540253 -0.50373578 40 2
2.3971083 -0.97482711 -0.40985826 41 3
2.3552365 -0.95875746 -0.31222939 16 4
2.3508105 -0.957434 -0.22207293 47 5
2.3081343 -0.94099247 -0.13063051 39 6
2.3106213 -0.94294697 -0.043561071 47 7
2.4722841 -1.0129495 -0.71589363 23 0
2.2887843 -0.93823224 0.043177199 48 8
2.2838204 -0.93712872 0.12937453 7 9
2.393873 -0.98228699 -0.5029726 41 2
2.3955185 -0.98393941 -0.41017118 40 3
2.3529813 -0.96790773 -0.22259583 40 5
2.3159165 -0.95360631 -0.13125855 38 6
2.3110135 -0.95253098 -0.043630887 36 7
2.296581 -0.95080531 0.043386631 45 8
2.4485457 -1.014221 -0.61186713 1 1
2.269465 -0.94050729 0.12874651 24 9
2.3958704 -0.99289215 -0.50411749 40 2
2.4048414 -0.99759346 -0.41236123 36 3
2.3943195 -0.99420834 -0.3183226 1 4
2.3532689 -0.97764409 -0.22294448 40 5
2.3236389 -0.966286 -0.13188659 38 6
2.2914031 -0.95804477 0.043351725 43 8
2.4485862 -1.0242656 -0.61276692 1 1
2.2624831 -0.94688123 0.12853716 33 9
2.4068782 -1.0073127 -0.50717038 40 2
2.3798501 -0.99795383 -0.31686044 1 4
2.3627024 -0.99124819 -0.22416465 19 5
2.3276176 -0.97748441 -0.13230526 37 6
2.3245847 -0.97716546 -0.044014834 1 7
2.2862027 -0.96525961 0.043316819 10 8
2.4449959 -1.0328066 -0.61276692 1 1
2.2775612 -0.96254802 0.12958388 42 9
2.4087729 -1.018001 -0.50831532 30 2
2.4092557 -1.020188 -0.32124746 1 4
2.3241913 -0.98560321 -0.13230526 38 6
2.3653374 -1.0040261 -0.044852547 1 7
2.4485457 -1.0443932 -0.6145665 1 1
2.2670081 -0.96696091 0.12916517 38 9
2.4250674 -1.0348792 -0.5125131 10 2
2.4269619 -1.036689 -0.41799292 1 3
2.3728254 -1.0145441 -0.31686017 1 4
2.368547 -1.0132039 -0.22538482 1 5
2.3299167 -0.99764109 -0.13282861 9 6
2.3325849 -0.99926519 -0.04429407 1 7
2.3457074 -1.0092504 0.044573389 1 8
2.466548 -1.061753 -0.61996526 1 1
2.2636189 -0.9748683 0.12916517 12 9
2.4106224 -1.0386767 -0.51022339 39 2
2.4343946 -1.0494235 -0.41987011 1 3
2.4022558 -1.0365634 -0.32124746 1 4
2.383287 -1.0293654 -0.22712794 2 5
2.3217411 -1.0042261 -0.044154454 1 7
2.3495066 -1.0206195 0.044713005 1 8
2.4646142 -1.0711334 -0.62041491 22 1
2.405364 -1.0458821 -0.50984174 39 2
2.434339 -1.0594912 -0.42049584 2 3
2.3877034 -1.0401856 -0.31978533 1 4
2.387166 -1.0404472 -0.22782518 7 5
2.3468707 -1.0238594 -0.13418935 5 6
2.3328824 -1.0187265 -0.044433694 1 7
2.3276162 -1.0207832 0.044363961 1 8
2.4662139 -1.0820788 -0.62176496 46 1
2.2805328 -1.0010839 0.13052592 4 9
2.4034963 -1.055061 -0.51022333 37 2
2.3550639 -1.0342909 0.225036 1 10
2.4215834 -1.0640092 -0.41893148 7 3
2.4094977 -1.0597024 -0.32319736 1 4
2.3402905 -1.0317032 -0.044643119 1 7
2.3130682 -1.0240448 0.044154532 7 8
2.4570763 -1.0883135 -0.62041491 5 1
2.4195426 -1.0721939 -0.51442111 38 2
2.2822256 -1.0118197 0.21841215 5 10
2.4166696 -1.0729396 -0.32466009 2 4
2.3889489 -1.0611315 -0.22869676 41 5
2.3579154 -1.0483327 -0.13523607 36 6
2.3220592 -1.0333618 -0.044363879 1 7
2.2656631 -1.0125312 0.043316819 22 8
2.258903 -1.0104562 0.12968855 29 9
2.4122012 -1.0790297 -0.51365793 38 2
2.2623124 -1.0124551 0.21684363 25 10
2.439337 -1.0921901 -0.42331162 75 3
2.4002292 -1.075686 -0.32295361 20 4
2.3815937 -1.0678335 -0.22834812 41 5
2.3469534 -1.053286 -0.13481739 42 6
2.369513 -1.0644044 -0.045341212 1 7
2.2967484 -1.0360566 0.04398001 39 8
2.2864876 -1.0319083 0.13146797 42 9
2.4048417 -1.0858275 -0.51289475 38 2
2.2642121 -1.0228068 0.21736632 34 10
2.4283094 -1.0974443 -0.42206016 40 3
2.3982689 -1.0848763 -0.32319739 33 4
2.3869281 -1.080248 -0.22921969 43 5
2.3541782 -1.0664166 -0.13544542 40 6
2.340471 -1.0606998 -0.044852547 2 7
2.3260615 -1.0585768 0.044608295 45 8
2.2865067 -1.0415391 0.13167731 41 9
2.4117556 -1.0991002 -0.5151844 38 2
2.2805691 -1.0397961 0.21928373 47 10
2.4390357 -1.1120467 -0.42456311 42 3
2.4271646 -1.1076577 -0.32758498 40 4
2.3740814 -1.0844342 -0.22834817 43 5
2.3451793 -1.071727 -0.1351314 39 6
2.3494837 -1.0746857 -0.045096878 22 7
2.3023632 -1.0575086 0.044224344 43 8
2.28304 -1.0491159 0.13167731 38 9
2.4187999 -1.1120121 -0.51747406 39 2
2.2626281 -1.0406927 0.21788925 43 10
2.3890254 -1.1003449 -0.32295361 7 4
2.3740909 -1.0939685 -0.22869673 45 5
2.3450511 -1.0815797 -0.13534075 39 6
2.3386443 -1.0791197 -0.044957262 3 7
2.3115442 -1.0710223 0.044468671 41 8
2.2866118 -1.0604399 0.13209601 38 9
2.4238081 -1.1245801 -0.51938218 40 2
2.2698243 -1.0536174 0.21893509 43 10
2.4296181 -1.1277912 -0.42425025 1 3
2.3810971 -1.1072896 -0.2297426 42 5
2.3432622 -1.0901926 -0.1354454 38 6
2.3910594 -1.1134454 -0.046039309 1 7
2.318661 -1.0841669 0.044678111 42 8
2.2830827 -1.0680166 0.13209601 39 9
2.4342904 -1.1392691 -0.52243507 38 2
2.2699265 -1.0628282 0.2192837 43 10
2.4507103 -1.1479968 -0.42863041 1 3
2.4228189 -1.1359628 -0.32855991 1 4
2.3882356 -1.1202564 -0.23078851 43 5
2.3430588 -1.1000633 -0.13565478 30 6
2.3873539 -1.1213683 -0.046039309 1 7
2.3259046 -1.0969678 0.044887535 43 8
2.2865651 -1.07939 0.13251469 38 9
2.4320745 -1.1485978 -0.52281678 29 2
2.2806144 -1.0775545 0.2206782 43 10
2.4683225 -1.1662436 -0.43238485 1 3
2.4369845 -1.1524776 -0.33099699 1 4
2.3987169 -1.1354054 -0.23218298 43 5
2.3834252 -1.1296949 -0.046039309 1 7
2.3345068 -1.1115026 0.045131866 28 8
2.2952151 -1.0937781 0.13324742 28 9
2.2696457 -1.0820792 0.21998098 42 10
2.4818611 -1.183787 -0.43551356 1 3
2.436327 -1.1631124 -0.3314845 1 4
2.3927417 -1.1433303 -0.23200867 23 5
2.4073997 -1.1508504 -0.13984165 1 6
2.4009144 -1.1487803 -0.046458162 1 7
2.2764361 -1.0955745 0.22102684 40 10
2.4525881 -1.1808782 -0.43113333 1 3
2.4358289 -1.1733327 -0.33197197 1 4
2.3851469 -1.1499451 -0.23166005 31 5
2.4175551 -1.1666105 -0.140679 1 6
2.386085 -1.1519375 -0.046248734 1 7
2.3372891 -1.1334147 0.045341294 1 8
2.3126802 -1.1219798 0.1347128 2 9
2.2941051 -1.1139575 0.22311857 18 10
2.4946482 -1.2118741 -0.43926793 1 3
2.4422233 -1.1874605 -0.33343437 2 4
2.3847015 -1.1600068 -0.23200867 40 5
2.3955112 -1.1662992 -0.1396323 1 6
2.3892407 -1.1637623 -0.046388358 1 7
2.3460927 -1.1473086 0.045585629 6 8
2.3338645 -1.1423384 0.13617821 2 9
2.4622331 -1.2062354 -0.4342621 1 3
2.4257956 -1.1894352 -0.33172822 25 4
2.3877923 -1.1718351 -0.23270592 39 5
2.384459 -1.1707157 -0.13921361 2 6
2.3887532 -1.1738591 -0.046458162 1 7
2.3103628 -1.1403476 0.13502683 6 9
2.4686327 -1.2200741 -0.43613929 3 3
2.3946073 -1.1850492 -0.23375177 40 5
2.3785682 -1.1781455 -0.13910894 19 6
2.3884308 -1.1835496 -0.046527971 1 7
2.3525517 -1.1703767 0.045864869 41 8
2.4398217 -1.2159184 -0.43175915 25 3
2.4211957 -1.2076914 -0.33221599 43 4
2.3886738 -1.1925107 -0.23357747 39 5
2.3817954 -1.1895963 -0.13952762 30 6
2.3842852 -1.1918799 -0.046527974 2 7
2.3377287 -1.1732 0.045655441 47 8
2.3201931 -1.1654137 0.13607354 37 9
2.4673302 -1.2403984 -0.43739074 28 3
2.4329252 -1.224166 -0.33440936 41 4
2.3900447 -1.2031127 -0.2341004 39 5
2.400816 -1.2095853 -0.14088835 36 6
2.3747532 -1.1974941 -0.046423256 25 7
2.3354037 -1.1822562 0.04569035 47 8
2.3268006 -1.1789218 0.13670157 41 9
2.4357176 -1.2362447 -0.33538458 41 4
2.401819 -1.2195668 -0.23566921 41 5
2.3769934 -1.2080048 -0.13973697 40 6
2.3794711 -1.2103093 -0.046597786 40 7
2.3490715 -1.1994951 0.046039391 50 8
2.3155572 -1.183401 0.13628288 41 9
2.4278533 -1.2429301 -0.33489713 41 4
2.4046407 -1.2315761 -0.23636645 39 5
2.3763168 -1.218117 -0.13994631 33 6
2.3770108 -1.2195204 -0.046632688 16 7
2.3484256 -1.2095187 0.0461092 50 8
2.3185136 -1.1951371 0.13670157 38 9
2.4270277 -1.2532189 -0.33538461 30 4
2.4127181 -1.2463635 -0.23758665 40 5
2.3583858 -1.2250832 0.04638844 52 8
2.3143277 -1.2032229 0.13670157 7 9
2.4118865 -1.256619 -0.23793525 36 5
2.4191129 -1.2614576 -0.14298181 1 6
2.4021223 -1.2536646 -0.047295883 1 7
2.3540952 -1.2333082 0.04638844 52 8
2.460398 -1.2922854 -0.34123403 1 4
2.4076235 -1.2661755 -0.1425631 1 6
2.3906529 -1.2583162 -0.047156256 1 7
2.353312 -1.2433864 0.046458248 52 8
2.4471009 -1.2962202 -0.34001535 9 4
2.4345183 -1.2906437 -0.24107288 2 5
2.4031892 -1.2745719 -0.1425631 1 6
2.410974 -1.2797794 -0.047644924 1 7
2.3577814 -1.256295 0.04663277 47 8
2.4653237 -1.3169131 -0.34318429 33 4
2.4405408 -1.3047701 -0.24211873 22 5
2.4055452 -1.2871406 -0.14298178 1 6
2.4029663 -1.2862999 -0.047575116 1 7
2.3637292 -1.2706093 0.046842203 48 8
2.4465003 -1.3184063 -0.34123403 6 4
2.4256458 -1.3088074 -0.14444719 1 6
2.3984616 -1.2946801 -0.047575116 1 7
2.3718102 -1.2851092 0.047086533 50 8
2.4366238 -1.324631 -0.24264167 45 5
2.4107652 -1.3111186 -0.14381917 1 6
2.4044657 -1.3087804 -0.047784541 2 7
2.362045 -1.290504 0.046981819 48 8
2.4354792 -1.3350438 -0.24299029 41 5
2.4166811 -1.3252878 -0.14444719 3 6
2.3680353 -1.3045306 0.047191255 46 8
2.4360356 -1.3464286 -0.24351324 40 5
2.4075177 -1.3323123 -0.048028875 43 7
2.3737254 -1.319029 0.047400676 8 8
2.4382823 -1.3588032 -0.24421047 40 5
2.4245787 -1.3522757 -0.14549391 20 6
2.4080911 -1.3436311 -0.048133589 48 7
2.444186 -1.3727353 -0.24525633 40 5
2.4071083 -1.3535697 -0.048203398 47 7
2.441113 -1.3822404 -0.24543066 38 5
2.4433618 -1.3840768 -0.14716867 1 6
2.3919313 -1.3560464 -0.047993973 43 7
2.4431944 -1.3947041 -0.24612789 13 5
2.4625511 -1.4068937 -0.14863408 1 6
2.4045448 -1.3743105 -0.048343018 45 7
2.4437792 -1.4075063 -0.14779669 1 6
2.4098864 -1.3891063 -0.048552446 45 7
2.4800537 -1.4405297 -0.15030883 1 6
2.4119389 -1.4015287 -0.04869207 45 7
2.4752634 -1.4487462 -0.15030885 1 6
2.4072781 -1.4095191 -0.04869207 43 7
2.4532413 -1.4468002 -0.1492621 1 6
2.4092314 -1.4219792 -0.048831683 17 7
2.4653447 -1.4655608 -0.15030885 1 6
2.4447942 -1.4649184 -0.14936678 19 6
2.4636014 -1.4878988 -0.15083219 30 6
