# .PCD v0.7 - Point Cloud Data file format
VERSION 0.7
FIELDS x y z intensity ring
SIZE 4 4 4 4 2
TYPE F F F F U
COUNT 1 1 1 1 1
WIDTH 1236
HEIGHT 1
VIEWPOINT 0 0 0 1 0 0 0
POINTS 1236
DATA ascii
-4.01687 -2.3547995 0.40736565 35 10
-4.0406604 -2.3668501 0.57497942 27 11
-3.945143 -2.3099766 -0.56132996 4 4
-4.0830812 -2.3897848 0.74932128 27 12
-3.9376962 -2.3046925 -0.39917341 33 5
-4.0974131 -2.397213 0.92275202 23 13
-3.9636431 -2.3180232 -0.24064066 42 6
-4.1100106 -2.402658 1.0991108 27 14
-3.9761944 -2.3235002 -0.080385529 35 7
-3.978471 -2.3239002 1.2345669 40 15
-3.9884799 -2.3222828 0.080560207 37 8
-4.0034199 -2.3291106 0.24273425 36 9
-4.0216217 -2.3387609 0.40701708 35 10
-4.0437489 -2.3497403 0.57424825 25 11
-3.9531825 -2.2961912 -0.56132996 4 4
-4.0862737 -2.3725421 0.74838275 25 12
-3.9457176 -2.2909334 -0.39917344 39 5
-4.0887756 -2.3730419 0.91893584 23 13
-3.9751651 -2.3061771 -0.24084999 42 6
-4.1150012 -2.3863416 1.0982111 27 14
-3.9877405 -2.3116131 -0.08045534 35 7
-3.9815447 -2.307092 1.2330141 37 15
-3.9965613 -2.3083472 0.080560207 40 8
-4.0115252 -2.3151219 0.24273425 37 9
-4.0297618 -2.3247075 0.40701708 35 10
-4.0433273 -2.3306539 0.57302958 26 11
-3.9646142 -2.2843592 -0.56181741 4 4
-4.0859709 -2.3533351 0.74681836 28 12
-3.9450572 -2.2721751 -0.39830187 35 5
-4.0834227 -2.3509185 0.91588295 22 13
-3.9606881 -2.2793357 -0.23948927 38 6
-4.1199269 -2.3700204 1.0973113 27 14
-3.9957855 -2.2976792 -0.08045534 35 7
-3.9878991 -2.2922168 1.2324965 40 15
-3.9976547 -2.2904048 0.080420591 39 8
-4.0057154 -2.2931676 0.24189688 40 9
-4.0292048 -2.3056798 0.40614551 35 10
-4.0479908 -2.3145547 0.57254201 26 11
-3.9449875 -2.2547462 -0.55791807 4 4
-4.094161 -2.3390579 0.74681836 27 12
-3.9529648 -2.2583904 -0.39830187 37 5
-4.0950136 -2.3385973 0.91664612 22 13
-3.9582124 -2.2595563 -0.23886123 38 6
-4.111249 -2.3459663 1.0928122 28 14
-4.0037823 -2.283716 -0.08045534 35 7
-3.9975541 -2.2792404 1.2330141 36 15
-4.0143185 -2.2813766 0.080595113 40 8
-4.0102224 -2.2771974 0.24168752 36 9
-4.0320301 -2.2886505 0.40562257 37 10
-4.0456858 -2.2945349 0.57107973 25 11
-3.9528341 -2.2409618 -0.55791807 6 4
-4.0851145 -2.3150129 0.7436896 28 12
-3.9608238 -2.2445781 -0.39830187 34 5
-4.1134014 -2.3300946 0.91893584 22 13
-3.9712899 -2.248678 -0.23917526 42 6
-4.1194124 -2.3316009 1.0928122 28 14
-4.0030265 -2.2648036 -0.080280818 39 7
-4.0155749 -2.2709782 1.2361199 43 15
-4.0135469 -2.26244 0.080420576 39 8
-4.0146661 -2.2612247 0.24147817 39 9
-4.0226331 -2.2647872 0.40387943 39 10
-4.0536704 -2.2803986 0.57107967 26 11
-3.9502511 -2.2213123 -0.55645519 6 4
-4.0931706 -2.300739 0.7436896 28 12
-3.9547405 -2.2229285 -0.39690739 37 5
-4.1180873 -2.3137987 0.91817266 22 13
-3.979115 -2.2348018 -0.23917526 42 6
-4.1258273 -2.3162534 1.0923623 29 14
-4.0004444 -2.2449448 -0.08007139 39 7
-4.0049443 -2.2465508 1.230426 40 15
-4.0074563 -2.2406101 0.080141343 37 8
-4.0225353 -2.2471969 0.24147817 37 9
-4.0374722 -2.2546184 0.40457672 37 10
-4.0546722 -2.2623658 0.57010472 27 11
-3.9562469 -2.2065439 -0.55621147 6 4
-4.094275 -2.2825892 0.74243808 30 12
-3.9659567 -2.2110507 -0.39725605 33 5
-4.0952697 -2.282207 0.91130346 23 13
-3.9799116 -2.2170112 -0.23875655 40 6
-4.123672 -2.296149 1.0896628 29 14
-4.0065098 -2.2299945 -0.080036491 42 7
-4.0009451 -2.2259829 1.2268026 36 15
-4.0047607 -2.2207892 0.079931922 37 8
-4.0268602 -2.2312069 0.24126884 39 9
-4.0383458 -2.2366498 0.40387943 39 10
-4.0521235 -2.2424326 0.56864232 27 11
-3.9778223 -2.2004066 -0.55816138 6 4
-4.1074042 -2.2711513 0.74337673 31 12
-3.9544709 -2.186588 -0.39533859 39 5
-4.0997739 -2.2659991 0.91054022 24 13
-3.980634 -2.1992409 -0.23833786 46 6
-4.1316619 -2.2817404 1.0896627 29 14
-3.9915099 -2.2034328 -0.079582721 35 7
-4.0205307 -2.2185364 1.230426 40 15
-4.0124888 -2.2067955 0.079931922 37 8
-4.0167356 -2.2082193 0.24022216 39 9
-4.0461292 -2.2225385 0.40387943 37 10
-4.0581856 -2.227319 0.56839854 27 11
-3.9715555 -2.1788692 -0.55621147 6 4
-4.1114497 -2.2556179 0.742751 31 12
-3.9673193 -2.1756458 -0.39586148 34 5
-4.1059375 -2.2507308 0.91015863 23 13
-3.9760256 -2.1786144 -0.23760517 38 6
-4.1276374 -2.2607527 1.0865136 28 14
-4.0145798 -2.1988299 -0.079896867 37 7
-4.019393 -2.2005529 1.2278378 37 15
-4.0127625 -2.1896465 0.079792291 37 8
-4.0209117 -2.1922722 0.24001278 42 9
-4.0503626 -2.206496 0.40353084 37 10
-4.0620627 -2.2119505 0.56791109 27 11
-3.9648104 -2.1580944 -0.55426198 6 4
-4.1088862 -2.2355886 0.74087375 33 12
-3.9678886 -2.1579764 -0.39516425 35 5
-4.1151028 -2.2380404 0.91054022 24 13
-3.9849834 -2.1663711 -0.23770984 40 6
-4.133399 -2.2461219 1.0860636 29 14
-4.0099297 -2.1781223 -0.079652533 40 7
-4.0321426 -2.1892743 1.2293906 40 15
-4.0238996 -2.1775298 0.07986211 39 8
-4.0250258 -2.1763234 0.23980342 40 9
-4.0401306 -2.1835792 0.40178776 37 10
-4.0680122 -2.1968143 0.56766731 27 11
-3.9635854 -2.139528 -0.55304283 6 4
-4.1062346 -2.2156043 0.73899662 31 12
-3.9715157 -2.142915 -0.39481565 33 5
-4.1194348 -2.2217972 0.90977752 24 13
-3.9907622 -2.1515005 -0.23760514 44 6
-4.1377835 -2.2298307 1.0851638 29 14
-4.0016651 -2.1555748 -0.079338402 39 7
-4.0380592 -2.1742713 1.228873 43 15
-4.0244279 -2.159688 0.079722494 40 8
-4.0325985 -2.1622601 0.23980342 39 9
-4.0442157 -2.1675806 0.40143913 40 10
-4.0704064 -2.1797898 0.56693614 28 11
-3.9710298 -2.1256795 -0.55304283 6 4
-4.1069765 -2.1975293 0.73774505 33 12
-3.9561355 -2.1168184 -0.39254963 39 5
-4.1115842 -2.1990719 0.90634245 24 13
-4.00001 -2.1384988 -0.23770984 46 6
-4.1421046 -2.2135365 1.084264 30 14
-4.0021091 -2.1378253 -0.079198778 37 7
-4.0285826 -2.1510632 1.2236966 37 15
-4.0178199 -2.1381116 0.079443261 39 8
-4.0365939 -2.1462948 0.23959407 40 9
-4.0482388 -2.1515801 0.40109047 37 10
-4.0692234 -2.1609132 0.5657174 27 11
-3.9854386 -2.1155276 -0.55401778 6 4
-4.1181121 -2.1850314 0.73837078 31 12
-3.9723001 -2.1076648 -0.39342117 34 5
-4.1105638 -2.1801071 0.90443438 24 13
-3.9880395 -2.1142325 -0.23655845 44 6
-4.1411967 -2.1945007 1.0820146 30 14
-4.0219164 -2.1303942 -0.079443105 40 7
-4.048018 -2.1433156 1.2273201 40 15
-4.0287952 -2.125941 0.079513066 39 8
-4.0299273 -2.1247392 0.23875667 39 9
-4.0521984 -2.1355791 0.40074185 39 10
-4.0714736 -2.1439207 0.56498629 30 11
-3.9717197 -2.0905089 -0.55109298 4 4
-4.1239657 -2.1697245 0.73805797 33 12
-3.97787 -2.0928586 -0.39324686 39 5
-4.1164107 -2.1648312 0.90405273 26 13
-3.9794841 -2.0919356 -0.2356164 42 6
-4.1384811 -2.1745942 1.0793152 31 14
-4.0080843 -2.1051838 -0.079024248 37 7
-4.0537653 -2.1282732 1.2268025 43 15
-4.0361915 -2.1118646 0.079513058 40 8
-4.0337806 -2.1088102 0.2385474 36 9
-4.0631609 -2.1232657 0.40109047 40 10
-4.0806909 -2.1306145 0.56522995 30 11
-3.9789932 -2.0766313 -0.55109298 4 4
-4.1122499 -2.1452646 0.73461646 33 12
-3.9833841 -2.0780396 -0.39307252 35 5
-4.1274238 -2.1522655 0.90481597 26 13
-3.9903047 -2.0798771 -0.23582575 40 6
-4.14259 -2.158334 1.0784154 30 14
-4.0260496 -2.0967231 -0.079233676 39 7
-4.0611691 -2.1141107 1.2268025 43 15
-4.0399895 -2.0959203 0.079443261 37 8
-4.03757 -2.0928779 0.23833802 39 9
-4.0528569 -2.0999033 0.39934734 39 10
-4.0845776 -2.114532 0.56474245 30 11
-3.9826913 -2.0609043 -0.55060601 4 4
-4.1179581 -2.1299903 0.73430353 33 12
-3.979995 -2.0586298 -0.3920266 37 5
-4.1296797 -2.1351388 0.90367115 24 13
-3.9975407 -2.0659356 -0.23582575 42 6
-4.1431732 -2.1402841 1.0766158 30 14
-4.0155764 -2.0734808 -0.078884631 39 7
-4.0513568 -2.0910611 1.2216259 37 15
-4.0366106 -2.0763178 0.079233818 40 8
-4.0412989 -2.0769446 0.23812869 39 9
-4.0530734 -2.082103 0.39865014 37 10
-4.0866365 -2.0975411 0.56401128 33 11
-3.9827955 -2.0433657 -0.549631 4 4
-4.1271257 -2.1165042 0.7346164 34 12
-3.9800651 -2.0410876 -0.39132932 34 5
-4.119637 -2.1117547 0.89985496 24 13
-4.0047278 -2.0519691 -0.23582575 40 6
-4.14715 -2.1240318 1.075716 29 14
-4.0263505 -2.0612741 -0.078954451 40 7
-4.0603514 -2.0777864 1.2221437 40 15
-4.0278015 -2.0540388 0.078919686 42 8
-4.0414052 -2.0591991 0.23770998 39 9
-4.056766 -2.066134 0.39830148 39 10
-4.0815482 -2.076962 0.56230503 31 11
-3.9969816 -2.0330508 -0.55060601 4 4
-4.1274457 -2.0985029 0.73336494 34 12
-3.9907188 -2.0289874 -0.39167801 37 5
-4.1287332 -2.0982521 0.90023655 24 13
-4.0011816 -2.0325508 -0.23519771 40 6
-4.1545396 -2.1095414 1.075716 31 14
-4.029954 -2.0453963 -0.078884631 40 7
-4.0693016 -2.0644751 1.2226611 37 15
-4.0385165 -2.0417712 0.078989498 42 8
-4.0378723 -2.0396762 0.23708197 39 9
-4.0675106 -2.0537565 0.39865014 37 10
-4.0834556 -2.0600202 0.56157374 32 11
-3.9934192 -2.0137234 -0.54914302 4 4
-4.125926 -2.0796368 0.73180056 31 12
-3.9942176 -2.0132518 -0.39132932 37 5
-4.1395383 -2.0855935 0.90100032 26 13
-3.9939818 -2.011385 -0.23436035 42 6
-4.1514339 -2.0897691 1.0730165 30 14
-4.0352826 -2.0304189 -0.078849725 39 7
-4.0782094 -2.0511248 1.2231787 40 15
-4.0420423 -2.0258701 0.078919671 43 8
-4.0342517 -2.0202041 0.23645391 39 9
-4.0675287 -2.0359776 0.39795288 39 10
-4.0888476 -2.0448654 0.56133014 31 11
-4.0004244 -1.9997704 -0.54914302 4 4
-4.126092 -2.0616915 0.73054916 36 12
-3.9940922 -1.995735 -0.39063212 37 5
-4.1327424 -2.0641134 0.89794683 26 13
-4.0081267 -2.0009983 -0.234779 40 6
-4.1552157 -2.0735257 1.0721167 29 14
-4.0316091 -2.0109651 -0.078640297 40 7
-4.0853443 -2.0368769 1.2231789 40 15
-4.0490904 -2.0117476 0.078919686 42 8
-4.0480847 -2.0103672 0.2368726 39 9
-4.0603323 -2.014683 0.39655837 40 10
-4.0977378 -2.0314624 0.5615738 33 11
-3.9928048 -1.9794415 -0.54719305 4 4
-4.1205158 -2.0418575 0.72835898 34 12
-3.9831805 -1.9729373 -0.38888901 37 5
-4.1399226 -2.0496736 0.89794731 24 13
-4.0097165 -1.9843384 -0.23446502 44 6
-4.158576 -2.0580063 1.0712169 29 14
-4.0292931 -1.9931514 -0.078465767 35 7
-4.0764914 -2.0156119 1.2185203 37 15
-4.0485635 -1.9947747 0.078780062 42 8
-4.0511456 -1.9951671 0.23666327 40 9
-4.0634155 -1.9994478 0.39620975 40 10
-4.1062341 -2.0187385 0.56181759 31 11
-4.0029092 -1.9679413 -0.54768103 4 4
-4.1254916 -2.0273108 0.72804618 31 12
-3.9932778 -1.9614745 -0.38923767 37 5
-4.1361227 -2.0307431 0.89565766 26 13
-4.0108957 -1.9683909 -0.23415099 42 6
-4.1688757 -2.0459213 1.0721166 30 14
-4.0340858 -1.9788982 -0.078430869 42 7
-4.0866218 -2.0037847 1.2195556 36 15
-4.0443754 -1.9760706 0.078570627 42 8
-4.0616746 -1.982767 0.2368726 39 9
-4.0736041 -1.9877104 0.39655837 40 10
-4.0932779 -1.9955413 0.55913645 33 11
-4.0097547 -1.9539565 -0.54768056 4 4
-4.1360946 -2.0146277 0.72867191 37 12
-3.9961779 -1.9464765 -0.38888901 35 5
-4.1357737 -2.0135784 0.89413065 26 13
-4.0066257 -1.9498353 -0.23352294 40 6
-4.1724877 -2.0296519 1.0712169 30 14
-4.0373716 -1.9630555 -0.078361057 39 7
-4.0935907 -1.9895071 1.2195555 37 15
-4.0512495 -1.9619402 0.078570634 43 8
-4.0541883 -1.9616177 0.23603523 42 9
-4.0805182 -1.9734777 0.39655837 40 10
-4.0912819 -1.9769226 0.55791777 36 11
-4.0094013 -1.9364935 -0.54670566 4 4
-4.1377649 -1.997601 0.72773325 33 12
-3.9957712 -1.9290504 -0.38819179 37 5
-4.1410089 -1.9982774 0.89374906 27 13
-4.0134072 -1.9358376 -0.23352294 40 6
-4.161993 -2.0066116 1.0667179 31 14
-4.0405965 -1.9472151 -0.078291252 40 7
-4.0970302 -1.973529 1.2185203 34 15
-4.0544677 -1.9460571 0.07850083 43 8
-4.0574088 -1.9457268 0.2358259 40 9
-4.0837884 -1.9574991 0.39621025 43 10
-4.1017389 -1.9643432 0.55840522 35 11
-4.0053935 -1.9173434 -0.54524368 4 4
-4.1304574 -1.9763258 0.7252304 34 12
-4.0114665 -1.9193914 -0.38906336 39 5
-4.1515012 -1.9855032 0.89451283 27 13
-4.0201406 -1.9218165 -0.23352297 42 6
-4.168972 -1.9920723 1.066718 30 14
-4.0365429 -1.9279267 -0.078081824 39 7
-4.1021504 -1.9583828 1.2180024 33 15
-4.068459 -1.9353282 0.078640439 43 8
-4.0641766 -1.9315507 0.2358259 42 9
-4.0761995 -1.9363939 0.39481527 42 10
-4.1049843 -1.948311 0.55791777 37 11
-4.0013008 -1.8982463 -0.54378074 4 4
-4.1337609 -1.9602027 0.72460455 33 12
-4.0019403 -1.8976941 -0.38749453 39 5
-4.1672773 -1.9752039 0.89642084 27 13
-4.0232139 -1.9060622 -0.23331361 42 6
-4.1759 -1.9775075 1.0667179 30 14
-4.0360184 -1.9104028 -0.077942207 39 7
-4.1054688 -1.9424003 1.2169672 30 15
-4.057435 -1.9118806 0.078291394 43 8
-4.0636663 -1.9139493 0.23540722 40 9
-4.072453 -1.9163499 0.39376938 43 10
-4.1156898 -1.9349425 0.55840522 36 11
-4.0154185 -1.8869443 -0.54475576 4 4
-4.1459422 -1.9482806 0.7255432 30 12
-4.003458 -1.8804721 -0.38697156 41 5
-4.153163 -1.9499054 0.89184093 27 13
-4.0265574 -1.8896056 -0.23310426 42 6
-4.1795917 -1.9605336 1.0658182 31 14
-4.0462828 -1.898002 -0.078012019 40 7
-4.1157217 -1.9296978 1.2180024 27 15
-4.0565062 -1.8950297 0.078151777 42 8
-4.0775619 -1.9031315 0.2358259 40 9
-4.0845346 -1.9046499 0.39429238 43 10
-4.1112881 -1.9162517 0.55694276 36 11
-4.0252519 -1.8752955 -0.54524374 4 4
-4.1455541 -1.9304619 0.72429174 36 12
-4.0118046 -1.8673266 -0.38714591 39 5
-4.1542668 -1.933637 0.89069617 26 13
-4.02918 -1.8745575 -0.23289493 46 6
-4.1790018 -1.9433756 1.0640185 31 14
-4.054697 -1.8847091 -0.078046918 42 7
-4.1364498 -1.9218307 1.2221437 30 15
-4.0649114 -1.8816972 0.078186676 45 8
-4.0678654 -1.8813409 0.23488384 43 9
-4.0890198 -1.8902582 0.39411804 43 10
-4.108942 -1.8977275 0.5557242 37 11
-4.0065413 -1.8495851 -0.5418309 4 4
-4.1558547 -1.9176346 0.72491741 34 12
-4.0125475 -1.8515084 -0.38662297 39 5
-4.1574254 -1.9174793 0.88993287 26 13
-4.0284433 -1.8571378 -0.23247625 48 6
-4.1786804 -1.9255139 1.0622188 32 14
-4.0539856 -1.8671976 -0.077907301 42 7
-4.1483965 -1.9098042 1.2236965 24 15
-4.0678191 -1.8658288 0.078116864 45 8
-4.0707755 -1.8654665 0.2346745 45 9
-4.1010265 -1.8784622 0.39464092 43 10
-4.1101251 -1.8808943 0.55499285 37 11
-4.0274148 -1.842194 -0.54378074 4 4
-4.1427617 -1.894081 0.7214759 37 12
-4.0262341 -1.8408042 -0.38732022 41 5
-4.1587362 -1.9005071 0.88878846 24 13
-4.0349011 -1.8430644 -0.23247622 46 6
-4.1800585 -1.9084878 1.0608691 33 14
-4.051383 -1.8488841 -0.077732772 40 7
-4.1550379 -1.8953118 1.2236965 23 15
-4.0815902 -1.8549277 0.078256488 47 8
-4.0772634 -1.8512446 0.23467451 43 9
-4.0857878 -1.8542551 0.39254922 45 10
-4.1220903 -1.8689955 0.5557242 37 11
-4.0121236 -1.8182913 -0.54085594 6 4
-4.1511469 -1.8804244 0.7217887 34 12
-4.018434 -1.8194607 -0.38592577 39 5
-4.170711 -1.8884084 0.88993287 30 13
-4.0413103 -1.8289689 -0.23247625 48 6
-4.1831436 -1.8922787 1.0599693 32 14
-4.0559902 -1.8339071 -0.077697881 43 7
-4.1598682 -1.8800009 1.2231789 20 15
-4.073452 -1.8341016 0.07797724 47 8
-4.0800581 -1.8353622 0.23446517 45 9
-4.0852871 -1.8360003 0.39185193 45 10
-4.1322107 -1.8562219 0.55621159 37 11
-4.0220666 -1.805903 -0.54134387 6 4
-4.1558838 -1.8651128 0.72147578 37 12
-4.0138535 -1.8005297 -0.38487989 41 5
-4.1578984 -1.8642749 0.88573509 24 13
-4.0516319 -1.8157779 -0.23268557 48 6
-4.1864948 -1.8753408 1.0590696 33 14
-4.0550666 -1.8164675 -0.077558249 42 7
-4.1593518 -1.8623118 1.2211082 19 15
-4.0764956 -1.81753 0.07790745 47 8
-4.0885806 -1.821209 0.2345698 42 9
-4.0989518 -1.8249704 0.39254922 45 10
-4.1208491 -1.8329974 0.5537743 37 11
-4.0395436 -1.7959864 -0.54280579 4 4
-4.1590815 -1.8482649 0.72085017 39 12
-4.0273957 -1.7897449 -0.38557708 41 5
-4.1607924 -1.8481545 0.88497186 26 13
-4.0415168 -1.7943299 -0.23174354 55 6
-4.1965766 -1.8622971 1.0599692 33 14
-4.0653529 -1.8032142 -0.077628061 42 7
-4.1732149 -1.8501854 1.2231789 20 15
-4.0754972 -1.8000584 0.077767819 47 8
-4.08395 -1.8020872 0.23394176 46 9
-4.1071196 -1.811456 0.39272353 43 10
-4.119956 -1.8153988 0.55279928 38 11
-4.0348868 -1.7770746 -0.54134387 4 4
-4.1600842 -1.8313482 0.71991163 39 12
-4.0263252 -1.7724649 -0.38487989 41 5
-4.1744061 -1.8367821 0.88649833 28 13
-4.0367856 -1.7753879 -0.23111551 53 6
-4.1887803 -1.8413632 1.0563701 34 14
-4.0643001 -1.7857949 -0.077488445 43 7
-4.1831851 -1.8371615 1.2242142 19 15
-4.0854206 -1.7874246 0.077837639 47 8
-4.0880733 -1.7877349 0.2338371 45 9
-4.109766 -1.795513 0.39237487 43 10
-4.1335444 -1.8041834 0.55377418 38 11
-4.0155931 -1.7518665 -0.5379315 4 4
-4.1570816 -1.813593 0.71834725 43 12
-4.039793 -1.7615837 -0.38557708 41 5
-4.1807919 -1.8222005 0.88649833 28 13
-4.0502825 -1.7644767 -0.23153418 48 6
-4.1844625 -1.8220614 1.0536706 34 14
-4.0591989 -1.7675172 -0.077279016 45 7
-4.1945682 -1.8255922 1.2257671 21 15
-4.087656 -1.7722758 0.077767827 47 8
-4.0869579 -1.7702785 0.23341842 45 9
-4.103209 -1.7756172 0.39115471 45 10
-4.1322169 -1.7873139 0.55279922 38 11
-4.0541782 -1.7527199 -0.54231828 4 4
-4.1633868 -1.7990708 0.71834725 42 12
-4.0221391 -1.7372025 -0.38331103 39 5
-4.1723928 -1.8020988 0.88344538 31 13
-4.0487761 -1.747869 -0.23111548 48 6
-4.1940603 -1.809719 1.0545704 34 14
-4.0653443 -1.7533369 -0.077279016 45 7
-4.1902714 -1.8063506 1.2226613 23 15
-4.0827923 -1.7532617 0.077558391 47 8
-4.1004543 -1.7591515 0.23383713 43 9
-4.1090751 -1.7620007 0.39115471 43 10
-4.1384306 -1.7728788 0.55279922 37 11
-4.0420232 -1.7307436 -0.53988147 4 4
-4.1641932 -1.7821952 0.71740866 39 12
-4.0336747 -1.725503 -0.38383403 39 5
-4.1696329 -1.7836626 0.88153738 30 13
-4.0511804 -1.732155 -0.23090616 53 6
-4.1896005 -1.7904731 1.0518711 33 14
-4.0696001 -1.738351 -0.07724411 47 7
-4.1983275 -1.7924712 1.2231789 26 15
-4.0888872 -1.7390003 0.077558391 47 8
-4.095541 -1.7401412 0.23320909 45 9
-4.1118379 -1.7453715 0.39080611 45 10
-4.1336293 -1.7537699 0.55133677 38 11
-4.0480399 -1.7166246 -0.53988147 4 4
-4.1758451 -1.7699612 0.71834725 43 12
-4.0360036 -1.7098577 -0.38348538 41 5
-4.1725273 -1.766836 0.88077408 30 13
-4.0501447 -1.7141812 -0.23048747 51 6
-4.2033134 -1.7781434 1.0536706 34 14
-4.0793271 -1.725693 -0.077313922 45 7
-4.2116771 -1.7808138 1.2252495 30 15
-4.0989203 -1.7255529 0.07762821 47 8
-4.0997491 -1.7250607 0.23310441 46 9
-4.1215782 -1.7325517 0.39115471 47 10
-4.1400299 -1.7386078 0.55133682 38 11
-4.0360003 -1.694092 -0.537444 6 4
-4.1801758 -1.7546091 0.71803427 40 12
-4.0437851 -1.6965308 -0.38365972 39 5
-4.1750479 -1.7507428 0.88001084 30 13
-4.0487356 -1.696945 -0.23006879 55 6
-4.1933179 -1.7566844 1.0496217 36 14
-4.0816369 -1.7098986 -0.077244118 47 7
-4.2196493 -1.7668486 1.2257673 32 15
-4.1046195 -1.7119505 0.077628203 48 8
-4.098371 -1.7076666 0.23268571 46 9
-4.1239219 -1.7166238 0.39080611 43 10
-4.1421065 -1.723344 0.55084932 37 11
-4.0452628 -1.6822236 -0.53793103 6 4
-4.1716824 -1.7339424 0.71553135 40 12
-4.0496831 -1.6824039 -0.38365972 39 5
-4.1808305 -1.7368881 0.88001084 30 13
-4.0617189 -1.686573 -0.23048747 55 6
-4.2063198 -1.7457558 1.0514212 36 14
-4.0764985 -1.6910419 -0.077034682 45 7
-4.2382822 -1.7572874 1.2293905 35 15
-4.1050253 -1.6953232 0.077523485 48 8
-4.1043077 -1.6933491 0.23268571 48 9
-4.1185403 -1.6983813 0.38976023 47 10
-4.1480966 -1.7088757 0.55084932 38 11
-4.0474377 -1.6665815 -0.537444 6 4
-4.1758833 -1.7186182 0.71521848 42 12
-4.0460267 -1.6651747 -0.38278815 39 5
-4.1904998 -1.7237773 0.88077408 30 13
-4.0638871 -1.6708658 -0.23027815 53 6
-4.2033758 -1.7273588 1.0491717 34 14
-4.0823765 -1.6768019 -0.077034682 47 7
-4.2122226 -1.7292763 1.2200732 35 15
-4.0979619 -1.6756858 0.07727915 45 8
-4.1064949 -1.6775022 0.23247637 48 9
-4.1244435 -1.6839943 0.38976023 47 10
-4.1521988 -1.6936361 0.55060565 40 11
-4.0532312 -1.6524432 -0.53744352 6 4
-4.1781983 -1.7025391 0.71459275 42 12
-4.0518155 -1.6510403 -0.38278815 39 5
-4.1837635 -1.7039554 0.87810278 31 13
-4.0696945 -1.6566708 -0.23027815 55 6
-4.2093797 -1.7126757 1.0491717 33 14
-4.0826478 -1.6602818 -0.076929972 50 7
-4.228971 -1.7189277 1.2231789 40 15
-4.0982246 -1.6591196 0.077174433 48 8
-4.1160288 -1.6646553 0.23268571 48 9
-4.1302972 -1.6695873 0.38976029 45 10
-4.14152 -1.6724423 0.54841202 38 11
-4.0571342 -1.6375418 -0.5371998 6 4
-4.1859479 -1.688683 0.71490568 39 12
-4.0541434 -1.6346893 -0.38243949 39 5
-4.1860437 -1.6878734 0.87733948 31 13
-4.0606332 -1.636481 -0.22944075 55 6
-4.2171397 -1.6986996 1.0496216 36 14
-4.0847077 -1.6445274 -0.076860152 45 7
-4.2349453 -1.704154 1.2231787 45 15
-4.1077042 -1.6462919 0.077244252 50 8
-4.1069808 -1.6443384 0.23184833 48 9
-4.138238 -1.6551774 0.38993454 48 10
-4.1491747 -1.6587118 0.54865569 40 11
-4.0701995 -1.6263149 -0.53817475 6 4
-4.1899824 -1.6733294 0.71459281 43 12
-4.0561242 -1.6190505 -0.3820909 39 5
-4.1867318 -1.6703358 0.87619466 33 13
-4.0666037 -1.6215881 -0.22944075 53 6
-4.2016149 -1.674575 1.044223 37 14
-4.0959964 -1.6324803 -0.07696487 45 7
-4.2426634 -1.690076 1.2236966 51 15
-4.1118517 -1.6304882 0.077209346 48 8
-4.1108384 -1.6292584 0.23174369 45 9
-4.1347289 -1.6370549 0.38906303 47 10
-4.1533813 -1.6427631 0.54841197 37 11
-4.0595169 -1.6048183 -0.5359816 6 4
-4.1902862 -1.6565144 0.7136541 43 12
-4.0654569 -1.6063452 -0.38243949 41 5
-4.1998405 -1.6585966 0.87772107 33 13
-4.0722394 -1.6073829 -0.22944075 53 6
-4.2001834 -1.6570363 1.0424231 36 14
-4.0905089 -1.6137681 -0.076755442 45 7
-4.2503338 -1.6759655 1.2242142 54 15
-4.1172361 -1.6168437 0.077209346 47 8
-4.1165018 -1.614897 0.23174371 43 9
-4.1367073 -1.621159 0.3887144 48 10
-4.1588058 -1.6289809 0.54841197 38 11
-4.061121 -1.5899007 -0.53549373 6 4
-4.1868458 -1.6382785 0.71208984 43 12
-4.0636172 -1.5892425 -0.38174227 41 5
-4.2053175 -1.6446601 0.87772107 33 13
-4.0812674 -1.595324 -0.22965011 55 6
-4.2129164 -1.6459357 1.044223 36 14
-4.088666 -1.5965712 -0.076615825 47 7
-4.2291636 -1.650583 1.2164496 44 15
-4.1116714 -1.5981163 0.076999918 48 8
-4.1236954 -1.6019613 0.23184836 46 9
-4.1290588 -1.6023853 0.38749418 48 10
-4.1644669 -1.614454 0.54841197 38 11
-4.0703468 -1.5771489 -0.5359816 4 4
-4.1922555 -1.6243852 0.71208984 42 12
-4.0651488 -1.5743191 -0.38139367 39 5
-4.2000475 -1.6257186 0.87543136 33 13
-4.0849485 -1.5803474 -0.22954544 55 6
-4.218636 -1.6312207 1.044223 37 14
-4.1013989 -1.5858886 -0.076755449 47 7
-4.2292085 -1.6344606 1.2148968 48 15
-4.1132159 -1.5830361 0.076930113 48 8
-4.1329913 -1.5889895 0.23205771 46 9
-4.1402073 -1.5901065 0.38801718 48 10
-4.1586781 -1.5963664 0.54694951 38 11
-4.0681415 -1.5607983 -0.5350067 4 4
-4.1979003 -1.6097426 0.7120899 42 12
-4.0668983 -1.5586931 -0.38104498 41 5
-4.2017498 -1.6103767 0.87466818 34 13
-4.0771108 -1.5617911 -0.22881272 48 6
-4.2185616 -1.6151316 1.042873 34 14
-4.1031742 -1.5701331 -0.076685637 47 7
-4.2294745 -1.6176172 1.2133439 46 15
-4.1205854 -1.56938 0.076965012 48 8
-4.1195717 -1.5681696 0.23101096 46 9
-4.1417317 -1.5749513 0.38766897 45 10
-4.1568022 -1.5790205 0.54597455 38 11
-4.0587182 -1.5409524 -0.53305626 6 4
-4.195828 -1.5930083 0.71083838 42 12
-4.0720458 -1.5451984 -0.38104507 41 5
-4.2110167 -1.5970922 0.87543148 34 13
-4.0769348 -1.545427 -0.2284987 55 6
-4.2187071 -1.5983248 1.0415233 37 14
-4.1083589 -1.5565176 -0.076685637 45 7
-4.2384291 -1.6049509 1.2143791 53 15
-4.1220245 -1.5542958 0.076895192 50 8
-4.1212826 -1.552372 0.23080164 48 9
-4.1509347 -1.561888 0.38801718 47 10
-4.1638737 -1.5659261 0.54621828 40 11
-4.0656638 -1.5281831 -0.53329998 6 4
-4.1939669 -1.5755725 0.70958692 43 12
-4.0736842 -1.529574 -0.38069645 42 5
-4.2126136 -1.5817389 0.87466818 34 13
-4.087647 -1.5340039 -0.22881272 51 6
-4.2130361 -1.5802197 1.038824 37 14
-4.1044044 -1.5386573 -0.076511107 50 7
-4.2440052 -1.5901473 1.2143791 46 15
-4.1260881 -1.5377584 0.076860294 48 8
-4.1347003 -1.5393234 0.23122035 46 9
-4.1454272 -1.5424945 0.38697124 47 10
-4.1698556 -1.5499263 0.54621828 40 11
-4.0863886 -1.5180912 -0.53525048 8 4
-4.1925778 -1.5567079 0.70833534 42 12
-4.0643201 -1.5090857 -0.37930191 41 5
-4.2186561 -1.5655519 0.87466818 33 13
-4.0953798 -1.5189918 -0.22891741 55 6
-4.2263813 -1.5667406 1.0406235 36 14
-4.1065321 -1.5214968 -0.076441303 50 7
-4.2392097 -1.5698144 1.2112732 46 15
-4.1239262 -1.5205791 0.076720677 45 8
-4.1344247 -1.5228109 0.23090631 43 9
-4.1489167 -1.5273265 0.38679695 48 10
-4.178966 -1.5367323 0.54670572 40 11
-4.0935264 -1.5045025 -0.53549367 6 4
-4.2072577 -1.5454681 0.70989972 45 12
-4.0733037 -1.4962623 -0.37965056 41 5
-4.2093506 -1.5454042 0.87161517 33 13
-4.1025324 -1.5053749 -0.22902207 51 6
-4.2281661 -1.5506364 1.0397238 36 14
-4.1118178 -1.5071539 -0.076441303 48 7
-4.2428498 -1.5543427 1.2107556 53 15
-4.1254525 -1.5048043 0.07665088 47 8
-4.1453457 -1.5104213 0.23122035 46 9
-4.1523504 -1.5121528 0.38662261 48 10
-4.1693811 -1.5167068 0.54475588 40 11
-4.091291 -1.4874913 -0.53451878 4 4
-4.2089128 -1.5294241 0.70927399 43 12
-4.0825057 -1.482684 -0.37999919 41 5
-4.2036481 -1.5266805 0.86932564 34 13
-4.0946207 -1.4862739 -0.22828937 55 6
-4.237216 -1.5371978 1.0406235 38 14
-4.1114135 -1.4907466 -0.076336578 47 7
-4.2464337 -1.5388637 1.210238 51 15
-4.1363225 -1.4924302 0.076755576 48 8
-4.135561 -1.4905244 0.23038298 48 9
-4.1616144 -1.4982733 0.38697124 45 10
-4.1690464 -1.5001271 0.54402465 38 11
-4.0777783 -1.4664828 -0.53208131 4 4
-4.2142262 -1.5147227 0.70927399 43 12
-4.0876565 -1.4684242 -0.37999919 39 5
-4.2166061 -1.5139166 0.87085199 33 13
-4.0943999 -1.4692333 -0.22797532 55 6
-4.228148 -1.5163945 1.0370245 36 14
-4.1260037 -1.4797614 -0.076511107 48 7
-4.2463236 -1.5220768 1.208685 45 15
-4.1323476 -1.4739009 0.076581061 48 8
-4.1315899 -1.4720052 0.22985964 45 9
-4.163065 -1.4824005 0.38662261 48 10
-4.1838684 -1.4881631 0.54524338 40 11
-4.0906072 -1.4541867 -0.53305626 4 4
-4.2123046 -1.4966214 0.70802253 45 12
-4.1002665 -1.4568145 -0.38069639 39 5
-4.220015 -1.4985315 0.87047035 31 13
-4.0995035 -1.4549321 -0.22797532 53 6
-4.2334156 -1.5016252 1.0370245 36 14
-4.1068983 -1.4559426 -0.076057352 47 7
-4.2591572 -1.5090836 1.2107556 46 15
-4.1374674 -1.4594685 0.076581068 48 8
-4.138586 -1.4582378 0.22996427 46 9
-4.1494207 -1.4612426 0.3848795 48 10
-4.1815472 -1.4709144 0.54426837 37 11
-4.0919127 -1.4385831 -0.53256875 4 4
-4.2100482 -1.4792889 0.70677108 43 12
-4.0827703 -1.4345673 -0.37860468 42 5
-4.2344818 -1.4870442 0.87237847 34 13
-4.1045575 -1.4406122 -0.22797532 55 6
-4.2349529 -1.4855492 1.0361245 36 14
-4.1119556 -1.4415979 -0.076057352 45 7
-4.2534604 -1.490373 1.2076498 44 15
-4.1312075 -1.441065 0.076371625 48 8
-4.147171 -1.4458205 0.2301736 46 9
-4.1507339 -1.445438 0.3845309 47 10
-4.1922808 -1.4582667 0.54499966 38 11
-4.11166 -1.4302232 -0.53451926 4 4
-4.222394 -1.4679143 0.70802253 43 12
-4.0858707 -1.4196528 -0.37843031 44 5
-4.2266641 -1.4677467 0.86970717 36 13
-4.109561 -1.4262768 -0.22797532 53 6
-4.2398558 -1.4714973 1.0361245 36 14
-4.1186028 -1.4286095 -0.076092258 48 7
-4.2565532 -1.475629 1.2071322 48 15
-4.1397443 -1.4286621 0.076441444 47 8
-4.1519427 -1.4320599 0.2301736 48 9
-4.1668057 -1.4355603 0.38557673 47 10
-4.1820769 -1.4391887 0.54304969 38 11
-4.097609 -1.4101206 -0.53208178 4 4
-4.2235017 -1.4526201 0.70739675 43 12
-4.0886722 -1.405448 -0.37825599 42 5
-4.214798 -1.4479815 0.86627257 37 13
-4.1029344 -1.4087496 -0.22734731 55 6
-4.2447119 -1.4574292 1.0361245 36 14
-4.1308832 -1.4175398 -0.076231875 48 7
-4.2595963 -1.4608787 1.2066146 42 15
-4.1463518 -1.4155724 0.07647635 48 8
-4.1417933 -1.412402 0.22933623 46 9
-4.1696577 -1.421092 0.38540244 48 10
-4.1793098 -1.4227535 0.54207474 38 11
-4.0912313 -1.3919724 -0.53061891 4 4
-4.2229371 -1.4359597 0.70645821 43 12
-4.0973253 -1.3924505 -0.37860465 41 5
-4.2235446 -1.434523 0.86703587 40 13
-4.1078277 -1.3944192 -0.22734734 53 6
-4.2387023 -1.438845 1.0334252 36 14
-4.1301246 -1.4011841 -0.076127149 50 7
-4.2610102 -1.4447603 1.2055793 42 15
-4.1496172 -1.3997264 0.076441444 47 8
-4.1431561 -1.3959365 0.22912689 46 9
-4.1767263 -1.4064355 0.38557673 48 10
-4.1901417 -1.4093236 0.54280597 40 11
-4.1151218 -1.3832928 -0.53305626 2 4
-4.213191 -1.4154404 0.70395523 43 12
-4.1042914 -1.378057 -0.37877902 44 5
-4.2362194 -1.4215305 0.86856228 39 13
-4.1185908 -1.3812597 -0.22766131 55 6
-4.2457948 -1.4239204 1.033875 34 14
-4.1219606 -1.3815886 -0.07588283 50 7
-4.2681084 -1.4297456 1.2060968 48 15
-4.1509252 -1.3832434 0.076371625 47 8
-4.1520348 -1.3820032 0.22933622 46 9
-4.1629481 -1.3848286 0.38383362 48 10
-4.1952786 -1.3939574 0.54280597 41 11
-4.1088605 -1.3644472 -0.53159386 4 4
-4.227725 -1.4030989 0.70551962 45 12
-4.0958395 -1.3593286 -0.37755877 41 5
-4.2430191 -1.4073538 0.86894399 40 13
-4.121491 -1.366245 -0.22755665 53 6
-4.2454357 -1.4065094 1.0325253 38 14
-4.1307931 -1.3677294 -0.075952634 50 7
-4.2604828 -1.4098444 1.2024734 44 15
-4.1481309 -1.3662442 0.076232009 47 8
-4.1530395 -1.366253 0.22912689 48 9
-4.1696501 -1.37091 0.38400796 48 10
-4.1982331 -1.3786852 0.54256231 38 11
-4.1173711 -1.3513333 -0.53208131 4 4
-4.2288427 -1.3871022 0.70489383 43 12
-4.0967727 -1.3437819 -0.37721017 41 5
-4.2292495 -1.3864183 0.86512768 40 13
-4.1224399 -1.3506064 -0.22734731 53 6
-4.2521715 -1.392289 1.0329753 34 14
-4.1393437 -1.3545458 -0.076022454 48 7
-4.265378 -1.3949639 1.2024734 45 15
-4.1452694 -1.3492795 0.076092392 45 8
-4.168942 -1.3561803 0.22975487 48 9
-4.1781998 -1.3575792 0.38435659 50 10
-4.1935782 -1.3609591 0.54134351 40 11
-4.1293817 -1.340125 -0.53305626 2 4
-4.2371774 -1.37429 0.70551962 43 12
-4.1128106 -1.3331596 -0.37825605 28 5
-4.2191224 -1.3668056 0.86207479 36 13
-4.1195283 -1.3337483 -0.22692864 55 6
-4.2586179 -1.3787804 1.033425 36 14
-4.1438122 -1.3408117 -0.076022446 48 7
-4.266304 -1.3796226 1.2014382 45 15
-4.1535273 -1.3367516 0.076162197 47 8
-4.1582065 -1.3374557 0.22891752 46 9
-4.1750908 -1.3412787 0.38365936 48 10
-4.1942887 -1.3458322 0.54085612 41 11
-4.1149011 -1.320359 -0.53061891 2 4
-4.2341871 -1.3578184 0.70426804 45 12
-4.1361823 -1.3255941 -0.37999916 4 5
-4.2311096 -1.355203 0.86360168 36 13
-4.1163201 -1.3176444 -0.22650996 55 6
-4.2483196 -1.3598979 1.0298259 36 14
-4.1520452 -1.3282814 -0.076092258 50 7
-4.2782159 -1.3678216 1.2035087 45 15
-4.1617489 -1.3241833 0.076232009 47 8
-4.1590424 -1.3217237 0.22870818 52 9
-4.1871109 -1.3298392 0.38435656 50 10
-4.2044044 -1.3337164 0.54158723 38 11
-4.1232691 -1.3071856 -0.53110677 2 4
-4.2313685 -1.3406434 0.70301658 45 12
-4.2337093 -1.340572 0.86321968 37 13
-4.1282835 -1.3063971 -0.22692864 55 6
-4.2530408 -1.3450601 1.0298259 36 14
-4.145216 -1.3101639 -0.07588283 50 7
-4.2829647 -1.3528795 1.2035087 42 15
-4.1625304 -1.3084476 0.076162197 48 8
-4.163631 -1.3071979 0.22870819 50 9
-4.1843529 -1.3120981 0.38365933 47 10
-4.2090344 -1.3190321 0.54158723 37 11
-4.131597 -1.2939717 -0.53159392 2 4
-4.2360225 -1.3258649 0.70301658 45 12
-2.0935845 -0.65488636 -0.19191702 1 5
-4.2404675 -1.3256313 0.86360168 40 13
-4.1273246 -1.2894715 -0.22661462 57 6
-4.2579422 -1.3294628 1.0298259 37 14
-4.1497645 -1.2956864 -0.075882837 50 7
-4.2729068 -1.3333169 1.1993674 45 15
-4.1615682 -1.2914052 0.076057486 48 8
-4.1681685 -1.2926561 0.22870819 50 9
-4.1851006 -1.2963059 0.38331068 45 10
-4.2081523 -1.3018354 0.54085606 40 11
-4.1628623 -1.2870295 -0.5350067 2 4
-4.2387376 -1.3104877 0.70270377 42 12
-2.0654004 -0.63816315 -0.18912803 2 5
-4.245069 -1.3108209 0.86360168 40 13
-4.137526 -1.2768234 -0.22692864 55 6
-4.262557 -1.3145915 1.0298259 37 14
-4.1619053 -1.2835501 -0.076022446 53 7
-4.2756896 -1.3178246 1.1988499 51 15
-4.1658278 -1.2775978 0.076057486 48 8
-4.176475 -1.2792673 0.22891752 48 9
-4.1857901 -1.2805237 0.38296208 48 10
-4.2010555 -1.2843908 0.53939366 40 11
-4.2088733 -1.2859789 -0.54036897 2 4
-4.2489543 -1.2974144 0.70364243 48 12
-2.0714266 -0.63211268 -0.18947664 2 5
-4.2343712 -1.2921526 0.86054838 36 13
-4.132185 -1.2601826 -0.22640526 57 6
-4.2706208 -1.3015852 1.0307256 36 14
-4.1625347 -1.2678492 -0.075952642 55 7
-4.2858076 -1.3045802 1.2004029 48 15
-4.1683488 -1.2624689 0.076022588 48 8
-4.1673141 -1.2613605 0.22818488 53 9
-4.1900134 -1.2666358 0.38296208 50 10
-4.205513 -1.2697194 0.5393936 41 11
-0.89131933 -0.26893547 -0.11431351 3 4
-4.2513413 -1.2827463 0.70332944 48 12
-2.0811419 -0.62754077 -0.19017389 2 5
-4.2482543 -1.2801973 0.86245638 40 13
-4.1097851 -1.2376877 -0.22493987 38 6
-4.2676744 -1.2844236 1.0289261 36 14
-4.1590567 -1.2517334 -0.07581301 42 7
-4.28826 -1.2898041 1.1998851 46 15
-4.1514392 -1.2423328 0.075638629 40 8
-4.1659498 -1.2450911 0.22787084 52 9
-4.1982274 -1.2531418 0.38331068 50 10
-4.2135053 -1.2569013 0.53988111 40 11
-0.89220631 -0.26597828 -0.1143134 3 4
-4.2387557 -1.2628216 0.70051366 45 12
-2.060405 -0.61345041 -0.18808216 2 5
-4.2581205 -1.2677827 0.86360168 40 13
-4.04878 -1.2046859 -0.22138102 61 6
-4.2550993 -1.2652655 1.024877 34 14
-4.063724 -1.2075887 -0.073997967 53 7
-4.2890325 -1.2737274 1.1988499 45 15
-4.0905466 -1.2085702 0.074451864 60 8
-4.0917311 -1.2073663 0.22357927 53 9
-4.133563 -1.2189257 0.3770355 45 10
-4.1969213 -1.236017 0.53720003 27 11
-0.91978985 -0.27070886 -0.11772585 2 4
-4.2317672 -1.2446742 0.69863647 40 12
-2.0395954 -0.59951204 -0.18599041 3 5
-4.2531023 -1.2501432 0.86169314 40 13
-4.0606256 -1.1927972 -0.22179972 78 6
-4.265099 -1.2520523 1.0262268 38 14
-4.0640769 -1.1922704 -0.073928162 69 7
-4.2897453 -1.25766 1.1978146 53 15
-4.0774632 -1.1892449 0.074137725 78 8
-4.0920854 -1.191959 0.22336994 73 9
-4.1093063 -1.1954192 0.37442082 65 10
-4.132587 -1.2014093 0.52842534 52 11
-0.85591602 -0.24866657 -0.10943863 5 4
-4.1621013 -1.2084144 0.68643457 51 12
-2.0569835 -0.59683037 -0.1873849 2 5
-4.1690335 -1.2088494 0.84375709 40 13
-4.0572968 -1.1756828 -0.22138102 59 6
-4.1966581 -1.2152716 1.0086806 38 14
-4.0720553 -1.1791891 -0.073997967 66 7
-4.2477169 -1.2292538 1.1848738 29 15
-4.0817952 -1.1742913 0.074137732 76 8
-4.1002665 -1.1780558 0.2235793 73 9
-4.103879 -1.1783185 0.37354925 69 10
-4.1255136 -1.1829717 0.52696294 65 11
-0.99040198 -0.28380609 -0.12650035 2 4
-4.162704 -1.1920646 0.68580878 64 12
-2.1204531 -0.60682875 -0.19296291 1 5
-4.1637907 -1.1915885 0.84184909 57 13
-4.1840115 -1.1957954 1.0046315 47 14
-4.072505 -1.1631581 -0.07392817 66 7
-4.2020369 -1.1993607 1.1708975 60 15
-4.089716 -1.161129 0.074207529 73 8
-4.0851378 -1.1582875 0.22253256 78 9
-4.1158385 -1.1654404 0.37424654 71 10
-4.1162477 -1.1647803 0.52525681 60 11
-0.86913455 -0.24577662 -0.11090107 4 4
-4.1687417 -1.1780632 0.68612176 69 12
-4.1794662 -1.1795198 0.84413868 60 13
-4.1232743 -1.1628835 -0.22452118 2 6
-4.1846142 -1.1793948 1.0037316 61 14
-4.0803895 -1.15002 -0.073997967 68 7
-4.2210727 -1.1888763 1.1750386 82 15
-4.0935435 -1.1475604 0.074207522 76 8
-4.0870333 -1.1441958 0.22242789 76 9
-4.1156416 -1.1514314 0.37389788 71 10
-4.1296463 -1.1537943 0.52647543 63 11
-0.8852405 -0.24716371 -0.11285107 4 4
-4.1650143 -1.1621089 0.68487024 69 12
-4.1755872 -1.1642734 0.84261227 60 13
-4.1789126 -1.1636287 1.0014821 59 14
-4.0764747 -1.134338 -0.073858351 68 7
-4.219408 -1.1733191 1.1734855 92 15
-4.1013794 -1.1343304 0.074277341 76 8
-4.0987024 -1.1320502 0.22284657 82 9
-4.1042714 -1.1328174 0.3725034 69 10
-4.1355619 -1.1399004 0.52671915 66 11
-0.88609785 -0.24407211 -0.11285107 4 4
-4.1671405 -1.1470386 0.68455732 72 12
-4.1928754 -1.1533363 0.84528399 57 13
-4.190465 -1.151099 1.0032816 59 14
-4.0726957 -1.1179851 -0.073718734 68 7
-4.2011228 -1.1524498 1.1672741 88 15
-4.0898805 -1.1157963 0.073998101 76 8
-4.1026292 -1.117736 0.22284657 76 9
-4.1120453 -1.1195303 0.372852 79 10
-4.1414323 -1.1259787 0.526963 63 11
-0.879282 -0.23889546 -0.11187602 4 4
-4.1787448 -1.134557 0.68580884 54 12
-4.1722445 -1.1320103 0.84032249 42 13
-4.1944571 -1.1364653 1.0032816 59 14
-4.0842938 -1.1058522 -0.073858351 68 7
-4.2013903 -1.1367689 1.1662388 82 15
-4.0937505 -1.101513 0.073998101 81 8
-4.110364 -1.1044447 0.22305593 79 9
-4.1197767 -1.1062032 0.37320065 79 10
-4.1338325 -1.1084306 0.52550054 61 11
-0.8801105 -0.23582493 -0.11187602 4 4
-4.196516 -1.1213139 1.0028318 52 14
-4.0919943 -1.0926195 -0.07392817 40 7
-4.2071991 -1.1225942 1.1667564 78 15
-4.1130333 -1.0913191 0.074277341 34 8
-4.1026101 -1.0870209 0.22242789 52 9
-4.1159091 -1.0897758 0.3725034 76 10
-4.1280813 -1.0914569 0.52428186 57 11
-0.8809284 -0.23275134 -0.11187603 4 4
-1.6420254 -0.43322873 0.33009967 3 13
-4.1439018 -1.0840404 0.07476601 3 8
-4.1491537 -1.0815468 0.52647543 18 11
-0.87020952 -0.22667256 -0.11041359 4 4
-1.6631591 -0.4329105 0.27219602 34 12
-4.137979 -1.0670731 0.074591488 24 8
-4.1756725 -1.0760151 0.2259867 32 9
-4.194809 -1.0793861 0.3789534 17 10
-0.87484074 -0.2246211 -0.11090116 4 4
-4.1669559 -1.0667921 -0.075080015 52 7
-1.6844199 -0.43091902 0.46587434 10 15
-4.1511846 -1.0558096 0.07476601 32 8
-4.1852107 -1.0629075 0.22630075 47 9
-4.1985517 -1.064737 0.37895292 37 10
-2.0820582 -0.52761489 0.26372519 1 11
-0.88327831 -0.22366793 -0.11187602 4 4
-1.6469172 -0.41673398 0.26906735 52 12
-1.6635295 -0.42062867 0.33353424 67 13
-1.6268141 -0.41074094 0.38736573 22 14
-4.1667762 -1.0512617 -0.075010203 55 7
-4.1878195 -1.049577 0.075359389 56 8
-4.1947079 -1.0497475 0.22661476 43 9
-4.2136569 -1.0537082 0.37999883 34 10
-2.001071 -0.49966529 0.25324443 6 11
-0.89175779 -0.22250563 -0.11285097 4 4
-1.6617787 -0.41432777 0.27125743 73 12
-1.6402223 -0.40864953 0.3285732 75 13
-1.6509312 -0.41070521 0.39276457 30 14
-4.1723619 -1.0371929 -0.075045116 45 7
-1.6817626 -0.41775191 0.46432146 44 15
-4.1856341 -1.0335144 0.075254679 39 8
-4.1828332 -1.031274 0.2257774 50 9
-4.217309 -1.0389922 0.3799988 30 10
-2.0008755 -0.492203 0.25300074 11 11
-0.87710738 -0.21560043 -0.11090116 9 4
-1.6632148 -0.4085249 0.27125743 79 12
-1.6511722 -0.40526143 0.33048132 92 13
-1.6599256 -0.4067952 0.39456415 22 14
-4.179841 -1.0235745 -0.075114928 42 7
-1.6663222 -0.40774632 0.45966271 29 15
-4.1911592 -1.0193698 0.075289585 48 8
-4.1825256 -1.0157239 0.22556803 50 9
-4.2286549 -1.0261449 0.38069603 30 10
-2.0064397 -0.48615041 0.25348818 17 11
-0.88171345 -0.21347168 -0.11138854 9 4
-1.6531107 -0.3999297 0.26938021 86 12
-1.6392189 -0.39626569 0.32780975 88 13
-1.6954335 -0.40922913 0.40266237 5 14
-4.1736689 -1.0066324 -0.074940398 37 7
-1.7015408 -0.41007441 0.46898019 11 15
-4.2024708 -1.0065969 0.075429201 50 8
-4.1879888 -1.0015826 0.22567274 48 9
-4.1994433 -1.0027725 0.37773275 29 10
-2.0042634 -0.47822186 0.25300077 24 11
-0.87086737 -0.20763054 -0.10992611 9 4
-1.6564183 -0.39461461 0.26969308 92 12
-1.6483001 -0.39207262 0.32933623 88 13
-1.8030982 -0.42822829 0.42785689 8 14
-4.1674294 -0.98974705 -0.074765876 34 7
-1.8307776 -0.43446496 0.50417954 12 15
-4.186667 -0.98660135 0.075080149 52 8
-4.1953473 -0.98787302 0.22588207 48 9
-4.2126145 -0.99038821 0.37860477 43 10
-1.9982723 -0.46905848 0.25202578 31 11
-0.8754878 -0.2053436 -0.11041358 9 4
-1.650093 -0.38702545 0.26844159 82 12
-1.6420124 -0.38452592 0.32780996 86 13
-4.2865939 -1.0022552 1.0163289 23 14
-4.1747532 -0.97610545 -0.074835688 34 7
-4.3474398 -1.0156814 1.1962616 41 15
-4.1860199 -0.9718079 0.075010344 52 8
-4.200716 -0.9736734 0.22598673 50 9
-4.2121644 -0.97477794 0.37825617 45 10
-1.9843441 -0.45885152 0.25007585 35 11
-0.89163697 -0.20601475 -0.11236349 8 4
-1.6552835 -0.38215226 0.26906735 78 12
-1.6337134 -0.37687215 0.32590187 72 13
-4.3088846 -0.99240839 1.020828 18 14
-4.1742368 -0.96062964 -0.074765868 39 7
-4.3227181 -0.99400467 1.1884972 32 15
-4.2010837 -0.95986241 0.075219773 50 8
-4.2001944 -0.95811671 0.2257774 50 9
-4.2173166 -0.96124721 0.37842998 48 10
-1.9878694 -0.45236251 0.2503196 36 11
-0.86137968 -0.19585873 -0.10846377 10 4
-1.6700912 -0.37943536 0.27125743 37 12
-1.6407627 -0.37247097 0.32704654 50 13
-4.1892672 -0.94870299 -0.074975304 50 7
-4.2005076 -0.94431388 0.075149968 50 8
-4.1918201 -0.94082499 0.22514933 52 9
-4.2227554 -0.94621909 0.37860429 47 10
-1.9971846 -0.44715604 0.25129455 37 11
-0.87755591 -0.19631773 -0.11041358 14 4
-2.0222659 -0.45202985 0.3281996 30 12
-1.6651102 -0.37158594 0.33162615 52 13
-2.0637834 -0.45979771 0.48814377 5 14
-4.1827936 -0.93189949 -0.074800774 47 7
-4.3653803 -0.97177905 1.1983323 3 15
-4.2117505 -0.93063849 0.075289585 53 8
-4.2028804 -0.9279083 0.22556804 52 9
-4.2104669 -0.92804313 0.37720981 48 10
-1.9929944 -0.43855271 0.25056335 33 11
-0.87439185 -0.19224766 -0.1099261 9 4
-2.0354068 -0.44751358 0.33007678 32 12
-4.336338 -0.95023239 1.0248771 6 14
-4.1821151 -0.91643703 -0.074730977 47 7
-2.0683134 -0.45285627 0.56733137 6 15
-4.1991811 -0.91326678 0.075010344 50 8
-4.2060943 -0.91323179 0.22556804 52 9
-4.2175756 -0.91418427 0.37755841 47 10
-2.0099587 -0.43530262 0.25251329 27 11
-0.88278532 -0.19102633 -0.11090116 9 4
-2.0369568 -0.4404054 0.33007678 27 12
-4.2985344 -0.92859024 0.85482407 33 13
-4.187243 -0.90225422 -0.074765876 53 7
-4.3172889 -0.92948878 1.1833206 21 15
-4.202343 -0.8986032 0.075010344 48 8
-4.2112093 -0.89896214 0.22567274 53 9
-4.2283778 -0.90185541 0.37825617 47 10
-1.9998164 -0.4258039 0.25105083 12 11
-0.89897984 -0.19124813 -0.11285107 8 4
-4.2914381 -0.91217273 0.69488198 34 12
-4.2921467 -0.91154146 0.85291588 46 13
-4.3179221 -0.91543949 1.0190283 37 14
-4.1942792 -0.88846219 -0.07483568 50 7
-4.3488574 -0.92041188 1.1910853 41 15
-4.2093682 -0.88475239 0.075080156 53 8
-4.208457 -0.88302606 0.22535869 52 9
-4.2256503 -0.88586265 0.37773323 50 10
-4.2726574 -0.89416146 0.53598124 42 11
-0.89186978 -0.18648361 -0.11187602 8 4
-4.2965298 -0.89759213 0.69519484 46 12
-4.3068337 -0.89896029 0.85520566 39 13
-4.3153682 -0.89916998 1.0176786 38 14
-4.1973553 -0.87381595 -0.074835688 50 7
-4.3633919 -0.90758628 1.1941912 48 15
-4.2085142 -0.86924344 0.075010344 52 8
-4.2076015 -0.86752373 0.22514933 52 9
-4.2306676 -0.87150979 0.37790751 48 10
-4.2504749 -0.87404358 0.53281265 35 11
-0.90418214 -0.18576643 -0.11333845 3 4
-4.2880268 -0.88020569 0.69331771 43 12
-4.3003297 -0.88194793 0.85329759 37 13
-4.3127527 -0.88292831 1.0163288 37 14
-4.1945024 -0.85795569 -0.07473097 50 7
-4.3476062 -0.88848263 1.1890148 56 15
-4.2174025 -0.85574061 0.075115062 53 8
-4.2106047 -0.85283118 0.22514936 52 9
-4.2297788 -0.85594636 0.37755841 48 10
-4.2632294 -0.86116654 0.53403139 41 11
-0.89704156 -0.18103825 -0.11236349 4 4
-4.2872005 -0.86445129 0.69269192 43 12
-4.3149295 -0.86925882 0.8555873 40 13
-4.3158092 -0.8678686 1.0163289 37 14
-4.1955109 -0.84291589 -0.074696064 48 7
-4.3487868 -0.87292081 1.1884972 51 15
-4.2105589 -0.83905983 0.074940547 53 8
-4.2174735 -0.8389073 0.22535869 52 9
-4.2307873 -0.84078801 0.3773841 48 10
-4.2662096 -0.8462798 0.53403139 40 11
-0.89766818 -0.17790587 -0.11236349 4 4
-4.2979426 -0.85101545 0.69394338 46 12
-4.3044548 -0.85152429 0.85291636 40 13
-4.2694383 -0.8438229 -0.22807999 2 6
-4.3264589 -0.85430813 1.0181284 36 14
-4.202352 -0.82903981 -0.074765883 48 7
-4.3480158 -0.85698807 1.1874617 57 15
-4.2134614 -0.82435799 0.07494054 53 8
-4.224297 -0.82494599 0.22556804 50 9
-4.235652 -0.82639718 0.37755844 48 10
-4.2652411 -0.83062381 0.53354394 41 11
-0.91776925 -0.17856267 -0.11480089 7 4
-4.2989483 -0.83563066 0.69363052 45 12
-4.3074012 -0.83649367 0.85291636 42 13
-4.2174587 -0.81826413 -0.22514921 6 6
-4.3294153 -0.83920074 1.0181285 38 14
-4.2091465 -0.81512606 -0.074835688 50 7
-4.3509812 -0.84180427 1.1874617 56 15
-4.2202401 -0.81039912 0.075010344 53 8
-4.2153807 -0.80794054 0.22494 52 9
-4.2345967 -0.81085628 0.37720981 48 10
-4.2681141 -0.81573105 0.53354388 41 11
-0.91058749 -0.17386849 -0.11382592 7 4
-4.3076601 -0.82172978 0.69456917 48 12
-4.3141518 -0.82218891 0.8536796 40 13
-4.1869349 -0.79718572 -0.22336981 14 6
-4.3246608 -0.82262641 1.0163289 38 14
-4.2119656 -0.80042928 -0.07483568 50 7
-4.3481998 -0.82553142 1.1859089 58 15
-4.2230434 -0.79566169 0.075010344 52 8
-4.2201385 -0.79359019 0.2250447 53 9
-4.2413177 -0.7968055 0.37755841 47 10
-4.2689843 -0.80046171 0.53330016 42 11
-0.89948189 -0.16849585 -0.11236349 12 4
-4.304677 -0.80559903 0.69363052 43 12
-4.3169961 -0.80712366 0.85367918 40 13
-4.1916552 -0.78293228 -0.22347446 27 6
-4.3275051 -0.80752635 1.0163288 38 14
-4.2049055 -0.7838884 -0.074661158 50 7
-4.3700471 -0.81388539 1.1910855 58 15
-4.2277617 -0.78127998 0.075045243 53 8
-4.2268114 -0.77957773 0.22525403 53 9
-4.2362351 -0.78055239 0.37686118 48 10
-4.2697997 -0.78519505 0.53305638 41 11
-0.90006459 -0.16535524 -0.11236349 4 4
-4.2977481 -0.78878486 0.69206613 46 12
-4.319788 -0.79204959 0.8536793 40 13
-4.1923981 -0.767937 -0.22336981 31 6
-4.3322144 -0.79276615 1.0167786 39 14
-4.2056489 -0.76884604 -0.07462626 50 7
-4.357657 -0.79585022 1.1869441 58 15
-4.2265282 -0.76580441 0.074975438 53 8
-4.2334375 -0.76553029 0.22546338 55 9
-4.2408948 -0.76611453 0.3770355 48 10
-4.276422 -0.77099121 0.53354388 41 11
-0.90454358 -0.16291614 -0.11285097 4 4
-4.3024201 -0.77412683 0.69237918 43 12
-4.314796 -0.77557737 0.85215318 40 13
-4.1930871 -0.75294501 -0.22326511 36 6
-4.3330374 -0.77729392 1.0163288 38 14
-4.212244 -0.7548663 -0.074696071 48 7
-4.3566051 -0.7799533 1.1859088 58 15
-4.2272067 -0.75069672 0.07494054 53 8
-4.236084 -0.75074804 0.22546338 55 9
-4.2455049 -0.75165361 0.37720981 48 10
-4.2693129 -0.75433189 0.53232515 42 11
-0.91683602 -0.16182795 -0.1143134 3 4
-4.3109326 -0.76013392 0.69331777 46 12
-4.3194108 -0.76085168 0.85253429 37 13
-4.1917553 -0.73761135 -0.22305575 36 6
-4.3453212 -0.76385093 1.0185783 40 14
-4.2128835 -0.73981321 -0.074661158 47 7
-4.3631072 -0.76540762 1.1869441 60 15
-4.2298012 -0.73593742 0.07494054 53 8
-4.2347436 -0.73527348 0.22525404 55 9
-4.2481031 -0.73682928 0.37720981 48 10
-4.2680087 -0.73874742 0.53183776 41 11
-0.95260453 -0.16471438 -0.1187007 2 4
-4.3193989 -0.74608988 0.69425631 45 12
-4.320106 -0.74543554 0.85215271 40 13
-4.1903691 -0.72229528 -0.22284643 36 6
-4.3364377 -0.74669504 1.0158789 38 14
-4.2193818 -0.72578084 -0.07473097 47 7
-4.3638487 -0.74984562 1.1864265 56 15
-4.2402296 -0.72251052 0.075080156 53 8
-4.2333455 -0.71981806 0.22504467 53 9
-4.2604704 -0.72366428 0.37808135 48 10
-4.2803469 -0.7255044 0.53305644 42 11
-0.94143027 -0.15940002 -0.11723826 2 4
-4.3161335 -0.73001939 0.69331771 46 12
-4.3246174 -0.73067689 0.85253477 43 13
-4.2007418 -0.70899421 -0.22326511 38 6
-4.34094 -0.73187739 1.0163289 38 14
-4.2120295 -0.70938629 -0.074556433 50 7
-4.3740602 -0.7358914 1.1884972 56 15
-4.2427254 -0.70770478 0.075080149 53 8
-4.2397733 -0.70569134 0.22525403 56 9
-4.2511783 -0.70682722 0.3770355 48 10
-4.284812 -0.71088254 0.53330016 43 11
-0.93023068 -0.15416545 -0.11577583 3 4
-4.3108602 -0.71365917 0.69206625 46 12
-4.3224335 -0.7155751 -0.38331103 1 5
-4.3290787 -0.71589798 0.85291588 42 13
-4.1992502 -0.69367546 -0.22305578 38 6
-4.3453908 -0.71703738 1.0167787 39 14
-4.2125072 -0.69435495 -0.074521542 47 7
-4.3613529 -0.7181077 1.1843561 65 15
-4.2372761 -0.69160306 0.07494054 53 8
-4.2461534 -0.69152951 0.22546338 55 9
-4.2536192 -0.69198442 0.3770355 48 10
-4.2872672 -0.6959213 0.53330016 42 11
-0.93076307 -0.1509176 -0.11577583 3 4
-4.3172245 -0.69923759 0.69269192 46 12
-4.2698355 -0.69156218 -0.37843031 2 5
-4.3237982 -0.69952786 0.85138988 40 13
-4.2134767 -0.68092483 -0.22368382 38 6
-4.3478665 -0.70186454 1.0167786 39 14
-4.2129316 -0.67932791 -0.074486643 48 7
-4.3695545 -0.70380074 1.1859089 60 15
-4.2357144 -0.67617732 0.074870713 52 8
-4.2445965 -0.67607594 0.22525403 56 9
-4.2560091 -0.67713219 0.3770355 48 10
-4.2935915 -0.68157399 0.53378767 42 11
-4.3466463 -0.68921942 -0.54036897 2 4
-4.3196392 -0.68416327 0.69269192 48 12
-4.2879667 -0.67914683 -0.37982485 2 5
-4.3262138 -0.68443066 0.85138988 40 13
-4.2039905 -0.66434324 -0.22305578 42 6
-4.3541408 -0.68729109 1.0176786 39 14
-4.2310791 -0.66710931 -0.074765876 48 7
-4.3700767 -0.68824321 1.1853913 62 15
-4.240025 -0.66169608 0.074905634 55 8
-4.2469311 -0.66125542 0.22525404 55 9
-4.2603154 -0.66257685 0.37720981 48 10
-4.2880974 -0.66536582 0.53281265 42 11
-0.97102767 -0.15049644 -0.12065063 2 4
-4.3298092 -0.6702894 0.69394338 48 12
-4.2942491 -0.66478437 -0.38017344 2 5
-4.3285766 -0.66932613 0.85138988 40 13
-4.2102318 -0.65027308 -0.22326511 42 6
-4.3411055 -0.66971093 1.0140793 39 14
-4.2294288 -0.6517278 -0.074696064 50 7
-4.381999 -0.67445391 1.1879796 60 15
-4.2442861 -0.64719296 0.07494054 53 8
-4.2452631 -0.6458258 0.22504467 55 9
-4.266542 -0.64830005 0.37755841 47 10
-4.2943196 -0.65098846 0.53330016 43 11
-0.95584518 -0.14472848 -0.1187007 2 4
-4.3184509 -0.65310466 0.69175333 45 12
-4.308363 -0.65157908 -0.38121933 4 5
