# .PCD v0.7 - Point Cloud Data file format
VERSION 0.7
FIELDS x y z intensity ring
SIZE 4 4 4 4 2
TYPE F F F F U
COUNT 1 1 1 1 1
WIDTH 1183
HEIGHT 1
VIEWPOINT 0 0 0 1 0 0 0
POINTS 1183
DATA ascii
1.7483224 -0.17727983 -0.15374278 1 5
1.7120258 -0.17963906 -0.15060517 1 5
1.7074268 -0.18518442 -0.15025656 12 5
1.7258847 -0.1993864 -0.15199967 76 5
1.7034155 -0.2028185 -0.15008225 74 5
1.7007561 -0.20822397 -0.14990793 66 5
1.7039725 -0.21465749 -0.15025656 63 5
1.6992224 -0.22038887 -0.14990793 61 5
1.7171623 -0.22332521 -0.090750523 1 6
1.7102922 -0.2278979 -0.15095378 63 5
1.7084535 -0.22825985 -0.09033183 4 6
1.7114605 -0.2341366 -0.15112811 65 5
1.7017509 -0.23311087 -0.090017818 25 6
1.749667 -0.24496551 -0.21692735 1 4
1.7067285 -0.23925756 -0.15077949 65 5
1.6831264 -0.23654802 -0.089075781 50 6
1.713475 -0.24569456 -0.21254024 1 4
1.6999665 -0.24436317 -0.15025656 59 5
1.6783789 -0.24155907 -0.088866428 52 6
1.7361751 -0.25513762 -0.21546492 5 4
1.6991031 -0.2502957 -0.15025654 36 5
1.7051878 -0.25149611 -0.09033183 88 6
1.7041295 -0.25711691 -0.15077949 4 5
1.6687082 -0.25236839 -0.088447742 100 6
1.7012526 -0.26275977 -0.15060517 2 5
1.6737384 -0.25910842 -0.088761754 56 6
1.7000734 -0.26804864 -0.21132135 93 4
1.6767094 -0.2649647 -0.14851345 2 5
1.7089262 -0.27556139 -0.21254005 86 4
1.7033584 -0.27496865 -0.1509538 2 5
1.6916461 -0.27428988 -0.029913332 2 7
1.7040365 -0.28087929 -0.21205278 80 4
1.6905934 -0.27896652 -0.14990793 2 5
1.6847751 -0.27861059 -0.089494467 1 6
1.7104063 -0.28346261 -0.030262379 4 7
1.7030458 -0.28682578 -0.21205258 77 4
1.6974682 -0.28619111 -0.15060519 2 5
1.6680375 -0.28182802 -0.088657089 3 6
1.6877184 -0.28575921 -0.029878428 24 7
1.6961651 -0.29175928 -0.21132135 72 4
1.7200205 -0.29617175 -0.15269692 2 5
1.682789 -0.2903657 -0.089494467 3 6
1.6931812 -0.29733491 -0.21107762 77 4
1.7150517 -0.30148402 -0.15234829 2 5
1.6856991 -0.29693085 -0.089703806 3 6
1.6837132 -0.29718703 -0.029843526 100 7
1.6960406 -0.30394369 -0.21156529 80 4
1.6983001 -0.30465448 -0.1509538 2 5
1.6846524 -0.3028132 -0.089703806 3 6
1.6610173 -0.29916343 -0.029459573 100 7
1.7528534 -0.31981176 -0.28220776 1 3
1.6930166 -0.30950508 -0.21132155 77 4
1.6972265 -0.31058079 -0.15095381 2 5
1.679656 -0.30797151 -0.089494467 3 6
1.6717634 -0.30712765 -0.029669002 100 7
1.7594948 -0.3273738 -0.28345925 1 3
1.703635 -0.31759575 -0.21278399 80 4
1.7078831 -0.31869611 -0.15199965 2 5
1.672681 -0.31273159 -0.08918044 4 6
1.6687156 -0.31259307 -0.029634094 100 7
1.7389336 -0.3298324 -0.28033057 15 3
1.6947151 -0.3220582 -0.21180904 80 4
1.6950165 -0.32242197 -0.15095378 3 5
1.6735412 -0.31894237 -0.08928512 32 6
1.6793995 -0.3206664 -0.029843524 100 7
1.7044207 -0.32821968 0.030297339 1 8
1.714498 -0.33140174 -0.27657613 28 3
1.6838365 -0.32608485 -0.21059017 75 4
1.7153966 -0.33250731 -0.15287122 11 5
1.6664925 -0.3242352 -0.029634092 100 7
1.7111138 -0.33570713 0.030436957 1 8
1.7230215 -0.33929273 -0.27814046 48 3
1.6885304 -0.33311316 -0.21132135 77 4
1.684906 -0.33270362 -0.15025656 36 5
1.6869482 -0.33371872 -0.090122499 88 6
1.6614279 -0.3292729 -0.029564288 100 7
1.6628693 -0.33227405 0.029599246 7 8
1.7334474 -0.34763566 -0.28001767 69 3
1.6873573 -0.33900514 -0.21132135 80 4
1.6681516 -0.33605534 -0.089180447 100 6
1.6681088 -0.33665276 -0.029703906 100 7
1.7186754 -0.35091814 -0.27782762 65 3
1.6978327 -0.34727991 -0.21278399 80 4
1.6903499 -0.34605673 -0.15095381 83 5
1.6610986 -0.34067252 -0.088866428 100 6
1.6709012 -0.34298673 -0.029773716 100 7
1.6507779 -0.34155923 0.02942472 78 8
1.7252388 -0.35822192 -0.27907911 73 3
1.686954 -0.350887 -0.21156529 85 4
1.68328 -0.35073581 -0.15043087 86 5
1.6599598 -0.34617895 -0.088866428 94 6
1.6736085 -0.34963503 -0.029843526 100 7
1.6417484 -0.34567142 0.029285101 56 8
1.727843 -0.3650586 -0.27970478 76 3
1.6798929 -0.35554034 -0.21083389 82 4
1.6957517 -0.35920596 -0.15165104 78 5
1.6704639 -0.35445872 -0.089494459 84 6
1.6567299 -0.3521488 -0.029564288 100 7
1.6561748 -0.35475078 0.029564342 68 8
1.7304209 -0.37191787 -0.28033057 79 3
1.6864041 -0.36307332 -0.21180904 80 4
1.6866969 -0.36344436 -0.15095381 72 5
1.6692164 -0.36028749 -0.089494452 84 6
1.6515814 -0.35708454 -0.029494476 100 7
1.6432029 -0.35797575 0.029354909 64 8
1.7175332 -0.37542495 -0.27845332 79 3
1.6890047 -0.36980689 -0.2122965 82 4
1.6776329 -0.36762381 -0.15025654 74 5
1.6718502 -0.36696842 -0.089703798 87 6
1.6582006 -0.36427566 -0.029634094 100 7
1.6478643 -0.36471927 0.029459627 22 8
1.7162788 -0.38111848 -0.27845332 79 3
1.6916447 -0.37626785 -0.21278399 82 4
1.6880076 -0.37607729 -0.15130241 74 5
1.6628265 -0.37077174 -0.089285113 91 6
1.6608223 -0.37093341 -0.029703906 100 7
1.7428524 -0.39276877 -0.34727243 1 2
1.718792 -0.38797697 -0.27907911 76 3
1.6787035 -0.37954384 -0.21132155 77 4
1.6828649 -0.38079348 -0.15095381 76 5
1.6576265 -0.37569088 -0.089075774 91 6
1.6654335 -0.37776589 -0.029808618 100 7
1.6492424 -0.37681818 0.029529436 2 8
1.6763055 -0.38361725 0.090122551 2 9
1.7185065 -0.39359051 -0.34269303 4 2
1.7078686 -0.3914679 -0.27751473 42 3
1.6793705 -0.38555273 -0.21156509 85 4
1.6892922 -0.3884514 -0.15165105 72 5
1.6661036 -0.38342535 -0.08959914 60 6
1.6543616 -0.38133124 -0.029634092 100 7
1.6477834 -0.38314801 0.029529436 2 8
1.6418183 -0.38206306 0.088343129 9 9
1.712124 -0.39936888 -0.27845332 10 3
1.683677 -0.39335307 -0.21229652 80 4
1.6820369 -0.39327949 -0.15112811 33 5
1.651006 -0.38693592 -0.02959919 100 7
1.6503961 -0.38952887 0.029599244 2 8
1.6707741 -0.39618605 -0.21083389 41 4
1.6554812 -0.39408594 -0.029703904 59 7
1.6451372 -0.39435521 0.029529436 2 8
1.6217002 -0.38903642 0.087401077 67 9
1.7028365 -0.40881497 -0.34040332 100 2
1.7228106 -0.41424629 -0.28064343 2 3
1.677384 -0.40425277 -0.1509538 2 5
1.6755174 -0.40442184 -0.09033183 3 6
1.6515929 -0.40169886 0.029669058 2 8
1.6203325 -0.39469483 0.087401077 82 9
1.7204729 -0.41940609 -0.34421948 100 2
1.7137511 -0.41808432 -0.27939197 2 3
1.6796088 -0.41037625 -0.21229652 2 4
1.6953157 -0.41484112 -0.15269692 2 5
1.6664075 -0.40807551 -0.089913145 1 6
1.6799506 -0.41201368 -0.030192571 4 7
1.6501803 -0.40746155 0.029669054 2 8
1.6170757 -0.3995868 0.087296404 81 9
1.7038258 -0.42133868 -0.34116653 100 2
1.7276207 -0.42786291 -0.28189489 2 3
1.685873 -0.41814828 -0.21327128 2 4
1.6900631 -0.41950068 -0.15234828 2 5
1.6533434 -0.410999 -0.089285128 3 6
1.6669315 -0.4146857 -0.029983139 4 7
1.6488202 -0.41293144 0.029669054 2 8
1.6195457 -0.4062008 0.087505758 92 9
1.6928239 -0.42489389 -0.33925846 100 2
1.7223605 -0.43262708 -0.28126916 2 3
1.6806269 -0.42276794 -0.21278399 2 4
1.6808606 -0.42345068 -0.15165105 2 5
1.6713377 -0.42136192 -0.09033183 3 6
1.6499633 -0.41658577 -0.029703906 4 7
1.6241117 -0.41277358 0.029250197 2 8
1.6258599 -0.41382208 0.087924436 100 9
1.6990161 -0.43244225 -0.34078494 100 2
1.7208399 -0.43863657 -0.28126916 2 3
1.698375 -0.43354174 -0.21522118 2 4
1.6717253 -0.42704982 -0.15095378 2 5
1.6814667 -0.43016341 -0.090959869 1 6
1.6717446 -0.42829809 -0.030122763 4 7
1.6575154 -0.42742831 0.029878484 2 8
1.6205379 -0.41849604 0.087715089 100 9
1.6974961 -0.4383702 -0.34078494 100 2
1.7192984 -0.44464085 -0.28126916 2 3
1.6891648 -0.43747678 -0.21424624 2 4
1.6817966 -0.43588176 -0.15199967 2 5
1.6683553 -0.43301964 -0.09033183 3 6
1.6741103 -0.43513712 -0.030192573 9 7
1.6405364 -0.42916271 0.029599246 2 8
1.6152768 -0.42285606 0.087505743 100 9
1.7035524 -0.44628304 -0.34231141 100 2
1.6516639 -0.43299782 0.14938486 2 10
1.7139144 -0.44963703 -0.28064343 2 3
1.6837873 -0.44236156 -0.21375874 2 4
1.6648498 -0.43769696 -0.15060519 2 5
1.662971 -0.43782374 -0.090122499 3 6
1.6707243 -0.44017678 -0.030157667 42 7
1.6468359 -0.4366506 0.029738864 2 8
1.6176518 -0.42951697 0.087715097 100 9
1.6943945 -0.45021027 -0.34078494 100 2
1.6270366 -0.43261686 0.14729311 11 10
1.7315044 -0.46039408 -0.28377211 2 3
1.6784747 -0.44692126 -0.21327128 2 4
1.6883382 -0.45017886 -0.15287122 3 5
1.6653694 -0.44436568 -0.09033183 3 6
1.6414396 -0.44135794 0.029669058 2 8
1.6199996 -0.43619961 0.087924436 100 9
1.68523 -0.45407894 -0.33925846 100 2
1.7375159 -0.46849242 -0.2850236 3 3
1.6960688 -0.45795202 -0.21570885 5 4
1.6848332 -0.45554939 -0.15269691 21 5
1.659874 -0.44942263 -0.090122499 3 6
1.6618201 -0.45026094 -0.030052951 100 7
1.6436692 -0.44842386 0.029738866 2 8
1.7596245 -0.48038861 -0.42110848 1 1
1.6183902 -0.44213429 0.087924443 98 9
1.6949171 -0.46335888 -0.34154817 100 2
1.735787 -0.4748576 -0.2850236 22 3
1.6736227 -0.45973575 -0.090959869 7 6
1.6466614 -0.45263866 -0.029808618 100 7
1.6420146 -0.45444512 0.029738866 2 8
1.7334374 -0.48007315 -0.41525957 24 1
1.6206867 -0.44884697 0.08813379 100 9
1.7008572 -0.47136965 -0.34307465 100 2
1.610819 -0.44671965 0.14624725 100 10
1.6921593 -0.46959522 -0.27814046 39 3
1.6853694 -0.46866161 -0.15304554 77 5
1.6624085 -0.46321461 -0.030122763 91 7
1.646275 -0.46150717 0.02984358 4 8
1.611497 -0.45206106 0.087715089 100 9
1.7030649 -0.47806853 -0.34383789 100 2
1.6112471 -0.45259762 0.14642157 100 10
1.6924942 -0.4757387 -0.27845332 48 3
1.6758931 -0.47138783 -0.21375875 96 4
1.6780527 -0.47262749 -0.15252261 88 5
1.6531541 -0.46623775 -0.09001781 54 6
1.657014 -0.46763855 -0.030052952 100 7
1.5985675 -0.45385596 0.029005863 15 8
1.7302154 -0.49155906 -0.41525957 83 1
1.6060669 -0.45659113 0.087505743 100 9
1.6901398 -0.48049229 -0.34154817 100 2
1.6059045 -0.45684794 0.14607294 82 10
1.7213058 -0.49000201 -0.28345925 69 3
1.6856915 -0.48049995 -0.21522118 97 4
1.680308 -0.47928253 -0.15287122 82 5
1.6650424 -0.47555679 -0.090750523 88 6
1.6457586 -0.47067052 -0.02987843 100 7
1.7209983 -0.49543932 -0.41345996 85 1
1.6121402 -0.46440604 0.087924436 100 9
1.6809059 -0.48421523 -0.34002167 100 2
1.6004709 -0.4613471 0.14572451 80 10
1.7081968 -0.49272269 -0.28158203 69 3
1.6782825 -0.48472863 -0.21449016 87 4
1.6728827 -0.4834854 -0.15234829 74 5
1.6461053 -0.47636911 -0.089808472 100 6
1.6421847 -0.47585589 -0.029843524 100 7
1.6299165 -0.47507739 0.029634148 68 8
1.7248708 -0.50308067 -0.41480967 99 1
1.6181785 -0.47226888 0.088343129 91 9
1.6942827 -0.49448004 -0.34307465 100 2
1.602676 -0.46804804 0.14607295 100 10
1.7045704 -0.49812841 -0.28126916 73 3
1.6442759 -0.48081982 0.21034648 1 11
1.6803908 -0.49169904 -0.21497744 91 4
1.6710994 -0.48961362 -0.15234829 76 5
1.6578486 -0.48604545 -0.090541176 100 6
1.6443512 -0.4827117 -0.029913332 100 7
1.6224947 -0.479065 0.029529436 54 8
1.7212354 -0.50854623 -0.41435978 83 1
1.6165202 -0.47791451 0.088343129 91 9
1.6886936 -0.49957275 -0.34231141 100 2
1.6105019 -0.47674671 0.14694449 28 10
1.7027334 -0.50437254 -0.28126916 76 3
1.638781 -0.48542905 0.20985901 1 11
1.6786641 -0.49756166 -0.21497743 85 4
1.6732002 -0.49657756 -0.15269692 72 5
1.652227 -0.4909806 -0.090331838 93 6
1.6541566 -0.49186841 -0.030122759 100 7
1.6379699 -0.4901683 0.02984358 30 8
1.7137593 -0.51317453 -0.41301006 78 1
1.6109312 -0.48268971 0.088133782 100 9
1.6982236 -0.50884545 -0.34460115 100 2
1.7047466 -0.51144844 -0.28189492 76 3
1.6179777 -0.48572439 0.2074216 8 11
1.6844338 -0.50599533 -0.21595238 95 4
1.6676404 -0.50126809 -0.15234829 74 5
1.646678 -0.49559388 -0.090122491 93 6
1.6580869 -0.49965882 -0.030227477 100 7
1.7175522 -0.52085006 -0.41435978 89 1
1.6092366 -0.48830986 0.08813379 100 9
1.6851649 -0.51134974 -0.34231141 100 2
1.6147602 -0.4902938 0.14764175 4 10
1.706731 -0.51854455 -0.28252065 76 3
1.6693635 -0.507828 -0.21424624 87 4
1.681129 -0.51172769 -0.15374279 76 5
1.6506697 -0.50308561 -0.090436511 78 6
1.6448569 -0.50194156 -0.030018048 100 7
1.6517133 -0.50687128 0.030157724 2 8
1.7175865 -0.52741432 -0.41480967 78 1
1.6076086 -0.49364367 0.08813379 96 9
1.6796163 -0.51607573 -0.34154817 100 2
1.5939947 -0.4900724 0.14589864 4 10
1.7030224 -0.52391809 -0.28220776 74 3
1.675169 -0.51598942 -0.21522118 91 4
1.6717166 -0.51524538 -0.15304554 72 5
1.650812 -0.50943339 -0.090541184 36 6
1.6412725 -0.50680333 -0.029983141 100 7
1.6385647 -0.50878787 0.02994829 1 8
1.717689 -0.53368533 -0.41525957 83 1
1.6096898 -0.50043809 0.088343129 86 9
1.6890527 -0.52543449 -0.34383792 100 2
1.6036886 -0.49918631 0.14694451 4 10
1.6937313 -0.52721429 -0.2809563 70 3
1.6128905 -0.50235945 0.20742162 100 11
1.665868 -0.51917911 -0.21424624 46 4
1.6623 -0.51870376 -0.15234829 74 5
1.6490366 -0.51551265 -0.030157667 100 7
1.6329637 -0.51330519 0.029878484 2 8
1.7083799 -0.53733909 -0.41345996 71 1
1.6156425 -0.50817025 0.088761814 88 9
1.6891735 -0.53162211 -0.34421948 100 2
1.6096257 -0.50689542 0.14764193 4 10
1.6937646 -0.53371686 -0.28126916 66 3
1.5997677 -0.50440478 0.20595917 100 11
1.6719705 -0.527812 -0.15339416 67 5
1.6587324 -0.52426976 -0.091169208 3 6
1.6454115 -0.52037525 -0.030122763 100 7
1.6312524 -0.51871741 0.029878484 2 8
1.7065886 -0.54300129 -0.41345996 44 1
1.6100525 -0.51259506 0.088552468 86 9
1.5926605 -0.50767034 0.14624725 4 10
1.6825749 -0.53633106 -0.27970478 25 3
1.5848477 -0.50548476 0.204253 79 11
1.6679688 -0.53231663 -0.21497743 2 4
1.6853008 -0.53849632 -0.15478866 48 5
1.6493751 -0.52733445 -0.090750515 3 6
1.6512029 -0.52855426 -0.030262379 100 7
1.7451731 -0.56165802 -0.49123856 2 0
1.6369539 -0.52714467 0.030018102 2 8
1.6005594 -0.51604122 0.08813379 93 9
1.6060479 -0.51812029 0.14764175 4 10
1.5848734 -0.51190019 0.20449674 34 11
1.6622288 -0.53720564 -0.21448997 2 4
1.6701407 -0.54008466 -0.15356848 14 5
1.6512316 -0.53460664 -0.090959869 1 6
1.6378409 -0.53090292 -0.030052951 83 7
1.7523863 -0.57073772 -0.49382678 21 0
1.6579192 -0.54029059 0.030436957 2 8
1.7193339 -0.5606367 -0.41750908 2 1
1.6063433 -0.52410316 0.088552475 81 9
1.6872468 -0.55049956 -0.34498274 2 2
1.6042296 -0.5237233 0.14764175 4 10
1.7181265 -0.56123847 -0.28627506 2 3
1.6716638 -0.5467068 -0.21595259 2 4
1.6840389 -0.55107951 0.28064349 1 12
1.6835194 -0.5515601 -0.092843957 2 6
1.6321776 -0.53537029 -0.029983141 18 7
1.7338704 -0.57140923 -0.48916802 33 0
1.6522249 -0.5448221 0.030367149 1 8
1.7321712 -0.57151961 -0.42110848 1 1
1.6120902 -0.5322116 0.08897116 60 9
1.7039574 -0.56254047 -0.3487989 1 2
1.5948242 -0.52682012 0.14694449 4 10
1.7011523 -0.56227285 -0.28377211 2 3
1.5925692 -0.52669191 0.20595917 4 11
1.6810532 -0.55628061 -0.21741484 2 4
1.6108453 -0.53335994 0.26875445 1 12
1.6681244 -0.55264848 -0.15374278 2 5
1.6702088 -0.55366266 -0.092215925 2 6
1.6435844 -0.54547352 -0.030227477 4 7
1.7409271 -0.58081716 -0.49175617 54 0
1.6389315 -0.54678881 0.030157719 1 8
1.7375597 -0.58003068 -0.42290792 1 1
1.6215889 -0.54163212 0.089599185 34 9
1.6981604 -0.56753749 -0.34803569 1 2
1.6117781 -0.53898072 0.14868762 4 10
1.7178131 -0.57477218 -0.28690082 2 3
1.5869561 -0.5309881 0.20547171 4 11
1.6866306 -0.56466603 -0.21838978 2 4
1.6333238 -0.54713649 0.27282175 6 12
1.6775198 -0.56226712 -0.15478866 2 5
1.6416594 -0.55088502 -0.090750515 1 6
1.6397746 -0.55057096 -0.030192571 4 7
1.74255 -0.58812624 -0.4927915 82 0
1.6407057 -0.55407178 0.030227531 2 8
1.7206525 -0.58140463 -0.41930887 2 1
1.6007669 -0.54089558 0.088552475 69 9
1.6887295 -0.57094651 -0.34650919 1 2
1.6061122 -0.54332656 0.148339 4 10
1.7083117 -0.57823157 -0.2856493 2 3
1.6056812 -0.54380542 0.20815282 6 11
1.6733679 -0.56672931 -0.21692754 2 4
1.6566782 -0.5617215 -0.15304554 2 5
1.6510741 -0.56046408 -0.091378547 3 6
1.6832858 -0.5717262 -0.031030284 10 7
1.7332767 -0.59140611 -0.49072096 74 0
1.6464291 -0.56209391 0.030367149 1 8
1.7224035 -0.58836734 -0.42020851 2 1
1.5970744 -0.54555535 0.088447802 77 9
1.6868269 -0.57654333 -0.34650919 3 2
1.6080722 -0.54993898 0.14868762 4 10
1.7063849 -0.58389342 -0.2856493 2 3
1.6714795 -0.57227534 -0.21692735 2 4
1.6906167 -0.57948679 -0.15635747 3 5
1.6605413 -0.56982577 -0.092006586 3 6
1.718522 -0.59274119 -0.48709744 61 0
1.6672393 -0.57537889 0.030786004 2 8
1.7351788 -0.59916419 -0.42380771 2 1
1.5989357 -0.55243129 0.088657141 76 9
1.6886172 -0.58341616 -0.34727246 3 2
1.5798768 -0.54615521 0.14624725 4 10
1.7361758 -0.60052615 -0.29096809 6 3
1.6619684 -0.57550818 -0.21595238 2 4
1.5996054 -0.55422568 0.26812875 100 12
1.6772887 -0.581469 -0.1553116 19 5
1.6510946 -0.57271111 -0.091587894 3 6
1.7163382 -0.59903598 -0.48709747 61 0
1.642565 -0.57328773 0.030367151 2 8
1.7422756 -0.60842991 -0.42605743 20 1
1.6045396 -0.56064457 0.089075834 76 9
1.697587 -0.59348893 -0.34956217 3 2
1.5891483 -0.55588913 0.14729311 4 10
1.6038415 -0.56134307 0.20864031 90 11
1.6861788 -0.59049135 -0.21936473 2 4
1.6069822 -0.56307214 0.26969308 100 12
1.6753682 -0.58801895 -0.093053304 2 6
1.6414613 -0.57644016 -0.030367095 100 7
1.7215234 -0.60759526 -0.48916802 58 0
1.6329103 -0.57664061 0.030227529 2 8
1.6025728 -0.56624198 0.089075826 76 9
1.710313 -0.60464591 -0.35261512 3 2
1.6059817 -0.56807709 0.14903623 4 10
1.6908661 -0.59843504 -0.28408498 48 3
1.5905459 -0.5632419 0.20717788 100 11
1.6877455 -0.59799355 -0.21985221 2 4
1.610593 -0.57065725 0.2706317 100 12
1.6713104 -0.59249866 -0.15513729 76 5
1.6356608 -0.58050328 -0.090959869 3 6
1.6601678 -0.58952707 -0.030751048 100 7
1.723031 -0.61489946 -0.49020332 61 0
1.6385226 -0.58474094 0.030367149 2 8
1.7122922 -0.61140406 -0.41975862 76 1
1.5968248 -0.57048863 0.08886648 74 9
1.6970996 -0.60664731 -0.35032538 5 2
1.596485 -0.57099575 0.148339 4 10
1.7074722 -0.61069119 -0.28721368 69 3
1.5886693 -0.56851315 0.20717786 100 11
1.6670643 -0.59689534 -0.21741483 3 4
1.6123103 -0.57760817 0.27125743 100 12
1.6729833 -0.59967363 -0.15548591 78 5
1.6450068 -0.58996964 -0.091587894 3 6
1.6430432 -0.58991277 -0.030471809 100 7
1.7264342 -0.62257588 -0.49175617 65 0
1.6402334 -0.59181428 0.030436957 2 8
1.7028157 -0.61473048 -0.417959 77 1
1.5910667 -0.57470214 0.088657141 76 9
1.6858462 -0.60893703 -0.34841731 24 2
1.6133204 -0.58305854 0.1500821 6 10
1.6923264 -0.61194551 -0.28502357 67 3
1.582942 -0.57270443 0.2066904 100 11
1.6705701 -0.604738 -0.21814604 20 4
1.5954258 -0.57785106 0.26875448 100 12
1.6653653 -0.60318261 -0.15496296 72 5
1.6429375 -0.59570825 -0.091587901 6 6
1.6334553 -0.5929153 -0.030332191 100 7
1.7188054 -0.62661338 -0.49020329 58 0
1.6268858 -0.59342462 0.030227529 2 8
1.713474 -0.62534744 -0.42110831 85 1
1.5965555 -0.58299273 0.089075834 72 9
1.5963042 -0.58321679 0.14868762 13 10
1.7013119 -0.62191844 -0.28690082 73 3
1.5846616 -0.5795902 0.20717786 100 11
1.600819 -0.5861333 0.27000597 100 12
1.657637 -0.60693693 -0.15444003 72 5
1.6203886 -0.59361935 0.33544213 1 13
1.6351303 -0.5999912 -0.030401999 100 7
1.7129825 -0.63127333 -0.48916802 61 0
1.6341858 -0.60255897 0.030402053 4 8
1.7149372 -0.63267374 -0.4220081 67 1
1.5982581 -0.5899455 0.08928518 72 9
1.6833957 -0.62137133 -0.3487989 88 2
1.688013 -0.62374526 -0.28502357 66 3
1.5863526 -0.58649486 0.20766532 100 11
1.6681694 -0.61707461 -0.21838999 77 4
1.5969106 -0.59103203 0.26969308 100 12
1.6555082 -0.6127196 -0.15444003 72 5
1.5925314 -0.58972728 0.33009949 8 13
1.6424004 -0.60917228 -0.030576523 100 7
1.7107685 -0.63724893 -0.48916802 61 0
1.590849 -0.59289598 0.029634148 13 8
1.7035887 -0.63525182 -0.41975862 65 1
1.5999315 -0.59691709 0.089494519 74 9
1.6848954 -0.62861609 -0.34956217 84 2
1.586594 -0.59225649 0.14816469 100 10
1.6784235 -0.62686914 -0.28377211 68 3
1.5768579 -0.58924931 0.2066904 100 11
1.6734428 -0.62567461 -0.21936475 82 4
1.6003884 -0.59867907 0.2706317 100 12
1.6570916 -0.61989093 -0.15478866 72 5
1.6384796 -0.61358041 -0.091692567 100 6
1.6402638 -0.61490154 -0.03057652 100 7
1.7139575 -0.64525867 -0.49072096 56 0
1.5756702 -0.59351122 0.029389814 22 8
1.6995373 -0.64050722 -0.41930869 71 1
1.5903628 -0.59967959 0.089075826 74 9
1.6863647 -0.6358791 -0.35032538 98 2
1.5938377 -0.60130757 0.14903624 100 10
1.6799212 -0.63411927 -0.28439784 68 3
1.5747913 -0.59474993 0.20669039 100 11
1.6656779 -0.62940723 -0.21863353 81 4
1.6001363 -0.60496026 0.27094454 100 12
1.6622624 -0.62877989 -0.1554859 72 5
1.6381956 -0.62000299 -0.09179724 96 6
1.6399773 -0.62133193 -0.030611426 100 7
1.7169974 -0.65359807 -0.49227384 58 0
1.6203108 -0.61679304 0.030262435 7 8
1.7045755 -0.64921033 -0.42110848 67 1
1.5882599 -0.60522723 0.089075834 76 9
1.6785196 -0.63995743 -0.34918055 100 2
1.5916231 -0.60714519 0.14903624 90 10
1.688659 -0.64449841 -0.28627506 66 3
1.585688 -0.60519826 0.20839657 100 11
1.6541981 -0.63167685 -0.21741503 82 4
1.5924793 -0.60842711 0.27000597 100 12
1.6600575 -0.63457841 -0.1554859 72 5
1.5788277 -0.60384309 0.3285732 85 13
1.6377777 -0.62671697 -0.091901913 75 6
1.6303285 -0.62419266 -0.030471809 100 7
1.7110993 -0.65820044 -0.49123853 58 0
1.6367018 -0.62991017 0.030611483 2 8
1.7021848 -0.65545344 -0.42110831 71 1
1.5898654 -0.61220312 0.08928518 76 9
1.6689475 -0.64298952 -0.34765407 100 2
1.6882421 -0.65109998 -0.28658792 63 3
1.5816071 -0.6102913 0.20815282 100 11
1.6555756 -0.6391654 -0.2179023 55 4
1.5866601 -0.61255932 0.26938024 100 12
1.6541152 -0.63893336 -0.15513727 72 5
1.5876979 -0.61359698 0.3308627 100 13
1.6411686 -0.63459092 -0.092215925 34 6
1.6318698 -0.6313228 -0.030541617 100 7
1.7087914 -0.66416931 -0.49123856 58 0
1.6327399 -0.63460982 0.030576576 2 8
1.7108991 -0.66533226 -0.42380789 67 1
1.5914414 -0.61919749 0.089494526 72 9
1.6721814 -0.65094781 -0.3487989 78 2
1.5966282 -0.62185735 0.1499078 4 10
1.6860735 -0.65669477 -0.28658792 63 3
1.5814244 -0.6162535 0.20839657 100 11
1.6552963 -0.64537299 -0.21814623 15 4
1.5789912 -0.61594033 0.26844159 60 12
1.6481628 -0.64325476 -0.15478866 69 5
1.5710233 -0.61314827 0.32780975 98 13
1.6371061 -0.63992739 -0.030681238 100 7
1.715571 -0.67336136 -0.49382678 54 0
1.6267923 -0.63884342 0.030506771 1 8
1.6994976 -0.66773719 -0.4215582 65 1
1.5967054 -0.6276716 0.089913204 72 9
1.6075363 -0.63225323 0.15112798 4 10
1.6764184 -0.65968281 -0.28533646 63 3
1.573722 -0.61958832 0.20766532 100 11
1.6534351 -0.65163881 -0.1554859 69 5
1.5542623 -0.61286694 0.32475683 40 13
1.6442426 -0.64867908 -0.092634611 2 6
1.6348623 -0.64563799 -0.030681238 100 7
1.7132101 -0.67934567 -0.49382678 42 0
1.6357049 -0.64894265 0.030716198 1 8
1.6971563 -0.67366546 -0.4215582 62 1
1.5870798 -0.63029253 0.089494519 72 9
1.6127259 -0.64080358 0.15182522 4 10
1.681448 -0.66844958 -0.28658792 63 3
1.5715497 -0.62507784 0.20766532 94 11
1.6489061 -0.65617937 -0.2179023 1 4
1.59117 -0.63352513 0.27125743 3 12
1.662257 -0.6618284 -0.15653178 69 5
1.6271257 -0.64849895 -0.09179724 1 6
1.7105771 -0.68210512 0.42515749 0 14
1.6307415 -0.65059978 -0.030646332 100 7
1.7305548 -0.69322389 -0.49952078 14 0
1.6260051 -0.65167272 0.030576577 1 8
1.7002207 -0.6817615 -0.42290792 60 1
1.58487 -0.63582861 0.089494519 72 9
1.7091199 -0.68567604 -0.35795775 1 2
1.5845932 -0.63603878 0.14938486 4 10
1.6846036 -0.67652321 -0.28752652 56 3
1.5748843 -0.63278013 0.20839657 85 11
1.6650239 -0.66933531 -0.22033969 1 4
1.5926143 -0.64054972 0.27188316 3 12
1.6599365 -0.66762674 -0.15653178 67 5
1.5936576 -0.64129251 0.33391565 2 13
1.6582013 -0.66760147 -0.093681328 1 6
1.5961145 -0.6429286 0.39726362 0 14
1.6284603 -0.65628815 -0.03064633 100 7
1.6385487 -0.66334772 0.030855816 1 8
1.7068616 -0.6913501 -0.4251574 62 1
1.584492 -0.64210725 0.089599192 67 9
1.6885208 -0.68426436 -0.35414156 1 2
1.5934417 -0.64605784 0.15043072 4 10
1.6858929 -0.68388474 -0.28815228 54 3
1.5671476 -0.63603413 0.20766532 46 11
1.6553204 -0.67215586 -0.21936473 1 4
1.5757278 -0.6401571 0.26938024 3 12
1.6465207 -0.66891754 -0.15548591 63 5
1.5877719 -0.64537305 0.33315244 2 13
1.6595613 -0.67489034 -0.093890682 2 6
1.5794201 -0.64262074 0.39366439 5 14
1.6280117 -0.66272253 -0.030681238 100 7
1.6399252 -0.67057693 0.030925626 1 8
1.704438 -0.69730389 -0.4251574 40 1
1.5896345 -0.65066051 0.090017885 67 9
1.682488 -0.68866676 -0.35337833 1 2
1.5801142 -0.64708573 0.14938486 4 10
1.6780118 -0.68751854 -0.28721368 22 3
1.6603105 -0.68094283 -0.22033988 2 4
1.5954137 -0.65465212 0.27313465 3 12
1.6423323 -0.67390448 -0.15531158 40 5
1.5709801 -0.64494663 0.33009949 2 13
1.6350254 -0.6715731 -0.092634611 1 6
1.623839 -0.66764092 -0.030646332 100 7
1.6153952 -0.66713756 0.030506771 1 8
1.6893864 -0.69804013 -0.42200813 6 1
1.5947366 -0.65925753 0.090436563 50 9
1.6837026 -0.69603574 -0.35414156 1 2
1.5815281 -0.65412039 0.14973348 4 10
1.6829027 -0.69639289 -0.28846514 3 3
1.5810105 -0.6545527 0.21010272 2 11
1.6725954 -0.69281179 -0.22228959 1 4
1.6040682 -0.66475481 0.27501187 3 12
1.6510136 -0.68420994 -0.15635745 6 5
1.557838 -0.64591467 0.32780975 2 13
1.6474299 -0.6833986 -0.093471989 2 6
1.535298 -0.6371972 0.38376653 30 14
1.6214987 -0.67330509 -0.030646332 63 7
1.6315125 -0.68046981 0.030855816 1 8
1.7049239 -0.71143764 -0.42650715 2 1
1.6017578 -0.66838801 0.090959921 12 9
1.684886 -0.70342141 -0.3549048 1 2
1.5829121 -0.66117281 0.1500821 2 10
1.6913973 -0.70683318 -0.29034236 2 3
1.5915363 -0.66542763 0.21180891 3 11
1.6628416 -0.69558161 -0.22131486 1 4
1.5945654 -0.66702104 0.27376041 3 12
1.6522911 -0.69150716 -0.15670608 2 5
1.5881701 -0.66499734 0.33467907 2 13
1.6450343 -0.68914509 -0.093471989 2 6
1.5420505 -0.64631903 0.38601601 58 14
1.619257 -0.67867857 -0.030646332 14 7
1.6366192 -0.68897998 0.030995436 1 8
1.7079431 -0.7193566 -0.42785683 9 1
1.5883716 -0.66932154 0.09033189 32 9
1.6715662 -0.70472234 -0.35261512 1 2
1.6062953 -0.6775347 0.15252247 4 10
1.6945044 -0.71474123 -0.29128098 9 3
1.582005 -0.66761452 0.21083395 3 11
1.6532106 -0.69800347 -0.22033988 1 4
1.5849485 -0.66950846 0.27250889 3 12
1.6718899 -0.70657784 -0.15879782 9 5
1.575106 -0.66567481 0.33238918 2 13
1.6390609 -0.69304073 -0.093262643 1 6
1.5434883 -0.65294766 0.38691583 59 14
1.6305234 -0.69312394 0.030925622 1 8
1.5805122 -0.67251599 0.090017878 47 9
1.683672 -0.71641099 -0.35566801 1 2
1.5747087 -0.67037106 0.14973348 4 10
1.596101 -0.68013644 0.21302761 5 11
1.6671989 -0.71077675 -0.22253335 1 4
1.5898699 -0.67813694 0.27376038 3 12
1.5836068 -0.67579222 0.33467907 3 13
1.6550001 -0.70660025 -0.094309367 2 6
1.5483682 -0.6613934 0.38871548 60 14
1.6328676 -0.69782484 -0.030995378 100 7
1.6391197 -0.70354372 0.031135054 1 8
1.7189949 -0.73818308 -0.43190593 63 1
1.5910007 -0.68354779 0.090750583 76 9
1.6883764 -0.72538376 -0.35719451 1 2
1.5723587 -0.6758638 0.14973366 4 10
1.6931027 -0.72811449 -0.29190671 69 3
1.6537673 -0.71188259 -0.22107111 1 4
1.6001928 -0.68915194 0.27595046 3 12
1.6377631 -0.70533222 -0.15600884 61 5
1.5704204 -0.67665482 0.33238918 3 13
1.6268462 -0.70130396 -0.092843957 2 6
1.5603652 -0.67296809 0.39231464 61 14
1.6212416 -0.69955909 -0.030820858 100 7
1.6219754 -0.70289999 0.030855818 1 8
1.6967405 -0.73565197 -0.42695701 57 1
1.5886048 -0.68909723 0.090750583 77 9
1.6750273 -0.72658515 -0.3549048 1 2
1.5992333 -0.69403917 0.15252246 4 10
1.6742433 -0.7269395 -0.2890909 65 3
1.6549135 -0.71923345 -0.22155857 2 4
1.5905316 -0.6915828 0.274699 4 12
1.6572169 -0.72057843 -0.15810058 62 5
1.5734496 -0.68448204 0.33353427 5 13
1.628051 -0.70857251 -0.093053311 2 6
1.5687269 -0.68307877 0.39501408 60 14
1.6444557 -0.71639514 -0.031309523 100 7
1.619512 -0.70855737 0.030855816 1 8
1.6941622 -0.74157017 -0.42695701 18 1
1.5807014 -0.69223475 0.09043657 67 9
1.7012546 -0.74502856 -0.36101067 2 2
1.5895011 -0.69641918 0.15182522 4 10
1.6789322 -0.73595142 -0.29034233 73 3
1.5652578 -0.68644857 0.209859 62 11
1.6596644 -0.72819626 -0.22253335 2 4
1.6080045 -0.70586443 0.27814054 6 12
1.6565158 -0.72715944 -0.15827487 59 5
1.6255676 -0.71425122 -0.093053304 2 6
1.5556289 -0.6838451 0.39231464 63 14
1.6236402 -0.71408051 -0.030960474 100 7
1.6316626 -0.72066981 0.031135056 1 8
1.5764486 -0.6969406 0.090331897 69 9
1.669914 -0.73826128 -0.3549048 3 2
1.6016376 -0.70841068 0.15321971 4 10
1.6871916 -0.74660367 -0.29221958 66 3
1.5773734 -0.69833696 0.21180891 88 11
1.6498522 -0.7307694 -0.22155838 2 4
1.5946947 -0.70667142 0.27626336 28 12
1.6503243 -0.73132312 -0.15792626 56 5
1.6486244 -0.73125845 -0.094518699 2 6
1.5532324 -0.68927109 0.39231464 61 14
1.6193098 -0.71893221 -0.030925568 100 7
1.5907331 -0.70657724 0.46639201 4 15
1.6254842 -0.72473216 0.031065244 2 8
1.5813017 -0.70569503 0.090750583 69 9
1.6780838 -0.74888641 -0.35719448 3 2
1.6009742 -0.71480942 0.15339401 6 10
1.6881824 -0.75409997 -0.29284531 59 3
1.574926 -0.70383877 0.21180889 92 11
1.6581645 -0.74138564 -0.22302082 2 4
1.6404867 -0.73382515 -0.15722902 60 5
1.5984514 -0.71535671 0.34040317 100 13
1.6460621 -0.73700875 -0.094518714 2 6
1.5579308 -0.69787532 0.39411426 60 14
1.622265 -0.72703373 -0.031030284 100 7
1.6229444 -0.73040181 0.031065244 2 8
1.5824708 -0.71285105 0.090959921 72 9
1.6844096 -0.75877112 -0.35910261 4 2
1.5476091 -0.69747198 0.1485133 22 10
1.6819383 -0.75836414 -0.29221958 58 3
1.5833167 -0.71422958 0.21327133 88 11
1.6682321 -0.7528851 -0.22472697 4 4
1.5951234 -0.72022575 0.27720195 100 12
1.6379153 -0.73954695 -0.15722902 56 5
1.560161 -0.70476747 0.33277079 72 13
1.6434795 -0.74275017 -0.094518714 2 6
1.551934 -0.70170349 0.39321446 59 14
1.6160734 -0.73104382 -0.030960474 100 7
1.6331296 -0.74185181 0.031309579 5 8
1.5854273 -0.72085053 0.091273941 67 9
1.6585174 -0.75408262 -0.35414156 16 2
1.6756849 -0.76259422 -0.29159385 66 3
1.5681672 -0.71399397 0.21156514 100 11
1.6475288 -0.75047487 -0.22228959 22 4
1.5746244 -0.71759772 0.27407324 85 12
1.6389496 -0.74691236 -0.15757763 60 5
1.5666229 -0.71428144 0.33467904 92 13
1.631791 -0.74433798 -0.093995355 13 6
1.5565666 -0.71035272 0.39501408 58 14
1.6262453 -0.74249417 -0.031204809 100 7
1.5533742 -0.7095511 0.45759216 46 15
1.5721357 -0.7211079 0.090645909 67 9
1.5752944 -0.72322243 0.15165092 84 10
1.6819882 -0.77256137 -0.29315817 63 3
1.569273 -0.72112143 0.21205264 96 11
1.6468347 -0.75676304 -0.22253354 33 4
1.5847998 -0.72859138 0.27626336 100 12
1.6435728 -0.75595903 -0.15827487 60 5
1.5659038 -0.72056639 0.33506072 96 13
1.550662 -0.71388078 0.39411426 59 14
1.6255902 -0.74871945 -0.031239711 100 7
1.5439944 -0.71146435 0.45552158 60 15
1.5917424 -0.7361626 0.030611482 39 8
1.5715483 -0.72715598 0.090750575 69 9
1.6640357 -0.77030265 -0.35643128 68 2
1.5891585 -0.73597795 0.1532197 100 10
1.679417 -0.7781347 -0.29315817 56 3
1.5722761 -0.72882581 0.21278384 92 11
1.6407143 -0.76055026 -0.22204587 28 4
1.5787907 -0.73218048 0.2756376 100 12
1.6446717 -0.76308227 -0.15862352 60 5
1.559944 -0.7241019 0.33429745 92 13
1.6502355 -0.76636398 -0.095356084 37 6
1.5447513 -0.71737742 0.39321446 60 14
1.617658 -0.75157833 -0.031135 100 7
1.5538896 -0.72228068 0.45914507 75 15
1.6092267 -0.75073671 0.030995438 7 8
1.5780489 -0.73686248 0.091273934 67 9
1.6596934 -0.77498591 -0.35604969 68 2
1.568658 -0.73281091 0.15147661 100 10
1.6804066 -0.78537244 -0.29378393 56 3
1.5788417 -0.73823988 0.21400253 96 11
1.5726472 -0.73601246 0.27501187 100 12
1.6385231 -0.7668429 -0.15827489 62 5
1.5610904 -0.73093593 0.33506072 96 13
1.549296 -0.72607297 0.39501405 59 14
1.6114035 -0.75552255 -0.031065188 100 7
1.5443628 -0.7244187 0.45707449 80 15
1.6373532 -0.77082896 0.031588815 2 8
1.5790808 -0.74406916 0.091483288 65 9
1.6640819 -0.78412193 -0.35757616 58 2
1.5751013 -0.74252993 0.15234815 72 10
1.6740813 -0.78954804 -0.29315817 66 3
1.5726645 -0.7420522 0.21351506 85 11
1.6497256 -0.77876514 -0.22399576 1 4
1.5754269 -0.74402821 0.27595046 100 12
1.6340346 -0.77170688 -0.15810058 58 5
1.551429 -0.73302585 0.33353424 96 13
1.6485921 -0.77928597 -0.095565423 1 6
1.5502757 -0.73314291 0.3959139 56 14
1.6159869 -0.76456374 -0.031204809 100 7
1.5383326 -0.72815222 0.45603922 70 15
1.6183963 -0.76881719 0.031274673 1 8
1.581885 -0.75214946 0.091797292 69 9
1.6772919 -0.79751319 -0.3610107 46 2
1.6659642 -0.7928403 -0.29221958 66 3
1.5664802 -0.74583071 0.2130276 96 11
1.6720877 -0.7964704 -0.22740811 1 4
1.5728201 -0.74952298 0.27595046 96 12
1.636727 -0.7799775 -0.15862352 64 5
1.5524052 -0.74012667 0.33429727 86 13
1.6314403 -0.77815717 -0.094728053 1 6
1.5477068 -0.73854995 0.39591387 63 14
1.6096989 -0.76847684 -0.031134998 100 7
1.5444974 -0.73768038 0.45862737 73 15
1.6265222 -0.77964789 0.031484101 1 8
1.5756483 -0.75593883 0.091587953 69 9
1.5878413 -0.76212943 0.15409127 3 10
1.6685287 -0.80121607 -0.29315817 56 3
1.5638672 -0.7512942 0.2130276 96 11
1.6692971 -0.8023023 -0.22740832 1 4
1.5862167 -0.76271266 0.2787663 24 12
1.6411766 -0.78913939 -0.15932076 60 5
1.5515814 -0.74639201 0.33467907 46 13
1.6323136 -0.78557944 -0.094937399 1 6
1.5451195 -0.74394786 0.39591387 58 14
1.6196176 -0.78016573 -0.031379331 100 7
1.5453938 -0.74474466 0.45966271 65 15
1.6021882 -0.77487302 0.031065244 1 8
1.5676069 -0.75882369 0.091273934 65 9
1.5762051 -0.76332533 0.1532197 4 10
1.6781658 -0.81306446 -0.29534826 59 3
1.5630215 -0.75761443 0.21327133 88 11
1.6379079 -0.79426581 -0.22350828 1 4
1.6402045 -0.79573321 -0.15949507 58 5
1.6475279 -0.79999655 -0.095984124 2 6
1.5390075 -0.74763387 0.39501408 56 14
1.6060932 -0.78056991 -0.031169903 100 7
1.5375725 -0.7476002 0.45810977 36 15
1.6210396 -0.79098415 0.031484101 1 8
1.5757167 -0.76954997 0.09190198 65 9
1.5771112 -0.77057189 0.15356833 2 10
1.6770921 -0.81978494 -0.29566112 56 3
1.5657172 -0.76568192 0.21400253 66 11
1.6636554 -0.81393659 -0.22740811 1 4
1.557788 -0.76247841 0.27469897 3 12
1.6320481 -0.79882592 -0.15897211 60 5
1.5569121 -0.76238656 0.3369686 2 13
1.6339638 -0.80047053 -0.095356084 2 6
1.5381382 -0.75385904 0.39546394 55 14
1.6051544 -0.78705186 -0.031204809 100 7
1.6039162 -0.7895723 0.031204866 1 8
1.576604 -0.776811 0.092111319 60 9
1.5672637 -0.77254891 0.15287109 2 10
1.6671337 -0.82213932 -0.29440963 54 3
1.5826173 -0.78080392 0.21668367 13 11
1.6821648 -0.83028197 -0.23033318 1 4
1.5692868 -0.77490824 0.27720195 3 12
1.6274637 -0.80363578 -0.15879783 58 5
1.5612822 -0.77129459 0.33849508 2 13
1.6275786 -0.80439931 -0.095146738 2 6
1.5477254 -0.7652697 0.39861327 59 14
1.6095669 -0.79619664 -0.031344429 100 7
1.6190599 -0.80406064 0.031553909 1 8
1.5810368 -0.7858656 0.092530005 37 9
1.5859652 -0.78866047 0.15496282 3 10
1.6642536 -0.82795364 -0.29440963 54 3
1.6650405 -0.82907015 -0.22838305 1 4
1.5930943 -0.79359335 0.28189498 2 12
1.6371318 -0.81553042 -0.160018 53 5
1.5585804 -0.77673984 0.33849508 2 13
1.6283356 -0.81185818 -0.095356077 1 6
1.5520201 -0.77414691 0.40041289 60 14
1.6067777 -0.80181026 -0.031344425 100 7
1.5983648 -0.80075037 0.031204866 1 8
1.5903262 -0.79776508 0.15566006 1 10
1.6613535 -0.83375794 -0.29440963 47 3
1.5664836 -0.78648931 0.21522126 2 11
1.6585886 -0.83309537 -0.22789559 1 4
1.5798626 -0.79355192 0.28001776 2 12
1.6413963 -0.82481855 -0.16071524 17 5
1.5488431 -0.77864832 0.3369686 2 13
1.6254919 -0.81753719 -0.095356084 1 6
1.5388637 -0.77430433 0.39771348 61 14
1.6058962 -0.80803287 -0.031379331 52 7
1.6135495 -0.8150624 0.031553909 1 8
1.5792159 -0.79841131 0.092739351 3 9
1.5981981 -0.80870891 0.15670614 3 10
1.6691548 -0.84461385 -0.29628685 45 3
1.5709511 -0.79526591 0.21619619 3 11
1.6522751 -0.83679706 -0.22740811 1 4
1.5665104 -0.79370505 0.27814054 3 12
1.634953 -0.82874143 -0.16036664 44 5
1.5672662 -0.79443175 0.34154803 2 13
1.6227721 -0.822923 -0.095356092 2 6
1.5345497 -0.7785216 0.39726362 54 14
1.6137648 -0.81906384 -0.031588756 68 7
1.6071311 -0.81887424 0.031484105 1 8
1.57478 -0.80273676 0.09263467 13 9
1.5884087 -0.81038249 0.15600869 3 10
1.6661966 -0.85043532 -0.29628688 32 3
1.5787731 -0.80616128 0.21765862 3 11
1.6493441 -0.84255952 -0.22740811 1 4
1.577943 -0.80608457 0.28064352 2 12
1.6321957 -0.8341586 -0.16036664 52 5
1.5609877 -0.79811031 0.34078482 2 13
1.6270021 -0.83222079 -0.095774777 1 6
1.5404968 -0.78831196 0.39951313 59 14
1.6146003 -0.82623261 -0.031658567 100 7
1.6115217 -0.82785404 0.031623721 1 8
1.5784838 -0.81227553 0.15531144 3 10
1.5778561 -0.81230086 0.21790235 5 11
1.6500705 -0.84984219 -0.2278956 1 4
1.5716076 -0.80977815 0.28001776 2 12
1.6292741 -0.83985084 -0.16036664 57 5
1.5722927 -0.81047851 0.34383774 2 13
1.6242334 -0.8376115 -0.09577477 1 6
1.5448014 -0.79699004 0.40131268 59 14
1.6028214 -0.82727778 -0.031484041 100 7
1.6084765 -0.83375514 0.031623721 1 8
1.5707686 -0.81490481 0.092739351 47 9
1.5862494 -0.82328755 0.15635732 3 10
1.5572523 -0.80892783 0.21546498 15 11
1.6716046 -0.86869955 -0.23130792 1 4
1.5756396 -0.81917769 0.28126922 2 12
1.6334035 -0.84920925 -0.16106386 57 5
1.5588613 -0.81080019 0.34154803 3 13
1.6353265 -0.85093445 -0.096612148 2 6
1.5470554 -0.80534613 0.40266237 54 14
1.606873 -0.83684164 -0.031623665 100 7
1.6126451 -0.84307051 0.031763341 1 8
1.5732234 -0.82316059 0.093053371 74 9
1.5798353 -0.82697153 0.15600868 3 10
1.6474633 -0.86347097 -0.22838306 2 4
1.5832673 -0.83017665 0.28314644 4 12
1.6357229 -0.85768133 -0.16158681 55 5
1.5473286 -0.81167674 0.33963993 6 13
1.6181982 -0.84921277 -0.095774777 2 6
1.5338825 -0.80530638 0.39996299 37 14
1.6074828 -0.84430516 -0.031693473 100 7
1.6132301 -0.85055971 0.031833149 2 8
1.568574 -0.82771504 0.09294869 73 9
1.5804631 -0.83434147 0.15635732 3 10
1.5743843 -0.83183533 0.21863359 58 11
1.6514591 -0.87292689 -0.22935823 2 4
1.582106 -0.8366217 0.28345934 9 12
1.6344801 -0.86431736 -0.16176111 57 5
1.6116933 -0.85298753 -0.095565423 2 6
1.6009915 -0.84803927 -0.031623665 100 7
1.6137824 -0.8580634 0.031902958 2 8
1.565675 -0.83318537 0.09294869 65 9
1.5757824 -0.8389169 0.156183 7 10
1.5522 -0.82705748 0.21595246 75 11
1.648402 -0.87868643 -0.22935802 3 4
1.5565168 -0.83005553 0.27939203 28 12
1.6279373 -0.86814243 -0.16141251 57 5
1.5589458 -0.83170044 0.34345609 49 13
1.6192781 -0.86425072 -0.096193463 2 6
1.6015494 -0.8555069 -0.031693473 100 7
1.6143023 -0.86558133 0.03197277 5 8
1.5803559 -0.84808975 0.093995415 67 9
1.5597954 -0.83810836 0.2174149 82 11
1.6610613 -0.89289403 -0.23155166 20 4
1.5675281 -0.84296858 0.28189501 57 12
1.6284062 -0.87570697 -0.16176111 57 5
1.5664067 -0.84271795 0.34574601 70 13
1.6338387 -0.87936366 -0.097240187 5 6
1.6020743 -0.86298895 -0.031763282 100 7
1.5738728 -0.85170001 0.093786076 67 9
1.5568603 -0.84354794 0.2174149 81 11
1.5819409 -0.85785162 0.28502369 83 12
1.6235881 -0.880436 -0.16158681 55 5
1.5358449 -0.83320177 0.33963993 75 13
1.6079389 -0.87267625 -0.09587945 21 6
1.6060809 -0.87239379 -0.031902902 100 7
1.5656304 -0.85431844 0.093472049 72 9
1.5686598 -0.85632682 0.15635732 100 10
1.5539063 -0.84897721 0.2174149 85 11
1.6460779 -0.89970809 -0.23033297 62 4
1.5754702 -0.86147285 0.28439793 94 12
1.620505 -0.88609797 -0.16158681 55 5
1.544984 -0.84515321 0.34231126 73 13
1.606635 -0.87924242 -0.095984124 38 6
1.6065335 -0.87991589 -0.03197271 99 7
1.5928831 -0.87569481 0.031728435 50 8
1.557389 -0.85688996 0.093158029 67 9
1.5726429 -0.86564034 0.15705457 100 10
1.5578884 -0.85822755 0.21838985 81 11
1.6290189 -0.89778328 -0.22838306 41 4
1.5603446 -0.86029071 0.28220785 94 12
1.6278707 -0.89752108 -0.16263267 52 5
1.5557771 -0.85812664 0.34536418 70 13
1.6175456 -0.89256477 -0.096821494 25 6
1.5964504 -0.88165158 -0.031833094 100 7
1.5985614 -0.88609707 0.031902958 43 8
1.5701071 -0.87104112 0.09410008 69 9
1.5661273 -0.86919075 0.15670614 100 10
1.5618243 -0.86751598 0.21936479 81 11
1.6328157 -0.9073211 -0.22935823 9 4
1.5625117 -0.86861145 0.28314644 90 12
1.6177624 -0.89932573 -0.16193543 52 5
1.5510564 -0.86259782 0.34498256 79 13
1.5986044 -0.89013737 -0.031937808 95 7
1.5740293 -0.88041657 0.094518766 72 9
1.5543904 -0.86978787 0.15583438 100 10
1.5639827 -0.87587243 0.22009604 69 11
1.5646398 -0.87695783 0.28408507 93 12
1.6146133 -0.90496731 -0.16193543 55 5
1.5428987 -0.86512643 0.34383774 70 13
1.6321779 -0.91556102 -0.098077558 1 6
1.5972314 -0.89669091 -0.03197271 99 7
1.5975629 -0.9001804 0.032007672 1 8
1.5813847 -0.891792 0.095146798 72 9
1.5721682 -0.8869561 0.15792611 28 10
1.5540013 -0.87742239 0.21912105 77 11
1.5632886 -0.8833859 0.28439793 90 12
1.6183828 -0.91451859 -0.16263267 52 5
1.5432876 -0.87243909 0.34460098 54 13
1.6289722 -0.92125297 -0.098077558 1 6
1.5993122 -0.90521592 -0.032077424 95 7
1.5961497 -0.90673923 0.032042578 1 8
1.562636 -0.88842243 0.094204754 67 9
1.5509292 -0.88284147 0.21912105 75 11
1.5704941 -0.89470446 0.28627515 80 12
1.6238366 -0.92509353 -0.16350424 50 5
1.5487611 -0.88268137 0.34650904 15 13
1.6118661 -0.91901934 -0.097240187 1 6
1.60309 -0.91475719 -0.032217044 95 7
1.5895045 -0.9103176 0.03197277 1 8
1.5614141 -0.89459217 0.094309419 72 9
1.5676663 -0.89890134 0.15810044 1 10
1.5512815 -0.89022583 0.21960855 75 11
1.5572394 -0.89400631 0.28439793 90 12
1.6257807 -0.93373293 -0.16402717 55 5
1.64328 -0.94454634 -0.099333622 2 6
1.5965809 -0.91807473 -0.032147236 95 7
1.6107244 -0.92957747 0.032461438 1 8
1.5634705 -0.90303403 0.094623446 63 9
1.561069 -0.90237367 0.1577518 1 10
1.5500394 -0.89635891 0.2198523 39 11
1.5541095 -0.89943677 0.28439793 90 12
1.6138901 -0.93441087 -0.1631556 48 5
1.6193993 -0.93797803 -0.098077551 1 6
1.5916363 -0.92263937 -0.03211233 87 7
1.5867282 -0.923127 0.032042578 1 8
1.5603087 -0.90848595 0.094623439 28 9
1.5856142 -0.9235906 0.16054079 3 10
1.5611979 -0.91082883 0.28627515 80 12
1.6107826 -0.93975759 -0.1631556 50 5
1.6437119 -0.95973802 -0.099752307 1 6
1.5901326 -0.92919844 -0.032147232 47 7
1.6007456 -0.9387762 0.032391626 1 8
1.558327 -0.91499627 0.15810044 1 10
1.5677043 -0.92123848 0.22326462 2 11
1.5563061 -0.91527152 0.28596228 77 12
1.6126448 -0.94840455 -0.16367856 46 5
1.6128117 -0.94926047 -0.098077558 1 6
1.6043444 -0.94842875 0.032531243 1 8
1.5693989 -0.92850971 0.09556549 2 9
1.5722692 -0.93057823 0.15984353 1 10
1.5593553 -0.92367005 0.2225334 2 11
1.5615978 -0.92573494 0.28752661 82 12
1.6213214 -0.96113974 -0.16489872 35 5
1.6301008 -0.96711349 -0.099333622 1 6
1.5990818 -0.94946533 -0.032461375 4 7
1.6010239 -0.95402306 0.032531243 1 8
1.5592866 -0.92989039 0.095146798 3 9
1.5621673 -0.93197775 0.15914629 1 10
1.5561217 -0.92910779 0.22253342 2 11
1.5498784 -0.92611408 0.28596225 77 12
1.6198586 -0.96869755 -0.098914936 1 6
1.5888942 -0.95093375 -0.032321759 30 7
1.5771132 -0.94725055 0.03211239 1 8
1.5817083 -0.95076209 0.096716888 6 9
1.5657343 -0.94153208 0.15984353 3 10
1.5766807 -0.9488641 0.22594574 3 11
1.5500207 -0.93355697 0.28658801 73 12
1.6301516 -0.98259437 -0.099752307 1 6
1.6011674 -0.96931946 0.032670863 1 8
1.5794767 -0.95731884 0.16158664 3 10
1.5648725 -0.9492144 0.22472705 4 11
1.5585725 -0.94613719 0.2887781 51 12
1.6301256 -0.99035269 -0.099961653 2 6
1.6112642 -0.97966397 -0.032915141 89 7
1.590946 -0.97073638 0.032531243 2 8
1.565924 -0.95659453 0.16054079 3 10
1.5603154 -0.95466489 0.28971672 7 12
1.6266586 -0.99603677 -0.099961646 2 6
1.5924894 -0.97587872 -0.032600995 100 7
1.5841411 -0.9741891 0.032461438 2 8
1.5648618 -0.96308583 0.096298203 65 9
1.5625753 -0.96205485 0.16054079 3 10
1.5429976 -0.95074403 0.22253342 68 11
1.6231718 -1.0017089 -0.099961646 2 6
1.6009828 -0.98878717 -0.032845326 86 7
1.6079261 -0.9965679 0.033019911 4 8
1.5597931 -0.96748966 0.096193522 62 9
1.57783 -0.97905874 0.1624582 7 10
1.5531604 -0.96450198 0.22448331 52 11
1.6213615 -1.0084238 -0.10006633 19 6
1.5924286 -0.99119943 -0.032740615 81 7
1.5614872 -0.9761045 0.096507542 60 9
1.5481015 -0.96886468 0.22423957 72 11
1.5872649 -0.99568921 -0.032705709 85 7
1.5633119 -0.98447025 0.096821561 62 9
1.5547843 -0.98061645 0.225702 74 11
1.6328562 -1.0314513 -0.10121772 59 6
1.5907161 -1.0052203 -0.032845326 75 7
1.5756249 -0.99915069 0.032566149 46 8
1.5632389 -0.99206138 0.097030908 64 9
1.5590817 -0.99018693 0.16158664 93 10
1.5397953 -0.97831511 0.22399583 67 11
1.5990963 -1.0175599 -0.099333622 36 6
1.590571 -1.0129151 -0.032915138 75 7
1.5822378 -1.0111052 0.032775577 61 8
1.5564011 -0.99535996 0.096821569 62 9
1.5524331 -0.9932043 0.16123804 93 10
1.5346992 -0.9826138 0.2237521 61 11
1.5937573 -1.0227811 -0.033054754 75 7
1.5820614 -1.0187875 0.032845389 60 8
1.5562748 -1.0029505 0.0970309 62 9
1.5590039 -1.0050946 0.1622839 96 10
1.5412682 -0.9944222 0.22521454 63 11
1.5868192 -1.0261666 -0.032984946 74 7
1.5818504 -1.0264807 0.032915197 30 8
1.5544392 -1.0094646 0.097135566 60 9
1.5471323 -1.0051032 0.16141234 99 10
1.5411161 -1.0019602 0.225702 43 11
1.5832275 -1.0316992 -0.032984946 74 7
1.562605 -1.02254 0.097868279 62 9
1.5469482 -1.0126802 0.16176096 99 10
1.5846313 -1.0405123 -0.033089664 70 7
1.5863345 -1.0452005 0.033159532 1 8
1.5623609 -1.0301871 0.098077618 64 9
1.5500567 -1.0224622 0.16245823 99 10
1.5893282 -1.0515543 -0.033264186 68 7
1.5826763 -1.0507313 0.033159528 1 8
1.5504376 -1.0301082 0.097554259 56 9
1.5514561 -1.0311754 0.16298115 88 10
1.5839839 -1.0559866 -0.03322928 63 7
1.5922958 -1.0651443 0.033438768 1 8
1.5435131 -1.0332919 0.097344927 23 9
1.5495024 -1.037693 0.16315566 90 10
1.5836082 -1.0637393 -0.033299088 62 7
1.588568 -1.070696 0.033438768 1 8
1.5442191 -1.0419811 0.16298114 88 10
1.5798855 -1.0692607 -0.033299092 57 7
1.5815123 -1.0739878 0.03336896 1 8
1.5676476 -1.0653721 0.099333681 2 9
1.5438678 -1.0496056 0.16332977 85 10
1.5877084 -1.0826553 -0.033543427 30 7
1.5843551 -1.0840186 0.033508576 1 8
1.5606234 -1.068581 0.099124342 2 9
1.5451261 -1.0583662 0.16385271 90 10
1.6036115 -1.1054313 0.033997245 1 8
1.5601718 -1.0762905 0.099333681 3 9
1.5463417 -1.067148 0.16437563 79 10
1.5898883 -1.1041783 0.033787813 1 8
1.5498452 -1.0771704 0.098914996 8 9
1.5475147 -1.0759513 0.16489857 48 10
1.5925783 -1.114307 0.033927437 2 8
1.5905089 -1.120734 0.033962343 3 8
1.5506384 -1.0934498 0.099438347 42 9
1.5344074 -1.0892378 0.032845385 12 8
1.5500686 -1.1011692 0.099647693 47 9
1.542967 -1.1042486 0.099438354 51 9
1.5770632 -1.1361591 0.033927437 44 8
1.5425373 -1.1116946 0.099647693 58 9
1.5765241 -1.1437309 0.033997245 21 8
1.5451125 -1.121766 0.10006639 58 9
1.5476357 -1.1318687 0.10048507 53 9
1.5517153 -1.1431874 0.10100843 41 9
1.7679878 -0.18083273 -0.15548591 1 5
1.7118685 -0.18113305 -0.15060517 2 5
1.7151867 -0.18754058 -0.15095378 21 5
1.721717 -0.2007322 -0.15165105 77 5
