# .PCD v0.7 - Point Cloud Data file format
VERSION 0.7
FIELDS x y z intensity ring
SIZE 4 4 4 4 2
TYPE F F F F U
COUNT 1 1 1 1 1
WIDTH 1235
HEIGHT 1
VIEWPOINT 0 0 0 1 0 0 0
POINTS 1235
DATA ascii
-4.3514028 -0.43893138 0.69269198 46 12
-4.3657956 -0.43961248 0.85291588 40 13
-0.94592857 -0.095083237 -0.049823817 4 6
-4.380208 -0.43951941 1.0163288 39 14
-4.2520719 -0.42591238 -0.074591354 9 7
-4.4019895 -0.44015312 1.1853913 60 15
-4.2786059 -0.42178345 0.07504525 53 8
-4.2814898 -0.4205578 0.22546336 55 9
-4.2869878 -0.42034352 0.37686121 52 10
-0.5347473 -0.052338164 -0.085100345 21 3
-4.3247762 -0.42252365 0.53354388 42 11
-0.56900722 -0.055490833 -0.070196718 16 4
-4.3548746 -0.42392969 0.69300485 45 12
-4.3633952 -0.42399046 0.85215318 40 13
-0.91047192 -0.088310018 -0.047939725 11 6
-4.3855948 -0.42460239 1.0172286 38 14
-4.2654748 -0.41222128 -0.074800782 8 7
-4.4092674 -0.42534092 1.1869441 65 15
-4.2800522 -0.40684563 0.07504525 52 8
-4.2869096 -0.40598765 0.22567274 53 9
-4.304297 -0.40687642 0.37825617 50 10
-0.53886002 -0.050842326 -0.085726075 21 3
-4.3183193 -0.40668017 0.53256893 42 11
-0.60477227 -0.056848437 -0.074584082 15 4
-4.3602605 -0.40909463 0.69363046 43 12
-4.3589845 -0.40820748 0.8510083 39 13
-0.87497991 -0.081785545 -0.046055626 30 6
-4.3889909 -0.40947217 1.0176786 38 14
-4.2748523 -0.39807102 -0.074940398 8 7
-4.4107256 -0.40994704 1.1869442 62 15
-4.2854285 -0.39226738 0.075115055 53 8
-4.2922096 -0.39213273 0.22588207 55 9
-4.3056917 -0.39184803 0.3782557 48 10
-0.53116512 -0.048246272 -0.084474616 21 3
-4.3118043 -0.39088795 0.53159398 41 11
-0.56541783 -0.051258124 -0.069709241 17 4
-4.3694634 -0.39534515 0.69488209 45 12
-4.3721151 -0.39404759 0.85329801 39 13
-0.87327093 -0.078551836 -0.045950957 37 6
-4.3883834 -0.3947407 1.0172286 38 14
-4.282124 -0.38442919 -0.075045116 6 7
-4.4159093 -0.39566401 1.1879796 62 15
-4.2867064 -0.37805411 0.075115062 52 8
-4.2855277 -0.37719542 0.22546336 55 9
-4.3188763 -0.37861255 0.37930161 52 10
-0.5155794 -0.045107264 -0.081971668 22 3
-4.3209867 -0.37727779 0.53256887 42 11
-0.52603322 -0.045929477 -0.064834528 18 4
-4.3589425 -0.37982532 0.69300485 45 12
-4.3831773 -0.38039556 0.85520566 40 13
-0.89939415 -0.077895865 -0.047311693 31 6
-4.3896675 -0.3801859 1.0172285 39 14
-4.2833748 -0.37022683 -0.075045109 6 7
-4.4191213 -0.38118395 1.1884972 60 15
-4.2959061 -0.36451289 0.075254671 52 8
-4.2947793 -0.36290744 0.22588207 53 9
-4.3081956 -0.3632839 0.3782557 52 10
-0.55509448 -0.046710037 -0.088229038 20 3
-4.3301272 -0.36361113 0.53354388 42 11
-0.5657537 -0.04740826 -0.069709249 17 4
-4.3622108 -0.36477089 0.69331771 46 12
-4.3746963 -0.36427844 0.85329759 40 13
-0.89368933 -0.074259728 -0.046997674 39 6
-4.387085 -0.36453798 1.0163288 39 14
-4.2826486 -0.35510847 -0.07501021 6 7
-4.414649 -0.36527795 1.1869441 62 15
-4.2932277 -0.3484416 0.075184874 52 8
-4.2960801 -0.34716478 0.22588204 55 9
-4.3015542 -0.34685048 0.37755841 52 10
-0.52769583 -0.042457402 -0.083848886 21 3
-4.3353882 -0.34805459 0.53403139 41 11
-0.59758359 -0.047870517 -0.073609054 15 4
-4.3733635 -0.34956804 0.69488209 43 12
-4.3779588 -0.34839755 0.85367918 40 13
-0.89992851 -0.071458176 -0.047311693 63 6
-4.396162 -0.3490741 1.0181285 39 14
-4.2958813 -0.3403559 -0.075219639 6 7
-4.412107 -0.34879047 1.1859089 62 15
-4.2865009 -0.33208689 0.07504525 52 8
-4.30125 -0.33247334 0.22609144 55 9
-4.3067698 -0.33138782 0.37790704 50 10
-0.52784789 -0.040523008 -0.083848871 21 3
-4.3287177 -0.33155677 0.53305644 42 11
-0.55420268 -0.042448979 -0.068246819 17 4
-4.3804655 -0.33475146 0.69582063 46 12
-4.3771911 -0.33296448 0.85329759 37 13
-0.87826568 -0.066653602 -0.046160303 88 6
-4.4051261 -0.33431515 1.019928 39 14
-4.3010316 -0.32566127 -0.075289451 6 7
-4.4210038 -0.33396924 1.1879797 65 15
-4.2915668 -0.318165 0.075115062 53 8
-4.2983437 -0.31791419 0.22588204 55 9
-4.3197665 -0.31798163 0.3789534 53 10
-0.51615882 -0.037904315 -0.08197166 22 3
-4.3337531 -0.31749034 0.53354388 41 11
-0.57413816 -0.04206131 -0.070684195 16 4
-4.3815513 -0.32022327 0.69582063 48 12
-4.3861036 -0.31901687 0.85482407 39 13
-0.87449777 -0.063451901 -0.045950957 82 6
-4.3984365 -0.31914222 1.0181285 39 14
-4.3000932 -0.31125224 -0.075254537 6 7
-4.4240136 -0.31944576 1.1884973 58 15
-4.3005767 -0.30449665 0.075254671 52 8
-4.299428 -0.30290711 0.22588207 55 9
-4.3247733 -0.30393428 0.37930161 50 10
-0.53204614 -0.037297688 -0.084474623 21 3
-4.3209205 -0.30214787 0.53183776 40 11
-0.5544787 -0.038675647 -0.068246812 17 4
-4.3727903 -0.30424231 0.69425631 43 12
-4.3871374 -0.30447012 0.85482407 40 13
-0.87470341 -0.06055158 -0.045950957 90 6
-4.3956347 -0.30351821 1.0172286 38 14
-4.2931738 -0.29569048 -0.075114928 6 7
-4.4270287 -0.30413342 1.1890148 53 15
-4.3095951 -0.290021 0.07539431 50 8
-4.3084297 -0.28843099 0.22630075 55 9
-4.3178549 -0.28830603 0.37860477 50 10
-0.54399908 -0.036227688 -0.086351819 21 3
-4.3437371 -0.28851026 0.5345189 41 11
-0.58630228 -0.038839467 -0.072146624 16 4
-4.373826 -0.28897542 0.69425637 43 12
-4.3940506 -0.28954145 0.85596889 40 13
-0.86693764 -0.056974214 -0.045532271 94 6
-4.4063907 -0.2888099 1.0194782 40 14
-4.3061533 -0.28148523 -0.075324357 6 7
-4.4242077 -0.28842789 1.1879796 53 15
-4.302598 -0.27446657 0.075254671 50 8
-4.3133974 -0.27364382 0.22651009 55 9
-4.3148589 -0.27298048 0.3782557 53 10
-0.54412222 -0.034328539 -0.086351819 21 3
-4.3526421 -0.27384552 0.53549385 41 11
-0.57454711 -0.036046699 -0.070684254 16 4
-4.3787498 -0.27395266 0.69488198 45 12
-4.3891559 -0.27383575 0.85482407 40 13
-0.8830784 -0.054939594 -0.046369646 78 6
-4.405427 -0.27330619 1.0190283 38 14
-4.2991257 -0.26595926 -0.07518474 6 7
-4.4136186 -0.27226794 1.1848737 46 15
-4.2995381 -0.25920424 0.075184874 53 8
-4.310339 -0.25834647 0.22630078 53 9
-4.3197627 -0.25815368 0.37860429 52 10
-0.50874496 -0.030314166 -0.080720186 22 3
-4.3436632 -0.2580615 0.53427511 42 11
-0.59052247 -0.034979984 -0.072634175 16 4
-4.3796797 -0.2586672 0.69488198 45 12
-4.3861651 -0.2582821 0.85406077 37 13
-0.87130183 -0.051154364 -0.045741614 85 6
-4.4180264 -0.2586109 1.0217277 39 14
-4.3239827 -0.25234774 -0.075603582 8 7
-4.4183984 -0.25708413 1.1859088 42 15
-4.304409 -0.24442209 0.075254671 52 8
-4.3112144 -0.24329889 0.22630078 55 9
-4.3206377 -0.24307422 0.37860429 55 10
-0.54829323 -0.03075037 -0.086977571 20 3
-4.3465199 -0.24300741 0.5345189 43 11
-0.55496466 -0.030930215 -0.068246812 17 4
-4.3904181 -0.24392554 0.69644648 46 12
-0.85143793 -0.047155451 -0.074605346 100 5
-4.3929214 -0.24329452 0.85520571 42 13
-0.86948097 -0.048002731 -0.045636944 100 6
-4.409173 -0.24265195 1.0194781 40 14
-4.3328247 -0.23769075 -0.075743206 6 7
-4.4173408 -0.24155496 1.1853913 41 15
-4.3092308 -0.22960813 0.075324498 52 8
-4.3120365 -0.2282483 0.22630072 55 9
-4.3334374 -0.22786433 0.37965015 52 10
-0.55629283 -0.029154088 -0.08822903 20 3
-4.351306 -0.22804241 0.53500634 42 11
-0.64229435 -0.033548839 -0.078971304 14 4
-4.3813787 -0.228085 0.69488198 45 12
-0.85557681 -0.044389736 -0.074953966 100 5
-4.3977046 -0.22739576 0.85596889 42 13
-0.87962401 -0.045329314 -0.046160299 81 6
-4.4119797 -0.22658981 1.0199281 39 14
-4.3176508 -0.2217453 -0.075463966 8 7
-4.4200859 -0.22623271 1.1859089 35 15
-4.3220263 -0.21440683 0.075533919 50 8
-4.310813 -0.2130964 0.22619608 53 9
-4.3262463 -0.21234557 0.3789534 52 10
-0.56033731 -0.027405068 -0.088854775 20 3
-4.3560781 -0.21228573 0.53549385 41 11
-4.3880672 -0.21307704 0.69582063 46 12
-4.4004321 -0.21213791 0.85635048 40 13
-0.88177186 -0.042354587 -0.046264973 72 6
-4.416636 -0.21137393 1.0208279 39 14
-4.314404 -0.20648123 -0.075394161 8 7
-4.415061 -0.21052623 1.1843562 35 15
-4.3147235 -0.19970435 0.07539431 50 8
-4.3195109 -0.19841401 0.22661476 55 9
-4.3349233 -0.1976057 0.37965021 50 10
-0.52885187 -0.024107497 -0.083848886 21 3
-4.360724 -0.19801919 0.53598124 40 11
-4.396678 -0.19811408 0.69707209 46 12
-4.3913054 -0.19710407 0.85444248 36 13
-0.89188373 -0.039876089 -0.046788331 54 6
-4.4231539 -0.19698662 1.0221776 40 14
-4.3150992 -0.1914198 -0.075394168 8 7
-4.4041877 -0.19460063 1.1812502 35 15
-4.311398 -0.18446982 0.075324483 50 8
-4.3201771 -0.18333581 0.22661476 55 9
-4.3395352 -0.18339756 0.3799988 52 10
-4.3475051 -0.18221527 0.53427511 40 11
-4.3973432 -0.1827655 0.69707215 48 12
-4.3958898 -0.18193763 0.85520566 36 13
-0.88603085 -0.036516048 -0.046474315 49 6
-4.4296556 -0.18178532 1.0235273 38 14
-4.3237329 -0.1766836 -0.075533777 11 7
-4.4125619 -0.17954107 1.1833208 35 15
-4.3200078 -0.16973297 0.075464092 50 8
-4.312808 -0.16794348 0.22619608 55 9
-4.3401785 -0.16749209 0.3799988 52 10
-4.3580341 -0.16741842 0.53549391 42 11
-4.4058504 -0.16771629 0.69832367 46 12
-4.4043741 -0.16611953 0.85673207 40 13
-0.88815457 -0.033343464 -0.046578985 35 6
-4.422502 -0.16525742 1.0217276 39 14
-4.3383102 -0.1621114 -0.075778104 11 7
-4.4131618 -0.16413714 1.1833208 35 15
-4.3166051 -0.15375684 0.07539431 50 8
-4.3133945 -0.15213503 0.22619608 55 9
-4.3487015 -0.15262043 0.38069609 47 10
-4.3665528 -0.15172096 0.53646874 42 11
-4.3906417 -0.15102254 0.69582069 46 12
-4.4147372 -0.15108103 0.85864067 37 13
-0.89624995 -0.030514631 -0.046997674 26 6
-4.4152622 -0.14955503 1.0199281 40 14
-4.3128953 -0.14533408 -0.075324357 11 7
-4.4175954 -0.14809036 1.1843561 35 15
-4.3291063 -0.13907325 0.075603724 48 8
-4.3178921 -0.13720432 0.22640543 55 9
-4.3452249 -0.13731268 0.38034743 50 10
-4.3670559 -0.1364778 0.53646874 41 11
-4.3970652 -0.13587834 0.69675922 43 12
-4.4093504 -0.13548878 0.85749578 36 13
-0.89036208 -0.027202945 -0.046683658 27 6
-4.4196525 -0.13426018 1.0208279 40 14
-4.3173738 -0.13040002 -0.075394168 11 7
-4.4045677 -0.13226314 1.1807326 34 15
-4.3215699 -0.12373195 0.075464092 50 8
-4.3323193 -0.12252631 0.2271381 52 9
-4.3377113 -0.12192119 0.37965021 48 10
-4.3734589 -0.12139823 0.53719997 40 11
-4.4054108 -0.12074628 0.69801062 45 12
-4.4058723 -0.1199884 0.85673207 42 13
-0.9104169 -0.024635054 -0.047730383 18 6
-4.4317832 -0.11914708 1.0235274 39 14
-4.3178024 -0.1153276 -0.075394161 11 7
-4.4088655 -0.11698989 1.1817679 34 15
-4.3179789 -0.1085455 0.07539431 52 8
-4.3387117 -0.10755134 0.22745217 53 9
-4.3500614 -0.10707304 0.38069609 47 10
-4.3639331 -0.10588932 0.53598124 41 11
-4.4137044 -0.10555659 0.69926214 45 12
-4.4043016 -0.10456158 0.85635048 39 13
-0.89053029 -0.020986596 -0.046683658 20 6
-4.4341197 -0.10372198 1.0239772 40 14
-4.3341722 -0.10062616 -0.075673401 13 7
-4.3995905 -0.10137779 1.1791798 35 15
-4.3303256 -0.093731791 0.075603724 50 8
-4.3270626 -0.092906676 0.22682409 53 9
-4.3504081 -0.091887712 0.38069603 52 10
-4.3682461 -0.090739094 0.5364688 41 11
-4.4179811 -0.09100084 0.69988799 45 12
-4.4124908 -0.08934696 0.85787696 39 13
-0.89459187 -0.017958082 -0.046893004 13 6
-4.4324913 -0.08897806 1.0235274 40 14
-4.3384805 -0.086332373 -0.075743206 13 7
-4.4037647 -0.086863689 1.180215 35 15
-4.3346119 -0.079444528 0.075673543 48 8
-4.3233533 -0.078484438 0.22661476 53 9
-4.3586578 -0.077602439 0.38139331 48 10
-4.3764615 -0.076391369 0.5374437 40 11
-4.4083834 -0.076178968 0.69832367 48 12
-4.4166894 -0.074780427 0.85864019 39 13
-0.89864045 -0.015058302 -0.047102351 6 6
-4.4327617 -0.07427872 1.0235273 40 14
-4.3327441 -0.071845345 -0.075638488 14 7
-4.3982334 -0.072164543 1.1786619 36 15
-4.3348517 -0.065069839 0.075673543 48 8
-4.3355722 -0.064324871 0.2272428 53 9
-4.3469381 -0.062974848 0.38034743 48 10
-4.3786759 -0.06190598 0.53768748 40 11
-4.4125614 -0.061614811 0.69894928 46 12
-4.4306545 -0.06032066 0.86131155 40 13
-0.88270879 -0.011863462 -0.046264973 7 6
-4.4388294 -0.059657145 1.024877 40 14
-4.3269606 -0.057398353 -0.075533777 17 7
-4.3868594 -0.05742719 1.1755563 43 15
-4.3270454 -0.050600894 0.075533919 48 8
-4.3377585 -0.049970072 0.22734746 53 9
-4.3511076 -0.048603881 0.38069609 48 10
-4.3848124 -0.047450744 0.53841871 40 11
-4.4147162 -0.047002748 0.69926214 45 12
-4.4151249 -0.045466904 0.85825861 36 13
-0.91469777 -0.0092596775 -0.047939725 5 6
-4.4467974 -0.04501586 1.0266765 40 14
-4.327127 -0.043049157 -0.075533777 24 7
-4.3792987 -0.042803831 1.1734856 37 15
-4.3272014 -0.034742095 0.075533919 50 8
-4.3419123 -0.033343554 0.22755679 52 9
-4.3592257 -0.032716721 0.38139331 50 10
-4.3790011 -0.031335548 0.53768742 40 11
-4.4247413 -0.03011835 0.70082653 48 12
-4.419188 -0.029309267 0.85902178 40 13
-4.4449883 -0.027928816 1.0262266 39 14
-4.3352585 -0.026482733 -0.075673394 29 7
-4.3794308 -0.025989272 1.1734856 43 15
-4.3392944 -0.019691456 0.075743347 48 8
-4.3360109 -0.018163063 0.22724277 53 9
-4.3633008 -0.016753327 0.38174191 47 10
-4.3790841 -0.016050713 0.53768748 38 11
-4.428771 -0.014685916 0.70145237 48 12
-4.4290824 -0.013140986 0.86092997 42 13
-4.3460193 -0.012136054 -0.22776602 4 6
-4.4450607 -0.011637916 1.0262266 39 14
-4.3333249 -0.011345372 -0.075638488 27 7
-4.3814259 -0.010705601 1.1740031 48 15
-4.3393383 -0.0037869387 0.075743355 48 8
-4.3360491 -0.0022695586 0.2272428 53 9
-4.3752866 -0.0015275538 0.38278827 45 10
-4.3930087 6.6332586e-07 0.5393936 40 11
-4.4248433 0.0015440818 0.70082653 48 12
-4.4291015 0.0023196014 0.86092997 40 13
-4.3140793 0.0030112371 -0.2260913 17 6
-4.445075 0.0038794978 1.0262268 39 14
-4.3273387 0.00453196 -0.075533777 35 7
-4.3814354 0.0053522298 1.1740031 48 15
-4.3453236 0.011376027 0.075848065 48 8
-4.3440194 0.012888881 0.22766148 53 9
-4.3593264 0.013695105 0.38139328 48 10
-4.3929825 0.015334202 0.53939366 40 11
-4.428762 0.017006008 0.70145231 48 12
-4.440846 0.01782639 0.86321974 40 13
-4.3120441 0.018061915 -0.22598656 42 6
-4.4489312 0.01941281 1.0271264 40 14
-4.3292961 0.019645328 -0.075568691 48 7
-4.3755956 0.020619079 1.1724504 51 15
-4.3372583 0.026495226 0.075708434 48 8
-4.3499389 0.028091069 0.22797547 52 9
-4.3592525 0.028912036 0.38139331 48 10
-4.3929019 0.030668601 0.53939366 40 11
-4.4306507 0.032478716 0.70176512 45 12
-4.4289775 0.033239447 0.86092997 40 13
-4.3119545 0.033114795 -0.22598656 46 6
-4.4546824 0.034987334 1.0284761 41 14
-4.3352003 0.034805559 -0.075673401 45 7
-4.3754973 0.035893794 1.1724504 51 15
-4.3331399 0.041596647 0.075638622 48 8
-4.3538094 0.043314885 0.22818485 52 9
-4.367094 0.044209283 0.38209051 48 10
-4.3848286 0.045919482 0.53841871 40 11
-4.4384122 0.048030004 0.7030167 48 12
-32.075596 0.34710407 -2.806416 10 5
-4.4288344 0.048699383 0.86092997 37 13
-4.3038249 0.048075989 -0.22556791 51 6
-4.4681735 0.050691742 1.0316255 39 14
-4.3390512 0.049984206 -0.075743206 47 7
-4.3792081 0.051211167 1.1734856 51 15
-4.3369684 0.056774359 0.075708441 48 8
-4.3516445 0.05772607 0.22808017 53 9
-4.3788662 0.059615877 0.38313639 45 10
-4.3886118 0.061280668 0.53890622 40 11
-9.1900597 0.1299302 -1.1285098 2 4
-4.4382281 0.062748216 0.70301658 48 12
-32.046295 0.45866838 -2.8039753 10 5
-4.4325633 0.0642156 0.86169314 40 13
-4.3076243 0.063157521 -0.22577722 48 6
-4.4543295 0.066086031 1.0284761 40 14
-4.3428607 0.064432241 -0.07581301 45 7
-4.3790135 0.065733023 1.1734855 51 15
-4.348752 0.071352944 0.07591787 47 8
-4.3494191 0.072881415 0.2279755 53 9
-4.3826156 0.074968882 0.38348502 48 10
-4.3943381 0.075935498 0.53963739 40 11
-31.971001 0.55805755 -3.9261415 13 4
-4.4399567 0.078275077 0.70332944 49 12
-32.05645 0.57073408 -2.8050213 10 5
-4.4382148 0.079018116 0.86283797 40 13
-4.3153791 0.077585548 -0.22619593 53 6
-4.4599314 0.080963045 1.0298259 40 14
-4.3326125 0.079408154 -0.075638495 48 7
-4.3768268 0.080982625 1.172968 48 15
-4.3544745 0.086651966 0.07602258 48 8
-4.3531332 0.088144287 0.22818488 52 9
-4.3703914 0.089257821 0.38243914 45 10
-4.4019852 0.091440208 0.54061234 38 11
-31.968857 0.66965467 -3.9261415 13 4
-4.4357066 0.093688577 0.70270377 46 12
-32.014538 0.67619359 -2.8015347 10 5
-4.4457631 0.094678275 0.8643645 42 13
-4.3230691 0.092820175 -0.22661462 48 6
-4.465466 0.096656188 1.0311755 41 14
-4.338306 0.094662294 -0.075743198 45 7
-4.3765168 0.09626022 1.1729679 54 15
-4.3441501 0.10161666 0.075848065 47 8
-4.360785 0.10352977 0.22860354 53 9
-4.3780203 0.10470241 0.38313639 48 10
-4.4056077 0.10690188 0.54109979 40 11
-31.966326 0.78123599 -3.9261415 13 4
-4.441277 0.10931747 0.70364237 48 12
-32.027924 0.78833437 -2.8029299 10 5
-4.4375548 0.11000183 0.86283797 40 13
-4.3227191 0.10790903 -0.22661462 48 6
-4.4748425 0.11248904 1.0334251 40 14
-4.3499436 0.11010896 -0.075952634 47 7
-4.3703609 0.11138797 1.1714151 51 15
-4.3437686 0.11678008 0.075848065 48 8
-4.3683829 0.1189677 0.22902222 48 9
-4.3816113 0.12009321 0.38348502 48 10
-4.4012394 0.12216859 0.54061234 40 11
-4.4091554 0.1231584 -0.54158711 2 4
-4.4448175 0.12493192 0.70426804 48 12
-32.000919 0.90504187 -2.8008378 10 5
-4.4391065 0.1255457 0.86321974 40 13
-4.3183231 0.12288398 -0.22640526 48 6
-4.4744225 0.12810859 1.0334251 40 14
-4.3535309 0.12540668 -0.076022446 47 7
-4.3776689 0.12686664 1.1734855 57 15
-4.3553267 0.13230637 0.076057486 47 8
-4.3599563 0.13397025 0.22860356 52 9
-4.3891072 0.13639943 0.38418224 45 10
-4.4463778 0.13895598 -0.70458078 1 3
-4.4007859 0.13753116 0.54061234 38 11
-4.3690157 0.13730256 -0.53671235 2 4
-4.4522524 0.14069512 0.70551962 48 12
-31.997564 1.0167414 -2.8008378 10 5
-4.4484272 0.14212959 0.86512768 42 13
-4.3218365 0.13883893 -0.22661462 51 6
-4.4700274 0.14438051 1.0325253 39 14
-4.3650584 0.14099003 -0.076231875 47 7
-4.3617535 0.14164634 1.1693447 42 15
-4.3628073 0.14854082 0.07619711 48 8
-4.3594618 0.14918862 0.22860354 53 9
-4.3886046 0.15171957 0.38418224 45 10
-4.4458661 0.154476 -0.70458078 1 3
-4.4081879 0.15393712 0.54158723 40 11
-4.4438372 0.15595852 0.70426816 48 12
-31.969929 1.1275858 -2.7987463 10 5
-4.4577146 0.15800449 0.86703587 42 13
-4.329309 0.1542086 -0.2270333 48 6
-4.4714437 0.16005383 1.0329752 41 14
-4.3485518 0.15565495 -0.075952634 47 7
-4.3612323 0.15687096 1.1693447 46 15
-4.3722825 0.16338113 0.07637164 50 8
-4.3688931 0.16478053 0.22912689 49 9
-4.3840666 0.16688628 0.38383365 50 10
-4.4176931 0.16816634 -0.70020056 1 3
-4.4155879 0.16885795 0.54256225 37 11
-8.2856207 0.31830126 -1.0180962 27 4
-4.4491873 0.17169808 0.70520669 49 12
-31.957836 1.2388746 -2.798049 10 5
-4.4571662 0.1727861 0.86703587 42 13
-4.3367572 0.16887531 -0.22745201 48 6
-4.4767303 0.17510839 1.0343249 39 14
-4.343986 0.1706764 -0.07588283 50 7
-4.3529367 0.1717879 1.167274 46 15
-4.3636928 0.17831574 0.076232001 48 8
-4.3702869 0.1801132 0.22923155 48 9
-4.3834891 0.18142363 0.38383365 47 10
-4.3973427 0.18276471 -0.69707185 1 3
-4.422905 0.18460146 0.5435372 40 11
-4.4564557 0.18755892 0.70645815 49 12
-31.925447 1.3492361 -2.7956088 10 5
-4.444766 0.18784511 0.86474657 42 13
-4.3381362 0.18409719 -0.22755668 51 6
-4.4819326 0.19098413 1.0356746 41 14
-4.3573489 0.18643618 -0.076127157 48 7
-4.3484507 0.18681574 1.1662388 44 15
-4.3650422 0.19363452 0.076266922 48 8
-4.3796077 0.19581342 0.22975489 49 9
-4.3907561 0.19784752 0.3845309 47 10
-4.3966436 0.19888167 -0.69707185 1 3
-4.4063692 0.19932161 0.54158723 41 11
-4.3865037 0.19918908 -0.5391497 2 4
-4.4557734 0.2031149 0.70645815 46 12
-31.948408 1.4619445 -2.798049 10 5
-4.4577761 0.20476435 0.86741787 42 13
-4.3314471 0.19972008 -0.22724263 42 6
-4.4850955 0.20758913 1.0365742 40 14
-4.3566718 0.20164515 -0.076127157 50 7
-4.3554912 0.20235226 1.1683093 42 15
-4.3682971 0.20982486 0.076336719 48 8
-4.3729134 0.21081051 0.22944093 48 9
-4.3940182 0.21336628 0.3848795 48 10
-4.4038148 0.21461131 -0.69832343 1 3
-4.409574 0.21566445 0.54207474 41 11
-4.3936753 0.21565552 -0.54012525 2 4
-4.4649029 0.21915157 0.70802253 48 12
-31.88739 1.5707126 -2.7931683 10 5
-4.4648786 0.22071259 0.86894387 42 13
-4.3267341 0.21464066 -0.2270333 48 6
-4.484344 0.22324392 1.0365744 40 14
-4.3639302 0.21724938 -0.07626678 48 7
-4.3547583 0.21755464 1.1683093 42 15
-4.3815579 0.2250277 0.076581068 50 8
-4.3761392 0.2262799 0.22965023 49 9
-4.3972263 0.22890921 0.38522813 48 10
-4.3951879 0.2288031 -0.69707185 1 3
-4.4207296 0.23090634 0.5435372 40 11
-4.40483 0.23084776 -0.54158711 2 4
-4.4601655 0.23452832 0.70739681 48 12
-31.877733 1.681794 -2.7928195 10 5
-4.4621615 0.23541312 0.86856228 40 13
-4.3399601 0.22972664 -0.22776602 48 6
-4.4835782 0.23811346 1.0365742 40 14
-4.3651423 0.23258755 -0.076301686 52 7
-4.3616886 0.23316689 1.1703798 42 15
-4.3847384 0.24053892 0.076650873 50 8
-4.3852944 0.24210472 0.2301736 51 9
-4.3924651 0.24326952 0.38487953 48 10
-4.3943624 0.24414389 -0.69707185 1 3
-4.4218788 0.24644783 0.54378098 38 11
-0.92361075 0.05163797 -0.11358219 3 4
-4.4612923 0.25020546 0.70770973 49 12
-31.856068 1.7866039 -2.7914252 10 5
-4.473073 0.25165039 0.87085199 42 13
-4.3431196 0.24509969 -0.22797535 44 6
-4.4885578 0.25409213 1.0379242 40 14
-4.3682966 0.24805015 -0.076371491 52 7
-4.3492756 0.24773157 1.167274 45 15
-4.377883 0.25549364 0.076546155 48 8
-4.3844223 0.25741193 0.23017357 49 9
-4.3955665 0.25883496 0.38522813 50 10
-4.4408107 0.26227686 -0.70458078 1 3
-4.4269366 0.26223382 0.54451221 41 11
-4.4427428 0.26394716 -0.54646242 2 4
-4.4663072 0.26612937 0.70864832 48 12
-31.869526 1.8989775 -2.7931683 10 5
-4.462369 0.26667732 0.86894387 40 13
-4.3502116 0.26073554 -0.22839402 48 6
-4.4934783 0.27011052 1.0392737 40 14
-4.3674035 0.26329696 -0.076371491 50 7
-4.3425999 0.2625612 1.1657212 41 15
-4.3789606 0.27089739 0.076581061 48 8
-4.3955054 0.27269199 0.23080164 51 9
-4.3986125 0.27442497 0.38557673 50 10
-4.4162092 0.2762976 -0.70082641 1 3
-4.4200506 0.2773113 0.54378092 38 11
-4.4774556 0.28169736 -0.55084968 2 4
-4.4792004 0.28180715 0.71083844 49 12
-31.822933 2.0077107 -2.7896821 10 5
-4.4633698 0.28237531 0.86932558 37 13
-4.3452892 0.27566633 -0.2281847 44 6
-4.496398 0.28604168 1.0401736 41 14
-4.3724942 0.27815941 -0.076476216 50 7
-4.3474889 0.27732944 1.1672741 44 15
-4.3780389 0.28541726 0.076581068 48 8
-4.3825684 0.28724879 0.23017357 49 9
-4.4055815 0.29030046 0.38627401 48 10
-4.4389224 0.29249743 -0.70458078 1 3
-4.4210868 0.29209816 0.54402465 40 11
-4.4012284 0.29155761 -0.54158711 2 4
-4.4762177 0.29731098 0.71052551 48 12
-31.819704 2.1190393 -2.7900305 10 5
-4.4663267 0.29743585 0.87008876 40 13
-4.3443518 0.29007444 -0.2281847 48 6
-4.4954252 0.30095088 1.0401738 40 14
-4.3814731 0.29408929 -0.076650739 50 7
-4.3503485 0.29276282 1.1683092 42 15
-4.384995 0.30124494 0.076720677 52 8
-4.383585 0.30191779 0.23027828 49 9
-4.4045944 0.30490848 0.38627401 48 10
-4.4654632 0.30990627 -0.70896095 1 3
-4.4299421 0.30821791 0.54524338 38 11
-4.4279079 0.30885294 -0.54500002 2 4
-4.4614134 0.31118998 0.70833534 48 12
-31.772755 2.2217672 -2.7865443 10 5
-4.4809294 0.31412292 0.87314177 42 13
-4.3512821 0.30579752 -0.22860341 48 6
-4.5001788 0.31705087 1.0415233 40 14
-4.3764844 0.30833623 -0.076580927 52 7
-4.3493547 0.30718774 1.1683095 45 15
-4.3999286 0.31693399 0.076999918 50 8
-4.3904724 0.31779438 0.23069698 49 9
-4.4035025 0.32028162 0.38627449 47 10
-4.4368286 0.32270551 -0.70458078 1 3
-4.4368148 0.323484 0.54621828 38 11
-4.4387383 0.32440308 -0.54646194 2 4
-4.4662099 0.32719439 0.70927399 48 12
-31.768776 2.3329537 -2.7868929 10 5
-4.4837785 0.32926822 0.87390494 37 13
-4.350244 0.32022536 -0.22860341 48 6
-4.5049329 0.33240265 1.042873 40 14
-4.3693981 0.32316872 -0.076476216 48 7
-4.3405499 0.32179672 1.1662388 42 15
-4.3867731 0.33215368 0.076790489 52 8
-4.401227 0.33479211 0.23132502 51 9
-4.4023585 0.33565196 0.38627401 48 10
-4.4080405 0.33685899 -0.70020062 1 3
-4.4415374 0.34019741 0.54694951 40 11
-4.4375205 0.34066978 -0.546462 2 4
-4.4728589 0.34416795 0.71052551 48 12
-31.763992 2.4496763 -2.7872419 10 5
-4.4805846 0.34554794 0.87352335 42 13
-4.3570061 0.33678341 -0.22902207 48 6
-4.5114555 0.34951398 1.0446726 41 14
-4.3721719 0.33949092 -0.076546028 50 7
-4.3431931 0.33800334 1.1672741 45 15
-4.3875809 0.34762242 0.076825403 48 8
-4.4040136 0.35047126 0.23153433 51 9
-4.4090428 0.35241917 0.38697124 47 10
-4.4343438 0.35522142 -0.70458078 1 3
-4.4324074 0.3550663 0.54597455 40 11
-4.4640055 0.3583816 -0.54987478 2 4
-4.4873824 0.36104551 0.71302843 48 12
-31.751268 2.5602262 -2.7868929 10 5
-4.4753737 0.36165264 0.87276006 40 13
-4.3517604 0.35242692 -0.22881272 46 6
-4.5120869 0.36620465 1.0451225 41 14
-4.3749456 0.35507414 -0.07661581 50 7
-4.3458376 0.35347515 1.1683093 45 15
-4.3922558 0.36419612 0.076930113 48 8
-4.3927479 0.3657808 0.23101099 48 9
-4.411756 0.36813888 0.38731983 47 10
-4.4606357 0.37300262 -0.70896095 1 3
-4.431076 0.37130851 0.54597455 40 11
-4.4270549 0.37175065 -0.5454874 2 4
-4.4879975 0.37765697 0.7133413 48 12
-31.738171 2.6707103 -2.7865443 10 5
-4.4858227 0.3782613 0.87504989 40 13
-4.3544841 0.36795276 -0.22902207 48 6
-4.5030141 0.381295 1.0433229 40 14
-4.3875632 0.3722893 -0.07686016 50 7
-4.3445129 0.36940116 1.1683093 42 15
-4.3949418 0.37987131 0.076999918 52 8
-4.3974128 0.38163021 0.23132499 51 9
-4.4183846 0.38422823 0.38801718 52 10
-4.4593067 0.38856992 -0.70896095 1 3
-4.4416194 0.38780978 0.54743701 40 11
-4.4059553 0.38547173 -0.54304951 2 4
-4.4787803 0.39262968 0.71208984 48 12
-31.724684 2.7811258 -2.7861955 10 5
-4.4922967 0.39460462 0.87657666 40 13
-4.3611317 0.38385111 -0.22944075 53 6
-4.5016556 0.39701015 1.0433229 39 14
-4.3802605 0.38707554 -0.076755442 50 7
-4.3451209 0.38473457 1.1688269 40 15
-4.4015555 0.39592582 0.077139534 52 8
-4.4060001 0.39787599 0.23184833 49 9
-4.4130468 0.39928883 0.38766897 47 10
-4.4303813 0.40163678 -0.70458084 1 3
-4.4521003 0.40439016 0.54889947 41 11
-4.4401689 0.40408665 -0.54743689 2 4
-4.4852519 0.40897885 0.71334136 48 12
-31.694942 2.8900406 -2.7844527 10 5
-4.4967575 0.41082031 0.87772155 39 13
-4.3597651 0.39907104 -0.22944075 53 6
-4.5099459 0.4136115 1.0455725 41 14
-4.3788819 0.40236324 -0.076755427 50 7
-4.3341331 0.39901316 1.1662388 45 15
-4.3921824 0.41054341 0.07699991 48 8
-4.4065733 0.41344014 0.23195304 51 9
-4.4155946 0.41506398 0.38801718 48 10
-4.4014177 0.41450629 -0.70020056 1 3
-4.4605432 0.42085984 0.55011821 42 11
-4.4545412 0.42107788 -0.5493868 2 4
-4.4936295 0.42556408 0.71490568 48 12
-31.692595 3.0014112 -2.7851498 10 5
-4.497251 0.42669901 0.87810278 39 13
-4.370275 0.41542113 -0.23006879 51 6
-4.5201139 0.43046126 1.0482718 40 14
-4.3893957 0.41878465 -0.07696487 48 7
-4.3346372 0.4143236 1.1667564 41 15
-4.3927131 0.42606571 0.077034824 48 8
-4.409153 0.42843699 0.23216234 49 9
-4.4180846 0.43086159 0.38836575 48 10
-4.4549932 0.4352459 -0.70896095 1 3
-4.4432416 0.43488067 0.54816824 42 11
-4.4135318 0.43275046 -0.54451203 2 4
-4.4961252 0.44084883 0.71553135 45 12
-31.781069 3.1217601 -2.7938657 10 5
-4.4918265 0.44201031 0.87733948 40 13
-4.3588614 0.42969421 -0.22954547 51 6
-4.5263414 0.44700196 1.0500715 40 14
-4.3879828 0.43333828 -0.07696487 48 7
-4.3428516 0.42964661 1.1693447 46 15
-4.4052043 0.44202787 0.07727915 50 8
-4.399683 0.44302502 0.23174371 49 9
-4.4244828 0.4470813 0.38906303 47 10
-4.5242786 0.45716533 -0.7202242 1 3
-4.4437504 0.44981274 0.54841202 41 11
-4.4397211 0.45018762 -0.54792428 2 4
-4.5043864 0.4575389 0.71709579 48 12
-4.4981484 0.45769843 0.87886596 40 13
-4.3653598 0.44495657 -0.22996412 53 6
-4.5209565 0.46161473 1.0491717 40 14
-4.4003687 0.45007697 -0.077209197 50 7
-4.337482 0.4444097 1.1683093 44 15
-4.4056239 0.45760787 0.077314064 48 8
-4.408042 0.45941538 0.23226704 49 9
-4.434865 0.46299228 0.39010882 47 10
-4.522655 0.47295645 -0.7202242 1 3
-4.4559727 0.46676928 0.55011815 38 11
-4.4341741 0.46526718 -0.54743731 2 4
-4.4890094 0.47181401 0.71490568 48 12
-4.5004287 0.47380841 0.87962925 40 13
-4.3637805 0.46019095 -0.22996415 53 6
-4.5173798 0.47718734 1.0487218 39 14
-4.3908167 0.46459287 -0.077069581 50 7
-4.3397465 0.45995599 1.1693447 42 15
-4.4179173 0.47447842 0.077558391 48 8
-4.4123683 0.47544044 0.23258105 51 9
-4.4291773 0.47881672 0.38976029 45 10
-4.4659014 0.48357424 -0.71146387 1 3
-4.4641833 0.48338822 0.55133677 41 11
-4.4325228 0.48074368 -0.54743731 2 4
-4.493227 0.48812097 0.71584433 46 12
-31.192036 3.394042 -2.7450578 10 5
-4.5045171 0.49093834 0.88077408 36 13
-4.3739767 0.47748345 -0.23059216 46 6
-4.5252867 0.4947992 1.0509713 40 14
-4.3911562 0.48013327 -0.077104494 48 7
-4.3323531 0.4744699 1.1677917 41 15
-4.4062109 0.4895637 0.077383868 47 8
-4.4165511 0.49227428 0.23289508 48 9
-4.4235182 0.49383137 0.3894116 50 10
-4.448482 0.49740437 -0.70896101 1 3
-4.4623823 0.4997482 0.55133682 41 11
-4.4544034 0.4996407 -0.55036217 2 4
-4.499259 0.50546718 0.71709567 48 12
-30.823614 3.4628649 -2.7136822 9 5
-4.5047269 0.50687867 0.88115567 40 13
-4.3762527 0.49319494 -0.23080149 53 6
-4.5254679 0.51081216 1.0514213 40 14
-4.395328 0.49689949 -0.077209212 47 7
-4.3286653 0.49012828 1.167274 42 15
-4.4104357 0.50562465 0.077488586 48 8
-4.424727 0.50882787 0.23341845 51 9
-4.4296846 0.51018137 0.39010888 48 10
-4.4467182 0.51293057 -0.70896095 1 3
-4.4546947 0.51463741 0.55060565 42 11
-4.4408016 0.51381773 -0.54889929 2 4
-4.5013919 0.52162552 0.71772152 46 12
-30.419468 3.5250363 -2.6791687 9 5
-4.5029302 0.52260017 0.88115567 39 13
-4.3764882 0.50869858 -0.23090616 57 6
-4.5391426 0.52840865 1.0550205 40 14
-4.3935661 0.5122391 -0.077209197 47 7
-4.3269286 0.5052343 1.1672741 45 15
-4.4066582 0.52078235 0.07745368 48 8
-4.4170651 0.52279395 0.23310442 49 9
-4.4318342 0.52611059 0.39045751 47 10
-4.5155172 0.53684396 -0.7202242 1 3
-4.4568138 0.5306536 0.5510931 36 11
-4.4468651 0.53025723 -0.54987478 2 4
-4.5055218 0.53725159 0.71866006 45 12
-30.050877 3.5886736 -2.6477923 8 5
-4.5088749 0.53924662 0.88268256 37 13
-4.3786521 0.52444857 -0.23111551 57 6
-4.5256615 0.54285759 1.052321 39 14
-4.4017706 0.52799678 -0.077383719 48 7
-4.3290653 0.52004105 1.1683093 44 15
-4.4188027 0.5370816 0.077698022 50 8
-4.419178 0.53869259 0.23331375 49 9
-4.4418373 0.54302818 0.39150339 48 10
-4.4588103 0.54510319 -0.71146393 1 3
-4.4629111 0.54639512 0.55206805 38 11
-4.4490228 0.54548287 -0.55036223 2 4
-4.4996977 0.55249423 0.71803433 45 12
-29.717813 3.6541514 -2.619554 8 5
-4.5109596 0.5546751 0.88344538 37 13
-4.3768892 0.53896493 -0.23111551 55 6
-4.5315723 0.55881643 1.0541205 39 14
-4.3939476 0.54262251 -0.077279016 47 7
-4.3348923 0.53609878 1.1703798 44 15
-4.4208694 0.5529983 0.077767827 50 8
-4.4212341 0.55461246 0.23352309 49 9
-4.4281502 0.55626392 0.39045748 43 10
-4.5117583 0.56756771 -0.7202242 1 3
-4.4629459 0.56221843 0.55231178 36 11
-4.4313359 0.55902314 -0.54841179 2 4
-4.4977417 0.56819677 0.71803433 45 12
-29.412334 3.720856 -2.5937557 8 5
-4.5148392 0.57115722 0.88459027 36 13
-4.378943 0.55474293 -0.23132484 59 6
-4.5334616 0.57512081 1.0550206 39 14
-4.3979774 0.55871302 -0.077383719 48 7
-4.321496 0.54976434 1.167274 44 15
-4.4169283 0.56817269 0.077732913 48 8
-4.4271951 0.57106316 0.23394179 48 9
-4.4399128 0.57428032 0.39167765 47 10
-4.5096478 0.58409929 -0.7202242 1 3
-4.4707994 0.57906753 0.55353045 37 11
-4.4293575 0.57448703 -0.54841179 2 4
-4.5035667 0.58491123 0.71928579 43 12
-29.039577 3.7767291 -2.562031 8 5
-4.5146623 0.5879547 0.88497186 35 13
-4.3848028 0.57182109 -0.23174354 57 6
-4.5390515 0.59274334 1.05682 39 14
-4.3999667 0.57458055 -0.077453539 45 7
-4.3099737 0.56359267 1.164686 40 15
-4.4148164 0.58435673 0.077732913 48 8
-4.4330945 0.58756441 0.2343605 46 9
-4.4457812 0.59082395 0.39237487 47 10
-4.4627438 0.59466451 0.55279922 40 11
-4.4311576 0.59124273 -0.54889929 2 4
-4.5132456 0.60219562 0.72116303 43 12
-4.5164747 0.60423106 0.88573509 34 13
-4.3827801 0.58712357 -0.23174354 55 6
-4.5485439 0.61013752 1.0595194 38 14
-4.4058614 0.59099823 -0.077593148 48 7
-4.3118095 0.57914829 1.1657212 40 15
-4.4287062 0.60114551 0.078012161 45 8
-4.4231005 0.60195798 0.23394179 46 9
-4.4476404 0.60687792 0.39272353 47 10
-4.5055676 0.61478204 -0.7202242 1 3
-4.4686146 0.61053532 0.55377424 40 11
-4.4409728 0.60754824 -0.55036223 2 4
-4.5189447 0.61901867 0.72241455 43 12
-28.384802 3.8932827 -2.5065999 7 5
-4.5202813 0.62000549 0.88687998 33 13
-4.3808088 0.60165423 -0.23174351 55 6
-4.5445657 0.6249525 1.0590696 38 14
-4.4077339 0.60691965 -0.07766296 42 7
-4.3174157 0.5952512 1.1677916 41 15
-4.4384646 0.61825633 0.078221582 47 8
-4.4328403 0.61905134 0.23456983 48 9
-4.4534965 0.62272733 0.39342079 48 10
-4.4723539 0.62695688 0.55450547 38 11
-4.4270306 0.62139004 -0.54889929 2 4
-4.5089316 0.6336894 0.72116303 45 12
-28.075787 3.9457967 -2.4804533 7 5
-4.523921 0.63660115 0.88802475 30 13
-4.3846159 0.61777753 -0.23205756 55 6
-4.5481453 0.64162892 1.0604193 38 14
-4.4055882 0.622302 -0.07766296 43 7
-4.3191366 0.61085927 1.1688268 40 15
-4.4382586 0.63402855 0.07825648 48 8
-4.4405379 0.63593584 0.23509318 49 9
-4.4434061 0.63713801 0.39272353 47 10
-4.5011659 0.64622289 -0.7202242 1 3
-4.4799628 0.64397579 0.55572414 41 11
-4.4484124 0.64023405 -0.55182415 2 4
-4.508647 0.64970648 0.7214759 43 12
-4.5391603 0.65491098 0.89145935 28 13
-4.3923159 0.63450789 -0.2325809 55 6
-4.5478063 0.65778005 1.0608691 38 14
-4.4033895 0.63767558 -0.07766296 43 7
-4.3055081 0.62426919 1.1657212 40 15
-4.4261255 0.64806986 0.078081973 48 8
-4.4422431 0.65201253 0.23530252 49 9
-4.4450974 0.65322512 0.39307216 45 10
-4.4988828 0.66193008 -0.7202242 1 3
-4.4835792 0.66047788 0.55645531 37 11
-4.4225845 0.65228242 -0.54889929 2 4
-4.5161233 0.66688257 0.72304022 45 12
-4.5251927 0.66902882 0.88917011 28 13
-4.4019294 0.651591 -0.23320897 55 6
-4.5531931 0.67479265 1.0626687 37 14
-4.4130044 0.65480453 -0.077872381 45 7
-4.3052135 0.6395784 1.1662388 42 15
-4.4317465 0.6647014 0.078221582 48 8
-4.4478407 0.66870391 0.23572123 49 9
-4.4506712 0.66992265 0.39376938 45 10
-4.4965448 0.67763013 -0.7202242 1 3
-4.4812465 0.67612565 0.55645531 37 11
-4.4202809 0.66771519 -0.54889929 2 4
-4.5254865 0.6844151 0.72491741 40 12
-4.5247717 0.68511587 0.88955128 30 13
-4.3917289 0.66575426 -0.23279026 57 6
-4.5546637 0.69126707 1.0635686 38 14
-4.4225545 0.6720075 -0.078081831 45 7
-4.3086843 0.65547323 1.1677917 37 15
-4.4333525 0.68077421 0.078291394 48 8
-4.4375834 0.68300939 0.23530252 49 9
-4.456182 0.68666816 0.39446664 45 10
-4.4941521 0.693322 -0.7202242 1 3
-4.4827824 0.69236904 0.55694282 38 11
-4.4296932 0.6849609 -0.55036223 2 4
-4.5269742 0.70081347 0.7255432 40 12
-4.5339932 0.7027092 0.89184093 31 13
-4.3893776 0.68108022 -0.23279023 55 6
-4.5522218 0.7071628 1.0635685 37 14
-4.4300613 0.68897659 -0.078256346 45 7
-4.3254585 0.67348158 1.172968 45 15
-4.4408264 0.69779742 0.078465916 50 8
-4.4430642 0.69973838 0.23572123 49 9
-4.4576941 0.70283973 0.39481527 45 10
-4.4917045 0.70900548 -0.7202242 1 3
-4.4901423 0.709562 0.5581615 37 11
-4.4390397 0.70228064 -0.55182415 2 4
-4.516696 0.71537429 0.72429174 40 12
-4.5392694 0.71976161 0.89336759 30 13
-4.3968372 0.69796377 -0.23331363 53 6
-4.5574241 0.72427118 1.0653681 37 14
-4.4177556 0.7028653 -0.078081831 42 7
-4.3211737 0.68827349 1.1724504 43 15
-4.4444113 0.71347106 0.078570634 48 8
-4.4486065 0.7157374 0.23613992 51 9
-4.4474707 0.71635085 0.39411798 45 10
-4.4893284 0.72389567 -0.7202242 1 3
-4.4936433 0.72539723 0.55889273 37 11
-4.4288483 0.71573055 -0.5508492 2 4
-4.5240488 0.73192585 0.72585601 42 12
-4.5504222 0.73700762 0.89603925 33 13
-4.4063268 0.71445841 -0.23394161 48 6
-4.5703855 0.74187815 1.0689672 36 14
-4.4193478 0.71815294 -0.078151636 42 7
-4.3169608 0.70228809 1.1719327 45 15
-4.4438672 0.72930354 0.07860554 50 8
-4.4559345 0.73288238 0.23666327 49 9
-4.4567389 0.73381239 0.39516386 45 10
-4.4867744 0.73956317 -0.7202242 1 3
-4.4969592 0.74204814 0.5596239 37 11
-4.4263229 0.73118484 -0.5508492 2 4
-4.5331597 0.74964708 0.72773325 42 12
-4.5400743 0.75160462 0.89451283 27 13
-4.4116883 0.73114043 -0.23436035 53 6
-4.5677686 0.75782752 1.0689673 36 14
-4.424705 0.73488563 -0.07829126 42 7
-4.30686 0.71608549 1.1698622 45 15
-4.4412947 0.74481124 0.07860554 52 8
-4.4553189 0.74876201 0.23676793 49 9
-4.4679031 0.75167984 0.39638454 43 10
-4.4841652 0.75522053 -0.7202242 1 3
-4.4943419 0.75774002 0.5596239 37 11
-4.4472322 0.7505967 -0.55377406 2 4
-4.5305152 0.76546633 0.72773325 42 12
-4.545167 0.76875657 0.89603877 28 13
-4.4051704 0.74586987 -0.23415099 55 6
-4.5727806 0.77507007 1.0707669 36 14
-4.4339414 0.75233239 -0.078500681 43 7
-4.3119526 0.732409 1.1719327 48 15
-4.4465513 0.76166129 0.078745157 48 8
-4.4566154 0.76498538 0.23697728 49 9
-4.4652524 0.76727134 0.39638403 43 10
-4.4815021 0.77086765 -0.7202242 1 3
-4.4916692 0.77342367 0.5596239 37 11
-4.4445858 0.76611608 -0.55377412 2 4
-4.5356026 0.78261876 0.72898471 42 12
-4.5501938 0.78595531 0.89756572 27 13
-4.4025393 0.76124227 -0.23415098 51 6
-4.5700474 0.79102641 1.0707669 36 14
-4.4391699 0.76917195 -0.078640297 42 7
-4.307466 0.74712616 1.1714151 37 15
-4.4517446 0.77855498 0.078884773 48 8
-4.4558854 0.78088325 0.23708197 48 9
-4.4782467 0.78560644 0.39777857 43 10
-4.4787836 0.78650647 -0.7202242 1 3
-4.5045829 0.79184848 0.56157374 35 11
-4.4301529 0.77956063 -0.55231208 2 4
-4.5386791 0.79947436 0.72992331 40 12
-4.55129 0.8025158 0.89832848 28 13
-4.4077229 0.77799308 -0.23456965 55 6
-4.5672584 0.80697417 1.0707669 38 14
-4.4285808 0.78326982 -0.078500681 45 7
-4.3124413 0.76350361 1.1734856 43 15
-4.4529371 0.79479265 0.078954585 48 8
-4.4609966 0.79783797 0.23750065 49 9
-4.4715543 0.80053163 0.39742991 42 10
-4.4760113 0.80213565 -0.7202242 1 3
-4.5057001 0.80826777 0.56206131 35 11
-4.4234977 0.7943185 -0.55182415 2 4
-4.5416932 0.81636202 0.73086196 42 12
-4.5639186 0.82117814 0.90138143 28 13
-4.4207063 0.79620665 -0.23540707 51 6
-4.5720854 0.82429624 1.0725666 36 14
-4.4277883 0.79907793 -0.078535587 47 7
-4.2983441 0.77649188 1.1703799 43 15
-4.4521031 0.81068987 0.078989491 45 8
-4.4660439 0.81483895 0.23791933 48 9
-4.4726529 0.81685138 0.39777857 42 10
-4.4731836 0.8177551 -0.7202242 1 3
-4.5087094 0.82506281 0.56279254 33 11
-4.4480343 0.814762 -0.55523705 2 4
-4.5485315 0.83399093 0.73242629 40 12
-4.5552316 0.83604109 0.90023655 30 13
-4.4257569 0.81307662 -0.23582575 51 6
-4.5864301 0.843422 1.0766158 38 14
-4.430872 0.81561506 -0.078640297 43 7
-4.2975068 0.79184234 1.1708975 48 15
-4.4531789 0.82695496 0.07905931 47 8
-4.4710259 0.83188486 0.23833802 48 9
-4.4834852 0.8350125 0.39899874 43 10
-4.4703021 0.83336455 -0.7202242 1 3
-4.5018988 0.84006798 0.56230503 33 11
-4.4412608 0.82955486 -0.55474901 2 4
-4.5553007 0.85167831 0.73399061 43 12
-4.5600038 0.8533814 0.90176302 30 13
-4.4150395 0.82705063 -0.23540707 48 6
-4.5853729 0.85978568 1.0770656 37 14
-4.4437208 0.83402783 -0.07891953 43 7
-4.2985134 0.80755204 1.1719327 48 15
-4.4581237 0.84398341 0.079198919 45 8
-4.4641714 0.84674138 0.23812869 48 9
-4.4825006 0.85102952 0.39917308 43 10
-4.5372291 0.86224043 -0.73148751 1 3
-4.5028391 0.85651821 0.56279248 33 11
-4.4188366 0.84133977 -0.55231208 2 4
-4.5561814 0.86831397 0.7346164 43 12
-4.5666394 0.8711341 0.90367162 28 13
-4.4199734 0.84395438 -0.23582575 48 6
-4.5785155 0.87505484 1.0761658 38 14
-4.4525666 0.85178983 -0.079128958 42 7
-4.2994633 0.82327753 1.172968 45 15
-4.4590774 0.86029774 0.079268731 45 8
-4.4611883 0.86232024 0.23812869 48 9
-4.4873266 0.8681851 0.39987028 43 10
-4.5341921 0.87807214 -0.73148751 1 3
-4.5115147 0.87449861 0.56425494 33 11
-4.4353619 0.86054057 -0.55474907 2 4
-4.5511837 0.8838352 0.73430353 45 12
-4.5654979 0.88744301 0.90405321 27 13
-4.4287634 0.86166668 -0.23645379 46 6
-4.5849972 0.89289308 1.0784154 38 14
-4.4417162 0.86579591 -0.078989349 42 7
-4.30794 0.84050018 1.176074 45 15
-4.4658585 0.87778509 0.079443261 43 8
-4.4700618 0.87942159 0.2387567 46 9
-4.4842696 0.88384265 0.39987031 43 10
-4.5310988 0.89389408 -0.73148739 1 3
-4.5142775 0.89139533 0.56498623 30 11
-4.4402728 0.87678224 -0.5557245 2 4
-4.5559797 0.90045482 0.73555505 43 12
-4.5797052 0.90680635 0.90748733 27 13
-4.4335647 0.87867272 -0.23687243 48 6
-4.5839224 0.90847164 1.0788652 38 14
-4.4388199 0.88052046 -0.078989342 45 7
-4.2937593 0.85252392 1.1729679 48 15
-4.462923 0.89258975 0.079443261 43 8
-4.4827886 0.89737654 0.23959409 46 9
-4.477407 0.89792484 0.39952168 42 10
-4.4583869 0.89491987 -0.7202242 1 3
-4.5190821 0.90792459 0.56596124 30 11
-4.4801574 0.90010428 -0.56108677 2 4
-4.5549049 0.91594762 0.73586786 42 12
-4.5709 0.92082536 0.90634257 30 13
-4.4267106 0.89258176 -0.23666312 46 6
-4.5885258 0.9252094 1.0806648 38 14
-4.4515572 0.89839911 -0.07926859 42 7
-4.2871218 0.86599302 1.1719327 45 15
-4.4638577 0.90818185 0.079513066 42 8
-4.4796286 0.913019 0.23959409 46 9
-4.493927 0.91675007 0.40126482 42 10
-4.514101 0.922508 0.56571746 33 11
-4.4614296 0.91255403 -0.55913627 2 4
-4.569097 0.93540752 0.7386837 43 12
-4.5695806 0.93716955 0.90672404 27 13
-4.4313946 0.90963405 -0.23708183 48 6
-4.5986304 0.94396263 1.0838141 38 14
-4.4601464 0.91634828 -0.079478011 42 7
-4.2859654 0.88134193 1.1724504 43 15
-4.4702892 0.92656595 0.07968758 40 8
-4.4801631 0.93024373 0.23980342 43 9
-4.4983392 0.93483663 0.40196207 40 10
-4.5216541 0.94050622 -0.73148751 1 3
-4.51652 0.94025958 0.56644863 31 11
-4.4658289 0.93051976 -0.56011182 2 4
-4.5656371 0.9521488 0.73868364 40 12
-21.563139 4.5008445 -1.9271884 3 5
-4.5814886 0.95712346 0.90977752 30 13
-4.4241204 0.9250533 -0.23687243 46 6
-4.5932322 0.9604134 1.0833641 38 14
-4.4567585 0.93268853 -0.079478018 42 7
-4.2864876 0.89783698 1.1734856 43 15
-4.4727325 0.94418335 0.079792298 42 8
-4.4708619 0.94541973 0.23948942 45 9
-4.4987812 0.95214278 0.4023107 40 10
-4.5149851 0.95722008 0.56669235 33 11
-4.4856901 0.95182616 -0.56303608 2 4
-4.5563202 0.96764433 0.73774505 42 12
-21.387484 4.5421476 -1.912895 3 5
-4.5877218 0.97515118 0.91168505 28 13
-4.4364929 0.94381464 -0.23770984 48 6
-4.5934939 0.97805279 1.084264 36 14
-4.45331 0.94901818 -0.079478018 42 7
-4.2850575 0.91394365 1.1740032 40 15
-4.4811401 0.9623096 0.080001727 42 8
-4.4831553 0.96437949 0.24032682 43 9
-4.4915342 0.96700209 0.40196207 39 10
-4.5418434 0.97866148 -0.73586762 1 3
-4.5271406 0.9763214 0.56864232 32 11
-4.5056257 0.9725045 -0.56596106 2 4
-4.5548453 0.98396128 0.73805797 39 12
-4.5900469 0.99240303 0.91282994 27 13
-4.4409804 0.96098495 -0.23812854 44 6
-4.5976701 0.99573225 1.0860636 37 14
-4.4499698 0.96455634 -0.079478011 42 7
-4.2742891 0.92725754 1.1719326 48 15
-4.4699402 0.97623831 0.079862118 42 8
-4.4856153 0.98130345 0.24064083 46 9
-4.5037012 0.98608255 0.40335649 40 10
-4.5295215 0.99339396 0.56937349 36 11
-4.4866915 0.98482138 -0.56401104 2 4
-4.5687475 1.0036683 0.74087381 42 12
-5.4215178 1.1910059 -0.48563197 1 5
-4.5827203 1.0075763 0.91206676 27 13
-4.4414992 0.97733951 -0.23833786 46 6
-4.601779 1.0134506 1.0878632 37 14
-4.4582925 0.98266649 -0.079687439 43 7
-4.2766857 0.9434216 1.1734856 43 15
-4.4743133 0.99356931 0.080001727 40 8
-4.4938598 0.99955702 0.24126884 46 9
-4.5041218 1.0026646 0.40370518 42 10
-4.5260262 1.0091989 0.56937349 30 11
-4.4871016 1.0013416 -0.56449854 2 4
-4.5787115 1.0226243 0.74306381 39 12
-5.4795504 1.2238206 -0.49120992 1 5
-4.5810914 1.0239953 0.91244847 26 13
-4.4380608 0.99283749 -0.23833789 46 6
-4.6134267 1.0329139 1.0914625 38 14
-4.4606891 0.99953455 -0.079792142 40 7
-4.2771368 0.95918888 1.174521 43 15
-4.4825211 1.0118246 0.080211155 40 8
-4.49052 1.0144539 0.24126884 46 9
-4.5122538 1.0210192 0.404751 42 10
-4.5244122 1.0254294 0.56961721 28 11
-4.4797068 1.0161203 -0.56401104 2 4
-4.5887799 1.0408611 0.74525392 43 12
-5.3897552 1.2235334 -0.48354018 2 5
-4.592804 1.0434597 0.91550124 27 13
-4.4345684 1.0083233 -0.23833789 44 6
-4.598392 1.0464172 1.0887631 38 14
-4.4631996 1.0156527 -0.079896867 42 7
-4.2720485 0.97293812 1.1740031 45 15
-4.4830394 1.0275762 0.08028096 40 8
-4.4927921 1.0314623 0.24158287 43 9
-4.5086617 1.0367637 0.40475151 40 10
-4.5345287 1.0435439 0.57132339 31 11
-4.5072641 1.0380988 -0.56791091 2 4
-4.5754943 1.0546544 0.7436896 40 12
-5.342741 1.2324859 -0.47970536 5 5
-4.5931454 1.0595659 0.91626453 26 13
-4.4506612 1.0275164 -0.23938461 51 6
-4.6062889 1.0642927 1.0914625 38 14
-4.4596272 1.031225 -0.079896867 42 7
-4.2705092 0.9882803 1.174521 43 15
-4.4950061 1.0468485 0.080560207 42 8
-4.496944 1.0489537 0.24200155 43 9
-4.5051994 1.0517095 0.404751 39 10
-4.5424552 1.0620776 0.57278574 31 11
-4.4726868 1.0465893 -0.56401104 2 4
-4.5737081 1.0710686 0.7440024 42 12
-5.313406 1.2442907 -0.47743934 5 5
-4.6047101 1.0791776 0.91931754 24 13
-4.4548244 1.0448701 -0.23980327 44 6
-4.6177235 1.0839268 1.0950617 36 14
-4.4637876 1.0486162 -0.080036491 42 7
-4.2670326 1.0031811 1.1745209 43 15
-4.4835401 1.06069 0.080420576 42 8
-4.5088029 1.0683297 0.24283893 43 9
-4.5053782 1.0683476 0.40510017 40 10
-4.548377 1.080222 0.57400447 33 11
-4.515357 1.0732112 -0.56986129 2 4
-4.5795507 1.0893131 0.74556673 40 12
-5.2896471 1.25822 -0.47569618 5 5
-4.5970955 1.0943354 0.91855425 26 13
-4.4628077 1.0631901 -0.24043131 53 6
-4.617703 1.1009431 1.0959616 36 14
-4.4698248 1.0665119 -0.080211014 39 7
-4.2616262 1.0176202 1.1740032 45 15
-4.4836988 1.0772686 0.080490395 40 8
-4.5089293 1.0849954 0.24304824 45 9
-4.5209918 1.0887326 0.40684277 39 10
-4.5387897 1.094695 0.57327324 31 11
-4.4961457 1.0852402 -0.56791085 2 4
-4.5795603 1.1062211 0.74619251 40 12
-5.2755384 1.2743388 -0.47482458 5 5
-4.5913391 1.1099132 0.91817254 26 13
-4.4474216 1.0759442 -0.23980327 42 6
-4.617619 1.1179734 1.0968612 37 14
-4.4796796 1.0854033 -0.08045534 42 7
-4.2636809 1.0338558 1.1755563 43 15
-4.4993391 1.0976527 0.08083944 40 8
-4.5031748 1.1002539 0.2429436 46 9
-4.5249047 1.1064001 0.4075405 39 10
-4.5407257 1.1119484 0.57400453 32 11
-4.4884744 1.0999833 -0.5674234 2 4
-4.6006122 1.1283158 0.75025982 39 12
-5.2594481 1.2898976 -0.47377872 4 5
-4.598876 1.128741 0.92046279 24 13
-4.4630346 1.0962272 -0.24084999 38 6
-4.6250429 1.1368752 1.0995606 37 14
-4.4875145 1.1039 -0.080664776 42 7
-4.2506661 1.0464246 1.1729679 40 15
-4.5032439 1.1152735 0.080979057 47 8
-4.501245 1.1164472 0.24304824 43 9
-4.5326185 1.1250685 0.40858591 40 10
-4.550302 1.131144 0.57571071 31 11
-4.5269876 1.1261873 -0.57278562 2 4
-4.5908947 1.1429365 0.74932122 39 12
-5.2394471 1.3043983 -0.4723843 2 5
-4.6101489 1.1485845 0.92351526 24 13
-4.4611192 1.1122817 -0.24095465 38 6
-4.6134844 1.1511259 1.0977613 36 14
-4.4778132 1.1181043 -0.080560058 39 7
-4.260108 1.0645334 1.1765915 43 15
-4.5109596 1.1339122 0.081188492 47 8
-4.5108781 1.1355646 0.24378094 46 9
-4.5286632 1.1408834 0.40858588 40 10
-4.5540247 1.1489621 0.57668561 31 11
-4.5076313 1.1380951 -0.57083631 2 4
-4.5926232 1.1604067 0.75025988 37 12
-4.6156282 1.1670763 0.92542344 23 13
-4.4688268 1.130787 -0.24158271 48 6
-4.6283288 1.1720066 1.1022601 36 14
-4.4719443 1.1332368 -0.080525145 42 7
-4.2470021 1.0770229 1.1740031 45 15
-4.5030994 1.1486633 0.081118688 43 8
-4.5165625 1.1537766 0.24430431 45 9
-4.528513 1.1576713 0.40893498 40 10
-4.5596018 1.1673146 0.57790434 33 11
-4.5961986 1.1783922 0.75151128 34 12
-4.5489345 1.1662745 -0.41085234 4 5
-4.6153288 1.1841565 0.9261871 16 13
-4.4783945 1.1498564 -0.24231544 51 6
-4.6600704 1.1973686 1.1108083 21 14
-4.4815183 1.1523259 -0.080769479 39 7
-4.2413464 1.0913601 1.1734856 43 15
-4.502934 1.1653759 0.081188492 47 8
-4.5260415 1.1730431 0.24503703 40 9
-4.5379453 1.1769725 0.41015467 30 10
-4.5689487 1.1867169 0.57961053 17 11
-4.6111741 1.1994026 0.75463998 16 12
-4.6130676 1.2007545 0.92656821 19 13
-4.4588909 1.1614532 -0.24147803 55 6
-4.616262 1.2033067 1.1013603 27 14
-4.4871435 1.1704862 -0.080944009 45 7
-4.2431188 1.1076213 1.1750386 40 15
-4.5317187 1.1897192 0.081781864 19 8
-4.5279217 1.1895683 0.24535106 19 9
-4.5453696 1.1958473 0.41120052 21 10
-4.55902 1.20114 0.5788793 21 11
-4.5165806 1.1908019 -0.57351685 100 4
-4.5918908 1.2106575 0.75213706 22 12
-4.5695777 1.2056288 -0.41346696 1 5
-4.5727825 1.2073268 0.91931754 17 13
-4.4760509 1.182624 -0.24262942 27 6
-4.5216017 1.1955032 1.0797651 10 14
-4.5103025 1.1925159 -0.08143267 14 7
-4.2468929 1.1236628 1.1771091 45 15
-4.5103569 1.2001132 0.08146774 22 8
-4.4986529 1.1986804 0.24399032 24 9
-4.5142174 1.2045164 0.40876016 19 10
-4.5166535 1.2060097 0.57400453 16 11
