# .PCD v0.7 - Point Cloud Data file format
VERSION 0.7
FIELDS x y z intensity ring
SIZE 4 4 4 4 2
TYPE F F F F U
COUNT 1 1 1 1 1
WIDTH 507
HEIGHT 1
VIEWPOINT 0 0 0 1 0 0 0
POINTS 507
DATA ascii
2.494704 -0.39021412 -0.3100355 2 4
2.4716957 -0.39590147 -0.30735436 11 4
2.4880006 -0.40697989 -0.30954829 33 4
2.5368903 -0.4231644 -0.40735534 2 3
2.4669857 -0.41238922 -0.30711064 40 4
2.5120299 -0.42803556 -0.40360093 22 3
2.4518337 -0.41865921 -0.30540445 63 4
2.494951 -0.43409264 -0.40109795 25 3
2.4484019 -0.42687425 -0.30516073 48 4
2.5225947 -0.44797993 -0.40579098 48 3
2.4527602 -0.43646151 -0.30589193 33 4
2.5151844 -0.45572621 -0.40485236 40 3
2.5116363 -0.46414405 -0.40453956 41 3
2.4398937 -0.45176712 -0.30467325 1 4
2.5158241 -0.4740057 -0.40547812 43 3
2.4656107 -0.46543625 -0.30808556 1 4
2.5141542 -0.48278472 -0.40547812 43 3
2.4444778 -0.4702898 -0.30564818 1 4
2.5085764 -0.49079922 -0.40485236 43 3
2.4584053 -0.48187438 -0.30759811 1 4
2.5068481 -0.49955279 -0.40485239 43 3
2.4372416 -0.4865666 -0.30516073 2 4
2.4519768 -0.48995328 -0.218761 2 5
2.5128331 -0.50987148 -0.40610388 43 3
2.4433961 -0.4962264 -0.30613565 7 4
2.4190133 -0.49215382 -0.21597201 12 5
2.5091934 -0.51780236 -0.40579098 42 3
2.411515 -0.49896187 -0.21544908 32 5
2.5016625 -0.5249033 -0.40485236 43 3
2.4555027 -0.51611292 -0.30808586 40 4
2.3981485 -0.50449497 -0.21440318 37 5
2.5056107 -0.53486979 -0.40579098 42 3
2.4323332 -0.52011508 -0.30540445 57 4
2.3885801 -0.51119518 -0.21370596 55 5
2.5461128 -0.55188465 -0.50640714 6 2
2.5075891 -0.54445094 -0.40641671 42 3
2.4246838 -0.52733678 -0.30467325 54 4
2.3809409 -0.51825845 -0.21318303 38 5
2.5173295 -0.55485266 -0.50106448 18 2
2.5018158 -0.55234903 -0.40579101 42 3
2.4170132 -0.53451133 -0.30394229 40 4
2.3927343 -0.52958018 -0.21440321 33 5
2.5230408 -0.56535363 -0.50259101 29 2
2.5037272 -0.56194389 -0.40641671 42 3
2.4190063 -0.54381585 -0.3044298 42 4
2.5382802 -0.57808089 -0.50602555 39 2
2.4978983 -0.56980139 -0.40579098 42 3
2.4209635 -0.55314064 -0.30491725 41 4
2.4297664 -0.5555982 -0.21806376 1 5
2.5343339 -0.58649498 -0.50564396 39 2
2.4997427 -0.5794093 -0.40641665 42 3
2.4383547 -0.56607723 -0.30735436 22 4
2.4045238 -0.55866545 -0.21597201 1 5
2.5399156 -0.59713513 -0.50717038 40 2
2.4919369 -0.58677328 -0.40547812 39 3
2.4025588 -0.56705546 -0.21597201 1 5
2.5339966 -0.60508537 -0.50640714 40 2
2.4879525 -0.59500879 -0.40516526 13 3
2.440135 -0.58447337 -0.30808556 1 4
2.41994 -0.58008295 -0.21771511 1 5
2.5242374 -0.61207646 -0.50488073 32 2
2.4303644 -0.591111 -0.30711064 1 4
2.3985417 -0.58381444 -0.21597201 1 5
2.3518076 -0.57330894 -0.12686233 2 6
2.5336325 -0.62325758 -0.50717044 36 2
2.4972711 -0.61523753 -0.40735534 2 3
2.4322455 -0.60011816 -0.30759811 1 4
2.4159358 -0.59654135 -0.21771514 1 5
2.3460157 -0.58014566 -0.12665299 14 6
2.5314412 -0.6320979 -0.50717044 40 2
2.4931917 -0.62347168 -0.40704247 4 3
2.4339871 -0.60956907 -0.30808556 1 4
2.4177036 -0.60593951 -0.21806374 1 5
2.3536623 -0.59076238 -0.12717634 30 6
2.5330257 -0.64189488 -0.50793368 40 2
2.4164529 -0.61414981 -0.30613565 1 4
2.4271591 -0.61732185 -0.21910961 1 5
2.523164 -0.64877731 -0.5064072 40 2
2.5040824 -0.64480287 -0.40954545 48 3
2.429672 -0.62654656 -0.30808586 2 4
2.4172726 -0.62379909 -0.21841235 1 5
2.324342 -0.60068297 -0.1258156 51 6
2.5227833 -0.65807629 -0.50678873 40 2
2.4960821 -0.65204197 -0.40860677 40 3
2.4140272 -0.63150722 -0.30637941 3 4
2.4035161 -0.62920564 -0.2173665 1 5
2.3183672 -0.6077798 -0.12560627 45 6
2.526165 -0.66838503 -0.50793368 40 2
2.4842436 -0.65822113 -0.40704247 41 3
2.3936021 -0.63554639 -0.21666925 1 5
2.318162 -0.61638194 -0.12571093 42 6
2.5993879 -0.69699025 -0.6213147 8 1
2.5200243 -0.67618132 -0.50717044 39 2
2.4838388 -0.66740149 -0.40735534 41 3
2.4459808 -0.65814459 -0.31101042 40 4
2.4106078 -0.64907807 -0.21841235 1 5
2.3063543 -0.62187028 -0.12518758 39 6
2.6044612 -0.70810455 -0.62311429 42 1
2.5252261 -0.68703532 -0.50869691 39 2
2.4891176 -0.67814463 -0.4086068 41 3
2.4053667 -0.65622926 -0.30613568 47 4
2.385263 -0.65119177 -0.21632062 2 5
2.3003166 -0.62886381 -0.12497825 40 6
2.6226389 -0.72288752 -0.62806356 48 1
2.5190275 -0.69480187 -0.50793368 39 2
2.4810231 -0.68525136 -0.40766823 40 3
2.4107144 -0.66673815 -0.30711064 48 4
2.3944969 -0.66270268 -0.2173665 21 5
2.3058059 -0.63902318 -0.12539692 39 6
2.5957005 -0.72522098 -0.6222145 33 1
2.5128052 -0.70253342 -0.50717044 39 2
2.4843225 -0.69550526 -0.4086068 41 3
2.4121952 -0.67622077 -0.30759811 40 4
2.3653119 -0.66352296 -0.21492612 9 5
2.3112526 -0.64922845 -0.1258156 39 6
2.6100283 -0.73905569 -0.62626398 42 1
2.5178931 -0.71344143 -0.50869691 39 2
2.4761784 -0.70255536 -0.4076682 40 3
2.4098201 -0.68463671 -0.30759811 31 4
2.3128145 -0.65838599 -0.12602496 38 6
2.3443687 -0.66781086 -0.042548843 1 7
2.590704 -0.74287242 -0.6222145 40 1
2.5191612 -0.72330964 -0.50946009 38 2
2.4662409 -0.70858073 -0.40641671 38 3
2.4065709 -0.69325614 -0.21910961 1 5
2.2991035 -0.66273284 -0.12539692 38 6
2.2920702 -0.66157204 -0.041641314 4 7
2.5899665 -0.75245476 -0.62266475 40 1
2.5224044 -0.73330361 -0.51060498 37 2
2.4789255 -0.72160214 -0.40891966 11 3
2.4241619 -0.70657879 -0.3100355 1 4
2.4119098 -0.70346445 -0.21980686 1 5
2.2948592 -0.67019421 -0.12529224 37 6
2.2955048 -0.67125249 -0.041746028 22 7
2.5873241 -0.76149088 -0.62266475 28 1
2.5198295 -0.74210405 -0.51060498 20 2
2.40645 -0.7105391 -0.30808556 1 4
2.4132614 -0.71300822 -0.22015551 1 5
2.2944207 -0.67876732 -0.12539692 19 6
2.287396 -0.67755759 -0.041641317 45 7
2.5995905 -0.7749716 -0.62626368 42 1
2.5097897 -0.74963194 -0.41486418 1 3
2.3963475 -0.71665996 -0.30711091 1 4
2.3993049 -0.71800041 -0.21910961 1 5
2.6006005 -0.78516752 -0.62716377 42 1
2.508949 -0.75797415 -0.50946009 14 2
2.4920316 -0.75381261 -0.41236123 1 3
2.4204295 -0.73307616 -0.31052297 1 4
2.3967838 -0.72637117 -0.21910961 1 5
2.3507848 -0.71332675 -0.12874642 1 6
2.2806962 -0.69292849 -0.041606408 61 7
2.5941169 -0.79310101 -0.62626398 41 1
2.504411 -0.76615316 -0.5090785 20 2
2.5044954 -0.76713514 -0.41486418 2 3
2.4330387 -0.7461769 -0.31247288 1 4
2.4399467 -0.7487613 -0.22329305 1 5
2.3062785 -0.70862275 -0.12644362 1 6
2.2706184 -0.69853342 -0.041466791 50 7
2.5820246 -0.79927003 -0.62401408 41 1
2.5148485 -0.77895665 -0.51174986 29 2
2.4810483 -0.76943648 -0.41142264 7 3
2.4076695 -0.74760127 -0.30954832 1 4
2.4182916 -0.75136232 -0.22154996 1 5
2.3228624 -0.72260153 -0.12749036 1 6
2.2509835 -0.70110327 -0.041152649 28 7
2.5847976 -0.81002641 -0.62536418 40 1
2.5214806 -0.79066747 -0.51365793 39 2
2.4840014 -0.77986741 -0.41236126 36 3
2.4050453 -0.75600106 -0.30954832 1 4
2.4042509 -0.75621241 -0.22050411 1 5
2.3393757 -0.73670465 -0.12853706 2 6
2.2656865 -0.7143681 -0.041466791 31 7
2.5838118 -0.81963336 -0.62581372 41 1
2.5056067 -0.79530656 -0.51098663 39 2
2.4982071 -0.79391801 -0.41517702 53 3
2.4137416 -0.76800287 -0.31101042 2 4
2.4091904 -0.76701784 -0.22120135 1 5
2.3253727 -0.74122679 -0.12790905 2 6
2.2650845 -0.7228806 -0.041501701 52 7
2.5883572 -0.83103043 -0.62761337 40 1
2.5046842 -0.80464834 -0.51136816 37 2
2.4728549 -0.79537535 -0.41142264 36 3
2.4053774 -0.77459842 -0.31027925 4 4
2.3799491 -0.76686817 -0.218761 1 5
2.2980611 -0.74136764 -0.12654832 10 6
2.2606442 -0.73016822 -0.041466795 49 7
2.5817339 -0.83885616 -0.62671357 41 1
2.5093286 -0.8158145 -0.51289469 37 2
2.4738202 -0.80522513 -0.41204834 40 3
2.3772578 -0.77517116 -0.218761 2 5
2.3068507 -0.75310379 -0.12717633 32 6
2.2656844 -0.74053973 -0.041606408 49 7
2.2626188 -0.74347359 0.04157158 1 8
2.5769384 -0.84725416 -0.62626398 40 1
2.5083306 -0.82518214 -0.51327628 37 2
2.4766228 -0.81570947 -0.41298696 43 3
2.4187634 -0.79758859 -0.3127169 36 4
2.359401 -0.7784704 -0.2173665 9 5
2.3061044 -0.76177818 -0.12728101 32 6
2.2706797 -0.75095558 -0.041746024 49 7
2.2258534 -0.74001139 0.040943295 6 8
2.5850599 -0.85993499 -0.62896305 38 1
2.4979837 -0.83145291 -0.51174986 37 2
2.4756346 -0.824974 -0.41329983 43 3
2.4046659 -0.80225724 -0.31125444 43 4
2.3774579 -0.79364103 -0.21928394 32 5
2.2996426 -0.76855719 -0.12707166 37 6
2.2490816 -0.75253212 -0.041396987 48 7
2.2043033 -0.74140179 0.040594246 22 8
2.5783484 -0.86771023 -0.62806356 40 1
2.4913452 -0.83891439 -0.51098663 37 2
2.4727397 -0.83361036 -0.41329983 42 3
2.4018514 -0.81064618 -0.31125417 31 4
2.3784485 -0.80321002 -0.21963255 41 5
2.30073 -0.77785915 -0.12728101 37 6
2.2540174 -0.76294273 -0.041536599 49 7
2.1922364 -0.74587119 0.040419724 39 8
2.5845277 -0.87984496 -0.63031268 41 1
2.5032687 -0.85266978 -0.51403958 36 2
2.4529881 -0.8364988 -0.41048405 23 3
2.3473492 -0.80184668 -0.2170179 14 5
2.299891 -0.78653169 -0.12738569 36 6
2.2513404 -0.77080613 -0.041536599 48 7
2.2028556 -0.75807393 0.040664062 49 8
2.572228 -0.88568908 -0.62806326 38 1
2.5132704 -0.865879 -0.51671088 22 2
2.4130211 -0.83322585 -0.31344783 1 4
2.2914684 -0.79259634 -0.12707166 38 6
2.2599738 -0.7825861 -0.041746028 50 7
2.1964185 -0.76444399 0.040594246 48 8
2.5728016 -0.8959443 -0.62896311 27 1
2.4769306 -0.86401302 -0.41548991 1 3
2.4288385 -0.84818834 -0.31588551 1 4
2.4018819 -0.83924502 -0.22259586 1 5
2.2830319 -0.79861188 -0.12675764 36 6
2.253454 -0.78914833 -0.041676223 48 7
2.1975095 -0.77343404 0.040664062 45 8
2.5641439 -0.90297765 -0.62761331 5 1
2.5053122 -0.88275117 -0.51632917 1 2
2.503706 -0.88316786 -0.42049587 1 3
2.4071453 -0.85005146 -0.31344783 1 4
2.4139667 -0.85293424 -0.22399035 1 5
2.2877624 -0.80924052 -0.12717634 36 6
2.2450302 -0.79500693 -0.041571505 47 7
2.2174032 -0.78914577 0.041082911 22 8
2.5170109 -0.89676225 -0.51938218 1 2
2.485723 -0.88659304 -0.41799286 1 3
2.3929462 -0.85444373 -0.3119857 1 4
2.4109743 -0.8613553 -0.22399034 1 5
2.2924459 -0.81991178 -0.12759502 26 6
2.246007 -0.80418682 -0.041641317 47 7
2.5175593 -0.9068734 -0.52014536 11 2
2.4974792 -0.90062529 -0.42049584 1 3
2.4086206 -0.86953193 -0.31442308 1 4
2.3817184 -0.86028981 -0.22154999 1 5
2.2469463 -0.81338334 -0.041711122 47 7
2.2080817 -0.80323958 0.041013103 1 8
2.4831851 -0.90527815 -0.41861865 1 3
2.4204888 -0.88337868 -0.31637299 1 4
2.3936729 -0.8740654 -0.22294445 1 5
2.2922938 -0.83795315 -0.12790905 1 6
2.2478492 -0.82259607 -0.04178093 47 7
2.2090178 -0.81232256 0.041082907 1 8
2.514852 -0.92578363 -0.52090871 38 2
2.4688888 -0.90984207 -0.4167414 2 3
2.409941 -0.88907409 -0.31539774 1 4
2.36444 -0.87275678 -0.22050413 1 5
2.2968483 -0.84871876 -0.12832773 1 6
2.2413578 -0.82865864 -0.041711122 30 7
2.2288065 -0.82800019 0.041501772 1 8
2.3381214 -0.86953968 0.13073526 1 9
2.4968848 -0.92907935 -0.51785576 39 2
2.4144199 -0.89983392 -0.31637269 1 4
2.3875124 -0.890755 -0.22294445 1 5
2.3015058 -0.85912448 -0.12874642 2 6
2.2371349 -0.83999264 0.0417112 1 8
2.1742909 -0.81726223 0.12173349 3 9
2.4882767 -0.93528175 -0.51671082 37 2
2.4940684 -0.93845248 -0.42206016 53 3
2.3964028 -0.9026584 -0.31442308 1 4
2.3696306 -0.89304626 -0.22154999 1 5
2.3059676 -0.869973 -0.1291651 4 6
2.2373891 -0.84499258 -0.041746028 11 7
2.2416677 -0.8506344 0.04185082 1 8
2.1452854 -0.81491756 0.12026808 12 9
2.4923379 -0.94675046 -0.51823729 37 2
2.4575427 -0.93451458 -0.41642854 40 3
2.3895271 -0.90960562 -0.31393531 1 4
2.3702228 -0.902731 -0.2218986 2 5
2.2861207 -0.87161326 -0.12822305 17 6
2.2493722 -0.85850185 -0.042025272 40 7
2.2162793 -0.84986246 0.04143196 1 8
2.1293755 -0.81739068 0.11953537 24 9
2.4945166 -0.95755512 -0.51938212 37 2
2.463485 -0.94663012 -0.41799286 48 3
2.4122756 -0.92791855 -0.31734794 7 4
2.3559005 -0.90670508 -0.22085273 7 5
2.2793372 -0.87815213 -0.12801372 27 6
2.2631531 -0.87282437 -0.042339407 47 7
2.2170289 -0.85903859 0.041501775 1 8
2.1134746 -0.81976271 0.11880267 29 9
2.498481 -0.96909672 -0.52090871 38 2
2.4656899 -0.95736837 -0.41893148 45 3
2.39607 -0.93129933 -0.31564176 28 4
2.2967312 -0.89407295 -0.12916511 32 6
2.2395971 -0.87273192 -0.041955456 47 7
2.2177405 -0.86823004 0.04157158 1 8
2.1347744 -0.83660895 0.1201634 42 9
2.4895988 -0.97566313 -0.51976377 37 2
2.4549778 -0.96308392 -0.41768003 32 3
2.4001956 -0.9425599 -0.31661642 14 4
2.3662026 -0.92968744 -0.22242153 41 5
2.2861614 -0.89916044 -0.12874642 40 6
2.2439797 -0.88347471 -0.042095076 45 7
2.2146962 -0.87596607 0.041571576 2 8
2.1336985 -0.84479088 0.12026808 44 9
2.4807022 -0.98217934 -0.51861894 37 2
2.3370173 -0.92765051 -0.21998116 47 5
2.281153 -0.90639764 -0.12864174 35 6
2.2353077 -0.88908505 -0.041990362 46 7
2.1911988 -0.87552989 0.041187625 4 8
2.1307361 -0.85223371 0.12026806 45 9
2.4918413 -0.99666548 -0.52167189 33 2
2.4610314 -0.98533887 -0.41987014 1 3
2.4285667 -0.9733246 -0.32124746 1 4
2.3319156 -0.9350611 -0.21980685 38 5
2.2816823 -0.91584283 -0.12885109 35 6
2.2414684 -0.90061009 -0.042164885 48 7
2.1407113 -0.86490345 0.12100077 49 9
2.499269 -1.0097702 -0.5239616 9 2
2.4868772 -1.0057735 -0.424876 1 3
2.4251542 -0.98179597 -0.32124746 1 4
2.3489506 -0.95142293 -0.22172429 5 5
2.2710676 -0.92080003 -0.12843239 35 6
2.2364578 -0.90767682 -0.042129979 46 7
2.1739225 -0.8862763 0.040978197 39 8
2.1339808 -0.87086135 0.12079144 51 9
2.472379 -1.009966 -0.42299879 1 3
2.4143629 -0.98724997 -0.32027254 1 4
2.373276 -0.97093278 -0.22433895 1 5
2.2659914 -0.92796504 -0.12832773 34 6
2.2369769 -0.91699493 -0.04219979 46 7
2.1985519 -0.90528005 0.041501772 42 8
2.1272352 -0.87678295 0.1205821 53 9
2.490751 -1.0276307 -0.42675319 1 3
2.4182408 -0.99870253 -0.32124776 1 4
2.3588235 -0.97464591 -0.22329305 1 5
2.2756579 -0.94121259 -0.12906043 35 6
2.2337623 -0.92479789 -0.04219979 47 7
2.193532 -0.91218108 0.041466866 30 8
2.1315367 -0.88727313 0.12100077 49 9
2.4835024 -1.0347995 -0.42612749 1 3
2.4147398 -1.0071378 -0.32124776 1 4
2.3627625 -0.98594326 -0.22399034 1 5
2.2723587 -0.94915044 -0.12906043 35 6
2.2305205 -0.93258953 -0.04219979 47 7
2.1357915 -0.89780402 0.12141947 47 9
2.4689505 -1.0388654 -0.42425027 1 3
2.4331629 -1.0248071 -0.32417232 1 4
2.3519621 -0.99108982 -0.22329308 1 5
2.2800729 -0.96173376 -0.12968846 23 6
2.2383049 -0.94503665 -0.042409215 45 7
2.2147255 -0.93918282 0.041990437 1 8
2.1363215 -0.90681469 0.12162881 47 9
2.4653094 -1.0474774 -0.42425027 1 3
2.4332244 -1.0348477 -0.32466009 1 4
2.3558216 -1.0024141 -0.22399034 1 5
2.2313132 -0.95127553 -0.042339407 41 7
2.2004039 -0.94218534 0.041781008 1 8
2.1294715 -0.91269267 0.12141945 49 9
2.4543765 -1.0529613 -0.42299882 2 3
2.4040613 -1.0323694 -0.32124746 1 4
2.3596306 -1.0137773 -0.22468758 1 5
2.2971554 -0.98788577 -0.13104919 2 6
2.2353261 -0.96222103 -0.042479027 16 7
2.2007732 -0.95144755 0.041850824 1 8
2.119101 -0.91657776 0.12100079 47 9
2.4597485 -1.0654478 -0.42456308 10 3
2.3931582 -1.037596 -0.32027254 1 4
2.3597331 -1.0235935 -0.22503622 1 5
2.2918611 -0.99510294 -0.13094452 4 6
2.2086029 -0.96353799 0.042060245 1 8
2.1305311 -0.93036342 0.12183815 46 9
2.3969786 -1.0487092 -0.32124746 1 4
2.3415453 -1.0254304 -0.22364174 2 5
2.2702549 -0.99468255 -0.1298978 19 6
2.2397125 -0.98223281 -0.042688452 2 7
2.2088859 -0.9728536 0.042130053 1 8
2.1310902 -0.93903422 0.12204751 46 9
2.4470177 -1.0797737 -0.42362452 37 3
2.3987508 -1.0594759 -0.32197869 3 4
2.3381321 -1.0331895 -0.22364174 14 5
2.2850347 -1.01068 -0.13094452 36 6
2.2455864 -0.99370044 -0.042862978 22 7
2.1910288 -0.9736765 0.04185082 1 8
2.131449 -0.94809079 0.12225686 45 9
2.4560556 -1.0935065 -0.42581457 45 3
2.3988507 -1.0690405 -0.32246646 22 4
2.2798467 -1.0174381 -0.13083985 36 6
2.232975 -0.99745524 -0.042688455 36 7
2.1876168 -0.98131871 0.04185082 1 8
2.1281264 -0.9555251 0.12225685 46 9
2.4540257 -1.1028829 -0.42612746 41 3
2.3788116 -1.0700784 -0.32027256 9 4
2.3381288 -1.0527595 -0.22433895 49 5
2.2653551 -1.0204681 -0.13021183 45 6
2.2513552 -1.0151068 -0.043107308 47 7
2.1914644 -0.9922483 0.041990437 1 8
2.12114 -0.961299 0.12204751 45 9
2.4319792 -1.1037064 -0.42299879 13 3
2.3380675 -1.0625631 -0.22468758 43 5
2.2615998 -1.0287641 -0.13021183 40 6
2.2241375 -1.0121918 -0.042653557 52 7
2.198725 -1.0052627 0.042199869 1 8
2.1250362 -0.97202039 0.12246618 33 9
2.3963556 -1.0986553 -0.32368484 1 4
2.3234787 -1.0657343 -0.22364174 41 5
2.2725158 -1.043319 -0.1310492 38 6
2.2133219 -1.0166106 -0.042513937 43 7
2.184484 -1.0075233 0.041990437 2 8
2.4215269 -1.1199285 -0.32758498 1 4
2.3233604 -1.0755123 -0.22399034 40 5
2.2690434 -1.0508492 -0.1310492 39 6
2.2170169 -1.0276942 -0.042653557 43 7
2.1827672 -1.0159863 0.042025346 6 8
2.3960171 -1.1182995 -0.32466009 1 4
2.3306127 -1.0882685 -0.22503622 16 5
2.2581236 -1.0553803 -0.13063049 39 6
2.2242835 -1.0405105 -0.042862978 43 7
2.3885074 -1.1249647 -0.32417235 1 4
2.2544258 -1.0632564 -0.13063049 39 6
2.2278712 -1.0516832 -0.043002598 42 7
2.1828492 -1.034626 0.04216497 45 8
2.3953233 -1.1384079 -0.32563475 1 4
2.3623481 -1.1237471 -0.22887106 1 5
2.2651286 -1.0779854 -0.13146789 38 6
2.2133548 -1.0542938 -0.042793173 43 7
2.1846359 -1.0448275 0.042269677 48 8
2.3949149 -1.1484787 -0.32612222 1 4
2.3188946 -1.1130193 -0.22503622 1 5
2.2611623 -1.0862803 -0.13146789 37 6
2.2150679 -1.0646122 -0.042897884 45 7
2.1699867 -1.0476111 0.042060241 52 8
2.4049835 -1.1641684 -0.32807213 1 4
2.3544452 -1.1402118 -0.22887106 1 5
2.2717345 -1.1011358 -0.13230525 33 6
2.2165484 -1.0753422 -0.043002598 42 7
2.1663165 -1.0551795 0.042060241 50 8
2.40804 -1.1760408 -0.32904708 1 4
2.3540311 -1.1501726 -0.22921968 1 5
2.2607005 -1.1055492 -0.13188659 5 6
2.2145777 -1.083952 -0.043037504 25 7
2.1733885 -1.0680267 0.042269677 52 8
2.3967974 -1.1809298 -0.32807213 1 4
2.3535759 -1.1601444 -0.2295683 2 5
2.2514541 -1.110783 -0.13157254 5 6
2.1732304 -1.0773829 0.042339485 48 8
2.3802176 -1.183104 -0.32636598 7 4
2.3388083 -1.1630303 -0.22852243 10 5
2.2355945 -1.1136522 -0.043595977 2 7
2.1712449 -1.0858569 0.042374391 13 8
2.3727319 -1.1892117 -0.3258785 27 4
2.3258297 -1.1667203 -0.22765088 37 5
2.2704182 -1.1399161 -0.13314262 36 6
2.2283156 -1.1192645 -0.043526169 2 7
2.4024377 -1.2140849 -0.33050951 33 4
2.3237257 -1.1753259 -0.22782518 39 5
2.2666256 -1.1474388 -0.13314262 45 6
2.2138879 -1.1212267 -0.043316741 9 7
2.3769617 -1.2116452 -0.32758495 5 4
2.3231585 -1.185241 -0.22817382 42 5
2.2574713 -1.152225 -0.13282861 45 6
2.2313299 -1.139864 -0.043735594 43 7
2.3260937 -1.1969898 -0.22887108 42 5
2.2496822 -1.1586624 -0.13261928 40 6
2.2308927 -1.1494781 -0.043805405 47 7
2.320133 -1.2041843 -0.22869676 42 5
2.2527134 -1.1701908 -0.13303797 40 6
2.2071486 -1.1475002 -0.043421458 57 7
2.3088546 -1.2085798 -0.22799952 45 5
2.2556918 -1.1817548 -0.13345666 40 6
2.2031295 -1.1551976 -0.043421458 57 7
2.3063836 -1.2175618 -0.22817382 39 5
2.2550848 -1.1914874 -0.13366599 40 6
2.2114577 -1.1694245 -0.043665789 45 7
2.3161888 -1.2330953 -0.2295683 13 5
2.2438617 -1.1955951 -0.13324733 40 6
2.2091267 -1.1780777 -0.043700691 43 7
2.2467117 -1.2072018 -0.13366599 40 6
2.2087305 -1.1872905 -0.0437705 38 7
2.3462923 -1.2696941 -0.23340318 1 5
2.2462087 -1.2165477 -0.13387534 40 6
2.2082975 -1.1965137 -0.043840308 5 7
2.3278539 -1.2702414 -0.23200867 1 5
2.24896 -1.2282103 -0.13429403 39 6
2.3266735 -1.2806864 -0.23235728 2 5
2.2461925 -1.2374086 -0.1343987 38 6
2.3256731 -1.2907338 -0.23270592 21 5
2.2383673 -1.243302 -0.13418935 38 6
2.3194149 -1.2978714 -0.23253162 32 5
2.2357566 -1.2520839 -0.13429403 40 6
2.309664 -1.3030225 -0.23200865 16 5
2.2383289 -1.2638084 -0.13471271 40 6
2.2428052 -1.2761627 -0.13523607 39 6
2.2402942 -1.2845868 -0.13534077 40 6
2.234067 -1.291399 -0.13523607 39 6
2.2329967 -1.301201 -0.1354454 25 6
