# .PCD v0.7 - Point Cloud Data file format
VERSION 0.7
FIELDS x y z intensity ring
SIZE 4 4 4 4 2
TYPE F F F F U
COUNT 1 1 1 1 1
WIDTH 1285
HEIGHT 1
VIEWPOINT 0 0 0 1 0 0 0
POINTS 1285
DATA ascii
9.1777506 -9.6409559 2.5873711 35 13
2.5540457 -2.6838872 -0.19416635 20 6
9.1025295 -9.5686255 3.0489869 49 14
2.5327966 -2.6634195 -0.064154848 19 7
2.7131209 -2.8610325 -1.0564992 6 0
2.5231071 -2.6615894 0.064015344 22 8
3.517307 -3.7116539 -1.1805435 7 1
2.5108631 -2.6505263 0.19134031 24 9
3.9479024 -4.1674986 -1.1158512 3 2
2.4796209 -2.6184611 0.3155036 23 10
4.5425367 -4.798563 -1.0465466 3 3
2.4737217 -2.6140587 0.4418982 21 11
5.2875767 -5.5895014 -0.94473076 4 4
2.4688499 -2.6107357 0.56910872 22 12
2.5790942 -2.7273157 -0.32840294 9 5
9.1804552 -9.7114553 2.5976732 33 13
2.567982 -2.7174637 -0.19594575 22 6
9.1078815 -9.6414213 3.0620337 45 14
2.5523164 -2.7027757 -0.064887844 22 7
4.9424701 -5.2356606 1.9292374 0 15
2.7243083 -2.892988 -1.0647815 6 0
2.5302491 -2.6878533 0.064434208 22 8
3.4963167 -3.715394 -1.1778435 7 1
2.5152807 -2.6738219 0.19238703 25 9
3.9414027 -4.1898346 -1.1181411 3 2
2.4963989 -2.6546783 0.31881553 25 10
4.5311708 -4.820147 -1.0477979 3 3
2.4727383 -2.6313574 0.44336063 21 11
5.2707515 -5.6108174 -0.94521821 4 4
2.4745965 -2.6351774 0.57255024 17 12
2.5981998 -2.7668018 -0.3320635 8 5
9.1854677 -9.7849512 2.6087399 31 13
2.5639472 -2.7322369 -0.19636445 22 6
9.1128359 -9.7143717 3.0750809 42 14
2.5579131 -2.7277143 -0.065271802 21 7
2.7353051 -2.9250565 -1.0730637 6 0
2.538604 -2.7156596 0.064887971 21 8
3.4859872 -3.7304237 -1.178744 7 1
2.5173097 -2.6938226 0.19322443 22 9
3.9321136 -4.2093048 -1.1196673 3 2
2.5020752 -2.6793945 0.32073298 25 10
4.5143175 -4.8359346 -1.0477979 3 3
2.4811447 -2.6588402 0.44652924 22 11
5.2646756 -5.6436973 -0.94765562 4 4
2.4739292 -2.6520357 0.57442743 8 12
2.6048319 -2.79334 -0.33415523 8 5
9.1954317 -9.8643446 2.6213334 33 13
2.5761802 -2.7645493 -0.19803919 20 6
9.1080933 -9.7774925 3.0849788 42 14
2.5733879 -2.7625189 -0.065900087 19 7
4.9514804 -5.3172498 1.9468371 0 15
2.7474251 -2.958652 -1.0818635 6 0
2.5459125 -2.7416468 0.06530682 21 8
3.4775748 -3.7462475 -1.1800931 7 1
2.5228355 -2.7186975 0.19437581 22 9
3.9067152 -4.2114906 -1.1166145 3 2
2.5143826 -2.7114866 0.32352191 21 10
4.5170612 -4.8711562 -1.0521781 3 3
2.4871585 -2.6830673 0.44921035 21 11
5.2486291 -5.6640372 -0.94814306 4 4
2.4780807 -2.6751473 0.57755619 2 12
2.6113098 -2.8199584 -0.33624697 6 5
9.2026873 -9.9379997 2.632782 33 13
2.5887065 -2.7965274 -0.19971393 22 6
9.1298847 -9.8662853 3.1034248 18 14
2.5745921 -2.7832286 -0.06617932 19 7
4.9932232 -5.3997464 1.9706484 0 15
2.7585568 -2.9904664 -1.0901458 5 0
2.5593722 -2.7755089 0.065900207 19 8
3.4710808 -3.765528 -1.1823431 7 1
2.5322778 -2.7480502 0.19584122 21 9
3.9060321 -4.2388601 -1.1204306 3 2
2.5080769 -2.7227411 0.32387057 24 10
4.50003 -4.8868947 -1.0521783 3 3
2.4965997 -2.7121801 0.45262274 21 11
5.2422676 -5.6969309 -0.95058048 4 4
2.4874504 -2.7041347 0.58193636 1 12
2.6154325 -2.8432655 -0.33799008 5 5
9.2157812 -10.022086 2.6465201 33 13
2.5978522 -2.826133 -0.20117936 22 6
2.5783887 -2.8069251 -0.066528365 19 7
7.6411781 -8.3213701 3.0271482 11 15
3.0899832 -3.3733068 -1.2257671 4 0
2.5591216 -2.7947493 0.066144533 21 8
3.4684417 -3.7891209 -1.1859423 7 1
2.5321083 -2.7671871 0.19657393 22 9
3.9018149 -4.2640557 -1.1234835 3 2
2.5106604 -2.74471 0.32543936 22 10
4.4829445 -4.9025722 -1.0521781 3 3
2.5112247 -2.747252 0.45701 21 11
5.227706 -5.7210574 -0.95155543 4 4
2.5152991 -2.7536387 0.59069669 1 12
2.6310227 -2.8803282 -0.34130201 6 5
9.2244282 -10.102037 2.6591134 33 13
2.6000898 -2.84846 -0.20212141 20 6
7.7485585 -8.4917059 2.6539724 1 14
2.5833991 -2.8321595 -0.066912316 18 7
7.6068783 -8.3422823 3.0250776 2 15
3.083389 -3.3897884 -1.2278376 4 0
2.5654945 -2.8214192 0.06656339 21 8
3.4499505 -3.7954366 -1.1841426 7 1
2.5492964 -2.8055723 0.19866736 26 9
3.8948278 -4.2863674 -1.1257732 3 2
2.5184793 -2.7726295 0.32770541 21 10
4.4737711 -4.9269652 -1.0540553 3 3
2.5082905 -2.7633505 0.45822868 20 11
5.2183762 -5.7510309 -0.95350534 4 4
2.5162895 -2.7741072 0.59319967 2 12
2.6504018 -2.9219606 -0.34513688 5 5
9.2220764 -10.170534 2.6686554 34 13
2.6008615 -2.8693569 -0.20295878 18 6
7.7031689 -8.5013733 2.6485739 1 14
2.5896072 -2.8589454 -0.06733118 15 7
7.6438417 -8.4418201 3.0514774 1 15
3.0767169 -3.406265 -1.2299081 4 0
2.5703714 -2.8466833 0.066947348 19 8
3.4445159 -3.8161356 -1.186842 7 1
2.5501912 -2.8263166 0.19950472 26 9
3.8745816 -4.294107 -1.1242468 3 2
2.5288026 -2.803596 0.33032009 22 10
4.4565454 -4.9425516 -1.0540553 3 3
2.5079331 -2.7824106 0.45993486 19 11
5.2115574 -5.7839599 -0.95594281 4 4
2.5277429 -2.8063574 0.59820551 1 12
2.674855 -2.9696846 -0.34966895 6 5
9.2298708 -10.250812 2.6812475 6 13
2.6068642 -2.8962321 -0.20421486 18 6
7.6265216 -8.476058 2.6323771 1 14
2.5983336 -2.888782 -0.067819849 16 7
2.7500715 -3.0660813 -1.1036043 3 0
2.5817783 -2.8794599 0.067505822 21 8
3.4415796 -3.8397453 -1.1904407 7 1
2.5474703 -2.8421946 0.20002811 22 9
3.8569481 -4.3046813 -1.1234835 3 2
2.5402696 -2.8361516 0.33310905 24 10
4.4524422 -4.9727945 -1.057184 3 3
2.518064 -2.8133352 0.46359092 18 11
5.1780992 -5.787322 -0.95350534 4 4
9.3176374 -10.413893 2.2132354 8 12
2.6843963 -3.0012794 -0.3522836 5 5
9.2594614 -10.356144 2.7003284 28 13
2.6140409 -2.9246728 -0.20557557 18 6
7.5306692 -8.4285154 2.609432 7 14
2.6033955 -2.9137855 -0.068203792 16 7
2.7085159 -3.0410397 -1.0911812 5 0
2.5881758 -2.9059253 0.067924686 19 8
3.4236441 -3.8453157 -1.1886411 7 1
2.560107 -2.8764319 0.20180751 24 9
3.8471184 -4.3239851 -1.1250101 3 2
2.5409467 -2.8569114 0.33450398 22 10
4.4385533 -4.9904842 -1.0578098 3 3
2.5285053 -2.8439229 0.46724701 19 11
5.166791 -5.813364 -0.95496774 4 4
9.3232145 -10.493609 2.2232473 17 12
2.688457 -3.0270178 -0.35420105 2 5
9.2654829 -10.432296 2.7121582 36 13
2.6268709 -2.9587157 -0.20735501 20 6
2.6091337 -2.940805 -0.068622649 16 7
2.6856153 -3.0355361 -1.0860047 5 0
2.5886145 -2.9269254 0.068203926 21 8
3.4179451 -3.8660026 -1.1913412 7 1
2.5725358 -2.9107924 0.20358695 24 9
3.8457596 -4.3514295 -1.1288261 3 2
2.5459697 -2.8817461 0.33642098 21 10
4.4289522 -5.0148311 -1.059687 3 3
2.5395839 -2.8765414 0.47114682 19 11
5.1753659 -5.8641076 -0.96033001 4 4
9.3361893 -10.582377 2.2351363 27 12
6.1148324 -6.9334764 -0.80880564 1 5
9.2744608 -10.516111 2.7255166 34 13
2.6350181 -2.9888413 -0.2088204 19 6
9.2035408 -10.443042 3.2136509 49 14
2.6213255 -2.9754031 -0.069216035 15 7
2.68467 -3.0569711 -1.0901458 1 0
2.5994942 -2.9599838 0.068762399 18 8
3.4044294 -3.8779099 -1.1913412 7 1
2.5808034 -2.9407706 0.20505236 22 9
3.8349645 -4.3713999 -1.1303529 3 2
2.5577228 -2.9165239 0.33938426 22 10
4.410542 -5.0310302 -1.059687 3 3
2.5360703 -2.8928523 0.47236553 16 11
5.1653318 -5.8940806 -0.96227998 4 4
9.3512592 -10.674338 2.2476509 31 12
5.9908323 -6.8408628 -0.79555786 3 5
9.2759438 -10.595826 2.7373452 38 13
2.6385145 -3.0150118 -0.2099718 19 6
9.212678 -10.530973 3.2302973 42 14
2.6267226 -3.0025954 -0.069634885 17 7
7.5388098 -8.6206169 3.0685592 21 15
2.7527039 -3.1565957 -1.1222394 1 0
2.6096523 -2.9936092 0.069320872 17 8
3.3825114 -3.8815467 -1.1886411 7 1
2.5765672 -2.9577401 0.20557572 22 9
3.827419 -4.3936405 -1.1326424 3 2
2.5619192 -2.9419625 0.34130168 21 10
4.4007359 -5.055335 -1.0615643 3 3
2.5423913 -2.9215953 0.47553414 19 11
5.1358757 -5.9039865 -0.96081841 4 4
9.3561449 -10.759219 2.2582884 27 12
5.9525366 -6.8451958 -0.79364049 7 5
9.2826929 -10.678516 2.75032 34 13
2.6384542 -3.0362644 -0.21080916 17 6
9.2014208 -10.592489 3.2392952 19 14
2.6353674 -3.0348511 -0.070158459 16 7
2.6632628 -3.0756392 -1.0901458 1 0
2.6109655 -3.0163074 0.069635011 17 8
3.379143 -3.9051187 -1.1922408 7 1
2.5871329 -2.9908845 0.20725046 19 9
3.7966464 -4.3891568 -1.128063 3 2
2.5750921 -2.9780142 0.34443927 21 10
4.3933969 -5.0826211 -1.0640672 3 3
2.5529435 -2.9544847 0.47943395 20 11
5.143784 -5.9549274 -0.96617973 2 4
9.3508081 -10.829192 2.2661104 9 12
5.965065 -6.9081559 -0.79852122 4 5
9.295392 -10.768816 2.7652032 31 13
2.6513259 -3.0726748 -0.21269327 17 6
9.2229414 -10.692422 3.2599907 35 14
2.6325929 -3.0531182 -0.070367895 14 7
7.4681015 -8.6640987 3.0649357 55 15
2.649992 -3.0819874 -1.0891106 1 0
2.6251862 -3.0542169 0.070298195 17 8
3.3781908 -3.9316714 -1.1967399 2 1
2.5974989 -3.0241387 0.20892523 21 9
3.7915359 -4.4142962 -1.1311159 3 2
2.5763619 -3.0005896 0.34600806 21 10
4.3859205 -5.1099181 -1.0665702 3 3
2.5632975 -2.9874828 0.4833338 19 11
5.115212 -5.9638052 -0.96471822 4 4
9.3270922 -10.878263 2.269552 11 12
6.1912084 -7.2208567 -0.83216339 1 5
9.3177958 -10.871259 2.7831395 8 13
2.663975 -3.1092107 -0.21457735 17 6
9.2324657 -10.779315 3.2766371 45 14
2.6401267 -3.0835545 -0.070856549 13 7
7.3837962 -8.6270046 3.0426772 10 15
2.12743 -2.4917808 -0.87791419 1 0
2.627491 -3.0785723 0.070647255 17 8
3.2834973 -3.8485599 -1.1679462 2 1
2.6076636 -3.0575011 0.21059994 21 9
3.778652 -4.4304919 -1.1318791 3 2
2.5800915 -3.0262425 0.34792551 19 10
4.3603697 -5.1161757 -1.064693 3 3
2.5721638 -3.0190778 0.48698983 18 11
5.10466 -5.9937158 -0.96666723 4 4
9.2826605 -10.903234 2.2679875 11 12
6.1711321 -7.2484922 -0.83286065 1 5
9.320507 -10.951557 2.7953525 38 13
2.6725187 -3.1413093 -0.21614744 17 6
9.2452822 -10.870855 3.2946332 27 14
2.6552525 -3.1232226 -0.071554646 13 7
7.3661489 -8.6674471 3.0478537 43 15
2.0849895 -2.4594054 -0.86393809 27 0
2.6309505 -3.1045063 0.071031213 14 8
2.8593988 -3.375268 -1.0212775 2 1
2.612464 -3.0848751 0.21185601 19 9
3.7809265 -4.4646301 -1.1372218 3 2
2.5926836 -3.062602 0.3510631 17 10
4.342484 -5.1313643 -1.0646929 3 3
2.571866 -3.0401623 0.48893973 15 11
5.0862703 -6.0145288 -0.96715558 4 4
9.220315 -10.906906 2.262043 9 12
6.0634708 -7.1726084 -0.82170463 1 5
9.3265753 -11.036511 2.8087077 27 13
2.6770036 -3.1689274 -0.21740349 17 6
9.2500277 -10.953683 3.3099298 37 14
2.6636829 -3.1553926 -0.072078221 9 7
7.2947335 -8.6443863 3.0307715 46 15
2.0851007 -2.4770136 -0.86756146 48 0
2.6419849 -3.1396818 0.071624584 13 8
2.0786219 -2.4710677 -0.74548763 4 1
2.6145337 -3.109261 0.21290271 17 9
3.7779543 -4.4928269 -1.1410379 1 2
2.597362 -3.0899351 0.35315484 17 10
4.3397951 -5.1646395 -1.0684472 2 3
2.5791132 -3.070401 0.49235207 16 11
5.0729046 -6.041368 -0.96861708 4 4
9.1288462 -10.875478 2.2489026 15 12
6.1126928 -7.2822413 -0.83181477 1 5
9.335948 -11.126148 2.8232093 31 13
2.6851785 -3.2012057 -0.21897355 17 6
9.2580633 -11.041156 3.3265762 42 14
2.6783438 -3.195322 -0.072776318 11 7
7.2707191 -8.6772003 3.0333598 40 15
2.0652909 -2.4709368 -0.8629027 56 0
2.6489596 -3.1703682 0.072113246 13 8
2.0887225 -2.5007434 -0.75223619 9 1
2.627255 -3.1455066 0.21478681 17 9
2.3718522 -2.8407309 -0.71935004 19 2
2.6069872 -3.1234565 0.35594383 19 10
2.3728447 -2.8439372 -0.58662927 3 3
2.5861807 -3.1007273 0.4957644 16 11
5.105176 -6.1230755 -0.97885418 2 4
6.0081468 -7.2086439 -0.82100743 3 5
9.3485775 -11.220512 2.8388572 34 13
2.6957176 -3.236649 -0.220753 17 6
9.2618618 -11.124325 3.3418732 40 14
2.681807 -3.2210901 -0.073160253 11 7
7.2184229 -8.6730509 3.0235248 43 15
2.0418487 -2.4602919 -0.85669106 61 0
2.6588655 -3.2037559 0.072671726 13 8
2.0990822 -2.530153 -0.75898474 13 1
2.6353838 -3.1777184 0.2163569 14 9
2.6036961 -3.141742 0.35698971 19 10
2.3570981 -2.8441851 -0.58506489 34 3
2.603745 -3.1429172 0.50112665 18 11
2.339838 -2.8253648 -0.45042932 15 4
9.0142984 -10.888673 2.2388906 2 12
9.3551273 -11.304389 2.8522122 31 13
2.7027926 -3.2671146 -0.22221836 14 6
9.2733545 -11.213544 3.3594189 35 14
2.6794658 -3.2412205 -0.073404588 11 7
7.170876 -8.6773462 3.0162778 43 15
2.0213904 -2.4521425 -0.85151464 53 0
2.6629262 -3.2315361 0.073090583 13 8
2.1088228 -2.5600269 -0.76573324 11 1
2.6369712 -3.2023168 0.21740362 17 9
2.3412292 -2.8431699 -0.7159155 39 2
2.6160562 -3.1780474 0.3601273 17 10
2.3534319 -2.8600225 -0.58662927 52 3
2.6028473 -3.1642513 0.50307661 16 11
2.3551779 -2.8641813 -0.4553037 56 4
9.2471771 -11.249689 2.3064704 4 12
2.3380301 -2.8443398 -0.32212773 26 5
9.3617268 -11.393097 2.8663337 31 13
2.6241829 -3.1947324 -0.21667078 8 6
9.2873316 -11.310608 3.3787651 31 14
2.6947792 -3.2830136 -0.074137598 9 7
7.118485 -8.6754408 3.0069599 43 15
2.0103712 -2.4561942 -0.85047942 53 0
2.6668251 -3.2593842 0.07350944 13 8
2.1085103 -2.5779312 -0.76888257 11 1
2.6485329 -3.2393341 0.21928774 16 9
2.3213487 -2.8391659 -0.71286255 42 2
2.6276422 -3.2149277 0.36326492 16 10
2.3221869 -2.8422148 -0.58131045 34 3
2.6093659 -3.1948421 0.50648892 15 11
2.3175454 -2.8385558 -0.44994184 45 4
9.0854473 -11.131922 2.2758093 2 12
2.3243079 -2.8478527 -0.32160482 39 5
9.3765097 -11.49264 2.8831232 38 13
2.2974336 -2.8169322 -0.19050282 29 6
9.3032064 -11.410923 3.3990102 26 14
2.3005152 -2.8227212 -0.063561469 19 7
7.079617 -8.6897526 3.0033367 25 15
1.999349 -2.4601982 -0.84944415 53 0
2.2847304 -2.8123629 0.063247442 12 8
2.1179264 -2.6079667 -0.77563107 11 1
2.6447628 -3.257863 0.21991576 11 9
2.3101869 -2.845727 -0.7124809 40 2
2.6289587 -3.2395513 0.36500803 16 10
2.3209629 -2.861042 -0.58350056 39 3
2.6107011 -3.2193494 0.50892633 15 11
2.2926226 -2.8281238 -0.44701657 40 4
9.0564833 -11.175846 2.2783122 2 12
2.2980459 -2.8358257 -0.31933874 31 5
9.383296 -11.58327 2.8976247 31 13
2.2963853 -2.8357997 -0.19123553 47 6
7.9305301 -9.7968836 2.9099672 10 14
2.3082588 -2.8524973 -0.064050138 48 7
7.0358763 -8.6978912 2.9976428 32 15
1.9883225 -2.464155 -0.84840888 56 0
2.2711329 -2.8156517 0.063142724 42 8
2.1296043 -2.6411333 -0.78327948 15 1
2.2523437 -2.7943521 0.18809548 36 9
2.287919 -2.8384886 -0.70866472 37 2
2.3538713 -2.9213552 0.32822832 7 10
2.3022883 -2.8583572 -0.58131045 42 3
2.6168768 -3.2500894 0.51233864 11 11
2.2740238 -2.8252845 -0.44531041 38 4
2.2793899 -2.8329637 -0.31811854 35 5
9.3932524 -11.678676 2.9132726 18 13
2.2651973 -2.817337 -0.18945611 33 6
7.8633213 -9.7834949 2.8978195 12 14
2.2632182 -2.816889 -0.063072801 36 7
6.9933753 -8.7073374 2.9924664 46 15
1.9772933 -2.4680655 -0.84737366 55 0
2.2575409 -2.8188794 0.063038014 36 8
2.1496015 -2.6850615 -0.79407746 57 1
2.2430644 -2.8018057 0.18809547 37 9
2.2730899 -2.8403263 -0.70713824 37 2
2.2898293 -2.8632908 -0.58068472 43 3
2.2311747 -2.7909455 0.43872961 22 11
2.2616689 -2.8301032 -0.44482332 38 4
2.2444341 -2.8085365 0.56942159 2 12
2.260783 -2.8300068 -0.31689844 37 5
2.2590871 -2.8299093 -0.18977012 40 6
7.816967 -9.7956524 2.8933203 16 14
2.2526174 -2.8228159 -0.063037902 39 7
6.9379587 -8.6972532 2.9810779 43 15
1.9590451 -2.462857 -0.84323239 55 0
2.2382219 -2.8138304 0.062758774 43 8
2.1358345 -2.6860738 -0.79227751 50 1
2.2245712 -2.7986743 0.18736279 45 9
2.2607186 -2.8451695 -0.70637506 37 2
2.211977 -2.7848246 0.31114581 34 10
2.2729499 -2.861588 -0.57880753 42 3
2.2182038 -2.7936649 0.43799835 30 11
2.25474 -2.8406978 -0.44531041 42 4
2.2247941 -2.8039744 0.56691867 33 12
2.2496521 -2.8363199 -0.31672409 39 5
2.205775 -2.7810001 0.68996513 12 13
2.2509313 -2.8389504 -0.1898748 42 6
7.7759676 -9.8108282 2.8901711 20 14
2.236541 -2.8228245 -0.062863372 42 7
6.8871675 -8.6956758 2.9722786 42 15
1.9532624 -2.4723716 -0.84426773 61 0
2.217232 -2.8075025 0.062444635 40 8
2.1228228 -2.6889243 -0.79092777 61 1
2.2078531 -2.7966301 0.18673477 39 9
2.25492 -2.8572738 -0.70751989 39 2
2.1990283 -2.787452 0.3106229 38 10
2.2568314 -2.8617487 -0.57724315 45 3
2.1973782 -2.7873609 0.43580472 34 11
2.2411244 -2.8438735 -0.44457918 40 4
2.2130384 -2.8082337 0.56629294 28 12
2.2365351 -2.8390689 -0.31620112 39 5
2.1936245 -2.785598 0.68920189 31 13
2.2212415 -2.8216813 -0.18820006 42 6
7.7428799 -9.8394432 2.8906212 40 14
2.2234583 -2.825511 -0.062758662 43 7
6.8487382 -8.7063189 2.9681375 38 15
1.9398513 -2.4730947 -0.84219724 61 0
2.2066758 -2.8132665 0.062409732 42 8
2.1030724 -2.6821473 -0.78687871 56 1
2.1894526 -2.7933166 0.18600206 38 9
2.2364569 -2.8543103 -0.70484859 37 2
2.1868277 -2.7919741 0.31027427 39 10
2.2436745 -2.8645515 -0.57630455 42 3
2.1844513 -2.7899432 0.43507349 36 11
2.2267873 -2.8450367 -0.44360423 40 4
2.2093084 -2.8237202 0.56785721 45 12
2.2241566 -2.84372 -0.31585252 39 5
2.1880038 -2.7974963 0.69034678 30 13
2.2118723 -2.8290312 -0.18820006 42 6
7.6766081 -9.8220749 2.8780241 38 14
2.2123506 -2.8316793 -0.062723756 45 7
6.818305 -8.7301731 2.9681373 43 15
1.9292651 -2.4764659 -0.84116197 61 0
2.1943846 -2.8177962 0.062339917 45 8
2.0972881 -2.6940854 -0.78822833 57 1
2.1723294 -2.7914848 0.18537404 39 9
2.2197452 -2.8524146 -0.70255893 40 2
2.1775572 -2.7992105 0.31027427 37 10
2.2312365 -2.8692472 -0.57567883 42 3
2.1722627 -2.7944169 0.43458605 37 11
2.2107525 -2.8449547 -0.44238594 42 4
2.1812611 -2.8080149 0.56316417 35 12
2.205663 -2.840451 -0.31463236 41 5
2.1661842 -2.7896106 0.68653059 35 13
2.1921859 -2.8241131 -0.18736267 45 6
7.6183815 -9.8180189 2.8690257 38 14
2.1889708 -2.8220038 -0.062339805 43 7
6.7688489 -8.7294931 2.9598551 43 15
1.917812 -2.4804637 -0.84012663 61 0
2.1771963 -2.8159471 0.062130488 45 8
2.0854883 -2.6983061 -0.7873286 56 1
2.1662354 -2.8037918 0.18568803 41 9
2.2068753 -2.8574238 -0.70179564 37 2
2.1526721 -2.7882481 0.30818254 38 10
2.2207053 -2.8774059 -0.57567883 42 3
2.1612825 -2.8004112 0.43434232 39 11
2.1983831 -2.8495114 -0.44189805 42 4
2.1654141 -2.807791 0.56159985 42 12
2.1847858 -2.8339312 -0.3130635 39 5
2.1559453 -2.7975314 0.68653065 31 13
2.1818204 -2.8321292 -0.18736269 43 6
7.5668883 -9.8258057 2.8631773 44 14
2.174226 -2.8232899 -0.062200181 42 7
6.721838 -8.731637 2.9526083 45 15
1.9067894 -2.4840782 -0.83909136 63 0
2.1619916 -2.8175621 0.061990872 42 8
2.0767701 -2.7074778 -0.78777844 56 1
2.151083 -2.8053732 0.18526936 41 9
2.1968875 -2.8651099 -0.70179564 40 2
2.1429257 -2.7957451 0.30818254 39 10
2.1998348 -2.8710282 -0.57286298 45 3
2.1389332 -2.7925544 0.43190491 37 11
2.1903386 -2.8607018 -0.44238555 42 4
2.1527073 -2.812571 0.56097412 44 12
2.1736693 -2.8399584 -0.31288922 41 5
2.1330442 -2.7878885 0.68233281 35 13
2.1670678 -2.8333821 -0.18694399 42 6
7.5171566 -9.8320332 2.8573284 50 14
2.1638637 -2.8312402 -0.062200185 43 7
1.8992777 -2.4922559 -0.83960903 65 0
2.1448724 -2.8155475 0.06178144 43 8
2.059042 -2.7038579 -0.78462911 56 1
2.1412778 -2.8128643 0.18526936 41 9
2.185684 -2.8711987 -0.70141399 39 2
2.1307409 -2.8000374 0.30783391 39 10
2.1826236 -2.8692563 -0.57098573 42 3
2.124366 -2.7936828 0.43092993 39 11
2.175534 -2.8620088 -0.4414106 43 4
2.1380963 -2.8137774 0.55972266 44 12
2.163743 -2.8475289 -0.31288925 42 5
2.1185493 -2.7890639 0.6808064 44 13
2.1547489 -2.8377478 -0.18673465 43 6
7.4745431 -9.8473463 2.8541789 52 14
2.1551766 -2.8403692 -0.062235091 45 7
1.8917321 -2.5004108 -0.84012669 63 0
2.1374438 -2.8262069 0.061851248 42 8
2.0519416 -2.7141378 -0.7855289 56 1
2.1198928 -2.804018 0.18422264 41 9
2.1744647 -2.8772442 -0.7010324 37 2
2.120954 -2.8074582 0.30783394 39 10
2.1773565 -2.8831625 -0.57223719 45 3
2.1098173 -2.7947443 0.42995504 38 11
2.1583557 -2.8600781 -0.43994814 43 4
2.1323235 -2.8255823 0.56066126 44 12
2.1561897 -2.8582454 -0.31323785 41 5
2.111165 -2.7995765 0.68156993 45 13
2.1400211 -2.8388724 -0.18631595 45 6
7.4213605 -9.8484774 2.8469808 60 14
2.1421354 -2.8427098 -0.062130377 43 7
6.6195722 -8.7876587 2.9479494 1 15
1.8818322 -2.5054543 -0.83960903 65 0
2.1208544 -2.8236864 0.061641827 43 8
2.03825 -2.7146938 -0.78372931 57 1
2.1052969 -2.8050113 0.18380396 39 9
2.1561599 -2.8738244 -0.69836104 39 2
2.1063595 -2.8084683 0.30713665 41 10
2.1606727 -2.8808854 -0.57036 45 3
2.1017287 -2.8033135 0.43019876 38 11
2.1405261 -2.8561003 -0.43824199 49 4
2.1141562 -2.8219419 0.55847114 45 12
2.143811 -2.862565 -0.31288925 39 5
2.1018698 -2.8065619 0.68156993 42 13
2.1293979 -2.8443544 -0.18621127 43 6
7.3734813 -9.8527498 2.8411319 68 14
2.1226165 -2.8373599 -0.061851136 46 7
6.618938 -8.8509369 2.9614079 1 15
1.8688935 -2.505487 -0.83753848 65 0
2.1109853 -2.8310721 0.061641827 45 8
2.0287611 -2.721792 -0.78372967 56 1
2.0954926 -2.8123431 0.18380396 41 9
2.1442723 -2.8778098 -0.6975978 39 2
2.091084 -2.8074484 0.30626509 41 10
2.1517828 -2.8899949 -0.57067287 42 3
2.0883749 -2.805856 0.42946756 39 11
2.1293583 -2.8619621 -0.43799824 49 4
2.0983987 -2.8213789 0.55690682 45 12
2.123107 -2.8556406 -0.31132042 39 5
2.085032 -2.8044291 0.67928028 44 13
2.114691 -2.8453581 -0.18579258 45 6
7.3309088 -9.8674784 2.8379829 70 14
2.1103146 -2.8415413 -0.061781328 43 7
6.5580621 -8.8336582 2.9479494 1 15
1.8551002 -2.5061088 -0.83546793 65 0
2.0951412 -2.8303871 0.061467301 45 8
2.0215664 -2.7319903 -0.78462911 56 1
2.0856626 -2.8196402 0.18380395 41 9
2.1325426 -2.8840711 -0.69721621 40 2
2.0760431 -2.8086851 0.30556786 41 10
2.1317849 -2.8851523 -0.56816995 43 3
2.0785677 -2.8131285 0.42946753 39 11
2.1228933 -2.8741677 -0.43872947 52 4
2.0897112 -2.8302758 0.55721974 45 12
2.1095762 -2.8582251 -0.31079748 41 5
2.0712421 -2.8073125 0.6781354 44 13
2.1089902 -2.859519 -0.18621127 45 6
7.2808166 -9.8754597 2.8325839 70 14
2.0991964 -2.8472807 -0.061746422 46 7
6.4973879 -8.8160639 2.9344909 1 15
1.8509167 -2.5187962 -0.83753848 65 0
2.0800176 -2.8316004 0.061327673 46 8
2.0034659 -2.7283862 -0.78147984 56 1
2.0734429 -2.8236837 0.18359458 39 9
2.1213009 -2.8899148 -0.69683456 43 2
2.066226 -2.8159151 0.30556789 42 10
2.1170278 -2.8862047 -0.56691849 43 3
2.0553312 -2.803118 0.42678639 38 11
2.106477 -2.8739238 -0.43751118 50 4
2.082154 -2.8407393 0.55784541 46 12
2.0995865 -2.865572 -0.31079751 41 5
2.0521498 -2.8018541 0.67508245 44 13
2.0883768 -2.85236 -0.18526924 42 6
7.2301869 -9.8787956 2.8262849 70 14
2.0868826 -2.8513634 -0.06167661 45 7
6.4391985 -8.8012686 2.9220674 1 15
1.8409748 -2.5236809 -0.83702081 63 0
2.0729733 -2.8417139 0.061397485 45 8
1.9932591 -2.7334402 -0.78102988 56 1
2.0529857 -2.8163788 0.18265256 42 9
2.1135125 -2.9004753 -0.6975978 43 2
2.0587304 -2.8263311 0.30591649 41 10
2.108608 -2.8948057 -0.56723136 45 3
2.0378451 -2.7986848 0.42508021 37 11
2.094599 -2.8776836 -0.43702328 50 4
2.0652521 -2.8384063 0.55596823 45 12
2.0872273 -2.8696606 -0.31044888 41 5
2.0520854 -2.8213456 0.67813534 44 13
2.073034 -2.851193 -0.18474588 42 6
7.176765 -9.8743439 2.8181868 70 14
2.0792675 -2.8618662 -0.061746422 46 7
6.4220595 -8.8424501 2.9282789 1 15
1.8314625 -2.5282073 -0.83650321 65 0
2.0583501 -2.8424542 0.061257873 46 8
1.9802773 -2.7356455 -0.77968019 52 1
2.0412927 -2.8199351 0.1824432 44 9
2.0946753 -2.8947442 -0.69454485 45 2
2.0446758 -2.8266852 0.30521923 42 10
2.0973327 -2.9005477 -0.56691849 42 3
2.0327151 -2.812217 0.42605519 39 11
2.0798905 -2.8785412 -0.43604875 50 4
2.0465727 -2.8324299 0.55346519 46 12
2.0776999 -2.8765662 -0.31044888 42 5
2.0376279 -2.8221252 0.67660856 44 13
2.0665751 -2.8632698 -0.18505989 43 6
7.128572 -9.880372 2.8127882 70 14
2.0557253 -2.8492856 -0.061327565 46 7
5.814115 -8.0614681 2.6632483 1 15
1.8203704 -2.5314481 -0.83546793 66 0
2.0489128 -2.8492644 0.061257873 46 8
1.9711947 -2.742197 -0.77968055 52 1
2.0314369 -2.8270435 0.1824432 44 9
2.0822675 -2.898849 -0.69378167 45 2
2.0231755 -2.8176215 0.30347613 45 10
2.0865502 -2.9058824 -0.56660563 42 3
2.018748 -2.8124914 0.42508024 37 11
2.0726483 -2.888649 -0.43653587 50 4
2.0286143 -2.8283205 0.55127519 44 12
2.0583582 -2.8708479 -0.3090544 41 5
2.0225384 -2.820889 0.67470044 42 13
2.059396 -2.873354 -0.18526924 43 6
7.0844178 -9.888114 2.8082891 70 14
2.0446031 -2.8548183 -0.061292663 48 7
5.8084316 -8.1131315 2.6736012 1 15
1.810843 -2.5358982 -0.83495021 68 0
2.0273364 -2.8401232 0.060908824 49 8
1.958215 -2.7443027 -0.7783305 45 1
2.0220509 -2.8337643 0.1824432 44 9
2.0692227 -2.9009433 -0.69263679 39 2
2.0091939 -2.8178258 0.30277887 45 10
2.069515 -2.9034965 -0.56472844 42 3
2.0112221 -2.8227544 0.42556769 39 11
2.0625525 -2.8958659 -0.43653584 49 4
2.0238085 -2.8414683 0.55252671 45 12
2.0465157 -2.8744118 -0.30870578 42 5
2.0035725 -2.815136 0.67164755 44 13
2.0470378 -2.8772705 -0.18505991 43 6
7.0396934 -9.8984909 2.8042397 67 14
2.0386019 -2.8664713 -0.061397377 49 7
5.7747784 -8.122901 2.6704955 1 15
1.7986289 -2.5374761 -0.83339739 71 0
2.0190635 -2.8484616 0.060943726 49 8
1.9468503 -2.7476013 -0.77743065 45 1
2.0109925 -2.8391757 0.18233855 45 9
2.0556808 -2.9033415 -0.6914919 40 2
1.9993454 -2.8248219 0.30277887 45 10
2.0587342 -2.9087307 -0.56441551 42 3
1.9926783 -2.8164446 0.42361784 39 11
2.0472069 -2.8945863 -0.43531716 49 4
2.0104563 -2.8436766 0.55158812 45 12
2.0376191 -2.8831646 -0.30888006 39 5
1.9908265 -2.8169546 0.67050266 44 13
2.0282662 -2.8709927 -0.18422252 30 6
6.9978375 -9.9090481 2.8006408 69 14
2.0262768 -2.8703029 -0.061327565 46 7
5.7107458 -8.0924997 2.6539307 1 15
1.8004302 -2.5598528 -0.83857375 24 0
2.0104117 -2.8594654 0.061013542 49 8
1.9306834 -2.7470844 -0.77518117 48 1
1.9913856 -2.8334546 0.18150117 46 9
2.0438967 -2.9092503 -0.69111031 39 2
1.9889787 -2.8321311 0.30277887 45 10
2.0441453 -2.9117641 -0.56347692 40 3
1.9772878 -2.8175755 0.42264286 38 11
2.0303774 -2.8943 -0.43409845 12 4
2.0000203 -2.8510258 0.55158806 46 12
2.0293262 -2.8938758 -0.30922866 8 5
1.9799957 -2.8245778 0.67050266 44 13
6.9384952 -9.9055157 2.7920923 71 14
5.7098575 -8.154521 2.6673896 1 15
1.8136009 -2.5978024 -0.84892654 14 0
1.9986287 -2.8628366 0.060943726 15 8
1.9193326 -2.7502759 -0.77428144 48 1
1.9791973 -2.8371127 0.18129182 46 9
2.0224993 -2.9002633 -0.68729419 34 2
1.9745231 -2.8325191 0.30208164 53 10
2.0299594 -2.9120445 -0.5622254 40 3
1.9679335 -2.8241167 0.42264286 39 11
1.9832832 -2.848263 0.54971081 45 12
1.9650102 -2.8230717 0.6685946 45 13
1.4749527 -2.1198096 -0.13534074 4 6
6.8944817 -9.9124746 2.7875936 71 14
1.6426762 -2.3626211 -0.050227873 5 7
5.6637168 -8.1490202 2.6591072 1 15
1.8765144 -2.7070017 -0.88257295 32 0
1.9130498 -2.7617643 -0.77563107 47 1
1.996106 -2.8827429 -0.68156987 16 2
1.956048 -2.8259454 0.30068716 44 10
2.0141625 -2.9109907 -0.56066114 28 3
1.96371 -2.8391321 0.42386153 42 11
1.0386182 -1.5021948 -0.22423951 2 4
1.9677132 -2.847044 0.54814655 45 12
1.1758431 -1.7013031 -0.1809354 1 5
1.9551439 -2.8299139 0.6685946 42 13
1.4618695 -2.1167283 -0.13481739 1 6
6.8509822 -9.9236507 2.7839944 69 14
5.6527891 -8.1941843 2.6673896 1 15
1.9075705 -2.7724214 -0.90172553 47 0
1.9989913 -2.9063766 0.061572008 1 8
1.9067101 -2.773243 -0.77698088 48 1
1.6901025 -2.4591143 0.15637989 3 9
1.9749112 -2.8735137 -0.67775369 22 2
1.9648485 -2.8610115 -0.54971069 30 3
1.9436758 -2.8312402 0.4216679 21 11
1.0389843 -1.5139946 -0.2254584 4 4
1.9622329 -2.8604112 0.54939801 49 12
1.0459195 -1.5246712 -0.16176111 2 5
1.9341507 -2.8205295 0.66477877 44 13
6.805284 -9.931428 2.7794952 71 14
5.6307001 -8.2234287 2.6704953 1 15
1.8891656 -2.7663007 -0.8975845 40 0
1.8838364 -2.7605658 -0.77158201 50 1
1.9606345 -2.874182 0.18233855 2 9
1.9869958 -2.9128265 -0.68538606 39 2
1.6354479 -2.3983757 0.2539717 9 10
1.9882283 -2.9168198 -0.55909675 36 3
1.0638659 -1.5619103 -0.23203914 1 4
1.9366717 -2.8443835 0.54501778 13 12
1.0361059 -1.5217253 -0.16106386 3 5
1.9220843 -2.824018 0.66401517 42 13
1.0223767 -1.5026885 -0.095251411 3 6
6.7640004 -9.9454556 2.7767961 67 14
1.0489575 -1.5429144 -0.032566093 1 7
5.6345377 -8.2909698 2.6860247 1 15
1.8534842 -2.7344992 -0.88516116 16 0
1.8741888 -2.7671247 -0.77158201 48 1
1.9724132 -2.9132416 -0.68385959 39 2
1.9442155 -2.872674 0.30347613 5 10
1.9736068 -2.9171977 -0.55784529 40 3
1.9305348 -2.8546064 0.42313027 7 11
1.0628545 -1.5721925 -0.23301412 1 4
1.5927054 -2.3568435 0.45053136 4 12
1.0620238 -1.5715548 -0.16594459 1 5
1.9155115 -2.8355904 0.66516036 44 13
1.0215961 -1.512869 -0.095670104 3 6
6.7128887 -9.9447765 2.7700474 65 14
1.018958 -1.5100986 -0.031798188 12 7
5.6941442 -8.4419155 2.7284708 1 15
1.8676504 -2.7762163 -0.89654917 11 0
1.0188166 -1.5150161 0.031868055 9 8
1.8601694 -2.7671807 -0.76978272 35 1
1.0226167 -1.5218141 0.096088849 2 9
1.9523773 -2.9054437 -0.68042505 40 2
1.2131646 -1.8060603 0.19034825 1 10
1.9557036 -2.9125898 -0.55565524 39 3
1.9216655 -2.8629763 0.42337406 2 11
1.055148 -1.5725963 -0.23252663 1 4
1.9012285 -2.8357368 0.66363388 13 13
1.0341001 -1.5429717 -0.097344853 1 6
6.6564412 -9.9357681 2.7610493 60 14
1.0170187 -1.5186309 -0.031902902 3 7
6.3857527 -9.5389233 3.0758061 12 15
1.9609295 -2.9369571 -0.94624245 45 0
1.0079715 -1.5102469 0.031693529 5 8
1.8591515 -2.7866259 -0.77338165 19 1
1.9367768 -2.9040742 -0.67851692 40 2
1.0156577 -1.5234903 0.16019216 4 10
1.9422383 -2.9144669 -0.55471659 40 3
1.1489769 -1.7247738 0.25446317 1 11
1.0419812 -1.5665277 -0.098600917 1 6
6.6184812 -9.9540749 2.7596996 63 14
1.0283149 -1.5471525 -0.032426469 1 7
6.3267589 -9.5225372 3.0633826 10 15
1.942129 -2.9309008 -0.94210136 37 0
1.0115278 -1.5270932 0.031972766 1 8
1.9387095 -2.9279599 -0.81072342 54 1
0.99789983 -1.5070906 0.094728112 3 9
1.9222935 -2.9042687 -0.67699045 40 2
1.9309634 -2.9195812 -0.55440372 43 3
0.98858559 -1.4952903 0.22009604 7 11
1.9224322 -2.9077849 -0.42800498 1 4
1.0368549 -1.5688956 0.29785129 1 12
1.0629147 -1.6101594 -0.10111304 1 6
6.5714798 -9.9548254 2.7538509 60 14
1.0176721 -1.5422089 -0.03225195 1 7
1.9302754 -2.9340973 -0.94106609 40 0
1.0174459 -1.547147 0.032321814 1 8
1.9204258 -2.9213459 -0.80712426 36 1
1.0005766 -1.5220741 0.095460817 1 9
1.9094177 -2.9057052 -0.67584562 39 2
0.98776233 -1.5037243 0.15740319 5 10
1.9125969 -2.9127586 -0.55190074 42 3
0.97708595 -1.4886031 0.21863359 18 11
1.9040649 -2.9008675 -0.42605507 6 4
0.98830014 -1.5062613 0.28533655 11 12
1.2544249 -1.9125876 -0.20010966 2 5
0.9957062 -1.5187043 0.35299656 2 13
1.1823756 -1.804109 -0.11304563 1 6
1.0870689 -1.6593188 -0.034625471 1 7
5.6443148 -8.6188488 2.7605643 2 15
1.9184225 -2.9372478 -0.94003081 40 0
1.0057503 -1.540466 0.03211239 2 8
1.9032719 -2.9162745 -0.80397493 49 1
1.0738304 -1.6459965 0.10299721 1 9
1.8986984 -2.9103768 -0.67546397 42 2
0.98821205 -1.5153358 0.15827474 1 10
1.9040065 -2.9207397 -0.55221361 45 3
1.8906767 -2.9025064 -0.42532384 32 4
0.99381518 -1.5262555 0.28846523 10 12
1.2785165 -1.9634866 -0.20499039 3 5
0.97031581 -1.4907353 0.34574583 10 13
1.1720295 -1.8013237 -0.11262695 4 6
5.8055038 -8.9260435 2.4582651 6 14
1.2120693 -1.8642849 -0.038814034 1 7
1.8965995 -2.9260941 -0.93433678 8 0
1.0743072 -1.6580867 0.03448591 1 8
1.8951994 -2.9261718 -0.80487472 45 1
1.8767914 -2.8988581 -0.67126614 40 2
1.8905805 -2.9223926 -0.55127501 43 3
1.0175948 -1.5735641 0.23008929 1 11
1.8923881 -2.9274266 -0.42800498 48 4
1.2792242 -1.9796513 -0.20621055 3 5
0.98001957 -1.5172009 0.35108846 3 13
1.2296548 -1.9043989 -0.1188026 3 6
5.7753682 -8.9478922 2.4587152 3 14
1.243499 -1.9273157 -0.040035702 4 7
6.167223 -9.5623245 3.0488889 11 15
1.8623369 -2.8953269 -0.92243105 1 0
1.2318181 -1.9158105 0.039756536 3 8
1.8828664 -2.9294906 -0.80397493 49 1
1.1616352 -1.808044 0.11262701 1 9
1.8687837 -2.9086955 -0.67202944 39 2
1.8814353 -2.9306369 -0.55158794 45 3
1.8628644 -2.9039388 -0.42361808 40 4
0.98740101 -1.5398079 0.28971672 1 12
1.2647777 -1.9723645 -0.20499039 1 5
0.98425275 -1.5354881 0.35452324 1 13
1.2564033 -1.960811 -0.12204742 3 6
5.710464 -8.9154863 2.4443183 4 14
1.2550941 -1.9602735 -0.040629078 4 7
6.1108971 -9.5479965 3.0375009 11 15
1.7378845 -2.7226858 -0.86549085 1 0
1.2401816 -1.9436992 0.040245201 4 8
1.8736774 -2.9376884 -0.80442488 50 1
1.2165185 -1.9080811 0.11859332 4 9
1.8554527 -2.9102347 -0.67088455 42 2
1.1050693 -1.7339431 0.17988935 1 10
1.8627028 -2.9238582 -0.54908496 45 3
1.9001411 -2.9837737 0.43434227 1 11
1.8537825 -2.9120984 -0.42386141 17 4
1.8440423 -2.8979142 -0.30051312 23 5
0.97467214 -1.5322884 0.35299656 1 13
1.2570527 -1.9769824 -0.12278011 3 6
5.6772175 -8.9320736 2.4434183 3 14
1.2493163 -1.966331 -0.040663987 4 7
6.0692453 -9.5562248 3.0333598 12 15
1.2398075 -1.9581535 0.040454626 4 8
1.8519472 -2.9260974 -0.79947591 31 1
1.226936 -1.9393216 0.12026808 4 9
1.8431834 -2.9133756 -0.67012131 40 2
1.1863343 -1.8758701 0.19418287 3 10
1.8398193 -2.9103057 -0.54533058 27 3
1.814423 -2.8712425 0.41703686 13 11
1.8436064 -2.9185514 -0.42386141 16 4
1.8256387 -2.8912256 0.54157621 5 12
1.8408533 -2.9164472 -0.30173329 36 5
0.98608434 -1.5622444 0.35910246 1 13
1.2394863 -1.9644669 -0.1217334 3 6
5.5857091 -8.8562384 2.4173243 1 14
1.2445778 -1.9740627 -0.040733792 4 7
6.0327601 -9.5724478 3.0318067 12 15
1.3319323 -2.119993 -0.67085904 1 0
1.2350923 -1.9658558 0.040524434 4 8
1.2222826 -1.9469755 0.1204774 4 9
1.8304056 -2.9167855 -0.66935802 40 2
1.2196835 -1.9443419 0.20080671 4 10
1.8343872 -2.9253974 -0.54689491 18 3
1.7843525 -2.8456044 0.41240585 22 11
1.8218101 -2.906467 -0.42118028 37 4
1.8274887 -2.9177895 -0.30121034 31 5
1.2428734 -1.9859271 -0.12278011 3 6
5.5511451 -8.8733454 2.4164243 1 14
1.2376795 -1.978395 -0.040733792 4 7
6.0218434 -9.6294832 3.0431948 26 15
1.2918198 -2.0721691 -0.65429449 1 0
1.2278788 -1.9703697 0.040524438 4 8
1.2869278 -2.0659285 -0.56192768 3 1
1.2154791 -1.9512304 0.12047742 4 9
1.8160622 -2.9164913 -0.66783166 40 2
1.8304255 -2.9418457 -0.54877204 21 3
1.7980241 -2.8908951 0.41801178 46 11
1.8048564 -2.9030101 -0.41971785 45 4
1.8022808 -2.8988671 0.54063761 52 12
1.8120342 -2.9156897 -0.30033877 38 5
1.776747 -2.8600233 0.65447509 30 13
1.2253975 -1.9732863 -0.1217334 3 6
5.5324702 -8.9125366 2.421823 1 14
1.2244383 -1.9725096 -0.040524367 4 7
6.0299549 -9.7177467 3.0644181 35 15
1.2378297 -2.0010908 -0.63048315 1 0
1.2192342 -1.971029 0.040454626 4 8
1.2769951 -2.065212 -0.56057793 4 1
1.2107611 -1.9588592 0.12068677 4 9
1.8079348 -2.9261527 -0.66859484 22 2
1.767242 -2.8614087 0.29423764 34 10
1.7727855 -2.8715045 0.4143557 38 11
1.8046023 -2.9241827 -0.42191187 21 4
1.7703713 -2.8698354 0.53406739 37 12
1.7913879 -2.9050386 -0.2985957 38 5
1.7868319 -2.8976502 0.6617254 60 13
1.2251352 -1.9875401 -0.12236143 4 6
1.2196428 -1.9801768 -0.040594175 4 7
6.0324602 -9.7979574 3.0830529 32 15
1.2170355 -1.9821368 -0.6232363 1 0
1.2071166 -1.9667519 0.040280107 4 8
1.2789505 -2.0846064 -0.56462705 4 1
1.205303 -1.9645658 0.12079144 4 9
1.7639916 -2.8774447 0.2952835 49 10
1.2024332 -1.9621931 -0.36449233 1 3
1.7523822 -2.8607481 0.41191831 40 11
1.7598134 -2.8740063 0.53375453 40 12
1.784865 -2.9160612 -0.29911864 11 5
1.7439184 -2.8502803 0.64951366 39 13
1.2275685 -2.0071394 -0.12330349 2 6
5.4228849 -8.8701811 2.4002275 31 14
1.2172415 -1.9910349 -0.040733792 4 7
6.0160527 -9.8442822 3.0913351 17 15
1.2181497 -1.9995712 -0.62737739 1 0
1.2016282 -1.9724516 0.04031501 4 8
1.2659491 -2.0788498 -0.56192768 3 1
1.2005149 -1.9721733 0.12100079 4 9
1.1899422 -1.9555731 -0.44496664 1 2
1.7435827 -2.8665624 0.29354036 48 10
1.7439173 -2.8682399 0.4121621 40 11
1.1815231 -1.9440283 -0.27932444 1 4
1.7528478 -2.885196 0.53469318 42 12
1.7767437 -2.9256794 -0.29946724 3 5
1.7385331 -2.8627598 0.65104014 44 13
1.7733191 -2.9211893 -0.17909358 27 6
5.3924308 -8.8864508 2.3997779 30 14
1.2185808 -2.0089498 -0.041013028 4 7
6.0547724 -9.9858122 3.129123 33 15
1.2075135 -1.996987 -0.62530679 2 0
1.1988734 -1.9834793 0.040454626 4 8
1.2435687 -2.0582368 -0.55517912 1 1
1.7350972 -2.8740339 0.29371506 45 10
1.7789811 -2.9478874 -0.54533058 28 3
1.7297931 -2.8675108 0.41118714 42 11
1.7579944 -2.915411 -0.41801208 32 4
1.740726 -2.8879132 0.53406739 42 12
1.7711459 -2.9383807 -0.30016449 23 5
1.7265031 -2.8654478 0.65027726 44 13
1.7538377 -2.9119639 -0.17815156 4 6
5.3513269 -8.8885231 2.3952787 33 14
1.2156856 -2.0200443 -0.041152645 4 7
6.0626993 -10.078068 3.151381 28 15
1.2005358 -2.0011902 -0.62530684 1 0
1.1929711 -1.9893675 0.040489536 4 8
1.2023108 -2.0057359 -0.53988242 1 1
1.7225883 -2.8748178 0.17563954 36 9
1.2734768 -2.1252983 -0.48160201 1 2
1.7250541 -2.8800731 0.29371506 48 10
1.7218118 -2.8769379 0.41167459 41 11
1.7498455 -2.9249365 -0.41849956 27 4
1.7235378 -2.8821044 0.53187728 41 12
1.7598559 -2.9428356 -0.29999018 36 5
1.7144756 -2.8680868 0.64951402 45 13
1.1720031 -1.9613807 -0.11974464 1 6
5.312273 -8.8937645 2.3916795 10 14
1.1953002 -2.0019555 -0.04069889 4 7
6.0759969 -10.180454 3.1767457 31 15
1.2172557 -2.0452104 -0.63773018 1 0
1.187042 -1.9952381 0.040524438 4 8
1.2132316 -2.0400696 -0.54798067 1 1
1.7176456 -2.8893971 0.1761629 41 9
1.1978322 -2.0149751 -0.455652 1 2
1.7088838 -2.8758006 0.29266885 45 10
1.2478994 -2.1008668 -0.38701886 1 3
1.7117592 -2.8829305 0.41167459 41 11
1.7124588 -2.8864045 0.53156441 42 12
1.7383897 -2.9301119 -0.29807273 17 5
1.7074578 -2.8791196 0.65065885 44 13
1.1781136 -1.9889103 -0.040349837 2 7
6.0778236 -10.264768 3.1964154 33 15
1.1767133 -1.9928876 -0.62013048 1 0
1.1810865 -2.0010912 0.04055934 2 8
1.1763964 -1.9939401 -0.53448367 2 1
1.7045054 -2.8902144 0.17584889 43 9
1.1728396 -1.9887047 -0.44878286 1 2
1.6947875 -2.8748827 0.29197156 46 10
1.2004434 -2.0371354 -0.37450412 1 3
1.7047077 -2.8940194 0.41240582 40 11
1.2469285 -2.1177094 -0.30174866 1 4
1.7043768 -2.8957691 0.53219014 42 12
1.6894335 -2.8715253 0.64760554 44 13
1.7242604 -2.9318912 -0.17825621 14 6
5.2411642 -8.915514 2.3876302 1 14
1.1833211 -2.0136998 -0.040768698 2 7
6.0791373 -10.34922 3.2160857 27 15
1.176859 -2.0107291 -0.62427151 1 0
1.173394 -2.0056119 0.04055934 2 8
1.1766016 -2.0118997 -0.53808284 2 1
1.694909 -2.8981662 0.17595354 40 9
1.1711396 -2.0033627 -0.45107254 2 2
1.6857467 -2.8848097 0.29232022 45 10
1.1687003 -2.0007925 -0.36699525 1 3
1.6835738 -2.8834012 0.40996844 40 11
1.1771005 -2.015981 -0.28663659 1 4
1.690765 -2.8968782 0.53125155 41 12
1.6764166 -2.8745995 0.6468423 46 13
5.2006021 -8.921196 2.3840313 1 14
6.0926991 -10.459905 3.2435207 31 15
1.179888 -2.0313258 -0.62944794 1 0
1.1797056 -2.0326447 -0.54258186 1 1
1.679274 -2.8934062 0.17532551 40 9
1.1566083 -1.9936496 -0.44801956 2 2
1.6761708 -2.8903837 0.29232019 45 10
1.1660217 -2.011493 -0.3682467 3 3
1.6670358 -2.8769453 0.40826225 40 11
1.1564751 -1.9958271 -0.28322425 1 4
1.6821394 -2.9041786 0.53156441 41 12
1.1680136 -2.0173628 -0.20394453 1 5
1.668842 -2.8835411 0.64760554 46 13
1.2301705 -2.12643 -0.12874642 1 6
5.1651349 -8.9282722 2.3813319 1 14
6.1034188 -10.558661 3.2678497 27 15
1.1654272 -2.0218375 -0.62530684 2 0
1.2118626 -2.1040928 -0.56057793 1 1
1.6631849 -2.8888655 0.1746975 40 9
1.1519501 -2.0008774 -0.44878286 1 2
1.6626017 -2.8890183 0.29162332 45 10
1.161315 -2.0187736 -0.36887246 2 3
1.6644136 -2.8945034 0.40996844 40 11
1.1376305 -1.9791989 -0.28029963 3 4
1.666087 -2.899756 0.52968723 41 12
1.1629491 -2.0248833 -0.20429315 1 5
1.6582928 -2.887357 0.64722395 45 13
1.1515155 -2.0057859 -0.12121005 1 6
5.124238 -8.9293461 2.376833 3 14
6.1155348 -10.665373 3.2942495 32 15
1.15034 -2.0126774 -0.62116569 2 0
1.2219112 -2.1387675 -0.56867623 5 1
1.6530906 -2.8946536 0.1746975 40 9
1.1465553 -2.008496 -0.4495461 1 2
1.6460772 -2.8847101 0.29057705 45 10
1.1910994 -2.0882194 -0.38076147 1 3
1.6483986 -2.88995 0.40850604 39 11
1.1366142 -1.9935049 -0.28176203 2 4
1.6520423 -2.8986893 0.52843577 42 12
1.1331904 -1.9891131 -0.20028396 3 5
1.6438129 -2.8865917 0.64569747 45 13
1.1362517 -1.996107 -0.12037268 2 6
5.1126795 -8.9853287 2.3867307 4 14
1.1432228 -2.0091684 -0.040349837 1 7
6.1212478 -10.762219 3.317543 22 15
1.1433077 -2.0166807 -0.62116575 2 0
1.1416862 -2.0146406 0.040419724 1 8
1.2207874 -2.1551008 -0.5718255 5 1
1.6449449 -2.9038815 0.17490683 38 9
1.6435262 -2.9025583 -0.64836913 15 2
1.6359975 -2.8904386 0.29057705 44 10
1.1838028 -2.0923643 -0.38076147 1 3
1.6397495 -2.8994281 0.40899348 39 11
1.1351615 -2.0080261 -0.28322425 1 4
1.6448303 -2.9095969 0.52937436 41 12
1.1331015 -2.005199 -0.20150416 2 5
1.6279336 -2.8820553 0.64340776 48 13
1.1263312 -1.9948432 -0.12005864 3 6
5.0831981 -9.0065136 2.3876302 3 14
1.1155623 -1.9765759 -0.039616842 3 7
4.4917769 -7.9618697 2.4494638 15 15
1.1419423 -2.0307627 -0.62427157 1 0
1.1036346 -1.9626387 0.03930277 2 8
1.2021755 -2.1387517 -0.56642693 3 1
1.6328421 -2.9061234 0.1746975 38 9
1.4670657 -2.6121435 -0.58234918 20 2
1.6239474 -2.892657 0.29022846 44 10
1.6174968 -2.8823447 0.40582487 38 11
1.6336979 -2.9135981 0.5290615 42 12
1.1475259 -2.0473781 -0.205339 1 5
1.6193271 -2.8891504 0.64378935 46 13
1.1167814 -1.9933403 -0.11974464 2 6
5.0552092 -9.0267248 2.3885307 1 14
1.1008415 -1.9664987 -0.039337605 11 7
4.4705606 -7.9893017 2.4530873 27 15
1.129554 -2.0244162 -0.62116575 1 0
1.6482912 -2.9565356 -0.78147984 10 1
1.6110206 -2.8908694 0.17344141 38 9
1.4679526 -2.6341434 -0.58616537 32 2
1.6143464 -2.8980265 0.29022846 44 10
1.6577194 -2.9771113 -0.53969884 48 3
1.605495 -2.8845046 0.40533742 40 11
1.637805 -2.9437637 -0.41362476 36 4
1.618717 -2.910651 0.52749711 41 12
1.6120938 -2.8999331 0.64493418 45 13
1.1233981 -2.021668 -0.12121005 1 6
5.0369158 -9.0681639 2.394829 3 14
1.1056188 -1.9913093 -0.039756462 4 7
4.4332724 -7.9879675 2.4479113 18 15
1.4330336 -2.5895228 -0.79302156 4 0
1.0899061 -1.9702957 0.03930277 8 8
1.6332459 -2.9537442 -0.7792303 19 1
1.6009197 -2.8964756 0.17344142 40 9
1.4483018 -2.6203504 -0.58196759 27 2
1.5984393 -2.8931801 0.2891826 45 10
1.6358579 -2.9621291 -0.5359444 37 3
1.5925381 -2.8848772 0.40460619 39 11
1.6371105 -2.9668438 -0.41606182 52 4
1.6075931 -2.9145534 0.52718425 42 12
1.5962744 -2.8952274 0.64264452 41 13
5.0052309 -9.0856915 2.394829 3 14
1.1015548 -2.0004113 -0.039861172 1 7
4.4007039 -7.9949312 2.4453228 16 15
1.4258449 -2.5978961 -0.79405683 6 0
1.6266736 -2.9662619 -0.78102988 22 1
1.5907992 -2.9020457 0.17344141 41 9
1.4363152 -2.6202254 -0.58082271 32 2
1.5845008 -2.891753 0.28848532 48 10
1.6207637 -2.9591589 -0.53438014 38 3
1.5843647 -2.8939009 0.40509361 39 11
1.6105433 -2.9429364 -0.41191822 34 4
1.5917215 -2.9097495 0.52530706 42 12
1.6092547 -2.9418011 -0.29336631 35 5
1.5842746 -2.8973367 0.64188135 48 13
4.3561068 -7.9797211 2.4360051 18 15
1.4158442 -2.601161 -0.79353923 6 0
1.6135162 -2.9667861 -0.77968019 21 1
1.5797061 -2.9058266 0.17333676 41 9
1.4290355 -2.6286721 -0.58158588 30 2
1.5705917 -2.8902638 0.28778809 42 10
1.6047672 -2.9543839 -0.53250295 39 3
1.5761477 -2.9029031 0.40558112 40 11
1.6049951 -2.9572637 -0.4131369 43 4
1.5853227 -2.9222333 0.52655858 43 12
1.5932754 -2.9368927 -0.29232046 43 5
1.5732152 -2.9011233 0.6414997 48 13
1.5999489 -2.9516511 -0.17595342 45 6
5.0475135 -9.3157396 2.4461179 1 14
4.3171892 -7.9744925 2.4297936 17 15
1.4049206 -2.6026874 -0.79250395 6 0
1.59205 -2.9518185 -0.77428144 19 1
1.5662687 -2.9040174 0.17291805 42 9
1.5605319 -2.8945901 -0.63921028 24 2
1.5586027 -2.8922207 0.28743947 42 10
1.5916345 -2.9547501 -0.5315643 41 3
1.5547123 -2.8874135 0.40265629 40 11
1.5899584 -2.9541085 -0.41191822 45 4
1.5728148 -2.922256 0.52561992 45 12
1.5811262 -2.9389272 -0.29197183 38 5
1.5621488 -2.9048679 0.64111841 48 13
1.5782884 -2.9361084 -0.17469738 46 6
5.0537043 -9.4054003 2.4650137 1 14
1.6260787 -3.0262797 -0.059966281 1 7
4.2834091 -7.9751496 2.4256525 14 15
1.3976502 -2.6109819 -0.79353923 6 0
1.566623 -2.9278715 -0.76663303 19 1
1.5485865 -2.8953776 0.17208068 42 9
1.5754101 -2.9467661 -0.64951396 23 2
1.5466197 -2.8941288 0.28709123 43 10
1.5836893 -2.9634957 -0.53219002 41 3
1.549805 -2.9013076 0.40387496 41 11
1.5708036 -2.9418533 -0.4094812 46 4
1.5598142 -2.9225001 0.52468127 47 12
1.5699204 -2.9426708 -0.29179755 40 5
1.5506595 -2.9065681 0.64035481 48 13
1.5610245 -2.9272273 -0.17386001 45 6
5.0444865 -9.463378 2.475811 3 14
1.5647267 -2.9366376 -0.058081429 13 7
4.2437377 -7.967886 2.4189229 13 15
1.3926083 -2.6224272 -0.79560977 4 0
1.5516744 -2.9231958 0.057767395 8 8
1.408426 -2.6544497 -0.69374925 38 1
1.5384703 -2.9007659 0.17208068 42 9
1.5564309 -2.9346304 -0.64569783 23 2
1.5370138 -2.8992419 0.28709123 45 10
1.5696353 -2.9620242 -0.53093857 42 3
1.5378096 -2.9031913 0.40338749 42 11
1.5605252 -2.947319 -0.40948084 46 4
1.5422114 -2.9139597 0.52217841 48 12
1.5638815 -2.9549046 -0.2924948 40 5
1.5460126 -2.9223754 0.64264452 49 13
1.551731 -2.9344237 -0.17396466 43 6
5.0751696 -9.601532 2.5073044 1 14
4.2149973 -7.9809442 2.4184055 11 15
1.3816459 -2.6238534 -0.7945745 4 0
1.5256271 -2.8985121 0.057174016 27 8
1.3964297 -2.6541765 -0.69239926 46 1
1.5264761 -2.9025826 0.17187133 43 9
1.3926564 -2.6481254 -0.58158588 35 2
1.5231758 -2.8975356 0.28639361 45 10
1.5528542 -2.9552445 -0.52874845 42 3
1.5258201 -2.9050272 0.40290001 49 11
1.5456135 -2.94396 -0.40826213 48 4
1.5320303 -2.9193256 0.52217841 47 12
1.5387436 -2.9321179 -0.28970578 40 5
1.5385379 -2.9329698 0.64378935 48 13
1.5405509 -2.9380538 -0.17386001 45 6
5.2705007 -10.055875 2.6211298 7 14
1.5376915 -2.9350908 -0.057837099 49 7
4.1915946 -8.0041647 2.4209938 21 15
1.3715843 -2.6269476 -0.79405683 4 0
1.5256772 -2.9233198 0.057557959 48 8
1.3871566 -2.6590347 -0.69239926 41 1
1.5163349 -2.9078934 0.17187133 43 9
1.3815889 -2.6494894 -0.58082271 45 2
1.5158154 -2.9081352 0.28691655 46 10
1.3800615 -2.6488159 -0.47305784 77 3
1.5193381 -2.9173775 0.40387493 49 11
1.5334947 -2.945816 -0.40777469 49 4
1.5254776 -2.9316645 0.52342981 47 12
1.5224704 -2.9271328 -0.28865993 41 5
1.522855 -2.9278722 0.6414997 52 13
1.5293645 -2.9416411 -0.17375532 45 6
5.2524409 -10.107065 2.6296778 14 14
1.5255932 -2.9368916 -0.057767291 46 7
4.185885 -8.0616093 2.4339347 21 15
1.372601 -2.6525466 -0.80026859 3 0
1.5117875 -2.921524 0.057418339 38 8
1.3689132 -2.6465514 -0.68790054 44 1
1.5043406 -2.9096203 0.17166199 45 9
1.370066 -2.6510472 -0.58005947 45 2
1.502403 -2.9083607 0.28639361 48 10
1.3658125 -2.6450803 -0.47149348 72 3
1.5027701 -2.9103169 0.40216881 47 11
1.3738869 -2.6618567 -0.36780152 47 4
1.5152349 -2.9369717 0.52342981 43 12
1.5104175 -2.9288876 -0.2883113 41 5
1.5094149 -2.9281988 0.64035481 56 13
1.5075949 -2.9259219 -0.17249927 46 6
1.5144163 -2.9404211 -0.057732385 48 7
4.2054682 -8.1689234 2.4618874 28 15
1.365097 -2.660759 -0.8013038 3 0
1.5019821 -2.9288249 0.057453252 48 8
1.3592039 -2.651551 -0.68790054 44 1
1.4923527 -2.9112992 0.17145266 45 9
1.3581178 -2.6505718 -0.57891464 45 2
1.4922416 -2.9135876 0.28639361 47 10
1.3574712 -2.6515899 -0.47180635 77 3
1.4920931 -2.9158051 0.40216881 45 11
1.3487537 -2.6368303 -0.36365834 66 4
1.5058737 -2.9440017 0.52374274 42 12
1.3586919 -2.6574032 -0.26111871 48 5
1.498291 -2.9317021 0.63997322 55 13
1.4919207 -2.9204948 -0.17187123 46 6
5.1870737 -10.158278 2.6332774 33 14
1.5041436 -2.9456897 -0.057732388 50 7
4.3973665 -8.6154442 2.5918145 37 15
1.3593047 -2.6723955 -0.80337441 4 0
1.4931682 -2.9355717 0.057488155 50 8
1.3495203 -2.6543067 -0.68745029 45 1
1.4803717 -2.9129295 0.1712433 45 9
1.342633 -2.6430435 -0.57624328 46 2
1.4820622 -2.9187787 0.28639361 47 10
1.3459876 -2.6507926 -0.47086772 71 3
1.4824156 -2.9207373 0.40216881 45 11
1.3426963 -2.6465991 -0.36438954 70 4
1.4929075 -2.9439545 0.52280408 45 12
1.3458041 -2.6550212 -0.26042145 73 5
1.4903362 -2.940156 0.64073682 50 13
1.3414073 -2.6474926 -0.15554242 43 6
5.2009029 -10.2693 2.6575718 24 14
1.4360487 -2.8367388 -0.055498485 33 7
4.3611608 -8.6186752 2.588191 40 15
1.3391232 -2.6544659 -0.79664499 4 0
1.4811113 -2.9371951 0.057418346 52 8
1.3393699 -2.6572609 -0.68700075 44 1
1.4710934 -2.9198632 0.17134799 48 9
1.3338614 -2.6474817 -0.57624328 46 2
1.4705826 -2.9201186 0.28604499 47 10
1.3402791 -2.6625328 -0.47211918 71 3
1.4748882 -2.9312136 0.40290001 42 11
1.3325579 -2.6494966 -0.36414546 62 4
1.4817349 -2.9473834 0.52249128 42 12
1.330266 -2.6472411 -0.25920129 76 5
1.4827086 -2.9506032 0.64188129 53 13
1.3312613 -2.6503744 -0.15543775 77 6
5.1501594 -10.257786 2.6499236 24 14
1.3310618 -2.6522851 -0.051798582 72 7
4.31286 -8.5975838 2.5773206 32 15
1.3285214 -2.6576283 -0.79612738 6 0
1.3859067 -2.7724242 0.054102391 44 8
1.3309573 -2.6636634 -0.68745029 44 1
1.4599997 -2.9231937 0.17124331 46 9
1.3223948 -2.6488392 -0.57547998 47 2
1.458091 -2.9219232 0.28569636 48 10
1.3225764 -2.6515183 -0.46930343 77 3
1.4681915 -2.9434495 0.40387496 42 11
1.3215297 -2.650579 -0.36365834 62 4
1.4740807 -2.9578414 0.52342981 45 12
1.3183519 -2.646518 -0.25867832 59 5
1.4631333 -2.9384434 0.6380651 48 13
