# .PCD v0.7 - Point Cloud Data file format
VERSION 0.7
FIELDS x y z intensity ring
SIZE 4 4 4 4 2
TYPE F F F F U
COUNT 1 1 1 1 1
WIDTH 1249
HEIGHT 1
VIEWPOINT 0 0 0 1 0 0 0
POINTS 1249
DATA ascii
-4.320241 -0.16370133 0.075464107 50 8
-4.3250132 -0.16237143 0.22682409 55 9
-4.3284616 -0.16098692 0.3789534 48 10
-4.3661981 -0.16162737 0.5364688 41 11
-4.392261 -0.16105701 0.69613343 48 12
-4.4026127 -0.1606672 0.8563506 40 13
-0.89617842 -0.032548167 -0.046997674 26 6
-4.4265957 -0.15999532 1.0226275 39 14
-4.3305392 -0.15576564 -0.075638488 11 7
-4.405664 -0.15769897 1.1812503 33 15
-4.3167892 -0.14848228 0.075394303 48 8
-4.3255539 -0.14727217 0.22682409 53 9
-4.3329554 -0.14676709 0.37930161 52 10
-4.3726878 -0.14658493 0.53720003 38 11
-4.4006944 -0.14598605 0.69738507 46 12
-4.4011841 -0.14523335 0.85596889 39 13
-0.90626752 -0.029747313 -0.047521036 24 6
-4.4251795 -0.14447892 1.0221775 40 14
-4.3230619 -0.14038959 -0.075498879 13 7
-4.4042559 -0.14225687 1.1807325 35 15
-4.3172817 -0.13341287 0.07539431 50 8
-4.3320303 -0.13235512 0.2271381 53 9
-4.3493719 -0.1321252 0.38069603 50 10
-4.3632507 -0.13102244 0.53598124 40 11
-4.4051256 -0.13074094 0.69801068 48 12
-4.4036264 -0.12992723 0.85635048 42 13
-0.89638376 -0.026290867 -0.04699767 26 6
-4.4353962 -0.12931511 1.0244271 40 14
-4.3355193 -0.12564588 -0.0757083 11 7
-4.4105191 -0.12704904 1.1822854 34 15
-4.3177214 -0.11834283 0.07539431 52 8
-4.3264766 -0.11707053 0.22682409 53 9
-4.3498068 -0.11694317 0.38069603 48 10
-4.3616972 -0.11573828 0.53573757 38 11
-4.4055552 -0.11536325 0.69801068 46 12
-4.4119024 -0.11475897 0.85787737 42 13
-0.89048034 -0.023007181 -0.046683658 20 6
-4.4358215 -0.11383179 1.0244272 38 14
-4.3339324 -0.11046026 -0.075673401 13 7
-4.4070735 -0.11155479 1.1812502 34 15
-4.3261042 -0.10346157 0.075533919 50 8
-4.3228655 -0.1018744 0.22661476 55 9
-4.3581562 -0.10194505 0.38139331 48 10
-4.3680291 -0.10065053 0.5364688 41 11
-4.4000063 -0.099849723 0.69707209 43 12
-4.4142399 -0.099403001 0.85825861 40 13
-0.90652943 -0.02025537 -0.04752104 12 6
-4.4322948 -0.098260678 1.0235273 39 14
-4.3282938 -0.09520033 -0.075568691 13 7
-4.4112988 -0.096254721 1.1822854 37 15
-4.3264389 -0.088358864 0.075533919 50 8
-4.333179 -0.086984456 0.22713813 52 9
-4.3465328 -0.08649262 0.3803474 48 10
-4.3683538 -0.085402533 0.5364688 40 11
-4.4023037 -0.084529087 0.69738507 48 12
-4.4184856 -0.084068388 0.85902178 40 13
-0.88662553 -0.016714392 -0.046474319 7 6
-4.4365072 -0.082862191 1.0244271 40 14
-4.3266006 -0.080053039 -0.075533777 14 7
-4.3903618 -0.080466308 1.1765916 35 15
-4.322722 -0.073189437 0.075464107 48 8
-4.341444 -0.071989611 0.22755681 52 9
-4.3468089 -0.071320787 0.38034743 48 10
-4.3785486 -0.070311807 0.53768742 40 11
-4.414422 -0.069347695 0.69926214 46 12
-4.4069743 -0.068460345 0.85673207 39 13
-0.89466649 -0.013742275 -0.046893004 6 6
-4.4387188 -0.067404859 1.024877 40 14
-4.3308525 -0.065009803 -0.075603589 17 7
-4.3790255 -0.064969562 1.1734856 35 15
-4.3269506 -0.058153506 0.075533919 50 8
-4.3416691 -0.056835618 0.22755681 53 9
-4.355 -0.056249958 0.38104469 47 10
-4.3728132 -0.054953482 0.53695625 40 11
-4.4225388 -0.054033428 0.70051366 46 12
-4.4032602 -0.05303036 0.85596889 39 13
-0.87074357 -0.010334754 -0.045636937 7 6
-4.4467211 -0.052000396 1.0266765 41 14
-4.3290539 -0.049869791 -0.075568691 19 7
-4.3811574 -0.049705304 1.1740032 37 15
-4.3351254 -0.043128733 0.075673543 48 8
-4.3338518 -0.041603208 0.2271381 53 9
-4.3591542 -0.041085258 0.38139328 50 10
-4.3709927 -0.039671037 0.53671247 38 11
-4.4227004 -0.038596489 0.70051366 46 12
-4.4230499 -0.037827559 0.8597855 37 13
-0.93468446 -0.0078306329 -0.048986442 4 6
-4.4468756 -0.03647906 1.0266765 40 14
-4.3372002 -0.034822367 -0.075708307 27 7
-4.3851686 -0.034441091 1.1750387 43 15
-4.3312497 -0.027971134 0.075603724 48 8
-4.3379655 -0.02649927 0.22734746 53 9
-4.3672414 -0.025916938 0.38209054 48 10
-4.3869848 -0.024501752 0.53866237 40 11
-4.4188576 -0.023137338 0.69988799 46 12
-4.4310083 -0.022427632 0.86131155 39 13
-4.3939176 -0.021473039 -0.23027815 2 6
-4.4372325 -0.020910304 1.0244272 40 14
-4.3252964 -0.019627934 -0.075498879 26 7
-4.3833294 -0.019125234 1.174521 54 15
-4.3373203 -0.012868729 0.075708434 48 8
-4.3420258 -0.011368153 0.22755679 52 9
-4.3553505 -0.010641889 0.38104469 45 10
-4.3830748 -0.0091807786 0.53817499 38 11
-4.4189115 -0.0077123842 0.69988799 46 12
-4.4389124 -0.0069736592 0.86283797 42 13
-4.3420367 -0.006062645 -0.22755668 8 6
-4.4489708 -0.0054355068 1.0271266 40 14
-4.3293386 -0.004532747 -0.075568691 32 7
-4.3775744 -0.0038203076 1.172968 51 15
-4.3313398 0.0022684017 0.075603731 48 8
-4.3500285 0.0037965446 0.2279755 52 9
-4.355361 0.0045613074 0.38104469 48 10
-4.396975 0.0061396328 0.53988111 41 11
-4.4228621 0.0077185058 0.70051366 46 12
-4.4232039 0.0084921084 0.85978508 39 13
-4.3020864 0.0090103885 -0.22546324 23 6
-4.4548087 0.010106659 1.0284761 41 14
-4.3293281 0.010578581 -0.075568691 39 7
-4.3736978 0.01145031 1.1719328 51 15
-4.331305 0.017386671 0.075603724 50 8
-4.3539834 0.018998507 0.22818485 53 9
-4.3672729 0.019817656 0.38209051 47 10
-4.3909717 0.021458922 0.53914988 40 11
-4.4267588 0.023178993 0.70113939 48 12
-4.4231472 0.023932043 0.85978508 40 13
-4.3319864 0.024193823 -0.22703327 57 6
-4.4625411 0.025702864 1.0302758 40 14
-4.3372631 0.025738275 -0.0757083 53 7
-4.3736305 0.026717413 1.1719327 51 15
-4.3412166 0.0325808 0.075778246 47 8
-4.349896 0.034164336 0.2279755 52 9
-4.371161 0.035094272 0.38243961 45 10
-4.3868999 0.036751959 0.53866243 38 11
-4.4345512 0.038700193 0.70239073 48 12
-4.4407053 0.039527904 0.86321968 42 13
-4.305913 0.039079618 -0.22567256 48 6
-4.4526806 0.041189872 1.0280263 39 14
-4.3351469 0.040859263 -0.075673394 45 7
-4.3773737 0.042021278 1.1729679 51 15
-4.3450751 0.047778368 0.07584805 47 8
-4.3457561 0.049302913 0.22776617 52 9
-4.3789816 0.050444186 0.38313639 47 10
-4.3966694 0.05218279 0.53988111 38 11
-4.4284644 0.054107163 0.70145231 48 12
-32.055157 0.39165124 -2.804673 10 5
-4.4267988 0.054858454 0.86054838 40 13
-4.3117418 0.054186266 -0.22598659 53 6
-4.4583559 0.056806993 1.029376 40 14
-4.3329787 0.055964772 -0.075638495 48 7
-4.3810639 0.057351604 1.1740032 51 15
-4.3548799 0.063090183 0.07602258 48 8
-4.3595481 0.063918814 0.22849888 53 9
-4.374794 0.065669686 0.38278827 48 10
-4.3924904 0.067468852 0.5393936 37 11
-9.1065302 0.13987671 -1.1182727 2 4
-4.436161 0.068915084 0.70270377 48 12
-32.069534 0.50378585 -2.8060677 10 5
-4.4383583 0.070497736 0.86283797 39 13
-4.3155203 0.069300987 -0.22619593 53 6
-4.4620395 0.071653873 1.0302758 40 14
-4.3327694 0.070333302 -0.075638495 48 7
-4.3692603 0.071689434 1.1708974 51 15
-4.3446498 0.077352278 0.075848065 48 8
-4.3573141 0.078339487 0.22839415 53 9
-4.3705688 0.080103815 0.38243914 47 10
-4.406137 0.082294174 0.54109985 41 11
-4.441833 0.083737418 0.70364237 48 12
-32.035809 0.60952425 -2.8032782 10 5
-4.4322114 0.085102573 0.86169314 40 13
-4.3232546 0.083766311 -0.22661464 55 6
-4.4715199 0.086639062 1.0325254 40 14
-4.3385105 0.084818326 -0.075743206 50 7
-4.368999 0.086177163 1.1708975 51 15
-4.3483677 0.091843851 0.07591787 48 8
-4.3650017 0.093720503 0.22881286 48 9
-4.3822303 0.094854526 0.38348502 48 10
-4.3979011 0.09673056 0.54012489 40 11
-4.441514 0.099240862 0.70364243 48 12
-32.029636 0.71566778 -2.8029301 10 5
-4.4397559 0.099976808 0.86321968 40 13
-4.3109722 0.097830556 -0.22598656 53 6
-4.4731383 0.10229066 1.0329752 41 14
-4.342186 0.10005429 -0.07581301 47 7
-4.3706026 0.10147329 1.1714151 48 15
-4.3520188 0.10712046 0.075987682 48 8
-4.3606553 0.10885604 0.22860354 52 9
-4.3818722 0.11015195 0.3834855 45 10
-4.3955517 0.11203001 0.53988111 37 11
-31.957411 0.82009119 -3.9251666 13 4
-4.4470649 0.11489723 0.70458096 48 12
-32.007019 0.82695395 -2.8011866 10 5
-4.4452677 0.11562606 0.8643645 40 13
-4.3145981 0.11298174 -0.22619596 51 6
-4.4630132 0.11764755 1.0307256 40 14
-4.3538041 0.11552911 -0.076022446 50 7
-4.3760152 0.11688274 1.172968 51 15
-4.3616133 0.12259328 0.076162204 48 8
-4.3562551 0.12396338 0.22839415 53 9
-4.3934116 0.12578914 0.38453093 45 10
-4.4070392 0.12771779 0.54134345 38 11
-4.4010644 0.12831444 -0.54061216 2 4
-4.4328136 0.13001437 0.70239073 46 12
-32.003773 0.94426054 -2.8011866 10 5
-4.4389272 0.13174441 0.86321974 40 13
-4.3261333 0.12915245 -0.22682397 55 6
-4.4625754 0.13322578 1.0307256 40 14
-4.3473778 0.13054608 -0.075917728 53 7
-4.3736496 0.13209899 1.1724504 45 15
-4.3651319 0.13870461 0.076232009 48 8
-4.3677502 0.14031391 0.22902225 46 9
-4.3730068 0.14124678 0.38278779 47 10
-4.4124937 0.14406501 0.54207474 41 11
-8.2495708 0.27078235 -1.013466 2 4
-4.4520516 0.1469122 0.70551962 49 12
-31.972221 1.0606297 -2.7987463 10 5
-4.4599977 0.14873178 0.86741787 42 13
-4.3316183 0.14520845 -0.22713797 55 6
-4.473743 0.14997287 1.0334251 40 14
-4.3428736 0.14634453 -0.075847924 50 7
-4.3673444 0.14793222 1.1708976 51 15
-4.362596 0.15463299 0.07619711 47 8
-4.3732214 0.15577275 0.22933623 51 9
-4.3883886 0.15784776 0.3841823 48 10
-4.339045 0.1568301 -0.68768591 1 3
-4.4198713 0.1605249 0.54304969 41 11
-4.4515114 0.16245198 0.70551962 49 12
-31.956375 1.1717823 -2.7977004 10 5
-4.4398317 0.16357751 0.86360168 40 13
-4.3290896 0.16025397 -0.2270333 55 6
-4.4731922 0.16558835 1.0334251 41 14
-4.3503294 0.16179948 -0.075987548 50 7
-4.3706622 0.16332059 1.1719328 51 15
-4.3640571 0.16917664 0.076232009 50 8
-4.3726802 0.17027417 0.22933622 52 9
-4.3878412 0.17239948 0.3841823 50 10
-4.3385005 0.17121819 -0.68768579 1 3
-4.4113803 0.17486547 0.54207474 41 11
-4.4608169 0.17760591 0.70708388 49 12
-31.93639 1.2771113 -2.7963059 10 5
-4.4529972 0.17885135 0.86627257 42 13
-4.3205519 0.17428704 -0.22661462 48 6
-4.4881959 0.18104964 1.0370244 41 14
-4.3577604 0.17654873 -0.076127149 48 7
-4.3720264 0.17789201 1.1724504 54 15
-4.3654699 0.18372962 0.076266922 47 8
-4.3700638 0.18545209 0.22923157 49 9
-4.3952074 0.18728858 0.38487953 48 10
-4.3892217 0.1877999 -0.69582039 1 3
-4.4107766 0.18949334 0.54207474 40 11
-4.3710794 0.18855318 -0.53719985 2 4
-4.4562225 0.19300409 0.70645803 48 12
-31.927996 1.382838 -2.7959571 10 5
-4.4523792 0.19361615 0.86627257 42 13
-4.3239408 0.18878794 -0.22682394 51 6
-4.4758554 0.19620226 1.0343249 40 14
-4.361114 0.19193506 -0.076196969 50 7
-4.3482189 0.19212896 1.1662388 41 15
-4.3727922 0.19933222 0.076406531 48 8
-4.36939 0.2007044 0.22923157 46 9
-4.394527 0.20262866 0.38487953 48 10
-4.3885403 0.20312014 -0.69582051 1 3
-4.4180198 0.20525728 0.54304969 40 11
-4.3981547 0.20510362 -0.54061216 2 4
-4.4555221 0.20855819 0.70645815 48 12
-31.934916 1.494839 -2.797003 10 5
-4.4575601 0.20943429 0.86741745 40 13
-4.3352261 0.20444377 -0.22745201 51 6
-4.4770894 0.21191697 1.0347747 38 14
-4.3564215 0.20696835 -0.076127149 50 7
-4.3552399 0.207673 1.1683092 41 15
-4.3820567 0.21508522 0.076581061 48 8
-4.3826265 0.21664663 0.22996427 49 9
-4.3937926 0.2179673 0.3848795 50 10
-4.387804 0.21843788 -0.69582051 1 3
-4.4212422 0.22087605 0.5435372 41 11
-4.4251685 0.2218464 -0.544025 2 4
-4.4567399 0.22420895 0.70677108 48 12
-31.941446 1.6069051 -2.798049 10 5
-4.4626842 0.22528881 0.86856228 42 13
-4.3424644 0.2199796 -0.22787069 51 6
-4.4880004 0.22813737 1.0374742 41 14
-4.3556728 0.22217293 -0.076127149 50 7
-4.348701 0.22257826 1.1667564 45 15
-4.365304 0.22954023 0.076301821 52 8
-4.3778543 0.23173249 0.22975489 51 9
-4.3890257 0.23309195 0.38453138 45 10
-4.3870144 0.23375295 -0.69582039 1 3
-4.4244089 0.23651977 0.54402471 40 11
-4.44419 0.23835509 -0.54646194 2 4
-4.4559302 0.23976465 0.70677108 48 12
-4.4481478 0.24012443 0.86589098 39 13
-4.3416696 0.23513637 -0.22787066 53 6
-4.4891219 0.24390787 1.0379241 40 14
-4.3648548 0.23792006 -0.076301679 50 7
-4.3440399 0.23754588 1.1657212 44 15
-4.3724623 0.24522357 0.076441452 50 8
-4.3929725 0.24791308 0.23059231 49 9
-4.396143 0.24886064 0.38522819 48 10
-4.4335046 0.25175294 -0.70332927 1 3
-4.4176097 0.25162384 0.54329342 38 11
-4.3957658 0.25114822 -0.54061216 2 4
-4.4668989 0.25599554 0.70864826 49 12
-4.4570823 0.25621337 0.86779904 42 13
-4.3368349 0.25006038 -0.22766131 51 6
-4.4979711 0.26013908 1.0401736 41 14
-4.3620009 0.25303909 -0.076266773 50 7
-4.3547554 0.25338134 1.1688269 44 15
-4.3795638 0.2609607 0.076581061 48 8
-4.3781242 0.26240852 0.22985961 49 9
-4.395247 0.26420569 0.38522819 47 10
-4.4226494 0.26740116 0.54402471 41 11
-1.719901 0.1042899 -0.21156529 1 4
-4.4679503 0.2717064 0.70896113 45 12
-4.4620399 0.27212754 0.86894387 40 13
-4.3439097 0.26568508 -0.22807999 46 6
-4.4931455 0.27559984 1.0392737 40 14
-4.3730674 0.26899955 -0.076476216 50 7
-4.3499885 0.26834297 1.1677917 46 15
-4.3906007 0.27700326 0.076790489 48 8
-4.3831606 0.27806887 0.23017357 49 9
-4.4062281 0.28030542 0.38627449 48 10
-4.4296136 0.28334445 0.54499966 41 11
-1.6838683 0.10800573 -0.20717782 2 4
-4.4610605 0.28691953 0.70802259 48 12
-1.7337815 0.11151064 -0.15199967 1 5
-4.4688988 0.28820786 0.87047035 40 13
-4.3429556 0.28084666 -0.22807999 48 6
-4.492156 0.29128119 1.0392737 40 14
-4.3661151 0.28387469 -0.076371498 47 7
-4.3490252 0.28352576 1.1677917 46 15
-4.3856163 0.29206094 0.076720677 52 8
-4.3901348 0.29390207 0.23059228 51 9
-4.3972712 0.29514965 0.38557673 45 10
-4.4404812 0.29960796 0.54646206 41 11
-1.6854615 0.11401648 -0.20742173 5 4
-4.4639735 0.3027572 0.70864826 48 12
-1.7055521 0.11567457 -0.1495593 1 5
-4.487453 0.30513752 0.87428653 40 13
-4.3459349 0.2962755 -0.22828937 46 6
-4.4969444 0.30735877 1.0406235 40 14
-4.3710823 0.29952374 -0.076476201 50 7
-4.3403001 0.29817444 1.1657212 44 15
-4.3805804 0.30708826 0.076650873 48 8
-4.3910751 0.3093642 0.23069699 48 9
-4.3962135 0.31049728 0.38557673 45 10
-4.4334683 0.31468374 0.54573089 38 11
-1.6850532 0.11989919 -0.20742173 9 4
-4.4707708 0.31890094 0.70989972 48 12
-1.7130873 0.12219485 -0.15025656 1 5
-4.4746118 0.31995872 0.87199688 37 13
-4.3528423 0.31201515 -0.22870806 48 6
-4.4997315 0.32333466 1.0415233 40 14
-4.3700104 0.31477895 -0.076476216 50 7
-4.3353791 0.31304494 1.1646858 45 15
-4.3834705 0.32267118 0.076720677 52 8
-4.3919597 0.32483742 0.23080164 49 9
-4.4109993 0.32701966 0.38697124 48 10
-4.4343214 0.33030504 0.54597455 40 11
-1.6786859 0.12533705 -0.20669034 11 4
-4.4775105 0.33509365 0.7111513 48 12
-1.7086768 0.12787615 -0.14990795 2 5
-4.4754252 0.33572304 0.87237847 40 13
-4.3477435 0.32690915 -0.2284987 46 6
-4.5044055 0.33947814 1.042873 40 14
-4.3828425 0.33108571 -0.076720528 50 7
-4.3419647 0.32876092 1.1667564 42 15
-4.3882995 0.33843079 0.076825403 53 8
-4.390799 0.34016636 0.23080164 49 9
-4.4138036 0.34272352 0.38731983 48 10
-4.4272046 0.34531873 0.54524338 37 11
-1.6703217 0.13057716 -0.20571555 11 4
-4.4841905 0.35133839 0.71240276 48 12
-1.6724664 0.1310385 -0.14677033 3 5
-4.4820547 0.35195804 0.87390494 40 13
-4.3545403 0.34270951 -0.22891738 48 6
-4.5070782 0.35550597 1.0437728 41 14
-4.3756795 0.34591001 -0.07661581 50 7
-4.3484945 0.34452564 1.1688271 42 15
-4.3970566 0.35455146 0.07699991 50 8
-4.3875942 0.35532892 0.23069698 49 9
-4.41258 0.35812858 0.38731983 48 10
-4.4457574 0.36238226 0.54768074 38 11
-1.6540277 0.13511397 -0.20376565 11 4
-4.4829369 0.36698911 0.71240276 46 12
-1.6819277 0.13768856 -0.1476419 3 5
-4.4925385 0.36856553 0.87619466 40 13
-4.3533177 0.35790777 -0.22891741 46 6
-4.5058098 0.37123656 1.0437728 41 14
-4.3744459 0.36118308 -0.076615825 50 7
-4.3472648 0.35970166 1.1688269 42 15
-4.3997784 0.37023348 0.07706973 48 8
-4.3982677 0.37165248 0.23132502 49 9
-4.411303 0.37352931 0.38731983 45 10
-4.4424877 0.37773168 0.54743701 40 11
-1.653546 0.14088683 -0.20376565 11 4
-4.4835968 0.38280231 0.71271557 48 12
-1.6715109 0.14271092 -0.14677033 4 5
-4.4853568 0.38374221 0.87504977 39 13
-4.3619914 0.37395456 -0.22944075 55 6
-4.5064282 0.38712838 1.0442228 40 14
-4.3791356 0.37696412 -0.076720536 50 7
-4.33636 0.37404436 1.1662389 41 15
-4.3944745 0.38523906 0.076999918 53 8
-4.4029136 0.38752857 0.23163906 51 9
-4.4099727 0.38892442 0.38731983 50 10
-4.4510283 0.39411205 0.54865569 37 11
-1.6708404 0.14823645 -0.20595911 11 4
-4.484201 0.39862677 0.71302849 46 12
-1.6531415 0.1469574 -0.14520152 3 5
-4.4761682 0.39870009 0.87352335 40 13
-4.3686175 0.38988781 -0.22985949 55 6
-4.5186367 0.40407258 1.0473721 40 14
-4.3897438 0.39331877 -0.076929972 50 7
-4.3254066 0.38831517 1.1636505 42 15
-4.3931026 0.40057638 0.07699991 50 8
-4.405581 0.40249053 0.23184833 49 9
-4.4165249 0.40504378 0.38801718 48 10
-4.4476495 0.40946379 0.54841197 40 11
-1.6663594 0.15370326 -0.20547165 11 4
-4.4867873 0.41385663 0.71365404 46 12
-1.6565861 0.15309376 -0.14555013 3 5
-4.4864783 0.41540745 0.87581307 40 13
-4.3533082 0.40384445 -0.22912674 48 6
-4.5191393 0.42002362 1.0478221 40 14
-4.3884149 0.40787369 -0.076929964 52 7
-4.3298659 0.40319413 1.1652035 40 15
-4.3997135 0.41589516 0.077139534 48 8
-4.4041491 0.41786548 0.23184833 51 9
-4.4269843 0.4215923 0.389063 48 10
-4.4442911 0.42402208 0.54816824 38 11
-1.6520078 0.15790614 -0.20376547 11 4
-4.4872823 0.42970544 0.71396703 45 12
-1.6619917 0.15944627 -0.14607309 3 5
-4.4948468 0.43122149 0.87772155 34 13
-4.3579102 0.41885072 -0.22944078 42 6
-4.5119019 0.43444708 1.0464722 40 14
-4.3969164 0.42414975 -0.077104487 48 7
-4.3342009 0.41886231 1.1667564 44 15
-4.4061956 0.43203118 0.07727915 53 8
-4.4006763 0.43304086 0.23174369 46 9
-4.4295273 0.43666038 0.3894116 47 10
-4.446734 0.43992391 0.54865569 38 11
-1.659348 0.16445491 -0.2047406 11 4
-4.483789 0.44517133 0.7136541 48 12
-1.6574882 0.1645631 -0.14572443 3 5
-4.508944 0.44846243 0.88077408 36 13
-4.3663583 0.43505135 -0.22996412 34 6
-4.514236 0.45058116 1.0473721 40 14
-4.3775015 0.43770379 -0.076790348 47 7
-4.3365569 0.4343752 1.1677917 45 15
-4.4165978 0.44862169 0.077488586 50 8
-4.4090729 0.44941223 0.23226704 51 9
-4.4200473 0.45131135 0.38871434 45 10
-4.4570203 0.45665738 0.55011815 37 11
-1.6488904 0.16923319 -0.20352171 5 4
-4.490068 0.46162713 0.71490568 46 12
-1.658886 0.17055126 -0.14589877 3 5
-4.5053978 0.46399781 0.88039243 37 13
-4.3687859 0.4507001 -0.23017342 19 6
-4.5223274 0.46733665 1.0496216 40 14
-4.3819137 0.45359921 -0.076895058 48 7
-4.3254066 0.44851381 1.1652035 40 15
-4.4030728 0.46278173 0.077279158 48 8
-4.4114499 0.46521801 0.2324764 49 9
-4.4263706 0.4675737 0.3894116 48 10
-4.4652686 0.47325972 0.55133677 41 11
-1.6542116 0.17561622 -0.20425294 2 4
-4.4962869 0.47813326 0.71615714 46 12
-1.6424 0.17494242 -0.14450426 3 5
-4.4900851 0.47826734 0.87772107 36 13
-4.3910184 0.46848911 -0.23142952 12 6
-4.5206685 0.48311979 1.0496216 40 14
-4.388257 0.46974477 -0.077034682 48 7
-4.3238144 0.46360865 1.1652035 41 15
-4.4093819 0.47901246 0.077418767 52 8
-4.4217119 0.4819136 0.23310442 49 9
-4.4285884 0.48422617 0.38976023 47 10
-4.4497766 0.48732984 0.54963064 38 11
-1.665428 0.18268819 -0.20571537 2 4
-4.5004807 0.49447265 0.71709573 48 12
-1.6358382 0.18002023 -0.14398134 4 5
-4.4980597 0.49579564 0.87962925 37 13
-4.3773599 0.48326594 -0.23080149 8 6
-4.5343633 0.50139916 1.0532209 39 14
-4.3905663 0.48549846 -0.077104494 50 7
-4.3221698 0.47869888 1.1652035 41 15
-4.4155455 0.49606246 0.077558391 50 8
-4.4120636 0.49645209 0.23268571 49 9
-4.4387503 0.50102389 0.39080611 45 10
-4.4558506 0.5045293 0.55060565 38 11
-1.6292433 0.18476476 -0.20132808 2 4
-4.5026531 0.51062453 0.7177214 45 12
-1.6431186 0.18662874 -0.14467859 6 5
-4.5080051 0.51282531 0.88191897 31 13
-4.3816004 0.49922019 -0.23111551 8 6
-4.5287127 0.51678222 1.052321 40 14
-4.4027529 0.50240856 -0.077348828 47 7
-4.3262305 0.49444136 1.1667564 44 15
-4.4138765 0.51070237 0.077558391 50 8
-4.4142718 0.51231068 0.23289508 51 9
-4.4409323 0.51697582 0.39115471 48 10
-4.4580965 0.51976258 0.55109304 37 11
-1.6365081 0.19108705 -0.20230322 4 4
-4.4988809 0.52610928 0.7174086 46 12
-1.6464149 0.19282673 -0.14502722 7 5
-4.5101795 0.52822846 0.88268214 34 13
-4.3997564 0.51607424 -0.23216219 8 6
-4.5269747 0.53179735 1.0523211 39 14
-4.3950143 0.51707321 -0.077244118 50 7
-4.3225594 0.5093137 1.1662387 41 15
-4.4239802 0.52752835 0.077767819 52 8
-4.4203897 0.52866405 0.23331378 49 9
-4.4352374 0.53122604 0.39080611 48 10
-4.4661093 0.53650391 0.55231172 37 11
-1.6378019 0.19703591 -0.20254695 4 4
-4.4911332 0.54110134 0.71646994 45 12
-1.6418099 0.19780879 -0.14467858 5 5
-4.5102568 0.54420292 0.88306415 30 13
-4.4237061 0.53454405 -0.23352297 6 6
-4.5328288 0.54853272 1.0541205 39 14
-4.3991375 0.53313226 -0.077348821 47 7
-4.3188381 0.52416664 1.1657212 42 15
-4.4181428 0.54248053 0.077698022 52 8
-4.4204993 0.54433507 0.23341845 48 9
-4.4313784 0.54646087 0.39063177 48 10
-4.4740601 0.55330968 0.55353045 37 11
-1.6390743 0.20299575 -0.20279069 4 4
-4.5029402 0.55847603 0.71866006 46 12
-1.6332006 0.20255731 -0.14398134 4 5
-4.5044332 0.55946058 0.88230097 31 13
-4.407939 0.54825693 -0.23279026 8 6
-4.5386219 0.56531447 1.0559202 39 14
-4.4012184 0.54898113 -0.07741864 47 7
-4.3169818 0.53923911 1.1657212 42 15
-4.4201899 0.55839968 0.077767819 52 8
-4.434423 0.56177139 0.23425581 48 9
-4.4452562 0.56393093 0.39202678 45 10
-4.4661937 0.56817228 0.55279922 37 11
-1.650171 0.21022078 -0.20425294 5 4
-4.502923 0.57444102 0.71897304 43 12
-1.6403892 0.20926559 -0.14467859 4 5
-4.5121899 0.57642454 0.88420904 33 13
-4.3941107 0.56211853 -0.23216219 8 6
-4.5404863 0.5816502 1.05682 38 14
-4.4032421 0.56484985 -0.077488445 45 7
-4.3189054 0.55479622 1.1667564 42 15
-4.4221802 0.57434088 0.077837631 50 8
-4.4245133 0.57621437 0.23383713 48 9
-4.4511638 0.58047515 0.39272356 45 10
-4.4661522 0.58401531 0.55304301 37 11
-1.6494272 0.21597973 -0.20425294 9 4
-4.5106835 0.59144086 0.7205373 45 12
-1.649526 0.21628587 -0.14555013 3 5
-4.5179377 0.59319305 0.88573509 30 13
-4.3921227 0.57745361 -0.23216222 12 6
-4.5384288 0.59749609 1.0568202 39 14
-4.409174 0.58126116 -0.077628069 45 7
-4.3150272 0.56961596 1.1662388 38 15
-4.4360046 0.59188944 0.078116864 48 8
-4.4224749 0.59165543 0.23383713 48 9
-4.44911 0.59600914 0.39272353 45 10
-4.4739227 0.60092282 0.55426162 37 11
-1.642761 0.2209422 -0.20352171 11 4
-4.5085912 0.60718155 0.72053725 43 12
-1.6388881 0.22071256 -0.14467858 3 5
-4.5177851 0.60922247 0.88611674 28 13
-4.3920593 0.59304988 -0.23226689 19 6
-4.5401783 0.61385578 1.0577199 38 14
-4.4011731 0.59584367 -0.077523343 43 7
-4.3321562 0.58727098 1.1714151 45 15
-4.431931 0.60709924 0.078081973 45 8
-4.4322553 0.60871983 0.23446517 46 9
-4.4430547 0.61099303 0.39237487 47 10
-4.4816308 0.61789191 0.55548042 37 11
-1.6301811 0.22504641 -0.2020593 16 4
-4.5103579 0.6234569 0.72116303 43 12
-1.6262662 0.22479521 -0.14363274 3 5
-4.5409122 0.62848794 0.89107776 30 13
-4.3958974 0.60919899 -0.2325809 25 6
-4.5418677 0.63023603 1.0586197 38 14
-4.3990664 0.61120313 -0.077523343 42 7
-4.3281665 0.60212243 1.1708975 51 15
-4.4258237 0.62200934 0.078012154 48 8
-4.439992 0.62557983 0.23498851 49 9
-4.4487863 0.62761188 0.39307216 47 10
-4.483377 0.63408786 0.55596781 38 11
-1.6274201 0.23045716 -0.20181556 9 4
-4.5179324 0.64058375 0.72272736 43 12
-1.6215261 0.22991118 -0.14328408 2 5
-4.5173101 0.64129972 0.8868801 28 13
-4.4016538 0.62566423 -0.23299961 34 6
-4.5531454 0.64800841 1.0617689 37 14
-4.4127436 0.62881207 -0.077802584 42 7
-4.3164749 0.61586243 1.1683092 45 15
-4.4275846 0.63802522 0.078081973 48 8
-4.4456878 0.64221793 0.23540719 49 9
-4.4544559 0.64427817 0.39376938 45 10
-4.4772081 0.6491645 0.55548042 38 11
-1.654109 0.24012922 -0.20522791 4 4
-4.5137153 0.65606534 0.72241455 40 12
-1.648317 0.23958172 -0.14572443 2 5
-4.5325274 0.6596086 0.89031494 30 13
-4.3895612 0.63958532 -0.23247625 38 6
-4.558569 0.66502327 1.0635685 36 14
-4.4144788 0.64478964 -0.077872381 43 7
-4.3257694 0.63260365 1.1714152 48 15
-4.4352221 0.65493613 0.078256488 48 8
-4.4335403 0.65627021 0.23488384 49 9
-4.460063 0.6609906 0.39446664 43 10
-4.4749141 0.66478896 0.55548036 38 11
-1.6336256 0.24298087 -0.20279051 2 4
-4.5231199 0.67356408 0.72429174 39 12
-1.6632361 0.24768214 -0.14711896 2 5
-4.5301971 0.67542619 0.89031494 30 13
-4.3971791 0.65637732 -0.23299961 42 6
-4.5523653 0.68035561 1.0626687 37 14
-4.424068 0.66197091 -0.078081831 42 7
-4.3292656 0.64855707 1.1729679 51 15
-4.4388399 0.67131108 0.078361198 47 8
-4.4351721 0.67233998 0.23509321 48 9
-4.4656081 0.67775106 0.39516386 45 10
-4.4843416 0.68219566 0.55694276 38 11
-1.6249176 0.24748626 -0.20181558 1 4
-4.5168357 0.68875319 0.72366595 40 12
-1.6426651 0.25048307 -0.14537583 2 5
-4.5394578 0.69301224 0.89260417 31 13
-4.3968353 0.67202532 -0.23310427 44 6
-4.5499625 0.69624233 1.0626687 38 14
-4.4177766 0.67680305 -0.078012012 43 7
-4.3288851 0.66395915 1.1734856 45 15
-4.4423981 0.68772036 0.078465916 48 8
-4.4466138 0.68996131 0.2358259 49 9
-4.4514022 0.69150102 0.39411804 45 10
-4.4956636 0.69998276 0.558649 37 11
-1.6279666 0.25376868 -0.20230304 1 4
-4.5163555 0.70481932 0.72397882 42 12
-1.6456729 0.25711676 -0.14572445 2 5
-4.54283 0.70976305 0.89374906 28 13
-4.4043293 0.68891245 -0.23362765 46 6
-4.5513554 0.71272248 1.0635686 37 14
-4.4193382 0.69283944 -0.078081824 42 7
-4.3112731 0.67666954 1.1693447 45 15
-4.4379954 0.70290935 0.07843101 48 8
-4.454041 0.70704442 0.23634924 48 9
-4.4567084 0.70906276 0.39481527 45 10
-4.4971132 0.71629703 0.55913645 36 11
-1.6505949 0.26320058 -0.20522791 2 4
-4.5275226 0.72275996 0.72616893 39 12
-1.6447654 0.26286012 -0.14572443 2 5
-4.5421367 0.72671878 0.89413077 30 13
-4.4096632 0.70631301 -0.23404633 48 6
-4.5602579 0.73125178 1.0662681 37 14
-4.4247909 0.70952922 -0.07822144 45 7
-4.3031621 0.69079596 1.1677916 43 15
-4.4334154 0.71885067 0.078396112 50 8
-4.4515457 0.7225877 0.23634924 48 9
-4.4679723 0.72685486 0.39603543 43 10
-4.4944582 0.73277396 0.55913651 36 11
-1.6300737 0.26576629 -0.20279069 2 4
-4.5308213 0.73951441 0.72710752 42 12
-1.6713663 0.27309799 -0.14816482 1 5
-4.5318222 0.74130177 0.89260417 27 13
-4.397315 0.72008854 -0.23352294 44 6
-4.5674224 0.74794477 1.0685174 34 14
-4.4222875 0.72497046 -0.07822144 45 7
-4.310257 0.70737612 1.1703798 40 15
-4.4507356 0.73681468 0.078745157 48 8
-4.447155 0.73701829 0.2362446 49 9
-4.457675 0.74036157 0.39533818 43 10
-4.492003 0.74767417 0.55913645 36 11
-1.6213509 0.26986673 -0.20181556 1 4
-4.5380864 0.75615853 0.72867191 40 12
-1.7058257 0.28453958 -0.15130241 1 5
-4.5506392 0.75988275 0.89680243 27 13
-4.4008126 0.73565358 -0.23383695 46 6
-4.562995 0.76276457 1.0680674 36 14
-4.435637 0.74227178 -0.078500681 45 7
-4.3193183 0.72358072 1.1734855 45 15
-4.4541831 0.75256938 0.078849867 48 8
-4.4446864 0.75176156 0.23624459 51 9
-4.4748402 0.75846946 0.39708138 43 10
-4.5012412 0.76456076 0.56059891 36 11
-1.6791589 0.28521445 -0.20912771 1 4
-4.5375018 0.77153462 0.72898477 42 12
-1.6891599 0.2875194 -0.14990793 3 5
-4.5519652 0.77562881 0.89756572 27 13
-4.4042554 0.75125086 -0.23415098 51 6
-4.5681248 0.7792027 1.0698671 37 14
-4.4292088 0.75630385 -0.078430869 42 7
-4.3207045 0.73855132 1.174521 45 15
-4.447722 0.7666567 0.078780062 48 8
-4.4598827 0.76955324 0.23718664 46 9
-4.4664102 0.77228618 0.39655837 43 10
-4.5025935 0.78016132 0.56108636 36 11
-4.5338888 0.78558385 -0.56498605 2 4
-4.5349178 0.78657746 0.72898477 43 12
-1.6862341 0.29277849 -0.14973362 4 5
-4.5571055 0.79206437 0.89909166 27 13
-4.4174819 0.76859081 -0.23498836 48 6
-4.573195 0.79568309 1.0716666 38 14
-4.4306164 0.77167177 -0.078500681 42 7
-4.2992001 0.74955732 1.1693447 40 15
-4.4488211 0.78364611 0.078849867 48 8
-4.4647617 0.78806084 0.23760529 46 9
-4.4694362 0.7896902 0.39708138 42 10
-4.5075226 0.79804218 0.56206131 35 11
-4.5435338 0.80605471 0.73086196 42 12
-1.6714174 0.29652113 -0.14851345 7 5
-4.5503063 0.80807525 0.89832848 28 13
-4.4225011 0.78617495 -0.23540707 51 6
-4.5739441 0.81391996 1.0725666 37 14
-4.4315581 0.78938073 -0.078570485 45 7
-4.3038974 0.76741594 1.171415 45 15
-4.4539309 0.80058688 0.078989491 45 8
-4.4659157 0.80434924 0.23781468 48 9
-4.4764557 0.80705529 0.39795288 43 10
-4.5047097 0.81377161 0.56206131 35 11
-4.5484676 0.82331711 0.73211342 42 12
-1.6801746 0.30412805 -0.14938499 3 5
-4.557117 0.82570302 0.90023655 30 13
-4.4118686 0.80018193 -0.23498836 53 6
-4.5864139 0.83266604 1.0761658 37 14
-4.4327111 0.80556029 -0.078640297 45 7
-4.3049941 0.78312635 1.1724504 48 15
-4.4629111 0.81829202 0.079198919 45 8
-4.4630804 0.81993347 0.23781468 46 9
-4.4755707 0.82303554 0.3981272 42 10
-4.5076976 0.83057141 0.56279254 32 11
-4.5572214 0.84134001 0.73399061 42 12
-1.6810622 0.31035247 -0.1495593 4 5
-4.5599976 0.84267664 0.90138191 28 13
-4.4169049 0.81703067 -0.23540707 51 6
-4.5758147 0.8472504 1.0743662 37 14
-4.4456015 0.82394379 -0.07891953 45 7
-4.3041329 0.79850119 1.1729679 43 15
-4.4560952 0.83313042 0.0791291 45 8
-4.4601912 0.8355087 0.23781468 49 9
-4.4902949 0.84195799 0.39969596 43 10
-4.5125751 0.84776729 0.56376749 32 11
-4.5445509 0.85541582 0.73242629 43 12
-1.6819266 0.31658721 -0.14973362 7 5
-4.5647459 0.86004311 0.90290785 28 13
-4.4258018 0.83466345 -0.23603508 51 6
-4.5728292 0.86321896 1.0743662 36 14
-4.444664 0.83982837 -0.078954451 45 7
-4.3013206 0.81351972 1.172968 43 15
-4.4629822 0.85055214 0.07930363 43 8
-4.4729424 0.85406834 0.23865204 46 9
-4.4795003 0.8561309 0.39899874 45 10
-4.5134873 0.8642596 0.56425494 33 11
-4.5434771 0.87164742 0.73273915 43 12
-1.6710275 0.3205798 -0.14886205 4 5
-4.5694294 0.87745196 0.9044345 28 13
-4.426784 0.85086143 -0.23624443 48 6
-4.5831838 0.88175321 1.0775156 39 14
-4.4436688 0.85571522 -0.078989342 42 7
-4.2927632 0.82743233 1.171415 45 15
-4.4521341 0.86459982 0.079164013 43 8
-4.4738541 0.87043953 0.23886137 46 9
-4.4784408 0.87214202 0.39917308 43 10
-4.5201855 0.88191026 0.56547374 35 11
-4.5161347 0.88193929 -0.56498605 2 4
-4.5559158 0.89053237 0.73524207 43 12
-1.662077 0.32488161 -0.14816482 2 5
-4.5682645 0.89377385 0.90481597 31 13
-4.4316268 0.86784506 -0.23666312 48 6
-4.5858154 0.89886969 1.0788652 36 14
-4.4465408 0.87237626 -0.079094052 45 7
-4.2898498 0.84241319 1.1714152 45 15
-4.4628205 0.88285309 0.079408348 45 8
-4.4747071 0.88682663 0.23907071 46 9
-4.4910035 0.890872 0.40056753 42 10
-4.5203152 0.89750654 -0.72992313 1 3
-4.5190263 0.89807034 0.56571746 32 11
-4.4585142 0.88685358 -0.55816138 2 4
-4.5682788 0.90951598 0.73774505 43 12
-1.72737 0.34390867 -0.1540914 1 5
-4.5612659 0.90894735 0.90405273 27 13
-4.4246535 0.8825267 -0.23645376 44 6
-4.5979376 0.91792387 1.0824643 38 14
-4.4493518 0.88906902 -0.079198778 43 7
-4.2982483 0.85965461 1.174521 45 15
-4.4655924 0.89961076 0.079513066 42 8
-4.4715843 0.90244091 0.23907071 45 9
-4.4995842 0.9089101 0.40161341 40 10
-4.5171552 0.91327995 -0.72992313 1 3
-4.5178099 0.91423321 0.56596124 31 11
-4.4398265 0.89925885 -0.55621147 2 4
-4.559269 0.92427951 0.73680651 43 12
-1.7183484 0.34835285 -0.15339416 1 5
-4.5830774 0.92993885 0.90901423 28 13
-4.4215465 0.8979665 -0.23645379 48 6
-4.5832477 0.93163913 1.0797651 38 14
-4.45014 0.90539098 -0.079268582 42 7
-4.2876496 0.87311131 1.1724504 40 15
-4.4683013 0.91639841 0.079617769 40 8
-4.4684067 0.9180454 0.23907071 45 9
-4.4924808 0.92380857 0.40126479 39 10
-4.5410275 0.93461639 -0.73430336 1 3
-4.522368 0.93159974 0.56693608 35 11
-4.4366603 0.91475135 -0.55621147 2 4
-4.5598836 0.94098616 0.7374323 43 12
-4.5721126 0.94434279 0.90748781 27 13
-4.43012 0.91582125 -0.23708183 48 6
-4.579967 0.94763207 1.079765 36 14
-4.4489112 0.92132521 -0.079303488 40 7
-4.2921419 0.88964111 1.174521 45 15
-4.4709487 0.93321502 0.079722494 42 8
-4.4710407 0.93486398 0.23938477 43 9
-4.4931293 0.94029999 0.40161341 40 10
-4.5288024 0.94941676 0.56815481 33 11
-4.46841 0.93756914 -0.56059927 2 4
-4.5604377 0.95771056 0.73805797 42 12
-21.557621 4.5271888 -1.9271883 3 5
-4.5860806 0.96393138 0.91092187 30 13
-4.4386234 0.93374574 -0.23770985 51 6
-4.5918865 0.96682549 1.0833641 36 14
-4.453495 0.93849868 -0.079443112 39 7
-4.2719979 0.90102893 1.1698622 37 15
-4.4715757 0.94964677 0.079792298 43 8
-4.4874506 0.95383787 0.24043143 45 9
-4.4937172 0.95680815 0.40196207 40 10
-4.5343914 0.96629703 -0.73430336 1 3
-4.5332265 0.96687478 0.56912977 33 11
-4.4845238 0.9573065 -0.56303608 2 4
-4.5688276 0.97530276 0.73993522 43 12
-4.5807676 0.97952235 0.91054022 28 13
-4.4392424 0.9500708 -0.23791918 51 6
-4.5999174 0.98529744 1.0860636 37 14
-4.4601345 0.95535606 -0.079617627 42 7
-4.2765422 0.91681033 1.1719326 43 15
-4.472312 0.96531397 0.079862118 40 8
-4.4879994 0.9703396 0.2406408 45 9
-4.5020328 0.97501981 0.40300792 40 10
-4.5261159 0.9810614 0.56864232 33 11
-4.4968448 0.97553849 -0.56498605 2 4
-4.5673251 0.99166417 0.74024796 40 12
-4.5755758 0.99429065 0.91015863 26 13
-4.4360671 0.96478558 -0.23791917 48 6
-4.6080499 1.0030329 1.0887631 38 14
-4.4587269 0.97134376 -0.079652533 40 7
-4.2770905 0.93255687 1.1729679 43 15
-4.4728203 0.98177671 0.079931915 42 8
-4.4884858 0.98685741 0.24085014 45 9
-4.5104499 0.99251181 0.40405428 40 10
-4.5304179 0.99856383 0.56961727 32 11
-4.4546423 0.98267812 -0.56011182 2 4
-4.5811963 1.0114329 0.74306381 43 12
-5.4319406 1.1992595 -0.48667783 1 5
-4.5778284 1.0115273 0.91130346 26 13
-4.432673 0.98026586 -0.23791918 51 6
-4.6007147 1.0182686 1.0878631 36 14
-4.4728804 0.99079406 -0.079966672 45 7
-4.2775812 0.94831741 1.1740031 43 15
-4.4869318 1.0013038 0.080246061 40 8
-4.4850135 1.0025192 0.24085014 45 9
-4.5147357 1.0099903 0.40475103 40 10
-4.5288405 1.0148058 0.56986094 31 11
-4.4744291 1.0034335 -0.56303614 2 4
-4.5718555 1.0261204 0.74212521 40 12
-5.4549375 1.2243218 -0.48911816 1 5
-4.585762 1.0300823 0.91359371 26 13
-4.4389668 0.99792206 -0.23844253 42 6
-4.6085401 1.0368887 1.0905627 37 14
-4.4654927 1.0055239 -0.079896867 42 7
-4.2780147 0.96409178 1.1750386 43 15
-4.4892597 1.0182873 0.080350772 42 8
-4.4892774 1.0199389 0.24126884 45 9
-4.5150681 1.0266272 0.40509963 37 10
-4.5349488 1.0328125 0.57107967 32 11
-4.4708991 1.0190462 -0.56303614 2 4
-4.5682459 1.042073 0.74212521 40 12
-5.359334 1.2225299 -0.48092553 4 5
-4.5955367 1.0491422 0.91626501 24 13
-4.4607687 1.0191944 -0.23980327 53 6
-4.6086922 1.0538381 1.0914625 36 14
-4.4619555 1.0211043 -0.079896867 42 7
-4.2727404 0.97858787 1.174521 45 15
-4.4817801 1.0330532 0.080280952 40 8
-4.493474 1.0374005 0.24168752 45 9
-4.5153389 1.0432785 0.40544823 40 10
-4.537118 1.0499789 0.57181084 31 11
-4.5137272 1.0453959 -0.56888634 2 4
-4.5799756 1.0615814 0.74462819 40 12
-5.3142734 1.2317826 -0.47726497 5 5
-4.5861092 1.0638465 0.91512012 24 13
-4.4532928 1.033856 -0.23959394 42 6
-4.6125779 1.0716844 1.0932621 36 14
-4.4642072 1.0380321 -0.080001585 40 7
-4.2542458 0.98999381 1.1703798 40 15
-4.4820418 1.0496023 0.080350772 42 8
-4.5053806 1.0567279 0.24252486 43 9
-4.5194287 1.060854 0.40614551 40 10
-4.5353575 1.0662644 0.57205456 32 11
-4.4791346 1.0538702 -0.56498605 2 4
-4.5800872 1.0784675 0.74525392 40 12
-5.3021846 1.2484989 -0.47656778 5 5
-4.5900116 1.08165 0.91664612 26 13
-4.4535456 1.0503106 -0.23980328 51 6
-4.6163955 1.0895684 1.0950617 37 14
-4.4722338 1.056367 -0.080211014 40 7
-4.2582841 1.0066167 1.1724504 40 15
-4.4861317 1.0670921 0.080490381 43 8
-4.4938941 1.0705959 0.24210621 45 9
-4.5195742 1.0775474 0.40649411 40 10
-4.5412626 1.0843936 0.5732733 35 11
-4.5140424 1.0787278 -0.56986082 2 4
-4.5878224 1.0972055 0.74713111 40 12
-5.2997327 1.2674631 -0.47674212 5 5
-4.6033921 1.1017773 0.92008072 24 13
-4.4420829 1.0639902 -0.23938461 48 6
-4.6125641 1.1056761 1.0950617 36 14
-4.4724078 1.0729036 -0.080280818 39 7
-4.2603798 1.0228267 1.1740032 43 15
-4.5018177 1.0874418 0.08083944 40 8
-4.499836 1.0886244 0.24262956 46 9
-4.5274034 1.0961313 0.40753999 40 10
-4.5393782 1.1007068 0.57351702 32 11
-4.4716678 1.0851159 -0.56498605 2 4
-4.5858841 1.1136785 0.74744397 39 12
-5.2933397 1.2854835 -0.47656778 5 5
-4.6052408 1.1192304 0.92122602 24 13
-4.4577475 1.0842097 -0.24043131 42 6
-4.612463 1.1226908 1.0959615 36 14
-4.4725213 1.0894564 -0.08035063 39 7
-4.2586603 1.0381497 1.174521 40 15
-4.5057631 1.1050538 0.080979064 45 8
-4.5076461 1.1071849 0.24325761 46 9
-4.5235496 1.1119272 0.4075405 40 10
-4.5490017 1.1198685 0.57522327 31 11
-4.5102568 1.1111641 -0.57034826 2 4
-4.5858049 1.1306252 0.74806976 39 12
-5.2733445 1.3001374 -0.47517326 2 5
-4.6089306 1.1371814 0.92275202 23 13
-4.4675093 1.1031151 -0.241164 38 6
-4.6198673 1.1415895 1.0986608 37 14
-4.4764557 1.1069821 -0.080490246 40 7
-4.2493849 1.0516168 1.172968 43 15
-4.503819 1.1212584 0.081013978 49 8
-4.513443 1.1253275 0.24378094 45 9
-4.5273743 1.1296402 0.40823722 42 10
-4.5566201 1.1386271 0.57668561 30 11
-4.5371633 1.1346065 -0.57424808 2 4
-4.5971603 1.1504637 0.75057274 39 12
-5.2378492 1.3107994 -0.4723843 1 5
-4.6106462 1.1546937 0.92389685 24 13
-4.4713817 1.1206443 -0.24158274 40 6
-4.6309757 1.1615028 1.1022601 36 14
-4.4803224 1.1245483 -0.080629863 40 7
-4.2438149 1.065972 1.1724504 40 15
-4.5018163 1.1374627 0.081048869 45 8
-4.5133605 1.1420557 0.24399032 45 9
-4.5272665 1.1464152 0.40858591 37 10
-4.5564651 1.1555016 0.57717305 35 11
-4.5485678 1.1543437 -0.57619858 4 4
-4.5969453 1.1674762 0.75119841 39 12
-4.6046853 1.1702963 0.92351526 23 13
-4.4635706 1.1352608 -0.24137333 48 6
-4.6514435 1.1839099 1.1081089 22 14
-4.4841218 1.1421543 -0.080769487 40 7
-4.2438116 1.0817345 1.1734856 40 15
-4.5036297 1.154659 0.081153587 43 8
-4.5132146 1.1587967 0.24419962 43 9
-4.5348144 1.165185 0.40963221 43 10
-4.5581722 1.172884 0.57790434 33 11
-4.602407 1.1859791 0.75276279 22 12
-4.5610113 1.175312 -0.41207248 6 5
-4.6252861 1.1927357 0.92847633 9 13
-4.4731178 1.1543293 -0.24210605 51 6
-4.6359625 1.1972146 1.1054095 23 14
-4.4955964 1.1618028 -0.081048734 40 7
-4.2456203 1.0979929 1.1750386 43 15
-4.5111833 1.1733941 0.081363015 43 8
-4.528471 1.1795775 0.2452464 30 9
-4.5577116 1.1880445 0.41207212 16 10
-4.5578918 1.1897895 0.57839179 13 11
-4.5346355 1.1845653 -0.57546729 68 4
-4.6001501 1.2025371 0.75307566 24 12
-4.6002011 1.2034081 0.92427844 17 13
-4.4632645 1.168418 -0.24179201 55 6
-4.601593 1.2054886 1.0982111 22 14
-4.4953818 1.1785036 -0.081118532 29 7
-4.2436309 1.1132956 1.1755563 40 15
-4.5225277 1.1932151 0.081642248 17 8
-4.5187411 1.1930585 0.24493237 24 9
-4.5304217 1.1978353 0.40998033 19 10
-4.5479541 1.2041694 0.57766062 20 11
-4.5153308 1.1955317 -0.57351685 63 4
-4.5617661 1.2086782 0.74744397 24 12
-4.5488429 1.2061039 -0.41172385 1 5
-4.5694065 1.2124099 0.91893595 17 13
-4.4861846 1.1911665 -0.24325746 19 6
-4.4205232 1.173732 1.0559202 7 14
-4.4953141 1.1944304 -0.081188336 17 7
-4.228714 1.1243834 1.1724504 40 15
-4.4934325 1.201491 0.081188492 22 8
-4.4858189 1.2002928 0.24336228 24 9
-4.4879355 1.2025391 0.40649417 21 10
-4.5017562 1.2079256 0.57229835 6 11
-4.4409156 1.1932635 -0.40231109 2 5
-4.3757696 1.1765778 0.88077408 18 13
-4.4648519 1.2013663 -0.24231541 27 6
-4.3394518 1.1676246 1.0374742 13 14
-4.4623647 1.2015322 -0.080664769 19 7
-4.2305574 1.1399078 1.1740031 37 15
-4.4431009 1.2038333 0.080350772 8 8
-4.407485 1.19914 -0.56084305 8 4
-4.4040427 1.1998534 -0.39934769 4 5
-4.3131232 1.175083 0.86894387 9 13
-4.4300127 1.2077603 -0.24064066 14 6
-4.2996292 1.1730199 1.028926 11 14
-4.4311357 1.2097273 -0.080176093 4 7
-4.2358713 1.1572144 1.1765915 45 15
-4.3929915 1.2100312 0.39865008 1 10
-4.4358044 1.2234907 -0.56498605 2 4
-4.2955413 1.1872236 0.86627263 9 13
-4.2464695 1.1752565 1.0172287 10 14
-4.2243586 1.1699308 1.174521 40 15
-4.3553944 1.2135899 0.078919686 1 8
-4.2889538 1.1974971 0.38958594 6 10
-0.99407727 0.27811244 -0.12674409 2 4
-4.2516708 1.1910878 0.85825861 12 13
-4.2693305 1.1968389 -0.2323716 2 6
-4.2029386 1.1790191 1.0077807 9 14
-4.2875967 1.2035737 -0.077732772 1 7
-4.2256217 1.1869733 1.1760739 37 15
-4.2346935 1.1990956 0.38505384 9 10
-4.3221102 1.2246633 0.55158055 7 11
-4.2741508 1.2118812 -0.54548699 2 4
-4.2227259 1.1996891 0.85329759 12 13
-4.2572308 1.210294 -0.23195289 2 6
-4.1779718 1.1885494 1.0028319 9 14
-4.3064499 1.225099 -0.078151636 1 7
-4.2140198 1.1996005 1.1740031 36 15
-4.1864343 1.2012315 0.38104469 13 10
-4.2889729 1.2322738 0.5479244 8 11
-1.0302695 0.29600888 -0.13161884 2 4
-4.4310369 1.2739277 0.73023623 3 12
-4.1845527 1.2046447 0.84642887 7 13
-4.2798486 1.2328871 -0.2334183 2 6
-4.1477904 1.1948454 0.9965331 10 14
-4.2637181 1.2290475 -0.077453539 1 7
-4.2135205 1.2153732 1.1750387 43 15
-4.153728 1.2067697 0.37843046 14 10
-4.2448363 1.2348459 0.54280597 5 11
-0.99116069 0.28833401 -0.12674408 2 4
-4.17488 1.2168665 0.84528399 7 13
-4.1491904 1.2101643 -0.22650996 2 6
-4.1082606 1.1982267 0.98798501 10 14
-4.1636381 1.2151667 -0.0757083 1 7
-4.218739 1.232047 1.1776268 40 15
-4.1114755 1.2092936 0.37494376 16 10
-4.1988249 1.2365768 0.5374437 5 11
-4.3947344 1.295108 -0.56254864 2 4
-4.2517385 1.2537743 0.70207798 15 12
-4.3896413 1.2944398 -0.40039364 4 5
-4.1670566 1.2295933 0.84452039 13 13
-4.1489849 1.2250479 -0.22671928 2 6
-4.0704131 1.2026209 0.97988671 10 14
-4.1938882 1.239898 -0.076336578 16 7
-4.2162647 1.2473137 1.1781445 43 15
-4.086225 1.2173806 0.37302682 43 10
-4.1431222 1.2359061 0.53086281 6 11
-0.93586308 0.27934873 -0.11991939 2 4
-4.1905541 1.251647 0.69269192 10 12
-4.3946419 1.3126047 -0.4012652 31 5
-4.1533341 1.2413207 0.84261227 19 13
-4.0949326 1.2246447 -0.22399783 2 6
-4.028852 1.2056473 0.97088867 11 14
-4.2182693 1.2631344 -0.076860152 50 7
-4.2118855 1.2620238 1.1781445 43 15
-4.4613686 1.3435683 0.081328101 66 8
-4.0876737 1.2333623 0.37354925 56 10
-4.1406822 1.2509347 0.53110647 7 11
-0.988087 0.29869726 -0.12674408 2 4
-4.1521258 1.2559736 0.68706042 30 12
-4.4091034 1.3337066 -0.40300831 42 5
-4.1245484 1.2484165 0.83765131 16 13
-4.0638709 1.2308248 -0.22253239 2 6
-4.0078335 1.2146174 0.96683955 11 14
-4.1946983 1.2720484 -0.076511107 24 7
-4.2037573 1.2755954 1.1771091 43 15
-4.4164848 1.3468838 0.080595113 13 8
-4.0814385 1.2470417 0.373375 81 10
-4.1419854 1.267122 0.5318377 13 11
-0.9566679 0.29284778 -0.12284437 2 4
-4.1533818 1.2721952 0.68799895 45 12
-4.4063253 1.3496726 -0.40318257 39 5
-4.0175414 1.2321208 -0.22022963 4 6
-3.9700356 1.2183094 0.95874137 16 14
-4.197432 1.2896953 1.1765915 45 15
-3.9130692 1.2083032 0.071484968 8 8
-4.0827694 1.2630483 0.37389836 52 10
-4.1090937 1.2727624 0.52818161 12 11
-1.0238997 0.31734174 -0.13161895 2 4
-4.1602364 1.2901952 0.68987608 49 12
-4.4089613 1.3681746 -0.40387982 48 5
-3.9865119 1.2378454 -0.21876422 6 6
-3.947149 1.2263771 0.95424235 16 14
-4.046319 1.2579637 -0.073963068 1 7
-3.991837 1.2417908 1.120169 23 15
-3.9088275 1.221956 0.071484968 14 8
-4.0305829 1.263108 0.3695401 13 10
-4.047801 1.2692796 0.52086943 13 11
-0.98490489 0.30902803 -0.12674408 2 4
-4.1613617 1.3064846 0.69081467 48 12
-4.4079599 1.3847519 -0.40422845 48 5
-3.9628961 1.2464548 -0.21771748 6 6
-3.9110272 1.2308916 0.94659406 18 14
-4.041903 1.2720814 -0.073963068 1 7
-3.8916602 1.2255418 1.0932516 17 15
-3.9176672 1.2404999 0.071729295 16 8
-4.0185528 1.2747599 0.36884284 16 10
-4.0260949 1.2786994 0.51867586 11 11
-0.97241449 0.30902848 -0.12528175 2 4
-4.1473632 1.3180113 0.68925041 48 12
-4.4201884 1.4055632 -0.4057973 48 5
-3.943296 1.2554333 -0.21688011 4 6
-3.8807111 1.236255 0.94029534 12 14
-3.9154956 1.2473363 -0.071729168 1 7
-3.8634312 1.2314919 1.0865225 20 15
-3.9230537 1.2565346 0.071903817 8 8
-4.1555686 1.3326073 0.22870819 1 9
-3.9647563 1.2729441 0.36431074 14 10
-3.9764729 1.2774714 0.51282609 8 11
-0.99028289 0.31832638 -0.12771903 4 4
-4.1502585 1.3348997 0.69050187 48 12
-4.4076681 1.4185424 -0.40510002 48 5
-3.9277046 1.2648298 -0.2162521 2 6
-3.8524776 1.2413478 0.93444669 12 14
-3.9149246 1.2622226 -0.071798973 6 7
-3.8204992 1.2325147 1.0756521 17 15
-3.9034259 1.2652872 0.071624584 9 8
-4.1166964 1.3360075 0.22682409 1 9
-3.9282987 1.2756228 0.36134747 14 10
-3.9644382 1.2888892 0.51185113 10 11
-0.9570744 0.31134149 -0.12357557 9 4
-4.1624799 1.3548818 0.69331777 48 12
-4.4045844 1.4345366 -0.40527436 48 5
-3.9118712 1.2748202 -0.21562405 2 6
-3.8295937 1.2487456 0.92994756 11 14
-3.9104946 1.2758807 -0.071798973 1 7
-3.7831171 1.2350527 1.0663346 19 15
-3.9027855 1.2801516 0.071694389 11 8
-4.468749 1.467521 0.24650244 10 9
-3.9084551 1.285035 0.35995299 13 10
-3.9203165 1.2896919 0.50673264 10 11
-0.96918088 0.31902543 -0.12528165 2 4
-4.2046304 1.3848523 0.70113945 51 12
-4.4071193 1.4523963 -0.40597162 48 5
-3.9185531 1.2929033 -0.2162521 2 6
-3.8027852 1.2554413 0.92454869 11 14
-3.9022198 1.2882684 -0.071729168 1 7
-3.7641084 1.2434024 1.0621935 18 15
-3.9113524 1.298859 0.071938731 8 8
-4.4614444 1.4832608 0.24639775 12 9
-3.8812599 1.2911227 0.35786128 11 10
-3.8816614 1.2927623 0.50234532 8 11
-0.97930473 0.32634073 -0.12674408 2 4
-4.3531899 1.4514899 0.72679466 64 12
-4.413363 1.4715536 -0.40701747 46 5
-3.8685484 1.2913959 -0.21373999 2 6
-3.7725027 1.2600658 0.9182502 12 14
-3.8481605 1.2860831 -0.070821643 27 7
-3.7412047 1.2510636 1.0570171 19 15
-3.8518226 1.2940363 0.070926487 9 8
-3.8484039 1.2951306 0.3552466 14 10
-3.8658388 1.3025002 0.50088292 11 11
-0.97815961 0.32975718 -0.12674408 2 4
-4.4195261 1.4907709 -0.40806332 46 5
-3.9565675 1.3353773 0.81170124 1 13
-3.7459266 1.2657408 0.91285133 16 14
-3.819021 1.2911818 -0.07036788 13 7
-3.724005 1.2597818 1.0533937 25 15
-3.7999482 1.2913878 0.070053868 14 8
-4.3510265 1.4795153 0.24085017 1 9
-3.8193402 1.3002101 0.35298055 16 10
-3.8236892 1.3031791 0.49600819 10 11
-0.96202898 0.32787603 -0.12479416 2 4
-3.8645773 1.3178684 0.64670014 7 12
-4.4142947 1.5061889 -0.40806326 46 5
-3.9667456 1.3542536 0.81475413 1 13
-3.8235278 1.306105 -0.21175121 10 6
-3.7122028 1.2680768 0.90565288 10 14
-3.7806585 1.2921978 -0.069739595 9 7
-3.6905603 1.2621214 1.0451114 53 15
-3.7445829 1.2864397 0.069111444 13 8
-3.7851262 1.3011069 0.20976256 6 9
-3.7773287 1.2999011 0.34949431 17 10
-3.7987013 1.3087391 0.49332702 13 11
-0.96469021 0.3323575 -0.12528165 2 4
-3.8153653 1.3152252 0.63919133 13 12
-4.41116 1.521469 -0.40823761 44 5
-4.0438905 1.3955812 0.83154529 1 13
-3.8059609 1.3142142 -0.21101852 4 6
-3.7061355 1.279744 0.90520304 12 14
-3.7555616 1.2975447 -0.069355644 11 7
-3.6863546 1.274353 1.0451114 54 15
-3.7119606 1.2890105 0.068587869 13 8
-3.748719 1.3025073 0.20798317 14 9
-3.7466521 1.303256 0.34705395 17 10
-3.7530982 1.3069669 0.48796481 13 11
-0.95233458 0.33163795 -0.1238192 2 4
-3.7774065 1.3161713 0.6335597 24 12
-4.426785 1.5433035 -0.41015506 11 5
-4.0614848 1.4167433 0.83612478 6 13
-3.7374678 1.30445 -0.20745967 4 6
-3.6871521 1.286889 0.90160376 9 14
-3.7266958 1.301421 -0.068901889 12 7
-3.6784608 1.285296 1.0440761 35 15
-3.6906836 1.2953526 0.068273731 16 8
-3.697268 1.2983874 0.20536636 17 9
-3.6953194 1.2991531 0.34269616 19 10
-3.7262733 1.311497 0.48503995 16 11
-0.94748449 0.3334761 -0.12333184 2 4
-3.7581148 1.3234411 0.63105673 21 12
-4.0697241 1.434773 0.8387965 7 13
-3.702985 1.3062066 -0.20578492 4 6
-3.6810267 1.2984607 0.90115386 15 14
-3.7053888 1.3077825 -0.06858775 13 7
-3.6778216 1.2987739 1.0451114 35 15
-3.6647284 1.3027886 0.067889772 60 8
-3.6619179 1.3025104 0.20369162 32 9
-3.6525362 1.3006088 0.33920994 24 10
-3.7022808 1.3197792 0.4826026 21 11
-0.93117958 0.33194444 -0.12138182 2 4
-3.696955 1.318608 0.62167072 6 12
-4.4284887 1.5803983 -0.41137519 1 5
-4.0676298 1.4524188 0.83955979 7 13
-3.6337638 1.2982144 -0.20222607 6 6
-3.6482575 1.3033924 0.89440536 20 14
-3.6511509 1.3051447 -0.067680225 9 7
-3.6780357 1.3154789 1.0466644 33 15
-3.6509786 1.3115541 0.067715257 42 8
-3.6575785 1.3146458 0.20369162 43 9
-3.6275809 1.3052946 0.33729252 24 10
-3.6717367 1.3226306 0.4791902 16 11
-0.93380898 0.3363761 -0.12186942 2 4
-3.6869869 1.3288511 0.62073207 6 12
-4.0701785 1.4685652 0.84108579 7 13
-3.6050172 1.301441 -0.20086536 10 6
-3.6329176 1.3115133 0.89170599 18 14
-3.5809762 1.2934684 -0.066458561 6 7
-3.6772864 1.3289816 1.0476996 32 15
-3.6240528 1.3154665 0.067296401 39 8
-3.6623528 1.3308166 0.20421498 35 9
-3.5839107 1.3030206 0.33363202 12 10
-3.6430807 1.3259733 0.47602162 18 11
