# .PCD v0.7 - Point Cloud Data file format
VERSION 0.7
FIELDS x y z intensity ring
SIZE 4 4 4 4 2
TYPE F F F F U
COUNT 1 1 1 1 1
WIDTH 493
HEIGHT 1
VIEWPOINT 0 0 0 1 0 0 0
POINTS 493
DATA ascii
2.6538949 -0.10705537 -0.32612252 1 4
2.6178081 -0.11475375 -0.32173494 4 4
2.6114426 -0.12360932 -0.321004 22 4
2.6169662 -0.1325698 -0.32173494 33 4
2.6204519 -0.1419186 -0.32222271 40 4
2.596159 -0.14969356 -0.31929755 34 4
2.5956206 -0.15875497 -0.31929755 7 4
2.6300981 -0.17930211 -0.32368487 1 4
2.6934967 -0.19212723 -0.42769182 1 3
2.6175759 -0.18763018 -0.32222271 1 4
2.6652312 -0.19946414 -0.42331159 21 3
2.6208642 -0.19706377 -0.32270992 1 4
2.6082861 -0.20527659 -0.32124776 1 4
2.5940034 -0.20460805 -0.22765087 4 5
2.646055 -0.21661541 -0.42049584 40 3
2.6312952 -0.21633184 -0.32417235 1 4
2.5813601 -0.21268001 -0.22660503 27 5
2.6610284 -0.22719498 -0.42299879 60 3
2.6265681 -0.2251763 -0.32368484 1 4
2.6700571 -0.23735681 -0.42456311 52 3
2.6336751 -0.23504922 -0.32465982 1 4
2.573859 -0.23016356 -0.22608209 47 5
2.6652787 -0.24631205 -0.42393744 56 3
2.6249323 -0.24350761 -0.32368487 1 4
2.5829592 -0.24006854 -0.22695364 50 5
2.6703012 -0.25618005 -0.42487597 60 3
2.635922 -0.25381041 -0.3251473 1 4
2.5682228 -0.2477441 -0.22573344 49 5
2.6615741 -0.26425305 -0.42362452 60 3
2.623214 -0.26136917 -0.32368487 1 4
2.5633774 -0.25631094 -0.22538483 49 5
2.6586707 -0.27334002 -0.42331162 56 3
2.6183367 -0.2701169 -0.32319739 2 4
2.574358 -0.26648813 -0.22643068 51 5
2.665508 -0.2839196 -0.42456311 56 3
2.6193509 -0.27946553 -0.32344139 22 4
2.5793552 -0.27610889 -0.22695363 56 5
2.6664641 -0.29343832 -0.42487597 60 3
2.6202824 -0.28928185 -0.32368484 33 4
2.5723851 -0.28490281 -0.22643068 51 5
2.6381748 -0.29265547 -0.13910894 1 6
2.6692963 -0.30365595 -0.4255017 60 3
2.6034782 -0.29662889 -0.32173494 5 4
2.5733545 -0.29410666 -0.22660501 54 5
2.5497773 -0.29231375 -0.13450339 3 6
2.6832628 -0.31283727 -0.52510643 1 2
2.642823 -0.30905759 -0.42143443 27 3
2.6261392 -0.30803579 -0.32465982 1 4
2.5624709 -0.30147457 -0.22573343 49 5
2.6408138 -0.31910592 -0.3266097 1 4
2.569315 -0.31137627 -0.22643068 49 5
2.5397973 -0.30869865 -0.13408469 36 6
2.6809556 -0.33203015 -0.52510643 36 2
2.6621072 -0.33063936 -0.42487597 1 3
2.6238673 -0.32681996 -0.32466009 1 4
2.5662355 -0.32009637 -0.22625642 32 5
2.5426681 -0.3180581 -0.13429403 59 6
2.6778331 -0.34113836 -0.52472484 46 2
2.6649153 -0.33996543 -0.42550173 1 3
2.6030788 -0.33300036 -0.32222271 1 4
2.5376372 -0.32597923 -0.13408469 57 6
2.6708467 -0.34925273 -0.52357996 45 2
2.691133 -0.35286093 -0.42988193 1 3
2.641264 -0.34726003 -0.32709721 1 4
2.5995536 -0.34223768 -0.22939402 1 5
2.5206435 -0.33274418 -0.13324732 15 6
2.6793404 -0.35988033 -0.52548808 52 2
2.6663923 -0.35908875 -0.42612746 1 3
2.6557734 -0.35860261 -0.32904708 1 4
2.5628035 -0.34650463 -0.22625642 1 5
2.6800122 -0.36949894 -0.52586967 46 2
2.6651227 -0.3683942 -0.42612749 1 3
2.6309094 -0.36460084 -0.32612252 1 4
2.5813127 -0.35818675 -0.22799951 2 5
2.6748185 -0.37830186 -0.52510643 48 2
2.6716435 -0.37880412 -0.42737892 1 3
2.6532052 -0.37713459 -0.32904708 1 4
2.5839918 -0.36775637 -0.22834812 10 5
2.5466795 -0.36335313 -0.13481739 40 6
2.6695962 -0.38707304 -0.52434325 46 2
2.6742146 -0.38869578 -0.42800465 2 3
2.6125853 -0.38066939 -0.32417232 1 4
2.5414431 -0.37166241 -0.13460805 55 6
2.6077266 -0.38228562 -0.046004403 1 7
2.6682289 -0.39638931 -0.52434325 46 2
2.6689341 -0.3974463 -0.42737892 2 3
2.6112406 -0.38978666 -0.32417232 2 4
2.5675678 -0.38372552 -0.22712794 47 5
2.5460556 -0.38141915 -0.13492206 57 6
2.5233202 -0.37891388 -0.044538401 4 7
2.6668289 -0.40570071 -0.52434325 46 2
2.6519082 -0.40437797 -0.424876 3 3
2.619746 -0.39994159 -0.32539102 9 4
2.5701518 -0.3932884 -0.22747657 55 5
2.5407605 -0.38969865 -0.13471271 50 6
2.6771085 -0.41635233 -0.52663296 48 2
2.6282117 -0.41015714 -0.3266097 33 4
2.5688334 -0.40180922 -0.22747657 51 5
2.5276153 -0.39626589 -0.13408469 45 6
2.6757131 -0.42522752 -0.52663296 46 2
2.6267638 -0.41932881 -0.32661 40 4
2.581259 -0.41252661 -0.22869676 54 5
2.5322034 -0.40559319 -0.1343987 47 6
2.523304 -0.40507129 -0.044608209 69 7
2.666461 -0.43330535 -0.52510643 47 2
2.6632762 -0.43374211 -0.42737892 37 3
2.6115706 -0.42625701 -0.32490358 60 4
2.5778372 -0.42121309 -0.22852246 51 5
2.5366857 -0.41539818 -0.13471273 50 6
2.5041153 -0.41096216 -0.044294074 50 7
2.7548876 -0.45705673 -0.64470959 22 1
2.6610589 -0.44196704 -0.52434325 45 2
2.600276 -0.43373746 -0.32368484 34 4
2.5684896 -0.4288961 -0.22782516 51 5
2.53916 -0.42490959 -0.13492207 50 6
2.4908328 -0.41771629 -0.044084646 13 7
2.6749845 -0.45388055 -0.52739614 47 2
2.6757631 -0.45497361 -0.42988193 1 3
2.5728695 -0.43886429 -0.22834814 54 5
2.5376611 -0.43377033 -0.13492206 45 6
2.7305074 -0.4726221 -0.63976067 51 1
2.673384 -0.46321532 -0.5273962 13 2
2.6585882 -0.46160752 -0.42737892 1 3
2.6402104 -0.45936608 -0.32904708 1 4
2.5772107 -0.44886822 -0.22887108 51 5
2.5223587 -0.44022205 -0.13418935 47 6
2.5036902 -0.43741417 -0.044363879 1 7
2.7270064 -0.48133549 -0.63931078 53 1
2.6842744 -0.4752425 -0.43175912 1 3
2.6269453 -0.46603835 -0.32758498 1 4
2.579551 -0.45855907 -0.22921968 49 5
2.520885 -0.44858411 -0.13418935 41 6
2.5178974 -0.44895926 -0.044643119 1 7
2.7233915 -0.49050617 -0.63886088 43 1
2.6972182 -0.48627815 -0.53273875 1 2
2.6903751 -0.48601416 -0.43301061 1 3
2.6448359 -0.47874099 -0.33002236 1 4
2.579895 -0.46791616 -0.22939399 29 5
2.5084453 -0.45631403 -0.044503499 1 7
2.4978914 -0.4584488 0.044329058 3 8
2.7235794 -0.50036174 -0.63931078 46 1
2.7108645 -0.49900401 -0.53579175 1 2
2.6730347 -0.49300525 -0.4305076 1 3
2.6275318 -0.48508713 -0.32807213 1 4
2.5147016 -0.46652639 -0.044643119 1 7
2.4470568 -0.45839626 0.043456439 13 8
2.7293885 -0.51177734 -0.64111036 45 1
2.6975288 -0.50629085 -0.5335021 1 2
2.6790628 -0.50379318 -0.43175912 1 3
2.6335392 -0.49618438 -0.32904708 1 4
2.5883124 -0.48813102 -0.23043986 4 5
2.5493295 -0.48170081 -0.13596877 2 6
2.5247638 -0.47797185 -0.044852547 1 7
2.7199295 -0.51983839 -0.63931084 45 1
2.6803186 -0.51275277 -0.53044909 1 2
2.6811681 -0.51388544 -0.43238485 1 3
2.6317911 -0.50537419 -0.32904708 1 4
2.5552878 -0.49114591 -0.22765088 25 5
2.5515552 -0.49135202 -0.13617814 3 6
2.5073721 -0.48375148 -0.044573307 1 7
2.4614627 -0.4789058 0.043770585 49 8
2.720011 -0.52970201 -0.63976073 48 1
2.7054904 -0.52736431 -0.53579175 2 2
2.6871128 -0.52475578 -0.43363631 1 3
2.6222186 -0.51303315 -0.32807213 2 4
2.5652895 -0.50235999 -0.22869676 36 5
2.5292139 -0.49712887 -0.044992164 1 7
2.4656606 -0.48866117 0.043875296 51 8
2.7257915 -0.54071009 -0.64156032 48 1
2.6824508 -0.53259933 -0.53159398 5 2
2.6620157 -0.52950788 -0.42988187 1 3
2.6184649 -0.52179527 -0.32782841 7 4
2.5850136 -0.5155983 -0.23061419 41 5
2.5078552 -0.50202936 -0.044643119 2 7
2.4620662 -0.49643955 0.04384039 54 8
2.7220728 -0.54936063 -0.64111036 46 1
2.6776705 -0.54185879 -0.43269771 2 3
2.5735261 -0.52218658 -0.22974262 49 5
2.5424459 -0.51680428 -0.13596879 57 6
2.5022576 -0.50954485 -0.044573303 2 7
2.4564011 -0.50422668 0.043770585 54 8
2.733501 -0.56160432 -0.64425969 51 1
2.6710713 -0.54926395 -0.5300675 36 2
2.6757627 -0.55120224 -0.43269771 3 3
2.6284616 -0.54241478 -0.32953459 40 4
2.5697365 -0.53076375 -0.2295683 47 5
2.5484495 -0.5272947 -0.13638747 50 6
2.5082963 -0.51989973 -0.044712927 2 7
2.4585404 -0.51361585 0.04384039 50 8
2.7238941 -0.5695473 -0.64246011 48 1
2.688354 -0.56260586 -0.53388369 41 2
2.6467555 -0.55486476 -0.42831755 25 3
2.6129532 -0.54873067 -0.32782841 57 4
2.5717678 -0.54055017 -0.22991693 49 5
2.5309582 -0.53289521 -0.1355501 52 6
2.5045102 -0.52823955 -0.044678032 12 7
2.4567325 -0.52219462 0.04384039 52 8
2.7199833 -0.57864648 -0.64201021 46 1
2.6940544 -0.57362187 -0.53541011 43 2
2.6699173 -0.56945693 -0.43238485 8 3
2.6032569 -0.55618924 -0.32685348 58 4
2.5698652 -0.54952407 -0.22991693 49 5
2.5251768 -0.54089004 -0.13534075 52 6
2.4627132 -0.53245741 0.04398001 52 8
2.7274699 -0.59019816 -0.64425969 48 1
2.5180871 -0.54534972 0.13502683 1 9
2.6747668 -0.57928234 -0.53197557 32 2
2.6051793 -0.56611592 -0.32734096 40 4
2.5874002 -0.56272542 -0.23166005 49 5
2.5310791 -0.55140173 -0.13575943 45 6
2.4968534 -0.54485857 -0.044608217 6 7
2.464746 -0.54190946 0.044049822 54 8
2.7311032 -0.6009717 -0.64560944 45 1
2.4459491 -0.53867197 0.13125864 5 9
2.6870959 -0.59276325 -0.43582642 1 3
2.6031871 -0.57520634 -0.32734093 40 4
2.5698571 -0.56831205 -0.23026557 51 5
2.5369391 -0.56196129 -0.13617814 50 6
2.4550326 -0.54876482 0.043910198 50 8
2.7270868 -0.61007589 -0.64515954 43 1
2.6734452 -0.59954578 -0.43394917 1 3
2.6127841 -0.58689994 -0.32880336 16 4
2.5678575 -0.57727909 -0.23026556 51 5
2.5388589 -0.57169098 -0.13638747 45 6
2.5262499 -0.56931496 -0.045201592 1 7
2.461 -0.5586738 0.044049818 48 8
2.7193477 -0.61782062 -0.6438098 37 1
2.4071698 -0.54733747 0.12937452 29 9
2.7259836 -0.62032902 -0.54342413 1 2
2.6714425 -0.60840797 -0.43394917 1 3
2.5697114 -0.58712655 -0.23061417 47 5
2.5233204 -0.57699054 -0.13565478 25 6
2.5476377 -0.58348691 -0.045620449 1 7
2.4726746 -0.57040727 0.044294156 18 8
2.7095795 -0.62555569 -0.64201021 6 1
2.4149747 -0.55798477 0.12989788 42 9
2.6933057 -0.62229371 -0.53731823 1 2
2.6885476 -0.62218297 -0.43707788 1 3
2.626133 -0.60870498 -0.33099729 1 4
2.5755136 -0.59744567 -0.23131141 47 5
2.5416906 -0.59146982 -0.045550644 1 7
2.4169011 -0.56732404 0.13010722 41 9
2.6911175 -0.6316914 -0.53731829 1 2
2.6863592 -0.63156402 -0.43707788 1 3
2.60467 -0.61331838 -0.32855961 1 4
2.5811696 -0.60826027 -0.23200867 42 5
2.5522759 -0.60239178 -0.13743418 1 6
2.5318263 -0.59849828 -0.045411028 1 7
2.5055935 -0.59645438 0.044957343 1 8
2.4362767 -0.58085245 0.13125862 16 9
2.6927149 -0.64199191 -0.53808147 1 2
2.6918237 -0.64277244 -0.43832934 1 3
2.6218197 -0.62702388 -0.33099699 1 4
2.5732176 -0.61587524 -0.23148572 27 5
2.5307353 -0.60664159 -0.13638747 1 6
2.5141659 -0.60359782 -0.045131784 1 7
2.4879465 -0.60143805 0.044678103 1 8
2.7019069 -0.65415931 -0.54037124 1 2
2.6895638 -0.65216482 -0.43832934 1 3
2.6311891 -0.63898265 -0.33245945 2 4
2.574924 -0.62579477 -0.23183435 49 5
2.548008 -0.62019527 -0.13743417 2 6
2.554785 -0.6227895 -0.045899685 1 7
2.4819477 -0.60916549 0.044608295 1 8
2.4496183 -0.60213733 0.13220067 3 9
2.6881676 -0.66077477 -0.53808147 1 2
2.671926 -0.65777165 -0.43582642 1 3
2.6154511 -0.64483696 -0.33075327 11 4
2.5688558 -0.63382453 -0.23148575 42 5
2.5264387 -0.62429452 -0.13638748 2 6
2.5370665 -0.62786037 -0.045620449 1 7
2.4836872 -0.6187923 0.044678111 4 8
2.708703 -0.67585766 -0.54266089 1 2
2.6772797 -0.66900998 -0.43707791 2 3
2.5762908 -0.6452077 -0.23235728 47 5
2.5397422 -0.63699675 -0.13722485 7 6
2.5426171 -0.63866127 -0.045760065 1 7
2.3970568 -0.60654867 0.12958387 29 9
2.6911018 -0.68145329 -0.53960794 3 2
2.4682553 -0.62548143 0.22276995 1 10
2.6864164 -0.68126476 -0.43895507 25 3
2.6070375 -0.66210324 -0.33026612 55 4
2.5817471 -0.65615988 -0.23305455 47 5
2.5278254 -0.64339489 -0.13670149 24 6
2.5249827 -0.64314079 -0.045480832 2 7
2.4542358 -0.6292277 0.044224344 39 8
2.4278116 -0.6233561 0.13136329 42 9
2.6658885 -0.6849798 -0.53502852 14 2
2.4023795 -0.61772019 0.2170177 7 10
2.661185 -0.68426645 -0.43520069 40 3
2.6125169 -0.67272478 -0.33124104 43 4
2.5717235 -0.66317773 -0.23235728 47 5
2.5372808 -0.65476829 -0.1373295 36 6
2.511106 -0.64894849 -0.0452714 2 7
2.4733129 -0.64332789 0.044608295 49 8
2.4256213 -0.631827 0.13136329 47 9
2.679806 -0.69903612 -0.43864223 53 3
2.6101527 -0.68184012 -0.33124074 43 4
2.5695102 -0.67170227 -0.23235728 48 5
2.5562336 -0.66918486 -0.1384809 36 6
2.5397749 -0.6658237 -0.045829877 2 7
2.4575174 -0.64838654 0.044363964 51 8
2.4253318 -0.6408003 0.13146797 43 9
2.6896367 -0.7106325 -0.54075283 36 2
2.4000454 -0.63456744 0.21719199 61 10
2.6639817 -0.70484924 -0.43645215 43 3
2.6115947 -0.69196391 -0.33172822 43 4
2.5748537 -0.68270999 -0.23305455 46 5
2.5345786 -0.67297822 -0.13743418 42 6
2.5200419 -0.67006034 -0.045515735 22 7
2.4687612 -0.66057914 0.044608295 52 8
2.4153633 -0.64719468 0.13104928 46 9
2.7023103 -0.72408187 -0.54380578 30 2
2.3920419 -0.64139324 0.21666931 48 10
2.6519656 -0.71158427 -0.4348878 15 3
2.6091633 -0.70107591 -0.33172822 42 4
2.5801508 -0.69376308 -0.23375177 45 5
2.5379996 -0.68337941 -0.1377482 45 6
2.5292721 -0.6819765 -0.045725163 16 7
2.4625804 -0.6681453 0.044538483 52 8
2.4188719 -0.65719289 0.13136329 54 9
2.4032471 -0.65339822 0.21788923 52 10
2.6105304 -0.71122289 -0.33221599 42 4
2.5815578 -0.70381337 -0.2341004 45 5
2.5336721 -0.69170845 -0.13764353 42 6
2.4718018 -0.67991942 0.044747915 54 8
2.4242651 -0.66775388 0.13178198 49 9
2.3913476 -0.65913594 0.21701768 58 10
2.7059658 -0.74636352 -0.44458672 1 3
2.6156862 -0.72244501 -0.33319065 41 4
2.5675635 -0.70963591 -0.23305456 45 5
2.5312421 -0.70054835 -0.13764353 30 6
2.5263767 -0.70015138 -0.045760069 1 7
2.4732659 -0.68961775 0.044817727 51 8
2.4296143 -0.67836052 0.13220067 47 9
2.3890326 -0.66747928 0.2170177 60 10
2.6652954 -0.74516684 -0.43832937 1 3
2.6112366 -0.73103583 -0.3329469 25 4
2.5727444 -0.72074383 -0.23375177 43 5
2.5393193 -0.71329212 -0.046039313 1 7
2.4669948 -0.69715911 0.044747915 49 8
2.4387624 -0.69010025 0.13282871 46 9
2.3943563 -0.67798597 0.21771494 63 10
2.696888 -0.7641592 -0.44396096 1 3
2.5797963 -0.73244071 -0.23462336 39 5
2.5531857 -0.72584885 -0.13910894 1 6
2.5445065 -0.72434151 -0.046178926 1 7
2.4780033 -0.70961982 0.044992246 37 8
2.428659 -0.69640678 0.13241002 43 9
2.3996351 -0.68853772 0.21841215 60 10
2.6980019 -0.77465892 -0.44458678 1 3
2.6365945 -0.75802362 -0.33684674 1 4
2.5753088 -0.74089062 -0.23444901 7 5
2.5429592 -0.73254538 -0.13869025 1 6
2.5611763 -0.73876137 -0.046527971 1 7
2.424418 -0.70389974 0.13230534 11 9
2.4048698 -0.69913441 0.2191094 55 10
2.7066617 -0.78738242 -0.44646397 1 3
2.6111946 -0.76010495 -0.33392188 5 4
2.6033118 -0.75879622 -0.237238 3 5
2.5557251 -0.74589396 -0.13952762 1 6
2.5164831 -0.7349177 -0.045760069 1 7
2.4980578 -0.73379737 0.045446008 1 8
2.3948929 -0.70485526 0.21841215 39 10
2.6888762 -0.79188925 -0.44396096 2 3
2.5721173 -0.75896698 -0.23462336 25 5
2.5608993 -0.75662851 -0.13994631 1 6
2.5293736 -0.74779421 -0.046039313 1 7
2.4879439 -0.73979741 0.045306392 1 8
2.4501984 -0.72950464 0.1339801 2 9
2.6786635 -0.79854435 -0.44270954 16 3
2.642101 -0.78864878 -0.33855319 42 4
2.5713613 -0.76851112 -0.23479767 36 5
2.573684 -0.76969486 -0.14078368 2 6
2.5497355 -0.76350236 -0.046458162 1 7
2.4681132 -0.74328762 0.044992246 13 8
2.462935 -0.74266589 0.13481748 2 9
2.6643729 -0.8049289 -0.44083232 43 3
2.624131 -0.79327154 -0.33660299 43 4
2.5953605 -0.78556293 -0.23723803 41 5
2.5670226 -0.77796394 -0.14057434 2 6
2.547055 -0.77239794 -0.046458162 1 7
2.6728804 -0.81769168 -0.44270951 37 3
2.621206 -0.80288404 -0.33660299 42 4
2.5868874 -0.79286593 -0.23671506 49 5
2.5413792 -0.77988851 -0.13931829 4 6
2.5518525 -0.78407735 -0.046597775 2 7
2.4799271 -0.76624298 0.045306396 49 8
2.4098566 -0.74551433 0.13220069 32 9
2.6108036 -0.80967683 -0.33562806 40 4
2.5726869 -0.79834825 -0.23566921 42 5
2.52529 -0.78460664 -0.13858557 19 6
2.5300059 -0.78704029 -0.046248738 2 7
2.4772372 -0.77489471 0.045306396 49 8
2.4340563 -0.76185393 0.1336661 42 9
2.6155369 -0.82116383 -0.33660299 41 4
2.5793884 -0.81030935 -0.23654076 42 5
2.5434937 -0.80000859 -0.13973697 33 6
2.5140297 -0.79122365 -0.046004403 16 7
2.4670274 -0.78069198 0.045166768 48 8
2.4332857 -0.77094895 0.13377076 44 9
2.6165836 -0.83103454 -0.33709052 41 4
2.5727468 -0.81810063 -0.23619215 42 5
2.559859 -0.81449437 -0.14078368 36 6
2.5169685 -0.80181527 -0.046109118 40 7
2.4642873 -0.78929889 0.045166768 52 8
2.4305799 -0.77943796 0.13377076 46 9
2.6212256 -0.84259284 -0.33806571 41 4
2.5850482 -0.83195949 -0.23758665 42 5
2.5379891 -0.81730306 -0.13973697 42 6
2.5369933 -0.81795985 -0.046527974 52 7
2.4729304 -0.80159551 0.045376197 54 8
2.4259446 -0.78730118 0.13366608 45 9
2.610718 -0.84928131 -0.33709049 42 4
2.5802338 -0.84036076 -0.23741233 40 5
2.5463698 -0.83031482 -0.140365 15 6
2.5284195 -0.8249498 -0.04642326 18 7
2.477576 -0.81314832 0.045515817 51 8
2.428735 -0.79805779 0.1339801 42 9
2.6151292 -0.86132836 -0.33806542 40 4
2.5810692 -0.8506096 -0.23776095 41 5
2.4747224 -0.82179159 0.045515817 54 8
2.4373059 -0.81031144 0.13460813 17 9
2.6139905 -0.87107927 -0.3383092 40 4
2.5913148 -0.86402547 -0.23898113 19 5
2.604924 -0.86957347 -0.14392385 1 6
2.5471067 -0.85126144 -0.046877019 1 7
2.4680479 -0.82915157 0.045446012 54 8
2.6128142 -0.88083231 -0.33855319 22 4
2.5867345 -0.87354887 -0.14308648 1 6
2.5327539 -0.85630465 -0.046667594 1 7
2.468925 -0.83904827 0.045515817 52 8
2.6322701 -0.89763623 -0.34147775 33 4
2.605962 -0.88917238 -0.24089855 1 5
2.5723293 -0.87869918 -0.14245844 1 6
2.537318 -0.86772847 -0.046807215 1 7
2.4735456 -0.85026163 0.045655437 49 8
2.617861 -0.90293539 -0.34001565 36 4
2.591542 -0.8943637 -0.23985268 2 5
2.5673585 -0.88702071 -0.14235376 1 6
2.5493917 -0.88180959 -0.047086444 1 7
2.4705625 -0.85889071 0.045655437 47 8
2.6053219 -0.90879887 -0.33879665 6 4
2.5902858 -0.90406096 -0.24002703 3 5
2.5868723 -0.9038828 -0.14360984 1 6
2.5462983 -0.8907032 -0.047086444 1 7
2.4750953 -0.87016225 0.045795057 54 8
2.5837016 -0.91290712 -0.14360984 1 6
2.5395603 -0.89780921 -0.047016643 1 7
2.475965 -0.87970412 0.045864869 49 8
2.5915778 -0.92434865 -0.24072424 40 5
2.5693743 -0.91744035 -0.1429818 1 6
2.5365689 -0.90622574 -0.047016639 2 7
2.46927 -0.88655859 0.045795061 49 8
2.5883355 -0.93338931 -0.24072424 47 5
2.5623987 -0.92504716 -0.14277244 2 6
2.5409131 -0.9177919 -0.047156256 3 7
2.4772813 -0.8996985 0.046004485 48 8
2.5923843 -0.94560081 -0.24142152 47 5
2.5477345 -0.93032205 -0.14214441 9 6
2.5394108 -0.92778492 -0.047191169 32 7
2.4795983 -0.91084087 0.0461092 48 8
2.5928068 -0.95602274 -0.24177013 42 5
2.5557137 -0.94335943 -0.14277244 34 6
2.4784389 -0.91975403 0.046144102 12 8
2.5784194 -0.96044266 -0.24072424 43 5
2.5600569 -0.95462048 -0.14319113 31 6
2.5105538 -0.93666029 -0.046772305 61 7
2.5826795 -0.97179449 -0.24142152 43 5
2.5186613 -0.94921166 -0.046981733 50 7
2.5868924 -0.98318493 -0.24211875 42 5
2.568603 -0.97725999 -0.1440285 1 6
2.5248439 -0.96111572 -0.047156256 50 7
2.5885034 -0.99570721 -0.24264167 38 5
2.5497487 -0.98182148 -0.14319113 1 6
2.5265634 -0.97340018 -0.04726097 48 7
2.5980113 -1.0097893 -0.24386184 10 5
2.587431 -1.0061969 -0.14549391 1 6
2.5156963 -0.97931188 -0.04712135 48 7
2.5578783 -1.0049971 -0.14402851 1 6
2.5161574 -0.98911214 -0.047191162 48 7
2.5693831 -1.0193663 -0.14486587 1 6
2.5201235 -1.0008415 -0.047330786 47 7
2.5695171 -1.029815 -0.14507523 1 6
2.5203261 -1.0111212 -0.04740059 47 7
2.5473936 -1.0312831 -0.1440285 1 6
2.5241947 -1.022917 -0.047540214 45 7
2.5659628 -1.0492401 -0.14528458 1 6
2.5132058 -1.0286915 -0.04740059 16 7
2.5768669 -1.0647395 -0.14612195 1 6
2.5731344 -1.0737281 -0.14612195 2 6
2.5549281 -1.0860817 -0.14549391 31 6
2.5529563 -1.0957811 -0.14559858 18 6
