# .PCD v0.7 - Point Cloud Data file format
VERSION 0.7
FIELDS x y z intensity ring
SIZE 4 4 4 4 2
TYPE F F F F U
COUNT 1 1 1 1 1
WIDTH 1245
HEIGHT 1
VIEWPOINT 0 0 0 1 0 0 0
POINTS 1245
DATA ascii
1.3297312 1.1859975 -0.28220776 1 3
1.2983727 1.1499155 -0.27469891 1 3
1.2994117 1.1427675 -0.27407315 5 3
1.3762857 1.2095215 -0.22497071 1 4
1.3004173 1.1356258 -0.27344742 31 3
1.3027239 1.1368399 -0.21229652 1 4
1.288682 1.1166855 -0.20937145 12 4
1.3068165 1.1252311 -0.27313459 66 3
1.2955816 1.1147701 -0.20985892 42 4
1.2972237 1.1091092 -0.27031878 72 3
1.2904096 1.1025037 -0.2083967 63 4
1.3056048 1.1084098 -0.27125734 93 3
1.3018193 1.1044134 -0.20961522 96 4
1.3109764 1.1051184 -0.27157021 85 3
1.2857403 1.0834613 -0.2064466 100 4
1.3161484 1.1020335 -0.2718831 92 3
1.2862818 1.076643 -0.20595911 45 4
1.3250087 1.1082729 -0.15112811 1 5
1.3213147 1.0989257 -0.27219597 88 3
1.3118196 1.0898674 -0.14921069 3 5
1.3203825 1.090764 -0.27125734 92 3
1.3087002 1.080729 -0.2083967 2 4
1.2954489 1.0690259 -0.14694464 21 5
1.3213167 1.0834119 -0.27063161 92 3
1.3220527 1.083245 -0.20985912 2 4
1.3327497 1.0850292 -0.27219597 88 3
1.3073478 1.06359 -0.20693424 2 4
1.3216145 1.0748134 -0.14903638 77 5
1.3349928 1.0791287 -0.2718831 92 3
1.3033317 1.0527829 -0.20571537 2 4
1.3160572 1.0626837 -0.14799051 83 5
1.3418328 1.0769348 -0.27250883 92 3
1.3100955 1.0507112 -0.20620285 2 4
1.3011051 1.0431279 -0.14589877 64 5
1.3249133 1.0614561 -0.088971101 1 6
1.3301347 1.059934 -0.26938012 78 3
1.3230728 1.0535507 -0.20766547 2 4
1.3047383 1.0385801 -0.14589877 72 5
1.3379892 1.0642842 -0.089599133 3 6
1.3214337 1.0454791 -0.26687717 41 3
1.3267417 1.0489269 -0.20766528 2 4
1.3224241 1.0451375 -0.14746757 72 5
1.3119147 1.0360888 -0.087610364 16 6
1.3752339 1.0810373 -0.3400217 2 2
1.3297356 1.0445204 -0.2678158 13 3
1.3397644 1.0516433 -0.20912771 2 4
1.3197949 1.0355949 -0.14677033 72 5
1.2998066 1.019179 -0.086563654 47 6
1.3526884 1.0556958 -0.33353421 7 2
1.3378636 1.0437511 -0.26875439 3 3
1.3338513 1.0398712 -0.20766528 2 4
1.3359748 1.0407783 -0.14816482 69 5
1.3079067 1.0185443 -0.086877666 52 6
1.3883501 1.0753633 -0.27814046 6 3
1.3374728 1.0352091 -0.20766528 2 4
1.3236613 1.0241497 -0.1464217 74 5
1.3335748 1.031076 -0.088343069 95 6
1.3411719 1.0320965 -0.32895479 72 2
1.3253376 1.0184389 -0.20522809 2 4
1.3272283 1.0195225 -0.1464217 72 5
1.3197381 1.0130373 -0.087191679 100 6
1.3851689 1.0624944 -0.030471807 2 7
1.3494467 1.0309839 -0.33009961 100 2
1.3541368 1.0330709 -0.20912771 2 4
1.3276104 1.0124673 -0.14607309 72 5
1.3185009 1.0047925 -0.086877666 89 6
1.3634151 1.0382682 -0.029913332 2 7
1.3639871 1.0345718 -0.33277094 100 2
1.3664749 1.0357087 -0.27157021 72 3
1.3545694 1.0259409 -0.20864043 2 4
1.340667 1.0150431 -0.14711896 69 5
1.3188145 0.99777418 -0.086668327 89 6
1.3542702 1.0238547 -0.029634094 11 7
1.3550432 1.0203569 -0.32971802 100 2
1.374817 1.0344959 -0.27250883 93 3
1.3644893 1.025978 -0.2096152 2 4
1.3473876 1.012751 -0.14746757 74 5
1.3254834 0.99556303 -0.086877659 89 6
1.3523065 1.010919 -0.32819152 100 2
1.3815851 1.0320547 -0.27313456 97 3
1.355336 1.0117095 -0.20766528 2 4
1.3413335 1.0008926 -0.1464217 74 5
1.3353549 0.99570614 -0.087296352 100 6
1.3293148 0.99047953 -0.028936002 100 7
1.3621331 1.0108726 -0.32971802 100 2
1.3740727 1.0189887 -0.27094451 88 3
1.3684287 1.0140632 -0.2091279 4 4
1.3448192 0.99620402 -0.1464217 72 5
1.3420331 0.993415 -0.087505691 97 6
1.3488402 0.99772602 -0.029285049 100 7
1.3688149 1.0084405 -0.33048126 100 2
1.3792119 1.0153575 -0.27125737 92 3
1.3735595 1.0104562 -0.20937164 22 4
1.3514985 0.99386448 -0.14677031 72 5
1.3390554 0.98399329 -0.087087013 97 6
1.3378085 0.98235899 -0.028970905 81 7
1.3474182 0.98616183 0.029145481 1 8
1.3754963 1.0059737 -0.33124447 100 2
1.3891274 1.0151989 -0.27250883 92 3
1.3549598 0.98914069 -0.14677033 69 5
1.3376408 0.97578275 -0.086772993 65 6
1.3476933 0.98239475 -0.029110525 95 7
1.3637949 0.99085516 0.02942472 2 8
1.369467 0.99424613 -0.32895479 100 2
1.3926619 1.0103446 -0.27250883 92 3
1.3741512 0.99618262 -0.2083967 96 4
1.3648577 0.9890812 -0.14746757 72 5
1.3426565 0.97227877 -0.086877666 27 6
1.3364294 0.96386385 0.028761528 16 8
1.3729295 0.98945934 -0.32895479 100 2
1.3993863 1.0077857 -0.27313456 97 3
1.3743974 0.98906112 -0.20790902 100 4
1.3650664 0.98198479 -0.14711894 67 5
1.3795677 0.98694646 -0.32971802 100 2
1.3964679 0.99829918 -0.27188307 97 3
1.379457 0.98541105 -0.20815276 46 4
1.3620005 0.97258216 -0.1464217 72 5
1.3559147 0.96752185 -0.087296344 3 6
1.3595351 0.96938926 -0.029145429 2 7
1.386206 0.98439789 -0.33048126 100 2
1.3967221 0.99113238 -0.27125734 92 3
1.374792 0.97484833 -0.20693406 11 4
1.3735144 0.97358304 -0.14729325 72 5
1.3527647 0.95816493 -0.086877666 3 6
1.3692701 0.96949798 -0.029285049 5 7
1.3560866 0.9569692 0.028970959 78 8
1.3960528 0.98407722 -0.33200774 100 2
1.401616 0.98763269 -0.27157021 88 3
1.3666553 0.96228427 -0.2052279 2 4
1.3801636 0.9710753 -0.14764188 69 5
1.3755382 0.9674623 -0.08813373 3 6
1.3759181 0.96701181 -0.029354859 5 7
1.3545057 0.94878781 0.028866246 76 8
1.4009166 0.98056847 -0.33238935 92 2
1.4131485 0.98839533 -0.27313456 97 3
1.3797683 0.96433127 -0.20669033 2 4
1.3866423 0.96877551 -0.14799049 38 5
1.3723562 0.95808184 -0.087715045 3 6
1.3659985 0.95328873 -0.029075621 5 7
1.3609279 0.94657415 0.028936056 76 8
1.3743597 0.95520562 0.087715097 2 9
1.3994939 0.97231132 -0.33124447 42 2
1.4229084 0.98821044 -0.27438602 97 3
1.3992672 0.97106797 -0.20912771 2 4
1.3919405 0.96490383 -0.088761762 3 6
1.3693177 0.948515 -0.029075621 5 7
1.3610965 0.9393084 0.028866246 76 8
1.446879 0.99813539 -0.40581161 1 1
1.358121 0.9365555 0.086459033 15 9
1.4135082 0.97402221 -0.2718831 92 3
1.4093567 0.97043639 -0.21010266 2 4
1.3802426 0.95003426 -0.14659603 2 5
1.3823025 0.95074117 -0.087924376 3 6
1.382673 0.95028526 -0.029285047 5 7
1.3610674 0.93229097 0.028796434 76 8
1.4390992 0.98537141 -0.40266231 7 1
1.4078677 0.96362692 -0.33162609 4 2
1.4136387 0.96685147 -0.27125734 82 3
1.4225693 0.97223079 -0.21156509 2 4
1.4032922 0.95869708 -0.14868775 2 5
1.3658187 0.93239707 -0.086668327 3 6
1.3892853 0.94770718 -0.029354857 5 7
1.3676205 0.92978376 0.028866246 79 8
1.4264121 0.96938872 -0.39816347 37 1
1.4112229 0.95870626 -0.33162609 4 2
1.4219078 0.96523994 -0.27219597 85 3
1.4160973 0.96057367 -0.21010266 2 4
1.4066297 0.95379317 -0.14868775 2 5
1.3822924 0.93658644 -0.087505691 3 6
1.3892735 0.94060934 -0.029285047 5 7
1.3741729 0.92724103 0.028936055 76 8
1.357918 0.91558295 0.085831001 86 9
1.4178164 0.95596981 -0.33238935 2 2
1.4170777 0.95475161 -0.27063164 56 3
1.3996812 0.94232142 -0.207178 2 4
1.4000334 0.94220251 -0.1476419 2 5
1.3921826 0.93621409 -0.087924376 4 6
1.3892291 0.93352312 -0.029215237 5 7
1.3840477 0.92688906 0.029075673 74 8
1.4590545 0.97675294 -0.40536174 91 1
1.3659256 0.9144085 0.086145021 87 9
1.4276713 0.95538199 -0.3339158 2 2
1.4026588 0.93828934 0.14764175 2 10
1.4128655 0.94404674 -0.20864043 2 4
1.3933723 0.93067098 -0.14659603 2 5
1.4037486 0.93689227 -0.088447742 19 6
1.3989705 0.93335134 -0.029354861 5 7
1.3771229 0.91565084 0.028866246 76 8
1.4460561 0.96112168 -0.40086269 84 1
1.3691093 0.90963453 0.086145014 85 9
1.427727 0.9482199 -0.33315256 2 2
1.3826869 0.91795993 0.14520139 2 10
1.4126801 0.93716121 -0.20815276 2 4
1.3999338 0.92800272 -0.14694463 2 5
1.3985234 0.92671549 -0.087924384 50 6
1.3988854 0.92625397 -0.029285047 7 7
1.3803101 0.91083914 0.028866246 76 8
1.4526559 0.95821393 -0.40176269 96 1
1.3722764 0.90484959 0.086145021 52 9
1.4538097 0.95861089 -0.33849525 2 2
1.3690878 0.90240514 0.14345828 15 10
1.4449782 0.95206398 -0.27407315 2 3
1.4292065 0.94095802 -0.21010266 2 4
1.4163182 0.9321174 -0.14833912 2 5
1.3917365 0.91524452 -0.087296344 52 6
1.3920833 0.91477573 -0.029075619 25 7
1.3901727 0.91039687 0.029005861 79 8
1.4559917 0.95313764 -0.40176252 97 1
1.3737551 0.89896053 0.08604034 25 9
1.440719 0.94278044 -0.33467904 2 2
1.4549063 0.95133823 -0.27532464 2 3
1.429159 0.93379146 -0.2096152 2 4
1.4195634 0.92716748 -0.14833912 3 5
1.4149939 0.92347962 -0.088552415 95 6
1.4220678 0.92738855 -0.029634094 76 7
1.3933419 0.90553933 0.029005863 76 8
1.4625781 0.95017296 -0.40266231 97 1
1.3685098 0.88872039 0.085516982 2 9
1.4407083 0.93560666 -0.3339158 2 2
1.4747882 0.95700777 -0.27845332 2 3
1.4224157 0.92231721 -0.20815292 2 4
1.4227905 0.92220759 -0.14833912 4 5
1.4064746 0.91093427 -0.08781971 100 6
1.4118661 0.91372669 -0.029354857 100 7
1.3998556 0.90283734 0.029075673 76 8
1.4724375 0.94928521 -0.40446192 97 1
1.3816764 0.89042991 0.086145021 2 9
1.4571671 0.93908036 -0.33696875 2 2
1.3751129 0.8858605 0.14310963 100 10
1.4581904 0.9390195 -0.27469891 2 3
1.4606836 0.93990391 -0.21327128 10 4
1.4260013 0.9172352 -0.14833912 21 5
1.4096457 0.90601939 -0.08781971 97 6
1.418412 0.91095436 -0.029424667 100 7
1.3962617 0.89363313 0.028936055 76 8
1.475742 0.94414002 -0.40446192 97 1
1.3915066 0.88990599 0.086563706 2 9
1.4405887 0.92129552 -0.33238932 2 2
1.3731611 0.87783521 0.14258672 100 10
1.45813 0.93179673 -0.27407315 3 3
1.3918571 0.88910395 0.20279056 1 11
1.4555901 0.92945743 -0.21205258 41 4
1.4207971 0.90689236 -0.14746757 37 5
1.4212193 0.90646309 -0.088343069 97 6
1.4097792 0.89847416 -0.029180335 100 7
1.3993726 0.88875419 0.028936056 79 8
1.4691578 0.93271577 -0.40176252 91 1
1.3979771 0.88718343 0.086773045 2 9
1.4471114 0.91836494 -0.33315256 4 2
1.3778989 0.87410408 0.14276102 70 10
1.4730517 0.93410605 -0.27626327 7 3
1.4016589 0.88849086 0.20376551 1 11
1.4273206 0.90405911 -0.1478162 41 5
1.4209994 0.8993606 -0.08813373 97 6
1.4196668 0.89782321 -0.029319949 75 7
1.4092332 0.88812917 0.029075675 74 8
1.4724045 0.92758209 -0.40176252 100 1
1.3976853 0.88016993 0.086563706 2 9
1.4702435 0.92586237 -0.33773199 4 2
1.4562405 0.91633356 -0.27250883 30 3
1.4030713 0.88253611 0.20352179 8 11
1.4351554 0.90236664 -0.20815276 100 4
1.4591447 0.91709495 -0.15077949 77 5
1.4139823 0.88802099 -0.087505698 97 6
1.4191064 0.88744581 0.029215293 79 8
1.4789385 0.92450225 -0.40266231 97 1
1.3905866 0.86893499 0.085935675 2 9
1.4568174 0.91032052 -0.3339158 4 2
1.3957963 0.87185264 0.1439812 5 10
1.4416643 0.89945394 -0.20864023 94 4
1.447122 0.90250725 -0.14921069 74 5
1.4272436 0.88941818 -0.08813373 94 6
1.4309928 0.89106131 -0.029424667 4 7
1.4221957 0.88248652 0.029215293 79 8
1.488781 0.92344254 -0.40446192 97 1
1.4105856 0.87460059 0.086982392 2 9
1.4766712 0.91557539 -0.33773196 9 2
1.3971378 0.86592507 0.1438069 5 10
1.482753 0.91862893 -0.27626327 77 3
1.3973848 0.86540318 0.20181562 64 11
1.4447955 0.89441574 -0.20864023 77 4
1.4367096 0.88906252 -0.1478162 68 5
1.4303392 0.884431 -0.08813373 91 6
1.4374965 0.88816333 -0.029494476 4 7
1.4184564 0.87332261 0.029075673 76 8
1.4919947 0.91824102 -0.40446192 91 1
1.4170325 0.87176406 0.087191731 2 9
1.4001521 0.8610425 0.14380689 5 10
1.4724871 0.90517259 -0.27376029 66 3
1.4173102 0.87091255 0.204253 100 11
1.4496005 0.89040554 -0.20888397 82 4
1.4415017 0.88508558 -0.14799051 63 5
1.4402276 0.88361007 -0.088552415 94 6
1.4405884 0.88313961 -0.029494476 2 7
1.4180831 0.86628139 0.029005863 76 8
1.4951911 0.91302705 -0.40446192 97 1
1.4064291 0.85848731 0.08635436 2 9
1.4099522 0.86030108 0.14450413 5 10
1.4874431 0.90722692 -0.27595037 85 3
1.3949182 0.8504591 0.20059693 100 11
1.45948 0.88947278 -0.20985892 75 4
1.4615977 0.89041364 -0.14973362 51 5
1.436479 0.8744238 -0.08813373 94 6
1.4402457 0.87602699 -0.029424669 4 7
1.4176784 0.85925293 0.028936056 57 8
1.4917021 0.90376347 -0.40266231 97 1
1.41625 0.85771221 0.086773045 2 9
1.4844989 0.89904517 -0.33735037 100 2
1.4129467 0.85537386 0.14450432 5 10
1.4889113 0.90100628 -0.27563754 92 3
1.4012748 0.84764051 0.20108441 100 11
1.4540827 0.87923664 -0.20864023 88 4
1.426832 0.86241913 0.26406142 1 12
1.4395226 0.86940378 -0.088133723 94 6
1.4467182 0.87306172 -0.029494476 4 7
1.4981885 0.90055859 -0.40356216 97 1
1.4089637 0.84659094 0.086145014 2 9
1.4741654 0.88576812 -0.33429742 100 2
1.4193394 0.85248905 0.14485276 5 10
1.4954342 0.89783746 -0.27626327 92 3
1.4076296 0.84478664 0.20157188 100 11
1.4605469 0.87619901 -0.20912771 88 4
1.4433864 0.86556089 0.2665644 4 12
1.4763221 0.88531154 -0.15060519 2 5
1.4494019 0.86847961 -0.088552415 94 6
1.4531888 0.87006056 -0.029564288 4 7
1.5377675 0.9177857 -0.47985053 1 0
1.4494017 0.8647033 0.029459627 2 8
1.5113653 0.9013117 -0.40626174 91 1
1.4256346 0.8498494 0.086982392 2 9
1.4772483 0.88061732 -0.33429742 100 2
1.4086144 0.83936995 0.14345828 7 10
1.5002564 0.8936224 -0.27657613 88 3
1.4156864 0.84291494 0.2023031 100 11
1.4670085 0.87312567 -0.2096152 85 4
1.463993 0.87098408 -0.14903638 2 5
1.452424 0.86341602 -0.088552415 94 6
1.4527782 0.86294031 -0.029494476 4 7
1.5176896 0.89863211 -0.47260356 5 0
1.4420863 0.85352707 0.029250199 3 8
1.5212104 0.90000075 -0.40806115 83 1
1.4215692 0.84104949 0.086563706 2 9
1.4836932 0.87745368 -0.33506069 100 2
1.4132509 0.83546162 0.14363259 7 10
1.4965639 0.88436055 -0.27532464 85 3
1.415202 0.83594841 0.20181562 93 11
1.4733143 0.87027484 -0.21010266 80 4
1.477319 0.87194508 -0.15008225 2 5
1.4588702 0.86036944 -0.088761762 94 6
1.4521867 0.85608655 -0.029424667 2 7
1.5556382 0.91414839 -0.48347402 30 0
1.4414605 0.8467142 0.029180389 4 8
1.5141039 0.88903075 -0.40536174 91 1
1.443296 0.84745455 0.087715097 3 9
1.4899809 0.87451673 -0.33582389 100 2
1.4841524 0.87039953 -0.27250883 48 3
1.4162538 0.83024728 0.20157188 94 11
1.4761919 0.8653847 -0.21010266 82 4
1.4384401 0.8429153 0.26406142 100 12
1.4698873 0.86099952 -0.14903638 2 5
1.4548203 0.85149115 -0.088343069 94 6
1.4722774 0.86136472 -0.029773714 2 7
1.5336289 0.89438587 -0.47570938 37 0
1.5170441 0.88400429 -0.40536174 91 1
1.4305677 0.83361322 0.08677306 3 9
1.4996588 0.87352312 -0.33735037 100 2
1.4207152 0.82654399 0.20181562 90 11
1.4721903 0.85649121 -0.2091279 88 4
1.4429348 0.83913392 0.26437429 100 12
1.4899596 0.86613315 -0.15077949 2 5
1.4360684 0.83447027 0.32284874 1 13
1.4524548 0.84365296 -0.088029057 84 6
1.4682087 0.85246098 -0.029634094 2 7
1.5449467 0.89413416 -0.47829765 60 0
1.5182799 0.87799352 -0.40491182 85 1
1.4454267 0.83586383 0.087505743 15 9
1.4923489 0.86265051 -0.33506069 100 2
1.430118 0.82634509 0.14450414 100 10
1.503577 0.86844081 -0.27501178 2 3
1.4234482 0.82182854 0.20181562 93 11
1.4750224 0.85160494 -0.20912771 85 4
1.4337332 0.82743305 0.26218423 100 12
1.4997268 0.86517024 -0.15147674 2 5
1.462638 0.8434341 0.32819143 1 13
1.463896 0.84381914 -0.088552415 30 6
1.4744925 0.8495844 -0.029703904 4 7
1.5297824 0.87788814 -0.47260356 65 0
1.4501028 0.83182639 0.029180389 51 8
1.5248686 0.87436181 -0.40581161 85 1
1.492094 0.85522193 -0.33429742 100 2
1.4244936 0.81614518 0.14363261 100 10
1.5187486 0.8697964 -0.27720186 2 3
1.4298965 0.81857789 0.2023031 88 11
1.4886192 0.85185033 -0.21059015 77 4
1.4351848 0.82094127 0.26187137 33 12
1.4786752 0.84581828 -0.14903638 2 5
1.4401547 0.82344961 0.3224673 5 13
1.4843194 0.84835839 -0.08959914 79 6
1.481217 0.84589946 -0.029773712 4 7
1.537874 0.8754102 -0.4741565 68 0
1.4564734 0.8287378 0.029250197 72 8
1.5380751 0.87481403 -0.40851101 74 1
1.4341525 0.81537449 0.086459033 75 9
1.5053103 0.85583067 -0.33658713 100 2
1.4290657 0.81215245 0.1438069 100 10
1.5183407 0.86253786 -0.27657613 2 3
1.4413759 0.81848305 0.20352179 100 11
1.4915836 0.84664911 -0.21059017 70 4
1.4850847 0.84261757 -0.14938501 2 5
1.4751092 0.83627719 -0.088866428 100 6
1.4841608 0.84072417 -0.029773714 4 7
1.5409201 0.87003702 -0.4741565 76 0
1.457616 0.82266527 0.029215291 79 8
1.5156606 0.85507643 -0.40176269 34 1
1.4439486 0.81428802 0.086877719 61 9
1.5117085 0.85249996 -0.33735037 100 2
1.4388345 0.81107223 0.14450413 100 10
1.5213425 0.85723221 -0.27657613 2 3
1.4321167 0.80662775 0.20181562 93 11
1.5066383 0.84825408 -0.2122965 42 4
1.4460458 0.81380749 0.26280993 3 12
1.4916357 0.83912283 -0.14973362 2 5
1.4675744 0.82524896 -0.088238403 97 6
1.4835993 0.83357972 -0.029703904 4 7
1.5491556 0.86721474 -0.47570941 80 0
1.463968 0.81952685 0.029285101 76 8
1.4450393 0.80826735 0.086773045 81 9
1.5113955 0.84503776 -0.3365871 100 2
1.4452759 0.80773741 0.14485276 76 10
1.524474 0.85165066 -0.27657613 2 3
1.4331911 0.80065531 0.20157188 94 11
1.4991912 0.83718312 -0.21083391 18 4
1.4488775 0.80875528 0.26280993 3 12
1.4980359 0.83585221 -0.15008225 2 5
1.4436964 0.80520141 0.32132226 100 13
1.4758223 0.82278246 -0.088552415 97 6
1.4830067 0.82644862 -0.029634094 4 7
1.5606186 0.86649024 -0.47829765 72 0
1.4669626 0.81415451 0.029285103 76 8
1.5370768 0.85271782 -0.40581161 1 1
1.4497385 0.80393457 0.086877719 85 9
1.5143363 0.83975643 -0.33658713 100 2
1.4515719 0.80461913 0.14520139 100 10
1.5412606 0.85398364 -0.27907911 2 3
1.4430616 0.7992444 0.20254681 94 11
1.4953029 0.82783639 -0.20985892 51 4
1.4518319 0.80343974 0.26280996 3 12
1.5044307 0.83254772 -0.15043087 2 5
1.4516512 0.80300897 0.3224673 100 13
1.485677 0.82149142 -0.088971101 100 6
1.5052792 0.83164519 -0.030018045 9 7
1.5534804 0.85544586 -0.47519177 76 0
1.4803061 0.81481564 0.029494531 76 8
1.5400443 0.84734672 -0.40581161 1 1
1.454286 0.79983115 0.086982384 87 9
1.5224191 0.8373031 -0.33773196 85 2
1.4438957 0.79378933 0.14415553 100 10
1.5615443 0.85811144 -0.28220779 2 3
1.4493228 0.79611325 0.2030343 94 11
1.506883 0.8273899 -0.21107762 98 4
1.4477011 0.7945649 0.2615585 3 12
1.5073278 0.82729077 -0.15043087 1 5
1.4406759 0.79038197 0.31941417 77 13
1.4920373 0.81822205 -0.08918044 97 6
1.4764374 0.80933118 0.38871542 0 14
1.4871289 0.81485444 -0.02959919 47 7
1.5581521 0.85094416 -0.47570938 80 0
1.4761208 0.80581051 0.029354913 74 8
1.5600994 0.85129982 -0.41031066 1 1
1.4640826 0.79857576 0.087401077 87 9
1.5270561 0.83292431 -0.33811358 46 2
1.4519056 0.79160506 0.14467844 60 10
1.5506541 0.84509254 -0.27970478 2 3
1.455579 0.79294908 0.20352177 94 11
1.5237093 0.82971907 -0.21302754 92 4
1.4608762 0.79517263 0.26343572 3 12
1.5137067 0.82392889 -0.1507795 2 5
1.4983937 0.81491697 -0.089389786 84 6
1.4569966 0.79207236 0.38286671 3 14
1.5628122 0.84641981 -0.47622707 76 0
1.4824417 0.80255663 0.02942472 76 8
1.5596331 0.84399509 -0.40941086 1 1
1.4721316 0.79631066 0.087715097 85 9
1.5334082 0.82945657 -0.33887684 8 2
1.5396916 0.83216178 -0.27720186 2 3
1.4530989 0.78503233 0.20279057 88 11
1.5196097 0.82062191 -0.21205258 80 4
1.474072 0.79569924 0.26531291 3 12
1.5060531 0.81296259 -0.14973362 2 5
1.442703 0.77844036 0.31865093 2 13
1.4871665 0.80209643 -0.088552415 97 6
1.5086247 0.81299019 -0.029913332 100 7
1.5759686 0.84644431 -0.47933292 76 0
1.485234 0.79737729 0.02942472 76 8
1.56257 0.83854544 -0.40941086 1 1
1.4696221 0.78833503 0.087401077 87 9
1.5605148 0.83709174 -0.34421948 14 2
1.4714439 0.78898162 0.14607294 4 10
1.5669621 0.83984607 -0.28158203 2 3
1.4488314 0.77620506 0.20181562 90 11
1.515465 0.81156421 -0.21107763 82 4
1.4838071 0.79427749 0.2665644 3 12
1.5264477 0.81710291 -0.15147674 2 5
1.4506049 0.77617794 0.31979579 4 13
1.4934795 0.79878461 -0.088761762 94 6
1.5061626 0.80489135 -0.02980862 100 7
1.5789133 0.84093827 -0.47933289 72 0
1.4915388 0.79406708 0.02949453 76 8
1.568928 0.83491707 -0.41031066 1 1
1.4635483 0.77851075 0.086877719 85 9
1.4741893 0.78384018 0.14607295 4 10
1.5559298 0.82695502 -0.27907911 2 3
1.4585438 0.77486926 0.20279057 93 11
1.5147824 0.80440688 -0.21059015 80 4
1.4691223 0.77983183 0.26343569 3 12
1.5451288 0.82017726 -0.15304554 3 5
1.4602422 0.77479154 0.32132229 4 13
1.5033168 0.79730934 -0.089180455 97 6
1.4376627 0.76216739 0.37566823 58 14
1.5071961 0.79869288 -0.029773714 100 7
1.5784229 0.83361697 -0.47829765 72 0
1.4925331 0.78792262 0.029459627 69 8
1.5925151 0.84034878 -0.4157095 1 1
1.4767205 0.7792455 0.08750575 82 9
1.5350639 0.80969006 -0.33735037 100 2
1.4698665 0.77497292 0.14537568 4 10
1.5727872 0.82888615 -0.28158203 2 3
1.4647523 0.77162325 0.20327803 90 11
1.527979 0.80493075 -0.21205278 82 4
1.4612134 0.76943326 0.2615585 3 12
1.5356411 0.80828243 -0.15182537 21 5
1.4629377 0.76968914 0.32132226 5 13
1.5060903 0.79205722 -0.08918044 94 6
1.4488059 0.76193124 0.37791774 55 14
1.504526 0.7908994 -0.029669002 100 7
1.5760452 0.82568812 -0.47674471 55 0
1.4915943 0.78111374 0.029389814 67 8
1.5918399 0.83325589 -0.4148097 1 1
1.4828353 0.77619696 0.087715097 80 9
1.5516568 0.811876 -0.34040332 100 2
1.4830209 0.77563494 0.14642175 4 10
1.5650237 0.81817526 -0.27970481 2 3
1.4690626 0.7676807 0.20352177 79 11
1.5341588 0.80169773 -0.21254024 82 4
1.4812658 0.77372932 0.26468718 3 12
1.5193332 0.79260147 -0.089808479 84 6
1.4565079 0.75982696 0.37926748 59 14
1.5160061 0.79052836 -0.029843524 100 7
1.5856305 0.82402164 -0.47881523 37 0
1.4817549 0.76971006 0.029145481 25 8
1.5772995 0.81899208 -0.41031066 1 1
1.4890811 0.77285594 0.087924436 52 9
1.5527385 0.80555111 -0.3400217 100 2
1.4961966 0.77621758 0.14746743 4 10
1.5817573 0.82025552 -0.28220776 2 3
1.4663131 0.7600646 0.20279057 41 11
1.5387104 0.79725116 -0.21278399 85 4
1.4909741 0.77218753 0.26593867 3 12
1.5552621 0.80513865 -0.15321985 77 5
1.4698865 0.76061559 0.32170388 100 13
1.513221 0.78270483 -0.089285128 89 6
1.469537 0.76010954 0.38196689 64 14
1.5205327 0.78615052 -0.02987843 100 7
1.4931049 0.77163953 0.45034525 4 15
1.5903579 0.81908864 -0.47933289 68 0
1.5768249 0.81142241 -0.40941086 1 1
1.4759194 0.75917047 0.086982384 25 9
1.5574265 0.80075258 -0.34040332 100 2
1.4848562 0.76344055 0.14607295 4 10
1.5988084 0.82167649 -0.28471071 3 3
1.4743863 0.75740612 0.20352179 82 11
1.5327929 0.78707194 -0.21156509 82 4
1.4902792 0.76491386 0.26531291 3 12
1.5511121 0.79579467 -0.15252261 78 5
1.4796523 0.75880623 0.32323053 86 13
1.5178567 0.77806473 -0.089389786 87 6
1.4549711 0.74582928 0.37746787 64 14
1.5251837 0.78148359 -0.029913334 83 7
1.5950702 0.81413203 -0.47985053 68 0
1.512295 0.77155042 0.029634148 2 8
1.5936764 0.81272042 -0.41301006 2 1
1.4911478 0.76010567 0.087715097 2 9
1.5497174 0.78996128 -0.33811358 100 2
1.491195 0.75980181 0.14642155 4 10
1.5842066 0.80684638 -0.28158203 10 3
1.4842284 0.75559974 0.20449673 100 11
1.5392057 0.78324962 -0.21205258 80 4
1.4895513 0.7576558 0.26468721 3 12
1.5503281 0.78856987 -0.15217398 64 5
1.4805421 0.75274724 0.32284874 93 13
1.5276856 0.77638084 -0.089808479 87 6
1.4611701 0.74225622 0.37836769 68 14
1.5209054 0.77226728 -0.029773714 38 7
1.5927315 0.80594206 -0.47829765 76 0
1.5292542 0.77348751 0.029913386 1 8
1.6034602 0.81066912 -0.41480967 2 1
1.4973572 0.75669712 0.087924436 2 9
1.5559703 0.78631747 -0.33887684 100 2
1.4885029 0.75189734 0.14589864 4 10
1.5729069 0.79418838 -0.27907905 36 3
1.4939461 0.75399148 0.20547169 100 11
1.5454748 0.77966052 -0.21254005 80 4
1.5062975 0.75956678 0.26719013 3 12
1.5388395 0.77597636 -0.15077949 54 5
1.4936794 0.7528761 0.32513863 100 13
1.5375208 0.77463835 -0.090227157 84 6
1.4672329 0.7389046 0.37926748 64 14
1.48411 0.74675483 0.44516885 63 15
1.5989881 0.80211109 -0.47933292 72 0
1.5247949 0.76455903 0.029773768 1 8
1.6027962 0.80332029 -0.41390988 2 1
1.5105715 0.75709736 0.088552475 3 9
1.5657262 0.78439999 -0.34040332 100 2
1.4875555 0.74491227 0.14555021 4 10
1.5774363 0.78957689 -0.27939197 48 3
1.4912424 0.74610847 0.20474048 100 11
1.5516022 0.77630806 -0.21302754 80 4
1.5017413 0.75103277 0.26593867 4 12
1.5504497 0.77505398 -0.15165105 34 5
1.4840044 0.74151582 0.3224673 94 13
1.538429 0.76837385 -0.090122499 78 6
1.4766489 0.7375176 0.3810671 68 14
1.5404398 0.76904237 -0.030052952 4 7
1.4779351 0.73751652 0.44258067 72 15
1.6033688 0.79766423 -0.4798505 68 0
1.5201595 0.75593722 0.029634146 1 8
1.5984713 0.79453087 -0.41211027 2 1
1.534536 0.76275134 0.089808539 4 9
1.5683191 0.77920306 -0.34040332 100 2
1.4971552 0.74352038 0.14624725 4 10
1.5977399 0.79312438 -0.28252065 69 3
1.4865956 0.73762947 0.20376551 100 11
1.5577245 0.77292269 -0.21351519 82 4
1.5130718 0.75043756 0.26750299 4 12
1.5726473 0.77964228 -0.15356848 5 5
1.4829371 0.73484677 0.32170406 97 13
1.5320196 0.75883591 -0.089599133 36 6
1.4895638 0.7378068 0.38376647 66 14
1.5501503 0.76747859 -0.030192573 4 7
1.4872984 0.73603833 0.44465116 81 15
1.606005 0.7923432 -0.47985053 68 0
1.5262452 0.75266057 0.02970396 1 8
1.6028446 0.79008836 -0.41256016 9 1
1.4762745 0.72737813 0.086249694 18 9
1.5779383 0.77746916 -0.34192979 100 2
1.4996128 0.73855108 0.14624725 4 10
1.5861825 0.78084314 -0.2800177 57 3
1.4925958 0.73444885 0.204253 100 11
1.5621947 0.76835626 -0.21375874 77 4
1.5210005 0.74776548 0.26844159 13 12
1.4976999 0.73598665 0.32437521 98 13
1.4781362 0.72573155 0.38016728 64 14
1.5599999 0.76558787 -0.030332191 4 7
1.4898587 0.73084188 0.44465116 77 15
1.6226447 0.79352134 -0.48399159 65 0
1.5432349 0.75435483 0.029983196 2 8
1.5735865 0.76850981 -0.34040332 100 2
1.5165049 0.7403053 0.14764175 4 10
1.5959998 0.77876621 -0.28126916 40 3
1.4987189 0.73097426 0.20474048 100 11
1.5612983 0.76115906 -0.21327147 77 4
1.5635887 0.76193804 -0.15217397 1 5
1.498495 0.72989404 0.32399359 96 13
1.5622897 0.76063019 -0.091064543 3 6
1.4806603 0.72056776 0.38016728 64 14
1.5482771 0.75313956 -0.030052952 4 7
1.4976133 0.72817063 0.4462041 80 15
1.6149744 0.7827971 -0.48088586 68 0
1.5494583 0.75070673 0.030053006 1 8
1.618845 0.78397459 -0.41525975 83 1
1.5046868 0.72836679 0.087610431 52 9
1.5727252 0.76130182 -0.33964008 100 2
1.4939711 0.72285801 0.14520139 4 10
1.5862607 0.76716965 -0.27907911 11 3
1.5030484 0.72660261 0.20498422 93 11
1.5603708 0.75397748 -0.21278399 70 4
1.5556054 0.75100505 -0.15112811 2 5
1.5045694 0.72636628 0.32475683 92 13
1.5649352 0.75517255 -0.091064543 3 6
1.4866773 0.71708781 0.3810671 68 14
1.5436914 0.74425703 -0.029913332 4 7
1.4879632 0.71706891 0.44258064 73 15
1.6178328 0.77687228 -0.48088583 65 0
1.5376482 0.73836821 0.029773766 2 8
1.6092737 0.77241671 -0.41211027 82 1
1.5216261 0.73002106 0.088447794 69 9
1.5861263 0.76062536 -0.34192979 100 2
1.5145772 0.72598898 0.14694451 4 10
1.5854986 0.75964373 -0.27845332 2 3
1.5109465 0.72392434 0.20571543 100 11
1.5719454 0.75281286 -0.21400249 45 4
1.530529 0.73265004 0.26875445 100 12
1.5690011 0.75072968 -0.15217397 2 5
1.5001374 0.71745831 0.32323039 100 13
1.5749005 0.75287694 -0.091483228 3 6
1.492812 0.71331477 0.38196689 63 14
1.5607145 0.74576086 -0.030192571 4 7
1.4869708 0.7102049 0.44154534 65 15
1.6240232 0.77288085 -0.48192108 68 0
1.5511789 0.73788184 0.029983198 2 8
1.6138541 0.7673496 -0.41256016 82 1
1.5206838 0.72272474 0.088238455 65 9
1.5852253 0.75339901 -0.34116653 100 2
1.5386977 0.73095703 0.14903623 4 10
1.6166916 0.76766115 -0.28345925 2 3
1.5100027 0.71667969 0.20522796 100 11
1.5314195 0.72618872 0.26844159 100 12
1.5717421 0.74497437 -0.15217398 2 5
1.5061804 0.71389949 0.32399377 92 13
1.5594693 0.73882407 -0.090436511 3 6
1.5058606 0.71310335 0.38466632 64 14
1.5797045 0.74773574 -0.030506717 8 7
1.4878176 0.7039243 0.44102773 50 15
1.6303399 0.7685712 -0.48295638 65 0
1.5537448 0.73246294 0.029983193 2 8
1.6182855 0.76254249 -0.41301006 52 1
1.5213907 0.71656084 0.08813379 82 9
1.5986335 0.7526015 -0.3434563 100 2
1.5467751 0.72785705 0.14955917 6 10
1.6266444 0.7650941 -0.28471074 2 3
1.5124953 0.71140391 0.20522794 100 11
1.5339448 0.7208389 0.26844159 100 12
1.5995802 0.75134182 -0.15461434 2 5
1.5123415 0.71004266 0.32475683 88 13
1.5802476 0.74158788 -0.091483228 3 6
1.4978781 0.70261413 0.38196689 66 14
1.5007608 0.70364678 0.44413355 22 15
1.6432465 0.76835477 -0.4860622 58 0
1.5597886 0.72899956 0.030053005 2 8
1.6278676 0.7604714 -0.4148097 26 1
1.5309972 0.71489215 0.088552475 74 9
1.5938746 0.7442525 -0.34192979 100 2
1.5129454 0.70614147 0.14607295 23 10
1.6326202 0.76165056 -0.28533646 2 3
1.5238414 0.71057928 0.20644663 100 11
1.592337 0.74218106 -0.21570866 1 4
1.5327456 0.71408021 0.26781589 100 12
1.5766482 0.73453373 -0.15217397 2 5
1.5127847 0.70445943 0.32437539 60 13
1.5717049 0.73156309 -0.090855189 3 6
1.500078 0.69790524 0.38196689 64 14
1.6336484 0.75692922 -0.48243868 62 0
1.5659533 0.72523075 0.030122815 2 8
1.5371081 0.71122128 0.088761814 72 9
1.601808 0.74115801 -0.34307465 96 2
1.6460273 0.76091987 -0.28721368 1 3
1.5299164 0.7069214 0.20693411 100 11
1.6057312 0.74161184 -0.21717107 2 4
1.5298486 0.70624125 0.26687726 61 12
1.5900565 0.73403573 -0.15321985 2 5
1.5815037 0.72941792 -0.091273874 3 6
1.5095842 0.69592792 0.38376653 66 14
1.5618937 0.71971333 -0.030018045 100 7
1.6397922 0.75283384 -0.48347402 62 0
1.561205 0.71642435 0.029983196 3 8
1.6543925 0.75883782 -0.42020851 2 1
1.5394585 0.70611984 0.088761814 72 9
1.5395736 0.70552218 0.14816469 100 10
1.6271219 0.74529845 -0.28345925 2 3
1.53418 0.70240271 0.20717788 100 11
1.5938694 0.72939432 -0.21522118 2 4
1.5303857 0.7003426 0.2665644 14 12
1.6034801 0.73345393 -0.15426573 3 5
1.5949401 0.72887349 -0.091901921 3 6
1.5155492 0.69227386 0.38466632 66 14
1.5806422 0.7220071 -0.030332187 100 7
1.6441684 0.74790549 -0.48399162 65 0
1.5653925 0.71207166 0.030018102 7 8
1.6568996 0.75334775 -0.42020851 1 1
1.5455506 0.70239407 0.08897116 72 9
1.5347701 0.69684929 0.14746743 60 10
1.6403764 0.74479896 -0.28533646 2 3
1.5292703 0.69402951 0.20620292 97 11
1.5926642 0.72246432 -0.2147337 2 4
1.538218 0.69744366 0.26750299 3 12
1.6187338 0.73360878 -0.1554859 12 5
1.5306878 0.69370651 0.32666492 2 13
1.5755163 0.71369123 -0.09064585 3 6
1.5284878 0.69206738 0.38736573 64 14
1.5776875 0.71401131 -0.030227473 100 7
1.6519227 0.74483168 -0.48554456 54 0
1.5332297 0.69099158 0.029354911 22 8
1.6559657 0.74595821 -0.41930887 1 1
1.5443501 0.69535577 0.088761814 72 9
1.6272564 0.73268497 -0.34689084 1 2
1.6501724 0.74230951 -0.28658792 2 3
1.5334938 0.68950218 0.20644666 100 11
1.5951761 0.71690089 -0.21473369 2 4
1.5604647 0.70097351 0.27094457 3 12
1.5402642 0.69157547 0.3281914 2 13
1.6053303 0.72045434 -0.092215925 9 6
1.5237824 0.68353695 0.38556615 66 14
1.5892941 0.71259016 -0.030401999 100 7
1.6616981 0.74192125 -0.48761511 54 0
1.5520662 0.69297242 0.029669054 39 8
1.6656778 0.74335045 -0.42110831 1 1
1.5467682 0.68996036 0.088761814 72 9
1.6191729 0.72191793 -0.34460112 2 2
1.5559763 0.69341666 0.14903623 4 10
1.6564907 0.7378642 -0.28721368 2 3
1.5358913 0.68414462 0.20644665 93 11
1.604923 0.71455741 -0.21570866 2 4
1.5520735 0.69070375 0.26906735 3 12
1.621995 0.72148103 -0.15531158 70 5
1.5499642 0.68911606 0.32971805 2 13
1.5227153 0.67636561 0.38466632 66 14
1.5862887 0.70460385 -0.030297283 100 7
1.6536767 0.73142892 -0.48450929 50 0
1.5820296 0.69940794 0.030192627 21 8
1.6719563 0.73881525 -0.4220081 1 1
1.5564748 0.68778551 0.089180499 72 9
1.6468248 0.72736746 -0.34994379 1 2
1.5365155 0.67832482 0.14694451 4 10
1.662671 0.73367202 -0.28783941 3 3
1.5383885 0.67851102 0.20644666 75 11
1.6111637 0.71027213 -0.21619633 2 4
1.5617054 0.68846858 0.27031884 3 12
1.6153876 0.71179748 -0.15444003 74 5
1.5379862 0.67737192 0.32666492 2 13
1.6086167 0.70814359 -0.092111252 48 6
1.5357695 0.67575485 0.38736573 64 14
1.5832479 0.69664586 -0.030192573 100 7
1.6632978 0.72875255 -0.48657981 40 0
1.6779673 0.73482984 -0.42290792 1 1
1.5625253 0.68395036 0.089389838 72 9
1.6601459 0.7263357 -0.35223347 3 2
1.5644306 0.68413281 0.14938486 4 10
1.6469963 0.72023916 -0.28471074 22 3
1.5533625 0.67897075 0.20815282 16 11
1.635339 0.71446246 -0.21912099 5 4
1.5713402 0.68617463 0.2715703 3 12
1.6160361 0.70535773 -0.1542657 76 5
1.5546186 0.6785506 0.32971805 2 13
1.6237705 0.7083962 -0.092843957 79 6
1.538002 0.67065793 0.38736573 61 14
1.5930022 0.69431126 -0.030332187 100 7
1.590422 0.69021612 0.030262435 1 8
1.6626437 0.72121429 -0.41840908 2 1
1.5685682 0.68008059 0.089599185 69 9
1.6553406 0.71770215 -0.35070696 3 2
1.5630343 0.67735714 0.14903623 4 10
1.6432887 0.71111453 -0.21985222 25 4
1.5664732 0.6775499 0.27031884 3 12
1.6203175 0.70050257 -0.15444003 65 5
1.5461656 0.66844493 0.32742834 2 13
1.6078995 0.69480097 -0.09179724 100 6
1.5510672 0.66992241 0.39006513 63 14
1.5990882 0.69033122 -0.030401999 100 7
1.6111937 0.6925568 0.030611483 1 8
1.6758944 0.72002131 -0.42110831 2 1
1.5635917 0.67144912 0.089180507 69 9
1.6543515 0.71008188 -0.34994376 3 2
1.5801543 0.67790824 0.15043072 4 10
1.6648159 0.71388543 -0.28690079 69 3
1.5471182 0.66341573 0.20669039 2 11
1.5869868 0.67985594 0.27344751 3 12
1.6319109 0.69876325 -0.1553116 69 5
1.5558246 0.66586369 0.32895482 2 13
1.6049263 0.6865468 -0.091483228 82 6
1.5391779 0.65810281 0.38646588 64 14
1.6088428 0.68788928 -0.030541616 100 7
1.6063607 0.68351531 0.030471865 1 8
1.6874883 0.71768773 -0.42335781 7 1
1.5623664 0.66415066 0.088971168 72 9
1.6568204 0.70430237 -0.34994379 3 2
1.5825107 0.67238873 0.15043072 4 10
1.6582067 0.70420933 -0.28533646 65 3
1.5860851 0.673253 0.21156514 2 11
1.6190959 0.68693274 -0.21595259 52 4
1.5785563 0.66940707 0.2715703 3 12
1.6380082 0.69461846 -0.1556602 67 5
1.5581397 0.66042846 0.32895485 2 13
1.610991 0.68249899 -0.091692574 45 6
1.5450548 0.65424615 0.38736573 61 14
1.6039872 0.67887068 -0.030401999 100 7
1.6197937 0.68256259 0.030681292 1 8
1.5738788 0.66256791 0.089494519 67 9
1.6574591 0.69775331 -0.34956214 7 2
1.5701569 0.66067845 0.14903623 4 10
1.6661174 0.70071375 -0.28627506 69 3
1.5737858 0.66155899 0.20961526 2 11
1.6434458 0.69050378 -0.21887727 82 4
1.5808834 0.66389322 0.2715703 4 12
1.6312382 0.68503976 -0.15478866 65 5
1.5749174 0.66106457 0.3320078 2 13
1.5581119 0.65337086 0.39006516 56 14
1.6026585 0.67172199 -0.030332191 100 7
1.6037118 0.66920304 0.030332243 1 8
1.7032491 0.71039027 -0.42605722 68 1
1.5797539 0.65888298 0.089703858 31 9
1.6508244 0.68818599 -0.34765407 26 2
1.5761321 0.65672576 0.14938486 4 10
1.6630826 0.69261563 -0.28533646 66 3
1.5907468 0.66216379 0.21156515 2 11
1.6531773 0.68781257 -0.21985221 66 4
1.6104338 0.67002892 0.27626336 7 12
1.6317796 0.67857689 -0.15461434 65 5
1.5699641 0.65254855 0.33048132 3 13
1.6452274 0.68349475 -0.093367316 2 6
1.5531837 0.64493906 0.38826549 35 14
1.6104174 0.66870463 -0.030436903 100 7
1.6133139 0.66693825 0.030471867 1 8
1.6803809 0.69431931 -0.41975862 63 1
1.5784146 0.65122032 0.14938486 4 10
1.6671963 0.68784976 -0.2856493 63 3
1.5892636 0.6553719 0.21107771 3 11
1.6444372 0.67778826 -0.21838978 70 4
1.6396656 0.67515212 -0.15513729 63 5
1.5866423 0.65331912 0.33353427 5 13
1.6179335 0.66587347 -0.091692567 3 6
1.5571164 0.64052594 0.38871545 10 14
1.6219894 0.66688067 -0.030611426 100 7
1.6341389 0.66887742 0.030820914 1 8
1.6864017 0.68992472 -0.42065841 13 1
1.5824667 0.64708233 0.089599192 2 9
1.6663735 0.68139237 -0.34994379 73 2
1.5879426 0.6489979 0.1500821 4 10
1.6732447 0.6835196 -0.28627506 60 3
1.5768387 0.64381754 0.20912775 4 11
1.6357652 0.66754389 -0.21692735 28 4
1.6474298 0.67196792 -0.1556602 65 5
1.6276462 0.66323686 -0.092111252 2 6
1.6280118 0.66272229 -0.030681238 100 7
1.6290509 0.66016436 0.030681295 1 8
1.5921211 0.64455205 0.090017885 3 9
1.6651022 0.6740976 -0.34918052 75 2
1.5901985 0.64345068 0.1500821 4 10
1.686608 0.68211979 -0.28815231 60 3
1.5790766 0.63830912 0.20912777 9 11
1.5880548 0.64129436 0.27125743 82 12
1.6516125 0.66696054 -0.15583453 63 5
1.6521783 0.66651744 -0.093367316 2 6
1.6247509 0.65479338 -0.030576522 100 7
1.6350569 0.65596342 0.030751102 1 8
1.6035186 0.64298582 0.090541244 9 9
1.6710899 0.66974145 -0.34994376 98 2
1.5850368 0.6349327 0.14938486 4 10
1.6871449 0.67549348 -0.28783941 66 3
1.6477584 0.65905672 -0.21790232 2 4
1.6066797 0.6426264 0.27407324 100 12
1.6483808 0.65897202 -0.1553116 65 5
1.6152741 0.64540911 0.33811364 100 13
1.6359465 0.65333903 -0.092320599 1 6
1.6213415 0.64717829 -0.030471809 99 7
1.6297894 0.64758444 0.030611482 1 8
1.678892 0.66607732 -0.35108864 100 2
1.6131729 0.63967741 0.15182522 8 10
1.6838669 0.66771007 -0.28690079 63 3
1.6499345 0.65358931 -0.2179023 2 4
1.6089133 0.63701373 0.27407324 100 12
1.6488186 0.6524806 -0.15513729 60 5
1.5863715 0.6277687 0.33162615 75 13
1.652962 0.65378749 -0.093157969 1 6
1.6320401 0.641891 0.030611482 2 8
1.6079684 0.63177544 0.090541244 47 9
1.6865735 0.66265959 -0.35223347 98 2
1.5652131 0.61466146 0.14711881 30 10
1.6898652 0.66327119 -0.28752655 60 3
1.6003497 0.62781501 0.21107771 88 11
1.6780796 0.65797043 -0.22131486 2 4
1.6148056 0.63283485 0.274699 100 12
1.6621034 0.6513707 -0.15618315 63 5
1.5940369 0.62437582 0.33277097 92 13
1.6552342 0.64801317 -0.093157969 2 6
1.6723787 0.65405196 -0.031344425 67 7
1.6454518 0.6405431 0.030820914 1 8
1.6157483 0.62832981 0.090855248 76 9
1.6943656 0.65890247 -0.35337833 81 2
1.6940111 0.65808493 -0.28783941 58 3
1.5951297 0.61935043 0.21010274 92 11
1.6729633 0.64923644 -0.22033988 1 4
1.6170044 0.62719542 0.274699 100 12
1.6643666 0.64556605 -0.15618315 61 5
1.5943767 0.61809778 0.33238918 92 13
1.6463124 0.63790131 -0.092529953 1 6
1.6551418 0.63767076 0.030960532 2 8
1.6085036 0.61938024 0.09033189 73 9
1.6874937 0.64945948 -0.35147023 71 2
1.6066574 0.61802542 0.15060505 89 10
1.7036732 0.65500277 -0.28909087 58 3
1.6009874 0.61520302 0.2105902 88 11
1.6678071 0.64054549 -0.21936473 1 4
1.6135433 0.61970466 0.27376038 100 12
1.6740502 0.64260793 -0.15688039 39 5
1.6001903 0.61393535 0.33315262 88 13
1.6559883 0.63501143 -0.092948638 2 6
1.6525174 0.63334984 -0.030890662 100 7
1.6310898 0.62220085 0.030471865 2 8
1.6143885 0.61518455 0.090541236 67 9
1.6125289 0.61383051 0.15095365 100 10
1.7113745 0.65145743 -0.29002947 60 3
1.6104401 0.61271447 0.21156515 88 11
1.669922 0.63501155 -0.21936473 1 4
1.6175433 0.61476988 0.27407324 100 12
1.6651078 0.63251579 -0.15583453 28 5
1.6095583 0.61141455 0.33467907 92 13
1.6730225 0.63518822 -0.093786009 1 6
1.6659365 0.63183272 -0.031100092 100 7
1.6557021 0.62497729 0.030890718 5 8
1.6201572 0.61123711 0.090750575 65 9
1.6070981 0.60566956 0.15025643 100 10
1.7062436 0.64269465 -0.28877801 60 3
1.6181426 0.60918701 0.21229637 85 11
1.709287 0.64315993 -0.22423951 2 4
1.6232706 0.61079425 0.274699 100 12
1.6765206 0.63049674 -0.15670606 55 5
1.6006569 0.60164744 0.33238918 96 13
1.6752297 0.62934393 -0.093786009 2 6
1.6586623 0.62278962 -0.030925568 100 7
1.6260233 0.60697532 0.090959929 65 9
1.6185364 0.60353702 0.15112796 100 10
1.7028129 0.63496286 -0.28783941 54 3
1.6089931 0.59965867 0.21083395 85 11
1.6965287 0.63194436 -0.2222898 1 4
1.6327976 0.60788131 0.27595046 100 12
1.6861806 0.62742049 -0.15740333 61 5
1.598963 0.59496719 0.33162597 88 13
1.6735635 0.62239236 -0.093576662 2 6
1.6608261 0.61699641 -0.030925568 100 7
1.6319939 0.60272241 0.030367149 46 8
1.6244895 0.59962785 0.090750575 65 9
1.6244762 0.59897965 0.15147661 100 10
1.7126527 0.63115174 -0.2890909 54 3
1.6019703 0.59004527 0.20961528 70 11
1.7026681 0.62679821 -0.22277707 2 4
1.6350145 0.60189313 0.27595046 100 12
1.6922085 0.62261152 -0.15775195 58 5
1.6122916 0.59288841 0.33391565 88 13
1.6684422 0.61320621 -0.093157969 2 6
1.6705848 0.61366266 -0.031065188 100 7
1.6471307 0.60211259 0.030611482 49 8
1.6265727 0.59395421 0.090750583 63 9
1.6303008 0.59467059 0.15182522 100 10
1.7203033 0.6275 -0.29002947 48 3
1.7084678 0.62250727 -0.22326456 2 4
1.6333935 0.59482992 0.27532473 100 12
1.6981159 0.61806411 -0.15810058 58 5
1.6160933 0.58821034 0.33429745 78 13
1.6854819 0.6131326 -0.093995348 2 6
1.6689581 0.60646123 -0.030995382 100 7
1.6642668 0.60179907 0.03089072 69 8
1.632393 0.58963007 0.090959929 63 9
1.62102 0.58520144 0.15077935 100 10
1.731774 0.62484288 -0.29159382 29 3
1.6919553 0.6098085 -0.22082737 2 4
1.63546 0.5891242 0.27532473 100 12
1.6889095 0.6083777 -0.15705472 65 5
1.6347612 0.5885511 0.33773202 42 13
1.6951293 0.60994977 -0.09441404 12 6
1.6710645 0.60063297 -0.030995382 100 7
1.6531771 0.59127229 0.030646387 72 8
1.6419646 0.58661574 0.091378614 65 9
1.630558 0.58221972 0.15147659 100 10
1.6378766 0.5841884 0.21351507 2 11
1.7015533 0.60656458 -0.22180213 2 4
1.6449496 0.58606404 0.27657619 100 12
1.6928996 0.60314769 -0.15722902 55 5
1.6164616 0.57559639 0.33353427 10 13
1.6825718 0.59814477 -0.031169903 100 7
1.6627717 0.58816582 0.030786008 61 8
1.6515348 0.58354247 0.091797292 60 9
1.6325804 0.57652485 0.15147661 100 10
1.639906 0.57846713 0.21351509 2 11
1.7261256 0.60854292 -0.22472697 2 4
1.6469854 0.58031809 0.27657619 100 12
1.7081488 0.60186911 -0.1584492 60 5
1.7087656 0.60141701 -0.094937399 72 6
1.6865362 0.59293061 -0.031204809 100 7
1.672365 0.58499867 0.030925624 56 8
1.6497909 0.57645601 0.091587953 36 9
1.643988 0.57410634 0.15234815 100 10
1.6494124 0.57535487 0.21449003 2 11
1.7338628 0.60447371 -0.22545841 10 4
1.6583278 0.57781643 0.27814057 100 12
1.706476 0.59459287 -0.15810058 60 5
1.7051959 0.59347868 -0.094623379 90 6
1.6885954 0.58704025 -0.031204807 100 7
1.6781765 0.5804652 0.030995438 55 8
1.6553982 0.57161617 0.1532197 50 10
1.6664237 0.57477152 0.21643993 2 11
1.7265787 0.59518355 -0.22423953 33 4
1.6547316 0.57009345 0.27720192 100 12
1.7179599 0.59187704 -0.15897213 58 5
1.7091458 0.58817309 -0.094728053 82 6
1.6849611 0.57919174 -0.031100092 100 7
1.6915454 0.57848573 0.031204866 39 8
1.6646616 0.56767082 0.21595246 2 11
1.7324036 0.59043324 -0.22472718 40 4
1.652972 0.56303966 0.27657619 100 12
1.7105856 0.58266419 -0.15810058 56 5
1.7017344 0.57898641 -0.094204694 77 6
1.6869723 0.57330781 -0.031100094 100 7
1.6859769 0.57001531 0.031065244 13 8
1.6840217 0.56902766 0.093158036 2 9
1.6593488 0.56004465 0.1532197 4 10
1.6816819 0.56692934 0.21790236 2 11
1.7324709 0.58405137 -0.22448325 43 4
1.666062 0.56133896 0.27845341 100 12
1.7239385 0.58050483 -0.15914646 56 5
1.7056384 0.57367909 -0.094309375 71 6
1.6983417 0.57089579 -0.031274617 100 7
1.6821107 0.56217426 0.09294869 2 9
1.6649761 0.55580181 0.15356833 4 10
1.683553 0.56134915 0.21790238 2 11
1.7400479 0.58018631 -0.22521447 7 4
1.6697884 0.55643582 0.2787663 97 12
1.7258538 0.57478517 -0.15914644 55 5
1.6980556 0.56486785 -0.093786016 49 6
1.6983281 0.56462944 -0.031239713 50 7
1.7106044 0.56572855 0.031449199 1 8
1.6764772 0.55379289 0.092530005 2 9
1.681946 0.55527383 0.15496282 5 10
1.6854049 0.55576354 0.21790236 2 11
1.677349 0.55245799 0.27970487 100 12
1.7278497 0.56875688 -0.15914644 54 5
1.7038115 0.56018513 -0.093995355 17 6
1.7202698 0.56193829 0.031588815 1 8
1.6709006 0.54516697 0.092111319 2 9
1.6593449 0.54107541 0.15269677 24 10
1.6761057 0.54589349 0.21643993 2 11
1.6699702 0.54325145 0.27814054 100 12
1.7450811 0.56734776 -0.16054094 55 5
1.7061291 0.55369657 -0.031309523 1 7
1.7185115 0.55440193 0.031519007 2 8
1.6918024 0.54545939 0.093158029 2 9
1.6818744 0.54096264 0.21692739 2 11
1.6680955 0.5362094 0.27751485 100 12
1.7356693 0.55759692 -0.15949507 54 5
1.7382045 0.55774218 -0.095670104 2 6
1.7118597 0.54895931 -0.031379331 1 7
1.7165301 0.54748505 0.031449199 2 8
1.7032113 0.54258209 0.093681395 2 9
1.6669716 0.53039581 0.1530454 84 10
1.6874429 0.53658593 0.21741492 2 11
1.6812531 0.53397065 0.27939203 93 12
1.737605 0.55153531 -0.15949507 50 5
1.7400446 0.55197448 -0.095670104 1 6
1.7404536 0.5514366 -0.031868 3 7
1.7260596 0.54389423 0.031588815 3 8
1.7050948 0.53663301 0.093681388 2 9
1.6896273 0.53144175 0.15496282 100 10
1.6855177 0.52950191 0.21692739 2 11
1.6906457 0.53046465 0.28064349 72 12
1.7451274 0.54755902 -0.160018 43 5
1.7305256 0.54231399 -0.095042072 2 6
1.7232841 0.53938425 -0.031518951 1 7
1.6993079 0.52895051 0.031065246 15 8
1.7145864 0.53304994 0.09410008 2 9
1.6895696 0.52494913 0.15478851 100 10
1.6873558 0.52361554 0.21692741 3 11
1.6943742 0.52514428 0.28095636 35 12
1.7432225 0.54028404 -0.1596694 13 5
1.7362237 0.53745162 -0.095251411 2 6
1.7519032 0.54163438 -0.032007616 1 7
1.7126185 0.52588874 0.093890741 2 9
1.6952013 0.5202167 0.15513712 100 10
1.704357 0.52237558 0.21887733 5 11
1.7419093 0.53255522 -0.095460758 2 6
1.7384827 0.53084421 -0.031728376 1 7
1.7278337 0.52462703 0.031519007 44 8
1.7259116 0.52338457 0.094518773 2 9
1.6931932 0.51314086 0.15478851 100 10
1.6928704 0.51239711 0.21717115 30 11
1.7705258 0.53455371 -0.096926168 2 6
1.7479836 0.52708125 -0.031868 3 7
1.7277392 0.51801765 0.031484101 50 8
1.7200743 0.51506615 0.09410008 4 9
1.6949743 0.50722694 0.15478851 100 10
1.7704673 0.52779925 -0.096821502 15 6
1.7498125 0.52097768 -0.031868 3 7
1.7333714 0.51312006 0.031553909 64 8
1.7081987 0.50469571 0.15583438 100 10
1.7135414 0.50562316 0.21936479 58 11
1.7631315 0.51824957 -0.032077424 3 7
1.7389911 0.50818771 0.031623725 57 8
1.7137755 0.49984521 0.156183 100 10
1.6924254 0.49297723 0.21643993 62 11
1.7587649 0.51096916 -0.095984124 58 6
1.7706915 0.51376319 -0.032182142 8 7
1.74844 0.50433093 0.031763341 57 8
1.7196163 0.49536663 0.093786068 46 9
1.7193391 0.49496189 0.15653162 100 10
1.7055827 0.49035707 0.21790235 75 11
1.7720571 0.50812954 -0.096612148 38 6
1.7455602 0.4998723 -0.031693473 35 7
1.7540362 0.49931982 0.031833149 59 8
1.7347831 0.4931837 0.094518773 7 9
1.7172234 0.48786864 0.15618302 100 10
1.7263813 0.48981839 0.22033975 69 11
1.7607647 0.49758229 -0.031937808 52 7
1.7519183 0.49211207 0.031763341 60 8
1.7422628 0.48874387 0.094832785 1 9
1.7227529 0.4829466 0.15653163 100 10
1.7280803 0.48378959 0.22033973 65 11
1.7779006 0.4957301 -0.032217044 68 7
1.7612481 0.48843768 0.031902958 62 8
1.7611123 0.488069 0.095774844 2 9
1.7320256 0.47935715 0.15722908 100 10
1.7220218 0.47594151 0.21936481 75 11
1.80644 0.49757612 -0.032705709 97 7
1.7628584 0.48259398 0.031902958 57 8
1.7435395 0.47665125 0.094728112 2 9
1.7375323 0.47435814 0.15757748 100 10
1.7312511 0.47231781 0.22033975 65 11
1.7850089 0.4849762 -0.032286856 100 7
1.7722543 0.47852302 0.032042578 56 8
1.7529061 0.47264242 0.095146798 2 9
1.746791 0.47066656 0.15827474 100 10
1.7367231 0.46730369 0.22082724 65 11
1.7847594 0.47822443 -0.03225195 73 7
1.7816435 0.47439146 0.032182198 59 8
1.7584054 0.46754766 0.095356137 2 9
1.7388761 0.46170416 0.15740317 91 10
1.7498556 0.46429354 0.22228965 57 11
1.7883508 0.47250354 -0.032286853 55 7
1.7756333 0.46582881 0.032042578 59 8
1.767836 0.46312371 0.095774844 2 9
1.7539692 0.45916396 0.15862337 21 10
1.7534668 0.45837763 0.22253342 37 11
1.7811205 0.46062875 0.03211239 60 8
1.7829783 0.46044621 0.096507542 2 9
1.7865928 0.45539773 0.032182198 57 8
1.7729617 0.45126331 0.095879517 2 9
1.751339 0.44543529 0.15810044 22 10
1.7959296 0.45110679 0.032321818 57 8
1.7784003 0.44604391 0.096088849 2 9
1.7974932 0.44483456 0.032321814 53 8
1.7954582 0.44366589 0.096926227 2 9
1.7951496 0.4376106 0.03225201 41 8
1.7853526 0.43456134 0.096298203 2 9
1.7713953 0.43083754 0.15949492 95 10
1.8063883 0.43367535 0.032426532 8 8
1.7985116 0.43112126 0.096926227 2 9
1.7748262 0.42511526 0.15966924 100 10
1.8038932 0.42575774 0.097135566 2 9
1.7840558 0.42074704 0.16036649 97 10
1.8325304 0.42610583 0.098600969 4 9
1.7893952 0.41541761 0.16071509 93 10
1.7908345 0.40916929 0.1607151 87 10
1.7863501 0.40191588 0.16019216 87 10
1.8251921 0.40430212 0.097972952 39 9
1.7994139 0.39826164 0.16123803 84 10
1.8129318 0.39495212 0.097240247 10 9
1.8046868 0.3928251 0.16158664 73 10
1.8157884 0.38860926 0.16245823 40 10
