# .PCD v0.7 - Point Cloud Data file format
VERSION 0.7
FIELDS x y z intensity ring
SIZE 4 4 4 4 2
TYPE F F F F U
COUNT 1 1 1 1 1
WIDTH 1213
HEIGHT 1
VIEWPOINT 0 0 0 1 0 0 0
POINTS 1213
DATA ascii
-4.1146531 -1.4935453 -0.076406389 45 7
-4.2549763 -1.543641 1.2128263 44 15
-4.1414437 -1.4959121 0.076860301 48 8
-4.1460514 -1.4967583 0.23101096 46 9
-4.1589551 -1.4997761 0.38679695 48 10
-4.1815968 -1.5062919 0.54573089 40 11
-4.0956864 -1.4753454 -0.53451878 4 4
-4.2059984 -1.5142525 0.70802253 43 12
-4.0868874 -1.4705642 -0.37999919 41 5
-4.2287455 -1.5207747 0.87352335 30 13
-4.1049085 -1.4754306 -0.22860341 55 6
-4.2325897 -1.5213231 1.0383741 36 14
-4.1177011 -1.4792173 -0.076371498 48 7
-4.2527986 -1.526911 1.2107556 45 15
-4.1323476 -1.4739009 0.076581061 47 8
-4.1482635 -1.4787627 0.23080164 46 9
-4.1536803 -1.4790587 0.38575107 48 10
-4.1988306 -1.4934851 0.54719323 41 11
-4.1015754 -1.4588922 -0.53451926 2 4
-4.2194877 -1.500003 0.70927399 43 12
-4.085248 -1.4514785 -0.37930197 41 5
-4.2181644 -1.4978744 0.87008917 34 13
-4.1032686 -1.4562684 -0.2281847 55 6
-4.2386622 -1.5043201 1.0383741 36 14
-4.1160674 -1.4600009 -0.076231875 45 7
-4.2479687 -1.5059538 1.2076498 46 15
-4.133441 -1.4588581 0.076511249 47 8
-4.1456103 -1.4623408 0.23038295 46 9
-4.166079 -1.4679248 0.38644829 45 10
-4.1831636 -1.4723035 0.54451221 38 11
-4.1101356 -1.4466006 -0.5350067 4 4
-4.2207127 -1.4846915 0.70864832 43 12
-4.0937972 -1.4392456 -0.3796505 42 5
-4.2157001 -1.481275 0.86856228 33 13
-4.1024218 -1.440668 -0.22787069 55 6
-4.2399502 -1.4889644 1.0374742 36 14
-4.1284337 -1.4489921 -0.076371491 50 7
-4.2529392 -1.4918586 1.2076498 45 15
-4.1382561 -1.4451431 0.076511249 47 8
-4.1431465 -1.4452296 0.22996427 48 9
-4.1671605 -1.4527894 0.38609967 45 10
-4.1842728 -1.4571176 0.54402465 38 11
-4.0926628 -1.4244146 -0.53208131 4 4
-4.2240024 -1.469301 0.70833528 46 12
-4.0987968 -1.4249458 -0.37965056 41 5
-4.2280059 -1.4698653 0.87008917 34 13
-4.1015172 -1.4250892 -0.22755668 59 6
-4.2322354 -1.4696814 1.034325 33 14
-4.1277986 -1.4326063 -0.076266773 47 7
-4.2599468 -1.4776372 1.2081674 41 15
-4.1527262 -1.4339534 0.076685771 48 8
-4.1519427 -1.4320599 0.2301736 46 9
-4.1762247 -1.4388055 0.38644829 47 10
-4.1912103 -1.443149 0.54426837 41 11
-4.0938554 -1.4088289 -0.53159386 4 4
-4.2160301 -1.4500505 0.70614535 45 12
-4.1037459 -1.4106295 -0.37965056 41 5
-4.2259388 -1.4518089 0.8685624 34 13
-4.1123796 -1.4119927 -0.22787069 55 6
-4.2339072 -1.4528934 1.0334252 34 14
-4.1252089 -1.4155927 -0.076127157 47 7
-4.2705603 -1.4646391 1.2097203 42 15
-4.1579547 -1.4187222 0.076685771 48 8
-4.149354 -1.4149803 0.22975489 48 9
-4.1661348 -1.4190787 0.38505387 45 10
-4.1927137 -1.4265001 0.54378098 40 11
-4.1177859 -1.4002043 -0.53403121 4 4
-4.2210665 -1.4353237 0.70614535 43 12
-4.0973253 -1.3924505 -0.37860465 41 5
-4.2402749 -1.4402053 0.87047035 36 13
-4.1097188 -1.3950611 -0.22745201 55 6
-4.2481804 -1.4412357 1.0356746 37 14
-4.1282315 -1.4005419 -0.076092258 50 7
-4.2610102 -1.4447603 1.2055793 44 15
-4.1455836 -1.3991717 0.07637164 47 8
-4.1618381 -1.4030398 0.23017357 48 9
-4.1748385 -1.4057997 0.38540244 47 10
-4.1974211 -1.4125885 0.54378098 41 11
-4.0998282 -1.3789474 -0.53110635 2 4
-4.2279234 -1.421211 0.70645821 43 12
-4.1097169 -1.3806778 -0.37930197 41 5
-4.2245564 -1.4192587 0.86627257 37 13
-4.1218958 -1.3839678 -0.22787069 55 6
-4.2529364 -1.4271401 1.0356746 36 14
-4.1293035 -1.3848524 -0.076022454 45 7
-4.2587013 -1.427421 1.2035087 44 15
-4.1504421 -1.3846921 0.076371625 47 8
-4.1629214 -1.387241 0.22996427 46 9
-4.1756973 -1.3906888 0.38505387 47 10
-4.1929083 -1.3947951 0.54256225 38 11
-4.1159186 -1.3683861 -0.53256923 4 4
-4.2347331 -1.4070668 0.70677108 45 12
-4.1050563 -1.3631839 -0.37843034 44 5
-4.2220311 -1.4020283 0.86474657 39 13
-4.1191196 -1.3670549 -0.22745202 55 6
-4.2504935 -1.4098328 1.033875 36 14
-4.1455007 -1.374204 -0.076231875 48 7
-4.2746611 -1.4161917 1.2066146 42 15
-4.1552505 -1.3701959 0.076371625 45 8
-4.1601501 -1.3702029 0.22954559 48 9
-4.1845508 -1.3766197 0.38540244 45 10
-4.1958652 -1.3795291 0.5423184 37 11
-4.109355 -1.3502926 -0.53110635 4 4
-4.2414951 -1.3928924 0.70708388 46 12
-4.1116834 -1.3494666 -0.37860468 42 5
-4.2290068 -1.3871561 0.86512816 40 13
-4.1203055 -1.3507047 -0.22724263 55 6
-4.2500768 -1.3924233 1.0325254 36 14
-4.1483727 -1.3591025 -0.076196969 47 7
-4.2685628 -1.3976558 1.2035087 46 15
-4.1564417 -1.3537195 0.076301821 47 8
-4.1554122 -1.3525809 0.22902222 45 9
-4.1855412 -1.3607734 0.38505384 48 10
-4.2027817 -1.3647555 0.54256225 38 11
-4.1140432 -1.3359398 -0.53110635 2 4
-4.2331791 -1.3738109 0.70489383 45 12
-4.1163678 -1.3351066 -0.37860465 41 5
-4.231956 -1.3717803 0.86474657 39 13
-4.1268959 -1.3369282 -0.22734731 53 6
-4.2509627 -1.3771203 1.0316255 37 14
-4.1397734 -1.3403028 -0.075952634 47 7
-4.2734151 -1.3827473 1.2035087 44 15
-4.1647143 -1.3411543 0.076371625 47 8
-4.1579733 -1.3381815 0.22891752 46 9
-4.1748567 -1.3420082 0.38365936 50 10
-4.2072845 -1.350811 0.54256225 37 11
-4.1146712 -1.3210762 -0.53061891 2 4
-4.2283068 -1.3567476 0.70332944 46 12
-4.1093898 -1.3177985 -0.3775588 41 5
-4.2402205 -1.3589371 0.86550975 39 13
-4.1332092 -1.3238461 -0.22745202 55 6
-4.255506 -1.3630172 1.0316256 36 14
-4.1384821 -1.3247385 -0.075847924 50 7
-4.270617 -1.3662137 1.2014382 46 15
-4.1577067 -1.3236964 0.076162204 45 8
-4.1683292 -1.3254749 0.22923157 43 9
-4.1754856 -1.3269492 0.38331115 47 10
-4.2174163 -1.3386531 0.54329342 40 11
-4.1268258 -1.3091069 -0.53159386 2 4
-4.2386665 -1.3437698 0.70426816 45 12
-4.1063671 -1.3010387 -0.37686157 42 5
-4.2484479 -1.3460547 0.86627257 42 13
-4.1375761 -1.3101321 -0.22745201 57 6
-4.2602377 -1.3481539 1.0316255 38 14
-4.1564274 -1.3145052 -0.076092258 50 7
-4.2753601 -1.3512981 1.2014382 46 15
-4.1546721 -1.3067752 0.076022588 47 8
-4.1710243 -1.3103189 0.22912689 48 9
-4.184124 -1.3128287 0.38365936 45 10
-4.2012277 -1.3173896 0.54061228 38 11
-4.1313701 -1.2946936 -0.53159386 2 4
-4.2414465 -1.3283753 0.70395523 46 12
-4.1165881 -1.2884822 -0.37738445 44 5
-4.2383623 -1.3257864 0.86321968 40 13
-4.1328187 -1.2919787 -0.22692864 53 6
-4.2651505 -1.3325304 1.0316255 36 14
-4.1590815 -1.2993921 -0.076057345 50 7
-4.2800508 -1.3363658 1.2014382 46 15
-4.1632533 -1.2927247 0.076092392 47 8
-4.1681685 -1.2926561 0.22870819 52 9
-4.1962934 -1.3005744 0.38435659 47 10
-4.2060285 -1.3019825 0.54061234 37 11
-4.1171236 -1.2736746 -0.52915692 2 4
-4.2443991 -1.3122382 0.70364237 45 12
-4.124867 -1.2752825 -0.37773305 44 5
-4.2410893 -1.310403 0.86283797 40 13
-4.1315784 -1.2757765 -0.22661462 59 6
-4.2548795 -1.3130381 1.0280265 37 14
-4.1599941 -1.2829608 -0.07598754 48 7
-4.2849202 -1.3206697 1.2014382 45 15
-4.1753869 -1.2805293 0.076232001 48 8
-4.1688371 -1.2769277 0.22849888 50 9
-4.2008076 -1.2859197 0.38435659 47 10
-4.2105474 -1.2872927 0.54061234 38 11
-4.1253419 -1.2604567 -0.52964449 2 4
-4.2413964 -1.2951068 0.70239085 43 12
-4.125483 -1.2597127 -0.37738451 44 5
-4.2475152 -1.2961637 0.86321968 39 13
-4.1398268 -1.2625129 -0.22682394 55 6
-4.2557087 -1.2970403 1.0271266 36 14
-4.158709 -1.2666839 -0.075882837 52 7
-4.2895041 -1.3057053 1.2014382 46 15
-4.1740899 -1.2642077 0.076127298 50 8
-4.173048 -1.2630961 0.22849885 50 9
-4.1938272 -1.2677888 0.38331068 45 10
-4.220716 -1.2743095 0.54134351 40 11
-4.1031098 -1.2380208 -0.52623159 2 4
-4.2475595 -1.2816051 0.70270377 48 12
-4.0669055 -1.2263216 -0.37163219 31 5
-4.250134 -1.2807636 0.86283797 40 13
-4.1250849 -1.2422953 -0.22577725 38 6
-4.2639427 -1.2833005 1.0280265 37 14
-4.1494827 -1.2488519 -0.075638495 42 7
-4.2827106 -1.2881349 1.1983323 46 15
-4.1571865 -1.2440526 0.075743347 40 8
-4.1793451 -1.2490946 0.22860354 48 9
-4.1867728 -1.2497227 0.38226485 48 10
-4.1604867 -1.2418764 -0.68768579 1 3
-4.2249188 -1.2603059 0.54134351 40 11
-0.86937803 -0.25917286 -0.11138865 4 4
-4.2463279 -1.2650775 0.70176512 45 12
-4.021513 -1.1973368 -0.36710009 12 5
-4.2468309 -1.2644215 0.86131197 42 13
-4.06218 -1.2086731 -0.22211373 57 6
-4.2719102 -1.2702643 1.0289261 38 14
-4.0694747 -1.2092974 -0.074102685 48 7
-4.2816253 -1.2715276 1.1967794 51 15
-4.0847936 -1.2068704 0.074347161 56 8
-4.0974774 -1.209062 0.22389328 50 9
-4.1507616 -1.2239974 0.37860477 42 10
-4.2083454 -1.2393816 0.53866237 27 11
-0.89693803 -0.26398319 -0.11480088 3 4
-4.2450323 -1.2485759 0.70082653 43 12
-4.0407534 -1.1884921 -0.36849463 2 5
-4.2455683 -1.2479286 0.86016667 39 13
-4.0529604 -1.1905456 -0.22138102 78 6
-4.2763181 -1.2553457 1.0289261 37 14
-4.0679145 -1.1933962 -0.073997967 63 7
-4.2915993 -1.2582036 1.1983323 53 15
-4.0774632 -1.1892449 0.074137725 76 8
-4.0882502 -1.1908419 0.22316059 65 9
-4.1052713 -1.1950237 0.37407219 60 10
-4.1306806 -1.2008553 0.52818161 53 11
-0.89785403 -0.26085067 -0.11480088 3 4
-4.1658955 -1.2095159 0.6870603 49 12
-4.1782498 -1.2123122 0.84566522 39 13
-4.0455823 -1.1730535 -0.220753 59 6
-4.2001891 -1.2170886 1.0095803 33 14
-4.0816598 -1.1819702 -0.074172497 66 7
-4.2718406 -1.236235 1.1916031 29 15
-4.0892763 -1.1772164 0.074277341 78 8
-4.0844989 -1.1750691 0.22274189 73 9
-4.1132479 -1.1817856 0.37442082 65 10
-4.1329398 -1.1858828 0.52793795 68 11
-0.87204438 -0.25005466 -0.11138854 4 4
-4.1546926 -1.1913387 0.68455738 61 12
-4.1749067 -1.1955593 0.8441388 55 13
-4.0458121 -1.1578256 -0.22054367 8 6
-4.1819286 -1.1959897 1.0041815 50 14
-4.0701761 -1.1640296 -0.073893264 68 7
-4.20719 -1.20242 1.1724504 60 15
-4.1008511 -1.1658374 0.074416965 76 8
-4.090497 -1.1613508 0.22284657 79 9
-4.1039305 -1.1636159 0.37320065 68 10
-4.1272998 -1.1694649 0.52671921 56 11
-0.86140883 -0.24391644 -0.10992611 4 4
-4.1607265 -1.1773665 0.68487018 66 12
-4.1807375 -1.1822422 0.84452045 61 13
-4.1188211 -1.1639558 -0.22431183 2 6
-4.1858716 -1.1821152 1.0041815 59 14
-4.0684404 -1.1481864 -0.073788546 69 7
-4.2150803 -1.1887753 1.1734856 82 15
-4.0894938 -1.1471939 0.074137732 78 8
-4.098372 -1.1481426 0.2230559 74 9
-4.1077662 -1.1500002 0.37320113 74 10
-4.1332684 -1.1555852 0.52696294 61 11
-0.88902122 -0.24838632 -0.11333845 3 4
-4.1686163 -1.1638992 0.68549603 66 12
-4.1791658 -1.1660575 0.8433755 60 13
-4.193727 -1.1685437 1.0050814 59 14
-4.0762763 -1.1350495 -0.073858351 69 7
-4.2061763 -1.1704295 1.1698624 92 15
-4.0896187 -1.131846 0.07406792 81 8
-4.102355 -1.1338284 0.2230559 79 9
-4.1155963 -1.1367161 0.37354925 74 10
-4.1238818 -1.1374545 0.52525681 60 11
-0.86691803 -0.23895186 -0.11041369 4 4
-4.1726532 -1.1493406 0.68549591 69 12
-4.1737461 -1.148857 0.84146738 58 13
-4.1996589 -1.1544138 1.0055311 61 14
-4.0821424 -1.1213434 -0.073893249 68 7
-4.2027841 -1.1536953 1.1677917 82 15
-4.0974021 -1.1186167 0.074137725 74 8
-4.0985799 -1.1174011 0.22263722 76 9
-4.123384 -1.1233904 0.37389788 76 10
-4.1259117 -1.1225322 0.52501309 61 11
-0.87157798 -0.23696589 -0.11090116 4 4
-4.1747346 -1.1342494 0.68518317 57 12
-4.1834149 -1.135825 0.84261227 48 13
-4.192379 -1.1366867 1.0028319 61 14
-4.0860319 -1.1070881 -0.073893264 66 7
-4.2067857 -1.1390177 1.1677917 84 15
-4.0974202 -1.1032674 0.074067913 79 8
-4.0985985 -1.1020504 0.22242789 73 9
-4.1234317 -1.1079562 0.37354925 74 10
-4.1355567 -1.1096666 0.52574426 60 11
-0.90307766 -0.24214791 -0.11480088 3 4
-4.1925554 -1.1210397 1.001932 54 14
-4.0821433 -1.0907534 -0.073753648 45 7
-4.2107363 -1.1243253 1.1677917 82 15
-4.1128426 -1.0920379 0.074277341 37 8
-4.106091 -1.0894771 0.22263722 56 9
-4.1195703 -1.0915146 0.372852 82 10
-4.1432433 -1.0962393 0.52623171 60 11
-0.88472593 -0.23391987 -0.11236349 4 4
-1.6324587 -0.43100944 0.3281914 3 13
-4.2069693 -1.1083879 1.1657212 19 15
-4.1583796 -1.0855019 0.52769417 23 11
-0.87397182 -0.2279786 -0.11090116 4 4
-1.6496276 -0.43000317 0.27000597 13 12
-4.1765666 -1.0855793 -0.075324357 40 7
-4.1376061 -1.0685174 0.074591488 19 8
-4.1986923 -1.0827296 0.22724277 32 9
-4.2021499 -1.0828379 0.37965015 13 10
-0.8901428 -0.228881 -0.11285097 4 4
-1.664939 -0.42686424 0.39681366 7 14
-4.1997004 -1.0759573 -0.075673394 58 7
-1.6843446 -0.43121296 0.46587434 8 15
-4.1510005 -1.0565331 0.07476601 32 8
-4.1888967 -1.064623 0.22651009 47 9
-4.2213531 -1.0720865 0.38104469 40 10
-4.298625 -1.0901152 0.54451215 1 11
-0.87939078 -0.22284663 -0.11138854 4 4
-1.6545042 -0.41896144 0.27031884 52 12
-1.6634562 -0.420919 0.33353427 71 13
-4.1859813 -1.0568841 -0.075359255 53 7
-1.6652347 -0.42013231 0.46018031 25 15
-4.1992745 -1.0532268 0.075568825 55 8
-4.1829004 -1.0475672 0.22598673 43 9
-4.2134728 -1.0544435 0.3799988 27 10
-2.0067616 -0.50145781 0.25397569 5 11
-0.88786709 -0.22169946 -0.11236349 8 4
-1.6578733 -0.41366181 0.27063173 79 12
-1.6477708 -0.41083524 0.33009967 75 13
-1.6432952 -0.40911055 0.39096493 30 14
-4.1741204 -1.0384036 -0.075080007 48 7
-1.67794 -0.41711327 0.46328616 41 15
-4.1854534 -1.0342448 0.075254679 39 8
-4.1865311 -1.0329607 0.2259867 52 9
-4.2055206 -1.0368674 0.3789534 26 10
-2.0200651 -0.49729735 0.25543809 9 11
-0.88092506 -0.2167021 -0.11138854 9 4
-1.6516339 -0.40598559 0.26938021 89 12
-1.6491947 -0.40508127 0.33009967 88 13
-1.6541767 -0.40569237 0.39321446 24 14
-4.1660662 -1.0209709 -0.074870579 42 7
-1.6662509 -0.40803751 0.45966271 34 15
-4.1832089 -1.0182096 0.075149961 50 8
-4.1920524 -1.0188123 0.22609141 48 9
-4.2013698 -1.0203003 0.37825617 26 10
-2.0179303 -0.48930734 0.25495064 16 11
-0.88167608 -0.21362574 -0.11138865 9 4
-1.6607208 -0.40207717 0.2706317 89 12
-1.6372412 -0.39609048 0.32742834 82 13
-1.6915736 -0.40860951 0.4017626 6 14
-4.1754365 -1.0078309 -0.074975297 37 7
-1.6676651 -0.40221825 0.45966271 13 15
-4.1906271 -1.0045344 0.07521978 52 8
-4.1975255 -1.0046378 0.22619608 52 9
-4.2126565 -1.0074821 0.3789534 27 10
-2.0041795 -0.47857204 0.25300074 28 11
-0.88241649 -0.2105466 -0.11138865 9 4
-1.6698002 -0.3981106 0.27188319 82 12
-1.6367042 -0.38991803 0.32704654 92 13
-1.8143237 -0.43156382 0.43055633 7 14
-4.1847658 -0.99463695 -0.075080015 32 7
-1.8344612 -0.43567687 0.50521487 11 15
-4.1980004 -0.99081784 0.075289585 52 8
-4.1930585 -0.98887891 0.2257774 50 9
-4.2142086 -0.99231428 0.37877911 39 10
-1.9942434 -0.46884781 0.25153831 28 11
-0.88701093 -0.20837323 -0.11187602 8 4
-1.6672649 -0.39166752 0.27125743 82 12
-1.6457008 -0.38599527 0.3285732 92 13
-4.2938333 -1.0055285 1.0181284 25 14
-4.1880412 -0.9807542 -0.075080015 34 7
-4.3564901 -1.0193985 1.1988498 41 15
-4.2012634 -0.97689128 0.075289592 52 8
-4.1925931 -0.97333384 0.22556803 50 9
-4.2195878 -0.97804761 0.3789534 47 10
-1.9957874 -0.46223202 0.25153831 35 11
-0.86062127 -0.19916475 -0.10846377 10 4
-1.6493762 -0.38139492 0.26812875 74 12
-1.641233 -0.37921062 0.32742834 72 13
-4.2990422 -0.99172187 1.0185782 22 14
-4.1739016 -0.96208674 -0.074765876 42 7
-4.3336663 -0.99811608 1.1916031 37 15
-4.2046475 -0.96221995 0.075289585 50 8
-4.1996922 -0.96031564 0.2257774 52 9
-4.2072687 -0.96050191 0.37755841 47 10
-1.989647 -0.4534975 0.25056335 35 11
-0.88840878 -0.20233071 -0.11187602 8 4
-1.6429276 -0.37416866 0.26687726 48 12
-1.6540334 -0.37609068 0.32971787 57 13
-4.1673188 -0.94602674 -0.074591354 45 7
-4.2039132 -0.94739205 0.075219773 50 8
-4.2069159 -0.94652689 0.22598673 52 9
-4.2144837 -0.94668418 0.37790704 48 10
-2.0008242 -0.44907111 0.25178206 37 11
-0.86583108 -0.19417083 -0.10895115 10 4
-2.0143185 -0.45136085 0.32694811 27 12
-1.6476079 -0.3688882 0.3281914 52 13
-2.0710695 -0.46293873 0.48994341 4 14
-4.1920633 -0.93626881 -0.074975304 45 7
-4.3252759 -0.96522832 1.1874619 4 15
-4.1993856 -0.93098158 0.075080156 53 8
-4.2062936 -0.93097281 0.22577737 50 9
-4.2214904 -0.93356347 0.37825617 48 10
-1.9849337 -0.43823195 0.24958836 34 11
-0.87038058 -0.19200258 -0.10943863 10 4
-2.0371017 -0.44900441 0.33038968 32 12
-1.723727 -0.37930119 0.3430745 10 13
-2.0555429 -0.45194077 0.48589426 6 14
-4.1933537 -0.92120093 -0.074940398 48 7
-2.0680761 -0.45393917 0.56733143 6 15
-4.2066774 -0.91643506 0.075149961 52 8
-4.2057748 -0.91470087 0.22556804 52 9
-4.2248845 -0.91808468 0.3782557 47 10
-1.9981667 -0.43347949 0.25105083 26 11
-0.87883854 -0.19049343 -0.11041358 9 4
-2.0387337 -0.44153449 0.33038968 26 12
-4.2983723 -0.92934036 0.85482407 39 13
-4.194746 -0.90540421 -0.074905492 50 7
-4.3264065 -0.9330309 1.1859089 21 15
-4.2178297 -0.90268451 0.075289585 50 8
-4.2089419 -0.90001422 0.22556803 52 9
-4.2243237 -0.90176159 0.37790704 47 10
-2.007508 -0.42780736 0.25202578 15 11
-0.87564778 -0.18644424 -0.10992611 9 4
-4.2911196 -0.91367161 0.69488198 31 12
-4.3073511 -0.91555506 0.85596889 37 13
-4.306325 -0.91376716 1.0163289 37 14
-4.1881003 -0.88868088 -0.07473097 48 7
-4.3542051 -0.92313182 1.1926383 41 15
-4.2129731 -0.88704467 0.075149968 50 8
-4.2081485 -0.88449603 0.22535869 52 9
-4.2235456 -0.88619202 0.37755841 47 10
-4.2529168 -0.89157879 0.53354388 28 11
-0.89957625 -0.18842293 -0.11285107 8 4
-4.284616 -0.89666408 0.69331771 43 12
-4.3084416 -0.90086442 0.8555873 39 13
-4.3207769 -0.90187061 1.0190283 39 14
-4.1892195 -0.87364686 -0.074696064 50 7
-4.3706398 -0.91068667 1.1962618 59 15
-4.2082105 -0.87071234 0.075010344 52 8
-4.2151227 -0.87060839 0.22556804 52 9
-4.2206078 -0.87097329 0.37703556 48 10
-4.2676682 -0.87913185 0.53500634 41 11
-0.89633983 -0.18448131 -0.11236349 4 4
-4.2973938 -0.88369173 0.69488209 45 12
-4.2923279 -0.88186926 0.85177147 37 13
-4.3277173 -0.88756478 1.0199281 38 14
-4.2000799 -0.86062509 -0.074835688 50 7
-4.337832 -0.88806266 1.1864265 53 15
-4.2151432 -0.85681409 0.075080149 52 8
-4.2220511 -0.85668379 0.2257774 52 9
-4.2294798 -0.85742271 0.37755841 48 10
-4.255146 -0.86107969 0.53305644 41 11
-0.92032713 -0.18607199 -0.11528847 3 4
-4.2985163 -0.86829436 0.69456917 46 12
-4.2973051 -0.86726922 0.85215318 36 13
-4.3307881 -0.87245357 1.019928 37 14
-4.2010975 -0.84556407 -0.074800774 50 7
-4.3522701 -0.87520057 1.1895325 54 15
-4.2161479 -0.84170491 0.07504525 53 8
-4.2131162 -0.84033394 0.22514933 52 9
-4.2363548 -0.84343284 0.37790704 47 10
-4.2581253 -0.84622097 0.53305638 41 11
-0.90539426 -0.17976576 -0.11333845 3 4
-4.2955585 -0.85288191 0.69363046 45 12
-4.3022323 -0.85264516 0.85253429 39 13
-4.3083277 -0.85307175 -0.23017342 2 6
-4.3223372 -0.85506177 1.0172286 37 14
-4.2078023 -0.83240402 -0.074870586 50 7
-4.3532524 -0.86038822 1.1890147 57 15
-4.2248025 -0.82887369 0.075149961 52 8
-4.219945 -0.82639003 0.22535874 52 9
-4.2451391 -0.82978547 0.37843046 48 10
-4.2589607 -0.83171535 0.53281271 42 11
-0.90598541 -0.17676236 -0.11333845 3 4
-4.3023882 -0.83863729 0.69425631 45 12
-4.3108172 -0.83949947 0.85367918 40 13
-4.2209506 -0.821235 -0.22535858 4 6
-4.3251486 -0.84072357 1.0172286 38 14
-4.2067561 -0.81694847 -0.074800782 48 7
-4.3562293 -0.8451882 1.1890147 53 15
-4.2315969 -0.81487745 0.075219773 52 8
-4.2228026 -0.81165534 0.22535869 52 9
-4.2380848 -0.81382573 0.37755841 48 10
-4.2813339 -0.82058138 0.53525013 42 11
-0.91829497 -0.17583853 -0.11480088 7 4
-4.2975278 -0.82212913 0.69300479 43 12
-4.3233638 -0.82629049 0.8555873 42 13
-4.1982889 -0.80162549 -0.22399786 12 6
-4.3280573 -0.82562071 1.0172286 38 14
-4.19976 -0.80038816 -0.07462626 45 7
-4.3534598 -0.82889181 1.1874619 58 15
-4.2226267 -0.79787266 0.075010344 53 8
-4.2295351 -0.79765022 0.22556803 52 9
-4.229291 -0.79607552 0.37651259 48 10
-4.2802701 -0.80489779 0.53476262 41 11
-0.92280513 -0.17336503 -0.11528847 10 4
-4.3081384 -0.80858165 0.69425637 45 12
-4.310925 -0.80754596 0.85253429 37 13
-4.2110133 -0.78807032 -0.22452118 29 6
-4.3348851 -0.81046826 1.0181284 37 14
-4.208425 -0.7868247 -0.074730963 48 7
-4.352529 -0.81298089 1.1864266 58 15
-4.225522 -0.78239149 0.075010344 53 8
-4.2324309 -0.78214288 0.22556804 52 9
-4.2418408 -0.78311628 0.37738416 48 10
-4.2656207 -0.78596687 0.53256887 42 11
-0.90000683 -0.1656694 -0.11236349 4 4
-4.3110728 -0.79278493 0.69425631 45 12
-4.3156481 -0.79284865 0.85291636 42 13
-4.190165 -0.76903969 -0.22326511 31 6
-4.3415217 -0.79603457 1.0190283 38 14
-4.2112808 -0.7713958 -0.07473097 50 7
-4.3592792 -0.79771888 1.1874617 58 15
-4.2282276 -0.76763678 0.075010344 52 8
-4.2233434 -0.76522744 0.22494 52 9
-4.2505641 -0.76862735 0.37790704 48 10
-4.2722454 -0.77177799 0.53305638 42 11
-0.90057951 -0.16252674 -0.11236349 4 4
-4.3118696 -0.77738202 0.69394344 46 12
-4.3204589 -0.77737248 0.85329765 39 13
-4.1850924 -0.75226331 -0.2228464 34 6
-4.3348198 -0.77839565 1.0167787 38 14
-4.2257581 -0.75881165 -0.074940406 48 7
-4.3582354 -0.7818141 1.1864266 60 15
-4.2308822 -0.75287288 0.075010352 52 8
-4.2299218 -0.75117892 0.22514933 52 9
-4.249166 -0.75383145 0.37755841 48 10
-4.2768683 -0.75720638 0.53330016 42 11
-0.90505087 -0.16007356 -0.11285107 4 4
-4.3048301 -0.76060736 0.69237906 45 12
-4.324945 -0.76338297 0.8536796 40 13
-4.2033 -0.74115539 -0.22368382 36 6
-4.3373771 -0.76401639 1.0167787 38 14
-4.2086864 -0.74059057 -0.074591354 50 7
-4.3704515 -0.76826847 1.1890148 62 15
-4.2374239 -0.73878652 0.075080156 53 8
-4.2325187 -0.73641014 0.22514936 52 9
-4.245883 -0.73797095 0.37703556 50 10
-4.2833972 -0.74295098 0.53378761 43 11
-0.92125183 -0.15962461 -0.11480088 3 4
-4.3113518 -0.74624974 0.69300479 45 12
-4.3256493 -0.74794585 0.85329801 42 13
-4.2058616 -0.72647858 -0.22368382 34 6
-4.3361769 -0.74820858 1.0158789 38 14
-4.2112455 -0.7258938 -0.074591346 48 7
-4.3635869 -0.75136989 1.1864266 60 15
-4.2340636 -0.72298074 0.074975438 53 8
-4.2388744 -0.72304195 0.22535869 52 9
-4.2602177 -0.72515136 0.37808135 52 10
-4.2898788 -0.72865939 0.53427511 42 11
-0.92960429 -0.15789838 -0.11577583 3 4
-4.3138027 -0.73194849 0.69300479 45 12
-4.3127484 -0.73022097 0.85024458 40 13
-4.2083716 -0.71179283 -0.22368382 36 6
-4.3424768 -0.73447496 1.0167786 38 14
-4.2195449 -0.71292406 -0.074696064 47 7
-4.3603401 -0.73593086 1.1848737 62 15
-4.2344666 -0.708606 0.074940547 53 8
-4.2451892 -0.70963991 0.22556804 52 9
-4.2665296 -0.71167547 0.37842998 48 10
-4.2726898 -0.7111702 0.5318377 42 11
-0.92229027 -0.15351111 -0.11480089 3 4
-4.3201036 -0.71828723 0.69363052 43 12
-4.3299208 -0.71914393 -0.38400835 1 5
-4.3209558 -0.71687907 0.85138988 36 13
-4.1949458 -0.69522083 -0.22284643 38 6
-4.3487349 -0.72070795 1.0176786 39 14
-4.2159672 -0.69794977 -0.074591354 50 7
-4.3703794 -0.72272789 1.1869441 62 15
-4.2407384 -0.69520682 0.075010344 52 8
-4.2377844 -0.69320476 0.22504467 55 9
-4.2649326 -0.69688034 0.37808183 50 10
-4.2828612 -0.6982761 0.53281265 42 11
-0.95416892 -0.15539616 -0.1187007 2 4
-4.3225846 -0.7032038 0.69363052 45 12
-4.2891388 -0.69699442 -0.38017344 2 5
-4.3291225 -0.70349187 0.85253477 40 13
-4.2031426 -0.68226594 -0.22316045 38 6
-4.3435283 -0.70427686 1.0158789 38 14
-4.2223258 -0.68386734 -0.074661158 50 7
-4.3747826 -0.70777637 1.1874617 60 15
-4.2470884 -0.68103385 0.075080156 53 8
-4.2401786 -0.67840677 0.22504467 56 9
-4.2713933 -0.68187302 0.37843046 53 10
-4.2852731 -0.68332076 0.53281265 42 11
-4.3265605 -0.68913114 -0.53793103 2 4
-4.3133078 -0.68624848 0.69175333 45 12
-4.2915459 -0.68201715 -0.38017344 2 5
-4.3374896 -0.68854249 0.85367918 42 13
-4.2115326 -0.66779536 -0.22347446 40 6
-4.3460808 -0.68835115 1.0158789 38 14
-4.2167873 -0.66787308 -0.074521549 48 7
-4.3810434 -0.69310504 1.1884972 60 15
-4.2515316 -0.66577208 0.075115055 53 8
-4.2426367 -0.66286212 0.22504467 55 9
-4.2658744 -0.66573012 0.37773278 53 10
-4.2916722 -0.66822177 0.53330022 41 11
-0.97487164 -0.15161493 -0.1211381 2 4
-4.3196988 -0.67104024 0.69237918 45 12
-4.2820883 -0.66519761 -0.37912762 2 5
-4.3379264 -0.67309761 0.85329759 42 13
-4.2158117 -0.65339506 -0.22357912 38 6
-4.3484569 -0.67317623 1.0158789 39 14
-4.2152538 -0.65180308 -0.07445173 50 7
-4.3740082 -0.67556852 1.1859089 62 15
-4.2439466 -0.64941508 0.07494054 53 8
-4.2528224 -0.64925414 0.22546338 53 9
-4.2484756 -0.6478318 0.37598965 52 10
-4.2979021 -0.65383369 0.53378755 41 11
-0.97539485 -0.14821102 -0.12113808 2 4
-4.3259206 -0.6565513 0.69300485 48 12
-4.2843833 -0.65024716 -0.37912759 4 5
-4.3324847 -0.65677404 0.85177159 39 13
-4.2160916 -0.63837594 -0.22347444 40 6
-4.3507805 -0.65799409 1.0158789 38 14
-4.221458 -0.63768131 -0.074521542 48 7
-4.3744292 -0.66000789 1.1853912 58 15
-4.2402544 -0.63371009 0.074835822 53 8
-4.2549515 -0.63514745 0.22546336 55 9
-4.2664766 -0.63534558 0.37738416 53 10
-4.2844505 -0.63649261 0.5318377 41 11
-0.97983336 -0.14538828 -0.12162555 2 4
-4.3339353 -0.64307201 0.69394338 49 12
-4.2905693 -0.63587201 -0.37947625 4 5
-4.3366933 -0.6419332 0.85215318 36 13
-4.2143431 -0.62307191 -0.22326511 42 6
-4.3588343 -0.64365703 1.0172287 38 14
-4.2275062 -0.62426412 -0.074591354 50 7
-4.3823276 -0.64634359 1.1869441 62 15
-4.2462897 -0.62022328 0.074905634 55 8
-4.2492375 -0.61914015 0.2250447 56 9
-4.2686687 -0.62044877 0.37738416 52 10
-4.2786803 -0.62114257 0.53086281 41 11
-4.3023624 -0.62381279 -0.53378797 8 4
-4.334199 -0.62765658 0.69363052 48 12
-4.2986784 -0.62174779 -0.37999919 4 5
-4.3368549 -0.62726957 0.85177159 37 13
-4.2124324 -0.60852194 -0.22305578 46 6
-4.3493724 -0.62752908 1.0145292 38 14
-4.2336178 -0.61007285 -0.074661158 48 7
-4.380733 -0.63049304 1.1859089 62 15
-4.252388 -0.60596114 0.074975431 55 8
-4.2513723 -0.60430253 0.22504467 55 9
-4.2785921 -0.60740989 0.37808135 53 10
-4.2965455 -0.60842872 0.53281265 43 11
-4.3285398 -0.61141837 0.69237918 45 12
-4.3046613 -0.60804546 -0.38034776 4 5
-4.3390179 -0.61212611 0.85177159 40 13
-4.2184863 -0.59437126 -0.22326511 46 6
-4.3476768 -0.6117999 1.0136294 39 14
-4.2238402 -0.59362203 -0.07445173 50 7
-4.3905597 -0.61627156 1.1879796 62 15
-4.2624002 -0.59221566 0.075115062 55 8
-4.2574134 -0.59000707 0.22525403 55 9
-4.2688451 -0.59083307 0.3770355 53 10
-4.2986436 -0.5934273 0.53281271 43 11
-4.3326044 -0.59657449 0.69269192 46 12
-4.3028111 -0.59247214 -0.37999919 4 5
-4.3450184 -0.59751117 0.85253429 40 13
-4.2225146 -0.57991409 -0.22336981 51 6
-4.3575087 -0.59767914 1.0154291 39 14
-4.2298489 -0.57941717 -0.074521542 48 7
-4.3812003 -0.59937072 1.1848737 62 15
-4.2525511 -0.57572365 0.074905626 53 8
-4.2594471 -0.5751422 0.22525403 55 9
-4.2669325 -0.5753957 0.37668687 55 10
-4.3124933 -0.58000606 0.53427511 43 11
-4.3346605 -0.58144712 0.69269192 46 12
-4.3028779 -0.57718384 -0.37982485 4 5
-4.3451319 -0.58207983 0.85215271 40 13
-4.2304521 -0.56596667 -0.22368382 55 6
-4.3634319 -0.58298099 1.0163289 39 14
-4.2318454 -0.56464857 -0.074521542 50 7
-4.3794355 -0.58356339 1.1838384 62 15
-4.2505708 -0.56035322 0.074835822 55 8
-4.2693491 -0.56131279 0.22567271 53 9
-4.2768173 -0.5615353 0.37738416 53 10
-4.2948089 -0.56237268 0.53183776 43 11
-4.3386226 -0.56656849 0.69300485 45 12
-4.3009157 -0.56164443 -0.37947625 1 5
-4.3354573 -0.56538665 0.84986311 40 13
-4.2244792 -0.55016327 -0.22326511 55 6
-4.3693051 -0.56824875 1.0172287 39 14
-4.2397399 -0.55064678 -0.07462626 50 7
-4.3871927 -0.56901801 1.1853912 60 15
-4.2604342 -0.54652911 0.074975438 56 8
-4.2593002 -0.54562914 0.22504467 56 9
-4.2747984 -0.54609686 0.3770355 52 10
-4.2928071 -0.54687572 0.53135026 42 11
-4.3502755 -0.55342424 0.69456917 46 12
-4.3490891 -0.55173188 0.85215318 42 13
-4.2184491 -0.53440958 -0.22284645 59 6
-4.3596616 -0.55152702 1.0145292 39 14
-4.2554297 -0.53834099 -0.074870586 48 7
-4.3948054 -0.55519259 1.1869441 65 15
-4.2582541 -0.5319041 0.074905626 56 8
-4.2532511 -0.52977049 0.22462599 55 9
-4.2924953 -0.53313714 0.37843046 50 10
-4.3103571 -0.53459173 0.53330016 43 11
-4.3345361 -0.53605443 0.69175321 45 12
-4.3606377 -0.53850979 0.85406077 42 13
-4.2261448 -0.52115095 -0.22316048 55 6
-4.3575983 -0.53659028 1.0136294 39 14
-4.2354512 -0.5207988 -0.074486643 47 7
-4.4005527 -0.54031932 1.1879797 62 15
-4.2640557 -0.51751757 0.074975438 55 8
-4.2709365 -0.51684004 0.22546336 55 9
-4.2784162 -0.51698756 0.3770355 52 10
-4.3082547 -0.51906747 0.53281265 41 11
-4.332459 -0.52044958 0.6911276 45 12
-4.3605418 -0.52305007 0.85367918 40 13
-4.2358699 -0.50734669 -0.22357912 23 6
-4.3671846 -0.52230173 1.0154291 38 14
-4.2392292 -0.50624716 -0.074521549 45 7
-4.390902 -0.52358371 1.1848737 62 15
-4.2578926 -0.50169402 0.074835822 55 8
-4.2687478 -0.5014624 0.225254 55 9
-4.2763247 -0.50083935 0.3766869 53 10
-4.3218708 -0.505409 0.53427511 43 11
-4.3460212 -0.50669563 0.69300479 48 12
-4.350728 -0.50570518 0.85138988 40 13
-4.372942 -0.50674027 1.0163289 38 14
-4.2489152 -0.49236795 -0.074661151 26 7
-4.3850269 -0.50736517 1.1828032 62 15
-4.2636757 -0.48653898 0.074905626 55 8
-4.2745266 -0.48626477 0.22546338 55 9
-4.2859654 -0.48680943 0.3773841 53 10
-4.3000245 -0.48688501 0.53135026 41 11
-4.349813 -0.49098483 0.69331771 46 12
-4.3583198 -0.4911747 0.85253477 42 13
-4.384366 -0.49256039 1.0185783 40 14
-4.2546659 -0.47723737 -0.07473097 14 7
-4.4041343 -0.49322468 1.1874617 60 15
-4.2693238 -0.47209147 0.074975438 55 8
-4.2722273 -0.47090417 0.22525403 53 9
-4.2955604 -0.47271627 0.37808135 52 10
-0.59103173 -0.064937249 -0.094173536 18 3
-4.3095903 -0.47273886 0.53232515 42 11
-4.3613181 -0.47687149 0.69488198 46 12
-4.3561044 -0.47553319 0.85177159 40 13
-4.372498 -0.47577742 1.0154291 39 14
-4.2543178 -0.46216682 -0.074696064 11 7
-4.4115915 -0.47847322 1.1890147 62 15
-4.2749224 -0.45761144 0.07504525 52 8
-4.2737656 -0.45673424 0.22525404 53 9
-4.305109 -0.45856309 0.37877864 52 10
-0.53625441 -0.057025164 -0.085413218 21 3
-4.3171368 -0.45832026 0.53305644 42 11
-4.3491254 -0.46094874 0.69269192 45 12
-4.3616424 -0.46073595 0.85253477 39 13
-4.3741322 -0.46051255 1.0154291 39 14
-4.2518497 -0.44763857 -0.07462626 11 7
-4.4150763 -0.46404305 1.1895325 58 15
-4.2764168 -0.44343263 0.07504525 55 8
-4.2793069 -0.44222367 0.22546338 53 9
-4.2868643 -0.44149241 0.3770355 52 10
-0.60717994 -0.062531799 -0.096676491 18 3
-4.3206077 -0.44420549 0.53330016 42 11
-0.63388485 -0.065058321 -0.078240089 14 4
-4.3507071 -0.4457655 0.69269186 45 12
-4.367053 -0.4466691 0.85329759 40 13
-4.3756351 -0.44600472 1.0154291 39 14
-4.2513971 -0.43259057 -0.074591354 9 7
-4.4147468 -0.44843337 1.1890148 62 15
-4.2779379 -0.4285033 0.075045243 56 8
-4.2827368 -0.42822909 0.22556803 53 9
-4.2922702 -0.42766917 0.3773841 52 10
-0.5444929 -0.054155704 -0.086664699 20 3
-4.3300333 -0.4299044 0.53427511 41 11
-0.61040294 -0.060496017 -0.075315289 15 4
-4.3600245 -0.43211472 0.69394338 45 12
-4.3627243 -0.43084353 0.85215271 36 13
-0.93219602 -0.091895543 -0.049091116 4 6
-4.3829827 -0.43130052 1.0167786 38 14
-4.2667384 -0.4198617 -0.07483568 9 7
-4.4046736 -0.43265778 1.1859089 65 15
-4.279336 -0.41431469 0.07504525 52 8
-4.2861943 -0.41346866 0.22567274 53 9
-4.3016696 -0.4134461 0.37808135 52 10
-0.54466951 -0.052349783 -0.086664699 20 3
-4.3235307 -0.41478571 0.53330016 41 11
-0.57898355 -0.055443853 -0.071415484 16 4
-4.3595395 -0.41670465 0.69363046 43 12
-4.3563118 -0.41562784 0.85062629 36 13
-0.89869517 -0.085584834 -0.047311697 19 6
-4.3902097 -0.41731676 1.0181285 39 14
-4.2801232 -0.40609765 -0.075045116 8 7
-4.4119258 -0.41782725 1.1874617 60 15
-4.2848077 -0.39899805 0.075115062 53 8
-4.2837029 -0.39738709 0.22546338 55 9
-4.3110223 -0.39916256 0.37877911 52 10
-0.53698969 -0.049625982 -0.085413218 21 3
-4.3210688 -0.39857167 0.53281271 41 11
-0.56732237 -0.052229479 -0.06995298 16 4
-4.3689065 -0.40144628 0.69488198 48 12
-4.3675809 -0.40055582 0.85253429 37 13
-0.87314641 -0.079923593 -0.045950957 30 6
-4.3839474 -0.40051383 1.0163289 39 14
-4.2835736 -0.39058992 -0.075080007 6 7
-4.4172769 -0.40200305 1.1884973 60 15
-4.2861743 -0.38403979 0.075115062 53 8
-4.2771063 -0.38172144 0.22504467 56 9
-4.3123889 -0.38411173 0.37877911 52 10
-0.54503018 -0.04845088 -0.086664699 20 3
-4.3263884 -0.3838366 0.53330016 41 11
-0.55959183 -0.049548488 -0.068978019 17 4
-4.3643785 -0.38567179 0.69394344 45 12
-4.3728642 -0.38565254 0.85329759 40 13
-0.88137841 -0.077575482 -0.046369646 35 6
-4.3853183 -0.38520837 1.0163288 39 14
-4.2908874 -0.37615892 -0.075184733 6 7
-4.4302001 -0.38759151 1.1916031 60 15
-4.2954578 -0.36976072 0.075254671 52 8
-4.2943325 -0.36815494 0.22588207 55 9
-4.3017931 -0.36803722 0.37773275 48 10
-0.54913235 -0.046884138 -0.087290436 20 3
-4.3395691 -0.36974442 0.53476262 41 11
-0.536026 -0.045576684 -0.066053167 18 4
-4.3637295 -0.37026778 0.69363052 43 12
-4.3761396 -0.37055051 0.85367918 40 13
-0.9035356 -0.076348461 -0.047521032 30 6
-4.3866367 -0.36989832 1.0163289 40 14
-4.2822108 -0.36033908 -0.075010203 6 7
-4.4180508 -0.37099427 1.1879797 62 15
-4.2847652 -0.35377717 0.07504525 53 8
-4.2995734 -0.35348886 0.22609141 55 9
-4.2990799 -0.35269299 0.3773841 53 10
-0.52172953 -0.042710721 -0.082910262 22 3
-4.3388553 -0.35443151 0.5345189 40 11
-0.54805297 -0.044672955 -0.067515664 17 4
-4.3748398 -0.35583487 0.69519484 45 12
-4.3793631 -0.35543242 0.85406077 37 13
-0.8998152 -0.072871603 -0.047311693 51 6
-4.3995552 -0.35552654 1.0190283 39 14
-4.2993889 -0.3466759 -0.075289451 6 7
-4.4135413 -0.35510513 1.1864265 60 15
-4.2939482 -0.33944964 0.075184874 55 8
-4.3027124 -0.33938691 0.22619608 53 9
-4.3122029 -0.33862102 0.37842998 50 10
-0.54156893 -0.042432267 -0.086038955 21 3
-4.3361077 -0.33897436 0.53403139 38 11
-0.56008005 -0.043685939 -0.068978027 17 4
-4.3740258 -0.34117165 0.69488198 48 12
-4.3786201 -0.3399913 0.85367918 40 13
-0.88015109 -0.068187699 -0.046264973 79 6
-4.396883 -0.33986551 1.0181284 39 14
-4.3005147 -0.3324165 -0.075289451 6 7
-4.4127684 -0.34031868 1.1859089 56 15
-4.2990375 -0.32551029 0.075254671 55 8
-4.2978964 -0.32391414 0.22588207 53 9
-4.3252797 -0.32446069 0.37947589 52 10
-0.52988756 -0.039749492 -0.084161736 21 3
-4.3352284 -0.32444513 0.53378767 41 11
-0.56418103 -0.042123988 -0.06946557 17 4
-4.3870101 -0.32678169 0.69675928 49 12
-4.3758068 -0.32517824 0.85291636 36 13
-0.87638885 -0.064973071 -0.04605563 82 6
-4.3979864 -0.32528397 1.0181285 39 14
-4.3056369 -0.31769702 -0.07535924 6 7
-4.4235625 -0.32562214 1.1884972 58 15
-4.300148 -0.31050178 0.075254679 53 8
-4.2949629 -0.30937392 0.22567274 53 9
-4.3303056 -0.31040046 0.37982446 47 10
-0.52608252 -0.037617687 -0.083536007 21 3
-4.3343544 -0.30917004 0.53354388 42 11
-0.56828475 -0.040436141 -0.06995298 16 4
-4.3742771 -0.31125045 0.69456917 43 12
-4.3886662 -0.31073368 0.85520566 40 13
-0.87661022 -0.06191368 -0.046055626 90 6
-4.3990951 -0.30992898 1.0181285 40 14
-4.2966943 -0.30271453 -0.07518474 6 7
-4.4265451 -0.31108651 1.1890147 53 15
-4.3131232 -0.29706448 0.075464107 55 8
-4.3039875 -0.2949259 0.22609144 55 9
-4.3234124 -0.29474086 0.37912726 48 10
-0.55379552 -0.03775401 -0.087916166 20 3
-4.3492198 -0.29573664 0.53525013 40 11
-0.57237679 -0.038820043 -0.070440456 16 4
-4.3792787 -0.29624602 0.6951949 45 12
-4.3857551 -0.29591414 0.85444248 40 13
-0.87481803 -0.05887226 -0.045950957 90 6
-4.407876 -0.29586118 1.0199281 40 14
-4.2937336 -0.28744712 -0.075114928 6 7
-4.4179659 -0.29499054 1.1864265 48 15
-4.2981706 -0.28096345 0.075184867 52 8
-4.3089266 -0.28091237 0.22630075 53 9
-4.3203897 -0.28014424 0.37877864 50 10
-0.50661379 -0.032761127 -0.080407321 22 3
-4.3561678 -0.28093734 0.53598118 40 11
-0.58439481 -0.037586294 -0.071902886 16 4
-4.3762941 -0.28146842 0.69456917 45 12
-4.3887205 -0.28072944 0.85482407 40 13
-0.88099778 -0.05619964 -0.046264973 79 6
-4.4030476 -0.28010172 1.0185783 40 14
-4.3026457 -0.27371463 -0.075254537 6 7
-4.4189205 -0.28033826 1.1864266 48 15
-4.3110542 -0.26745147 0.07539431 53 8
-4.313869 -0.26611456 0.22651012 53 9
-4.3253183 -0.26530644 0.37912726 50 10
-0.54615307 -0.033499945 -0.086664706 20 3
-4.3471684 -0.2658841 0.53476256 42 11
-0.57262784 -0.034923099 -0.070440464 16 4
-4.3910522 -0.26703086 0.69675922 48 12
-4.3817883 -0.26569888 0.85329801 37 13
-0.87320483 -0.052795649 -0.045846283 83 6
-4.4156232 -0.2662026 1.0212778 40 14
-4.3175478 -0.25953478 -0.075498879 6 7
-4.417943 -0.2647959 1.1859088 42 15
-4.3079686 -0.25216863 0.075324483 53 8
-4.3107829 -0.25082251 0.22630075 53 9
-4.3341298 -0.25142306 0.37982446 53 10
-0.56598741 -0.032733705 -0.089793384 20 3
-4.3480697 -0.25070792 0.53476256 41 11
-0.56481886 -0.032468457 -0.069465563 17 4
-4.3998461 -0.25215247 0.69801068 46 12
-4.3964534 -0.25041851 0.85596889 42 13
-0.87339246 -0.049594823 -0.045846283 91 6
-4.4067974 -0.25023612 1.0190283 39 14
-4.3204241 -0.24457505 -0.075533777 6 7
-4.4188409 -0.24937268 1.1859089 42 15
-4.3208442 -0.23703355 0.075533919 53 8
-4.3196502 -0.23545679 0.22671942 53 9
-4.3390017 -0.23575108 0.38017309 50 10
-0.58188343 -0.031513635 -0.092296332 19 3
-4.3568892 -0.23519774 0.53573757 41 11
-0.53718299 -0.028904703 -0.06605316 18 4
-4.3849597 -0.23517811 0.69550771 46 12
-0.83561057 -0.044669967 -0.07321085 32 5
-4.4012628 -0.23451185 0.85673207 40 13
-0.87755728 -0.046605173 -0.046055626 100 6
-4.4096308 -0.23418598 1.0194781 40 14
-4.3172975 -0.22852677 -0.075463966 6 7
-4.4197249 -0.23317504 1.1859088 35 15
-4.3216844 -0.2211962 0.075533919 52 8
-4.3125057 -0.21921623 0.22630075 55 9
-4.3318772 -0.21944402 0.37947586 52 10
-0.57410359 -0.028982325 -0.091044858 19 3
-4.3577218 -0.21922728 0.53573757 41 11
-0.63641542 -0.03190545 -0.078240089 14 4
-4.3877654 -0.21920335 0.69582063 48 12
-4.3981333 -0.21895181 0.85596889 40 13
-0.88369912 -0.043838497 -0.046369649 64 6
-4.4085135 -0.21792603 1.0190283 39 14
-4.3201032 -0.21279985 -0.075498879 8 7
-4.4089737 -0.21640609 1.1828032 36 15
-4.3184347 -0.20591874 0.075464107 53 8
-4.3212242 -0.20454004 0.22671941 53 9
-4.3326168 -0.20432045 0.37947586 50 10
-0.52289808 -0.024567718 -0.082910262 22 3
-4.3544955 -0.20382999 0.53525019 41 11
-4.3944244 -0.20416078 0.69675928 46 12
-4.3969092 -0.20350827 0.8555873 40 13
-0.88783693 -0.040937502 -0.046578985 63 6
-4.4170337 -0.20289366 1.0208279 40 14
-4.3288097 -0.19808511 -0.075638488 8 7
-4.4097023 -0.20101447 1.1828032 36 15
-4.3131337 -0.19057737 0.075359389 50 8
-4.3318558 -0.19064817 0.22724277 53 9
-4.3452468 -0.18971686 0.38052174 50 10
-0.59402704 -0.025831962 -0.094173543 18 3
-4.3551798 -0.18862858 0.53525013 41 11
-4.399024 -0.1897573 0.69738501 48 12
-4.3936696 -0.18798992 0.85482448 37 13
-0.88797444 -0.037838098 -0.046578985 49 6
-4.4274173 -0.18865977 1.0230774 40 14
-4.3334389 -0.1838986 -0.0757083 9 7
-4.4103446 -0.1863901 1.1828032 36 15
-4.317739 -0.17643867 0.075429209 48 8
-4.3145037 -0.17555122 0.22630075 55 9
-4.3418708 -0.1751457 0.38017315 52 10
-4.3597474 -0.17434368 0.53573751 42 11
-4.4075246 -0.17548276 0.69863647 46 12
-4.4040775 -0.17380694 0.85673207 40 13
-0.87013358 -0.034187526 -0.045636941 46 6
-4.4163351 -0.17351767 1.0203779 39 14
-4.348012 -0.17007431 -0.075952634 11 7
-4.4109383 -0.17176473 1.1828032 33 15
-4.3182998 -0.16211939 0.075429201 50 8
-4.3190823 -0.16063808 0.22651009 53 9
-4.3464093 -0.16089484 0.38052174 48 10
-4.3682365 -0.16017607 0.53671241 41 11
-4.4002142 -0.15981071 0.69738507 46 12
-4.4065919 -0.15927228 0.85711378 43 13
-0.89020181 -0.032019764 -0.046683658 27 6
-4.4169135 -0.15810165 1.0203778 39 14
-4.3265972 -0.15411276 -0.075568691 13 7
-4.407649 -0.15622857 1.1817679 34 15
-4.3268337 -0.14731576 0.075568825 50 8
-4.3196173 -0.14556059 0.22651012 55 9
-4.3429623 -0.14558844 0.38017315 52 10
-4.3707538 -0.14499281 0.53695619 40 11
-4.4007444 -0.14444998 0.69738501 46 12
-4.4169312 -0.14420961 0.85902226 40 13
-0.89829302 -0.029171679 -0.047102347 26 6
-4.4252295 -0.14293432 1.0221775 40 14
-4.3151159 -0.1386238 -0.075359255 11 7
-4.4062371 -0.1407813 1.1812503 35 15
-4.3193269 -0.13196701 0.075429209 48 8
-4.3340731 -0.13090439 0.2272428 53 9
-4.3514094 -0.13066685 0.38087034 50 10
-4.363296 -0.12949945 0.53598118 40 11
-4.4051704 -0.12920332 0.69801062 46 12
-4.3997469 -0.12827574 0.8555873 40 13
-0.90637511 -0.026267279 -0.047521036 18 6
-4.4412856 -0.12793529 1.0257767 40 14
-4.329566 -0.12396089 -0.075603589 11 7
-4.4028392 -0.12528977 1.180215 33 15
-4.3197608 -0.11688881 0.075429201 50 8
-4.3384972 -0.11588036 0.22745217 53 9
-4.3518591 -0.11471823 0.38087034 47 10
-4.3696747 -0.11442368 0.53671241 41 11
-4.4075704 -0.1138776 0.69832367 45 12
-4.4041123 -0.11224896 0.85635048 40 13
-0.90846193 -0.022995597 -0.047625709 18 6
-4.4339323 -0.11146034 1.0239772 40 14
-4.333971 -0.10894752 -0.075673401 13 7
-4.3993878 -0.1098237 1.1791798 35 15
-4.3241582 -0.10114978 0.075499013 50 8
-4.3288913 -0.10050356 0.22692879 55 9
-4.3522329 -0.099525556 0.38087034 48 10
-4.3700652 -0.098408245 0.53671247 41 11
-4.4178157 -0.098711066 0.69988799 46 12
-4.4064403 -0.096919149 0.85673207 36 13
-0.88457513 -0.019301467 -0.046369642 14 6
-4.430397 -0.095897876 1.0230772 39 14
-4.3383226 -0.09390489 -0.075743198 13 7
-4.4016747 -0.094508678 1.1796973 36 15
-4.3284688 -0.0868899 0.075568825 48 8
-4.3292155 -0.085393213 0.22692879 53 9
-4.3605218 -0.084487073 0.38156757 48 10
-4.3723521 -0.083953984 0.53695619 40 11
-4.4043078 -0.083028659 0.69769782 45 12
-4.4204779 -0.082562804 0.85940349 37 13
-0.8966158 -0.016589656 -0.046997674 6 6
-4.434588 -0.081276886 1.0239772 40 14
-4.3266282 -0.078543894 -0.075533777 14 7
-4.4058414 -0.079211675 1.1807326 36 15
-4.334744 -0.071878508 0.075673543 48 8
-4.3354654 -0.071134664 0.22724277 53 9
-4.3528094 -0.069898479 0.38087034 50 10
-4.3845277 -0.068878077 0.53841871 38 11
-4.4104848 -0.068514876 0.69863653 48 12
-4.4227023 -0.067161635 0.85978508 40 13
-0.90465647 -0.013579668 -0.047416367 6 6
-4.4445872 -0.065942273 1.0262268 41 14
-4.330864 -0.064255007 -0.075603589 16 7
-4.3906269 -0.064375259 1.1765915 37 15
-4.3289599 -0.057424881 0.075568825 52 8
-4.3436756 -0.056103688 0.22766146 53 9
-4.3490429 -0.054654758 0.38052174 48 10
-4.3867173 -0.054362509 0.53866243 41 11
-4.4185977 -0.053215072 0.69988799 46 12
-4.4111209 -0.052355081 0.85749578 36 13
-0.91268504 -0.010673028 -0.047835056 5 6
-4.4428329 -0.051180504 1.0257767 39 14
-4.3310609 -0.049136952 -0.075603582 21 7
-4.3811655 -0.048939642 1.1740031 40 15
-4.3251352 -0.042274434 0.075499021 48 8
-4.3518343 -0.041016266 0.22808017 52 9
-4.365139 -0.040379785 0.38191625 47 10
-4.3829103 -0.03901422 0.53817493 41 11
-4.4266572 -0.037858415 0.70113939 46 12
-4.4171672 -0.0370063 0.85864019 39 13
-0.96464378 -0.0079132626 -0.050556522 3 6
-4.4527278 -0.035749912 1.0280263 41 14
-4.3332067 -0.034032982 -0.075638495 26 7
-4.3813095 -0.033646103 1.1740031 40 15
-4.3332543 -0.027226767 0.075638622 50 8
-4.3439622 -0.025778789 0.22766148 53 9
-4.3612719 -0.024358142 0.38156757 48 10
-4.3830194 -0.023714649 0.53817493 40 11
-4.4287381 -0.022416141 0.70145231 48 12
-4.4212003 -0.020834753 0.85940355 39 13
-4.3759494 -0.019857794 -0.22933608 2 6
-4.4411368 -0.019377459 1.025327 41 14
-4.3412976 -0.018941842 -0.075778119 27 7
-4.3852644 -0.01836938 1.1750386 48 15
-4.3373246 -0.011355844 0.075708434 48 8
-4.3400335 -0.0098470254 0.22745217 52 9
-4.3732853 -0.0091602737 0.38261345 45 10
-4.3850622 -0.0076533067 0.53841871 38 11
-4.426815 -0.006181018 0.70113939 48 12
-4.4369516 -0.0054208227 0.86245638 40 13
-4.3300552 -0.0045334976 -0.22692864 8 6
-4.4489727 -0.0038826168 1.0271266 38 14
-4.3313394 -0.0030240421 -0.075603589 35 7
-4.3775754 -0.0022912943 1.172968 45 15
-4.3413377 0.0037889597 0.075778261 48 8
-4.3440347 0.0053065424 0.22766146 53 9
-4.3653212 0.0060954336 0.3819162 45 10
-4.3890324 0.0076594683 0.53890616 38 11
-4.4169326 0.009250924 0.69957501 46 12
-4.4369435 0.010066127 0.86245638 42 13
-4.3160639 0.01054617 -0.22619593 29 6
-4.4567537 0.01166775 1.0289261 40 14
-4.3293242 0.012088678 -0.075568691 39 7
-4.3717608 0.012971191 1.171415 51 15
-4.3372979 0.018925702 0.075708434 48 8
-4.3559771 0.019766398 0.22828951 53 9
-4.3553114 0.021284647 0.38104469 48 10
-4.4008889 0.023043538 0.54036862 38 11
-4.4326806 0.023983624 0.70207798 46 12
-4.4309916 0.025521148 0.86131155 40 13
-4.3399682 0.025754327 -0.22745202 57 6
-4.4644799 0.02727239 1.0307256 41 14
-4.3372583 0.026495226 -0.0757083 48 7
-4.3678303 0.027444294 1.1703798 51 15
-4.3352118 0.033293404 0.075673535 47 8
-4.3558807 0.034971595 0.22828948 52 9
-4.3591948 0.036519855 0.38139328 47 10
-4.3868928 0.037517566 0.53866237 40 11
-4.4384956 0.039508235 0.70301658 48 12
-4.4328456 0.040231634 0.86169314 40 13
-4.3118973 0.039887544 -0.22598656 55 6
-4.4624171 0.042058803 1.0302758 40 14
-4.3351402 0.041615851 -0.075673401 47 7
-4.377367 0.042785231 1.172968 45 15
-4.3390684 0.048469678 0.075743347 48 8
-4.34975 0.04934822 0.2279755 53 9
-4.3769803 0.051185116 0.38296208 48 10
-4.3867354 0.052831624 0.53866237 41 11
-4.4363651 0.054203697 0.70270377 46 12
-32.061069 0.39731207 -2.8051963 10 5
-4.4326782 0.055706091 0.86169314 39 13
-4.3117318 0.054938756 -0.22598656 55 6
-4.464191 0.057659511 1.0307256 41 14
-4.3469758 0.056145553 -0.075882837 50 7
-4.3752694 0.05727575 1.1724504 51 15
-4.3508811 0.063032247 0.075952776 47 8
-4.3555427 0.064620391 0.22828951 52 9
-4.3767757 0.066463448 0.38296214 50 10
-4.3924904 0.067468852 0.5393936 40 11
-9.10849 0.141499 -1.1185163 2 4
-4.4282484 0.069564126 0.70145231 46 12
-32.059483 0.50922453 -2.8051958 10 5
-4.4442468 0.070591271 0.86398286 42 13
-4.3175168 0.069333039 -0.22630057 48 6
-4.4581304 0.072368272 1.029376 40 14
-4.3367553 0.071156099 -0.075708292 48 7
-4.3789053 0.072612107 1.1734855 51 15
-4.3586326 0.078363195 0.0760924 48 8
-4.3572869 0.079860389 0.22839418 53 9
-4.3665705 0.080792859 0.38209051 48 10
-4.4081068 0.083101608 0.54134351 38 11
-4.4358783 0.085172981 0.70270377 46 12
-32.03371 0.61507696 -2.8031039 10 5
-4.4439731 0.086105324 0.86398327 40 13
-4.3292303 0.084636904 -0.22692864 48 6
-4.4578505 0.087929741 1.029376 39 14
-4.3364806 0.086293899 -0.0757083 50 7
-4.374763 0.087818451 1.1724504 51 15
-4.3483353 0.093362659 0.07591787 52 8
-4.3629723 0.095200516 0.22870819 52 9
-4.3722372 0.096166097 0.38261345 48 10
-4.4077892 0.098487318 0.54134345 40 11
-31.961811 0.71973324 -3.92541 13 4
-4.4395037 0.10074738 0.70332944 48 12
-32.007469 0.72635788 -2.8010125 10 5
-4.4397211 0.10152649 0.86321974 42 13
-4.3289089 0.099748351 -0.22692867 53 6
-4.4653091 0.10367212 1.0311756 40 14
-4.3441501 0.10161666 -0.075847924 48 7
-4.3705668 0.10299778 1.1714151 51 15
-4.3499818 0.1085896 0.075952768 45 8
-4.3666072 0.11053076 0.22891755 49 9
-4.3798418 0.11162961 0.38331068 48 10
-4.3935275 0.11351401 0.53963733 38 11
-31.959103 0.83128971 -3.92541 13 4
-4.450973 0.11655285 0.70520669 49 12
-32.004593 0.84365916 -2.8010125 10 5
-4.4373765 0.11697176 0.86283797 42 13
-4.3205485 0.11464666 -0.22650997 53 6
-4.4785566 0.1196216 1.0343249 41 14
-4.3497653 0.11694129 -0.075952634 50 7
-4.3682499 0.11820219 1.1708975 48 15
-4.3595705 0.12405773 0.076127291 50 8
-4.3582091 0.12554143 0.22849888 53 9
-4.3873701 0.12791517 0.38400799 52 10
-4.393105 0.12884971 0.53963739 38 11
-4.3514147 0.12838702 -0.53451878 2 4
-4.4525146 0.13214767 0.70551962 48 12
-32.021362 0.95596623 -2.8027551 10 5
-4.4486923 0.1335884 0.86512768 40 13
-4.328084 0.13072275 -0.22692864 48 6
-4.4683485 0.13573974 1.0320754 39 14
-4.3553267 0.13230637 -0.076057345 50 7
-4.3736033 0.13362558 1.1724504 51 15
-4.359087 0.14003561 0.076127298 48 8
-4.3696961 0.14190428 0.22912689 48 9
-4.3908792 0.14335932 0.38435659 45 10
-4.4064913 0.14540876 0.54134351 40 11
-8.2474928 0.27359799 -1.0132214 4 4
-4.4460773 0.14826757 0.70458096 48 12
-31.997921 1.0670651 -2.8010125 10 5
-4.4462361 0.14905077 0.86474657 40 13
-4.3276014 0.1458299 -0.22692864 55 6
-4.4736905 0.15153439 1.0334251 41 14
-4.3468184 0.14799644 -0.075917721 48 7
-4.3750143 0.14972086 1.1729679 54 15
-4.3685641 0.15560685 0.076301821 47 8
-4.37117 0.15722841 0.22923155 49 9
-4.3784046 0.15825272 0.38331115 50 10
-4.4059567 0.16078952 0.54134351 40 11
-4.4415841 0.16364208 0.70395523 46 12
-31.958162 1.1774403 -2.7978745 10 5
-4.4515753 0.16478814 0.86589098 40 13
-4.3270659 0.16093424 -0.22692864 51 6
-4.473134 0.16714969 1.0334251 41 14
-4.3502727 0.16331896 -0.075987548 48 7
-4.3648133 0.16462666 1.1703799 51 15
-4.363997 0.17069881 0.076232001 47 8
-4.3825994 0.17219354 0.22985961 51 9
-4.3857899 0.17385109 0.38400799 52 10
-4.340414 0.17281212 -0.68799865 1 3
-4.4133029 0.17648454 0.54231846 40 11
-4.4489121 0.17868727 0.70520669 48 12
-31.969786 1.2896314 -2.7992692 10 5
