# .PCD v0.7 - Point Cloud Data file format
VERSION 0.7
FIELDS x y z intensity ring
SIZE 4 4 4 4 2
TYPE F F F F U
COUNT 1 1 1 1 1
WIDTH 1343
HEIGHT 1
VIEWPOINT 0 0 0 1 0 0 0
POINTS 1343
DATA ascii
1.0873293 1.6303821 -0.034206614 100 7
2.6846819 4.0239906 1.2961659 3 15
1.3405014 2.0039308 -0.64601231 1 0
1.2789513 1.9111972 0.040140491 14 8
2.8164275 4.2071314 -1.1688454 2 1
2.6650324 3.9794741 0.2510033 4 9
2.7878938 4.1629329 -0.97388935 1 2
2.6880596 4.0123439 0.42253131 1 10
2.7856724 4.1564808 -0.79249692 1 3
2.6840322 4.0033092 0.59179741 1 11
2.7510753 4.101758 -0.60642159 2 4
2.7141075 4.0451183 0.77153492 1 12
2.7519138 4.1014647 -0.4321183 1 5
2.6981549 4.0198221 0.94106972 1 13
1.0907835 1.6232568 -0.034136802 100 7
2.6976352 4.0129905 1.2956483 2 15
1.3302125 1.9736089 -0.63773018 1 0
1.2856152 1.9067209 0.040140491 19 8
2.8463531 4.2198925 -1.1751441 2 1
2.7124193 4.0198169 0.25414348 1 9
2.7870321 4.1303935 -0.96854663 1 2
2.7020483 4.0029378 0.42253077 1 10
2.7891107 4.1303601 -0.78936821 1 3
2.7513247 4.0728745 0.60349691 1 11
2.780936 4.1151567 -0.60983396 2 4
2.7105105 4.0094347 0.76652902 1 12
1.3200612 1.9526577 -0.20621055 1 5
2.7385654 4.0494108 0.95022857 1 13
1.0878887 1.6074098 0.4481025 30 14
1.0908372 1.6111603 -0.03396228 100 7
2.7267926 4.0259428 1.3028951 2 15
1.3436056 1.9785419 -0.64083588 1 0
1.2922635 1.9022213 0.040140491 18 8
2.8260131 4.1583548 -1.1607472 2 1
2.7556312 4.053268 0.25686496 1 9
2.8102639 4.1336274 -0.97159958 1 2
2.7249701 4.0066605 0.42392528 1 10
2.8123999 4.1336656 -0.79187119 1 3
2.72755 4.0074492 0.59520978 1 11
2.7640026 4.0594797 -0.60300928 2 4
2.7356093 4.0162759 0.76965773 1 12
1.3100446 1.9233378 -0.20359589 9 5
1.1497151 1.6873175 0.39688262 1 13
1.3105457 1.9226286 -0.12194275 3 6
1.0896931 1.5974314 -0.033752855 100 7
2.7517195 4.0323567 1.3080716 1 15
1.3395959 1.957896 -0.63565958 2 0
1.2977648 1.8960493 0.040105578 19 8
2.825099 4.1259527 -1.1544485 2 1
2.7404182 4.0007815 0.25414348 1 9
2.7802987 4.0590034 -0.95633495 1 2
2.7299263 3.9839768 0.42253131 1 10
2.808943 4.097753 -0.78686523 1 3
2.7482588 4.0077257 0.59667218 2 11
2.7714152 4.0399861 -0.6015473 2 4
2.7563193 4.0164738 0.77153486 1 12
1.1267084 1.6412112 0.38696054 2 13
1.3127247 1.9114573 -0.12152404 11 6
2.7697809 4.0315638 1.1292543 2 14
1.0975282 1.5969137 -0.033822663 77 7
2.8314447 4.1182432 1.3391299 0 15
1.3508072 1.9595705 -0.63773018 2 0
1.3032407 1.8898611 0.040070675 15 8
2.8129275 4.0775681 -1.1436509 2 1
2.7589037 3.9977665 0.25456214 1 9
2.7989094 4.055737 -0.95786124 1 2
2.775512 4.0203319 0.42741147 1 10
2.7850642 4.0326586 -0.77622777 1 3
2.773515 4.0144415 0.59910959 1 11
2.7742152 4.0139575 -0.59910941 2 4
2.8062727 4.0588217 0.78154677 1 12
1.3189087 1.9075892 -0.20289864 40 5
1.1078606 1.601746 0.37856498 12 13
2.8603649 4.132431 1.1602975 1 14
1.1213094 1.6193774 -0.034381133 76 7
2.884306 4.1639161 1.3572474 9 15
1.3554358 1.9516695 -0.63669485 1 0
1.3258027 1.9082922 0.04055934 12 8
2.8226924 4.0613251 -1.1418513 2 1
2.8184488 4.0537057 0.25874907 1 9
2.8018434 4.0298223 -0.95404512 1 2
2.7781525 3.9942617 0.42566836 1 10
2.7855821 4.0034566 -0.77247334 1 3
2.8192651 4.0503535 0.60593426 1 11
2.7882104 4.0042477 -0.59910995 2 4
2.8159044 4.0425196 0.78029525 1 12
2.7948451 4.0092983 -0.2561321 2 6
1.1143705 1.5974126 -0.033997182 44 7
2.8955071 4.1490688 1.3556943 4 15
1.3600239 1.9437613 -0.63565958 1 0
2.8346171 4.0482545 -1.1409516 2 1
2.8119533 4.0143995 0.25686496 1 9
2.7978683 3.9942918 -0.94793922 1 2
2.8172319 4.0204372 0.4295032 1 10
2.8131473 4.0131183 -0.77622777 1 3
2.8356652 4.0437398 0.60642177 2 11
2.8135703 4.0107422 -0.6015473 2 4
1.1642259 1.6589873 0.32100359 1 12
2.8143156 4.0103159 -0.42863211 1 5
1.1280409 1.6068264 0.38161811 26 13
2.9029474 4.1335444 -0.26471519 2 6
2.9115484 4.1442542 1.1692957 14 14
1.1141911 1.5853325 -0.033822659 31 7
2.9166386 4.1484194 1.3588002 3 15
1.3645749 1.9358438 -0.6346243 2 0
1.2722543 1.8042032 0.038534865 1 8
2.8262637 4.0064874 -1.1319535 2 1
2.8252509 4.0050521 0.25686496 2 9
2.8140597 3.987709 -0.94870257 1 2
2.8358455 4.0170884 0.43020046 1 10
2.8339751 4.0129561 -0.77810502 1 3
2.8657978 4.0565152 0.60983407 1 11
2.8275542 4.0008965 -0.60154736 2 4
1.1742817 1.66157 0.32225507 1 12
2.8259957 3.9972146 -0.42828348 1 5
2.9327314 4.1466508 0.9872455 8 13
2.8458385 4.0222974 -0.25822553 2 6
2.9350028 4.146791 1.1728948 19 14
2.9359598 4.1466088 1.3613884 3 15
1.3646133 1.9216177 -0.63151848 2 0
1.2133921 1.7086715 0.036580198 2 8
2.846307 4.0066242 -1.1346529 2 1
2.8484714 4.0081892 0.25770235 1 9
2.8347878 3.9874606 -0.95099211 1 2
2.877563 4.046134 0.43438396 1 10
2.8632958 4.0260725 -0.78248513 1 3
2.939075 4.1310983 0.62250841 1 11
2.8246911 3.9688563 -0.59813446 2 4
1.1605972 1.6301049 0.31693628 4 12
2.8607373 4.0165353 -0.43142104 1 5
2.9521616 4.144897 0.9891535 11 13
2.8637962 4.0193453 -0.25864422 2 6
2.9555252 4.1465554 1.1755941 16 14
1.1284384 1.5825969 -0.033927374 12 7
2.9560268 4.1441975 1.3639765 3 15
1.3799688 1.9296527 -0.63565958 2 0
1.2112042 1.6930412 0.036335863 5 8
2.867079 4.0061731 -1.1373528 2 1
2.8926752 4.0404434 0.26042381 1 9
2.8525684 3.9844229 -0.9525187 1 2
2.967531 4.143477 0.44588849 1 10
2.8727293 4.0096307 -0.78123361 1 3
2.9581048 4.1272678 0.62348348 8 11
2.8709142 4.0041442 -0.60495919 2 4
2.9088776 4.0555978 -0.43665045 1 5
2.9746246 4.1457319 0.99182487 11 13
2.8801374 4.0125699 -0.25885355 2 6
2.9847567 4.1567926 1.1814429 16 14
2.9772372 4.1432672 1.3670822 3 15
1.3821788 1.9185545 -0.63358909 2 0
1.2182764 1.6904253 0.036370773 8 8
2.8878829 4.0056257 -1.1400516 2 1
3.0119083 4.1761141 0.26984429 1 9
2.9009101 4.0222116 -0.96396714 1 2
2.9784799 4.1282458 0.44536561 10 10
2.9121428 4.0348163 -0.78811675 1 3
2.9841135 4.1330128 0.62592095 7 11
2.9267182 4.0520301 -0.61373377 2 4
1.1846753 1.6395754 0.32037786 42 12
2.8880112 3.9969699 -0.43142104 1 5
3.0051787 4.1575999 0.99716759 11 13
2.9011493 4.0122023 -0.25948161 2 6
3.0049601 4.154243 1.1836926 18 14
3.003011 4.1484981 1.3722588 3 15
1.388867 1.9137185 -0.63358909 2 0
1.2194699 1.6796896 0.036231153 19 8
2.9018486 3.9955201 -1.1400516 2 1
2.9947696 4.1219487 0.26701814 11 9
2.8918529 3.9802961 -0.95633483 1 2
2.9963853 4.1226592 0.44588849 14 10
2.9308546 4.0310178 -0.78936821 1 3
2.9198213 4.0128965 -0.60934645 2 4
1.1752785 1.614668 0.31631055 7 12
2.9183598 4.0094175 -0.43386143 1 5
3.0242951 4.1534333 0.998694 11 13
2.9104338 3.9955924 -0.25906289 2 6
3.0286233 4.1563282 1.1872916 16 14
1.1414157 1.565845 -0.033822659 12 7
3.0231662 4.1457939 1.3748469 3 15
1.3978183 1.911978 -0.6346243 2 0
1.2253263 1.6754227 0.036231156 24 8
2.9410942 4.0199661 -1.1499496 2 1
3.0150361 4.1195288 0.2675415 12 9
2.9219613 3.9923577 -0.96167749 1 2
3.0237055 4.1298571 0.44780591 14 10
2.9542468 4.0335107 -0.79187113 1 3
1.2107886 1.6525182 0.25153831 1 11
2.9478939 4.0218916 -0.61227185 2 4
3.049803 4.1594062 0.81690091 13 12
2.9323385 3.9992049 -0.43386143 1 5
3.0596745 4.1713467 1.0055631 11 13
2.988167 4.0723639 -0.26471519 2 6
3.0511856 4.1567268 1.1904409 16 14
1.1480572 1.563464 -0.033857569 4 7
3.0479114 4.1492286 1.3795056 2 15
1.3976109 1.8977534 -0.63151848 2 0
1.2287945 1.6679153 0.036161337 36 8
3.0129144 4.0881124 -1.1724446 2 1
3.0393469 4.1239777 0.26848358 12 9
2.9661715 4.0232182 -0.97159958 1 2
3.0499282 4.1353126 0.44954902 14 10
2.9706528 4.0263538 -0.79249692 1 3
1.2012253 1.6275181 0.24836972 12 11
2.9682877 4.0216784 -0.61373377 2 4
3.0741384 4.1635728 0.81971675 13 12
3.074218 4.1606402 1.0055631 11 13
3.0498521 4.126153 -0.26890206 4 6
3.0753798 4.1606889 1.1944901 18 14
1.1556137 1.5628636 -0.033927374 4 7
3.0777366 4.1608429 1.3867525 1 15
1.4038969 1.8931079 -0.63151848 2 0
1.2557647 1.692739 0.036789622 12 8
2.9776781 4.0123744 -1.1535494 2 1
3.0708582 4.1379337 0.2700536 12 9
2.9771566 4.0102062 -0.97083628 1 2
3.0719414 4.1363716 0.45076925 14 10
2.9863441 4.0196528 -0.79312265 1 3
1.1722769 1.5773212 0.2413013 20 11
3.066865 4.1265264 -0.63128287 2 4
3.102073 4.1723776 0.82347113 13 12
3.066503 4.1230369 -0.44954944 2 5
3.1044056 4.1724739 1.0109057 11 13
3.0802116 4.1384473 -0.27036744 15 6
3.1042845 4.1707911 1.2003386 18 14
1.1595955 1.5574193 -0.033892471 4 7
3.0915189 4.1506133 1.3867525 0 15
1.4078549 1.8853464 -0.63048315 2 0
1.2505995 1.674148 0.036475483 10 8
2.9909678 4.0024772 -1.1535494 2 1
3.088872 4.1319871 0.27036762 12 9
2.9998422 4.0128922 -0.97388929 1 2
3.1047297 4.1516933 0.45355818 5 10
3.0398905 4.0635061 -0.80376017 1 3
1.2119927 1.6195154 0.24836969 41 11
3.0812516 4.1157951 -0.63128287 2 4
3.127274 4.1757545 0.82628691 13 12
3.1028519 4.1431441 -0.45286137 11 5
3.1335273 4.1825824 1.0158674 10 13
3.0975134 4.1330047 -0.2706815 15 6
3.119993 4.161489 1.2007886 18 14
1.1734239 1.5645601 -0.034136802 4 7
3.1430895 4.1892447 1.403317 0 15
1.4213948 1.8896842 -0.63358909 2 0
1.2732686 1.6921421 0.036964148 28 8
3.0119534 4.0013533 -1.1562481 2 1
3.1128874 4.133945 0.27120504 12 9
3.0327265 4.0274901 -0.97999519 1 2
1.2683007 1.683704 0.18442145 1 10
3.113498 4.1317501 -0.81940371 2 3
3.1343136 4.1578665 0.63932645 6 11
3.1171107 4.1335454 -0.63567024 14 4
3.145402 4.1695442 0.82722569 13 12
3.1256959 4.1434212 -0.45408154 11 5
3.1492896 4.1731873 1.0162485 8 13
3.1251559 4.1397038 -0.27183288 15 6
3.1474202 4.1676788 1.2057376 16 14
1.1812893 1.5636452 -0.034206614 3 7
3.1716683 4.1967449 1.4095287 0 15
1.423316 1.8785515 -0.63151848 1 0
1.292455 1.7052172 0.037348103 18 8
3.0918334 4.0777764 -1.1814426 2 1
3.1393697 4.1389666 0.27225175 11 9
3.1155803 4.1076026 -1.002129 1 2
1.2284064 1.6189525 0.17779762 1 10
3.1470075 4.1460338 -0.82440954 10 3
3.1584125 4.1595473 0.64127636 10 11
3.1423283 4.1368661 -0.63786453 14 4
3.1754706 4.1789875 0.83129293 13 12
3.1461639 4.1404195 -0.45495313 11 5
3.1852243 4.1903009 1.0231175 10 13
3.1516774 4.1446667 -0.2728796 15 6
3.1820028 4.1830359 1.2133859 18 14
1.2787728 1.6804544 -0.036859371 1 7
3.1933203 4.19487 1.4126345 0 15
1.4228333 1.8643571 -0.62841266 1 0
1.2874781 1.6863909 0.03703396 3 8
3.1731999 4.1533751 0.2739265 12 9
3.1501629 4.1232219 -1.0086164 8 2
3.1698599 4.1460071 -0.8265996 10 3
3.1813562 4.1595345 0.6429826 10 11
3.163986 4.1353316 -0.63932627 14 4
3.2020459 4.1835628 0.83442158 13 12
3.1642313 4.1341572 -0.45547602 11 5
3.2022197 4.1822739 1.0238808 10 13
3.1758401 4.1463251 -0.27371696 15 6
3.2013266 4.1780896 1.2151855 16 14
1.2724664 1.6601092 -0.03651033 2 7
3.2102935 4.1867642 1.4136697 0 15
1.4293311 1.8593802 -0.62841266 2 0
1.2970144 1.6866417 0.037138678 1 8
3.1891448 4.1456766 -1.2075369 2 1
3.1986382 4.1565204 0.27486852 12 9
3.1777043 4.1293178 -1.0128143 11 2
3.1927509 4.1458721 -0.82878965 11 3
3.2079678 4.1641316 0.64541996 10 11
3.1941555 4.144702 -0.64249486 14 4
3.2323098 4.1926975 0.83848888 15 12
3.1915293 4.13831 -0.45721912 11 5
3.2263877 4.1835093 1.0269337 10 13
3.1963956 4.1431203 -0.27424031 15 6
3.2373247 4.1946573 1.2232838 18 14
1.268476 1.6429954 -0.036231089 2 7
3.2225282 4.1724739 1.4126345 0 15
1.4408687 1.8602375 -0.63048315 1 0
3.2547843 4.2020979 0.092776872 1 8
3.2035954 4.1345201 -1.2075369 2 1
3.2094579 4.1405931 0.27455452 3 9
3.200037 4.1269507 -1.0151039 9 2
1.2358029 1.5931882 0.17640334 18 10
3.2272999 4.1591129 -0.83379561 10 3
3.2297866 4.1623173 0.64688241 10 11
3.2159078 4.1429343 -0.64395785 14 4
3.2554059 4.1923108 0.84067899 13 12
3.2218454 4.1475978 -0.4594852 9 5
3.2549541 4.1887059 1.0311315 10 13
3.220139 4.1424155 -0.27497303 15 6
3.2550683 4.1858411 1.2241836 16 14
1.2840244 1.6511856 -0.036510326 2 7
3.2489357 4.1764469 1.4178108 0 15
1.4497297 1.8582432 -0.63151848 2 0
3.2418673 4.153882 0.091974057 8 8
3.2379146 4.1473279 -1.2147354 5 1
1.2880816 1.6498572 0.1096962 1 9
3.2240899 4.1281347 -1.018157 9 2
3.2505896 4.1605644 0.46192515 10 10
3.2490962 4.1571617 -0.8356728 10 3
3.2609148 4.170783 0.65005106 11 11
3.2420771 4.1451936 -0.64615095 14 4
3.2736721 4.1855898 0.84161764 13 12
3.246125 4.14888 -0.46087971 9 5
3.2731843 4.1819572 1.0322763 10 13
3.2468934 4.1468749 -0.27601975 15 6
3.2816775 4.1897941 1.2286825 18 14
1.2749838 1.6278015 -0.036091466 2 7
3.275409 4.1802883 1.4229873 0 15
1.4442718 1.8379813 -0.62634212 2 0
3.2766278 4.1698389 0.092567436 12 8
3.2612853 4.1488233 -1.2183346 2 1
1.2679071 1.6123809 0.10749809 5 9
3.2469776 4.127656 -1.0208282 9 2
3.2724848 4.1585879 0.46297106 12 10
3.2763023 4.1634393 -0.83911437 11 3
3.2894623 4.1786623 0.6529758 10 11
3.2705424 4.1531353 -0.64907587 14 4
3.3017077 4.191206 0.8450591 15 12
3.2667549 4.1453476 -0.46175125 9 5
3.3076911 4.1972942 1.0387645 10 13
3.2767003 4.1564765 -0.2773805 13 6
3.3076196 4.194191 1.2331816 18 14
1.2856122 1.6296217 -0.036231089 2 7
3.2756181 4.1506319 1.4167755 0 15
1.4527566 1.8362116 -0.62737745 2 0
3.2911625 4.1583767 0.092567436 12 8
3.2951009 4.16186 -1.2255336 2 1
3.2789326 4.1399503 -1.0265526 9 2
3.2961543 4.1602068 0.46436554 14 10
3.2994058 4.1628132 -0.84130448 10 3
3.3163638 4.1827087 0.65541327 10 11
3.3010552 4.1619129 -0.65224445 14 4
3.3266351 4.1941633 0.84787494 13 12
3.2879145 4.1438556 -0.46279711 11 5
3.323544 4.1872597 1.0391455 10 13
3.3011239 4.1575265 -0.27821785 13 6
3.3392096 4.2039824 1.2394803 16 14
1.2959845 1.6316124 -0.036370706 1 7
3.3037875 4.157896 1.4229872 0 15
1.4495255 1.8190428 -0.62323624 2 0
3.3136587 4.1583862 0.092811771 11 8
3.3186033 4.1631002 -1.2291323 2 1
1.2651552 1.5865358 0.10634669 27 9
3.3019333 4.1392236 -1.0292239 11 2
3.3305411 4.1735911 0.46715447 12 10
3.3193519 4.1595697 -0.8428688 10 3
3.3277378 4.1685858 0.65492576 10 11
3.3309431 4.1711078 -0.65541309 14 4
3.3498871 4.1933289 0.85006505 12 12
3.3197718 4.1541443 -0.4652375 9 5
3.3521183 4.1946206 1.0437249 10 13
3.3198822 4.1527963 -0.27863654 13 6
3.3604338 4.2020178 1.2421796 15 14
1.3016717 1.6270789 -0.036370706 2 7
3.3400078 4.1734881 1.4323047 0 15
1.460385 1.8202534 -0.62530679 2 0
3.3606977 4.1873407 0.093719289 3 8
3.328234 4.1454129 -1.2273326 2 1
3.3543084 4.1763968 0.28073013 7 9
3.3298888 4.1445069 -1.0334216 9 2
3.3493555 4.168736 0.46785173 14 10
3.3474631 4.1648946 -0.84631032 10 3
3.3571944 4.1755099 0.65785062 8 11
3.3479714 4.1625476 -0.65590048 14 4
3.3843184 4.206234 0.85507101 15 12
3.3442454 4.1549487 -0.46663198 11 5
3.3859396 4.2052431 1.0494492 10 13
3.34761 4.1561542 -0.27968323 15 6
3.379972 4.1963325 1.2439793 18 14
1.3223985 1.6412109 -0.036789559 2 7
3.3909268 4.2069263 1.4478339 0 15
1.471904 1.8208987 -0.62737739 2 0
1.3629825 1.6855478 0.037836771 1 8
3.3581133 4.1513672 -1.2327315 2 1
3.3695924 4.1640754 0.28073013 12 9
3.354938 4.1444821 -1.0364746 9 2
3.387176 4.1843071 0.47098935 12 10
3.3726523 4.1648784 -0.84881335 10 3
3.3912175 4.1863151 0.66150671 8 11
3.3707037 4.1595035 -0.65736294 14 4
3.4046869 4.1999402 0.85632241 13 12
3.3782744 4.1658759 -0.46924663 11 5
3.4099867 4.2034779 1.0521204 10 13
3.3791809 4.1640182 -0.28104401 15 6
3.4088366 4.2005615 1.2489282 15 14
3.3903322 4.17627 -0.093893647 8 7
3.406322 4.1944704 1.4478338 0 15
1.4736897 1.8094989 -0.62530684 2 0
1.3173656 1.6169785 0.036405675 4 8
3.3856165 4.1541381 -1.2372305 2 1
3.39925 4.170866 0.28198624 11 9
3.3743479 4.1388316 -1.0380011 9 2
3.4050071 4.1749535 0.47133794 14 10
3.4091227 4.1785102 -0.85413218 10 3
3.4153278 4.1846199 0.66321284 8 11
3.4009914 4.1655741 -0.66028792 12 4
3.4368162 4.2094526 0.86070257 13 12
3.4016194 4.1648598 -0.47046685 11 5
3.4469988 4.2189145 1.0589896 10 13
3.4088619 4.1707559 -0.28230006 15 6
3.4439445 4.2121787 1.2561266 15 14
3.4200783 4.1829886 -0.094312519 11 7
3.420944 4.1825533 1.4478339 0 15
1.4750953 1.7983702 -0.6232363 2 0
3.4142082 4.1609645 -1.2426299 2 1
3.4302628 4.1790428 0.28334695 13 9
3.4149346 4.1588926 -1.046015 7 2
3.4322069 4.1784368 0.47308105 12 10
3.4279764 4.1732869 -0.85538352 10 3
3.4430478 4.1901431 0.66589403 8 11
3.4261296 4.1680751 -0.66248143 12 4
3.4665453 4.2157397 0.86445707 13 12
3.4325922 4.1729631 -0.47273293 11 5
3.4647114 4.2120099 1.0601351 10 13
3.437902 4.1779356 -0.2835561 15 6
3.4702802 4.2157798 1.2606257 16 14
3.4435577 4.1818295 -0.094556846 11 7
3.4600861 4.2004104 1.4581866 0 15
1.4810513 1.7934684 -0.6232363 2 0
1.3143322 1.5910155 0.036021721 30 8
3.418782 4.1370034 -1.2390301 5 1
3.4644599 4.1922779 0.28502169 13 9
3.4312105 4.1505713 -1.0467782 8 2
3.4714382 4.197741 0.47656733 12 10
3.450079 4.1704273 -0.85726076 9 3
3.4715741 4.1949224 0.66857505 10 11
3.4558496 4.1744385 -0.66540635 12 4
3.4956217 4.2224808 0.86821151 13 12
3.4578488 4.1753664 -0.47430167 9 5
3.4831493 4.2044268 1.0612794 13 13
3.4613876 4.1766739 -0.28428882 15 6
3.498657 4.2201424 1.2655747 18 14
3.475275 4.1919384 -0.095045507 6 7
3.4813962 4.1978345 1.4612924 0 15
1.4848324 1.7853163 -0.62220097 5 0
3.4971993 4.2049241 0.095464543 5 8
3.437465 4.1316385 -1.2408298 7 1
3.481626 4.1832323 0.28523108 13 9
3.4607527 4.156673 -1.0513577 7 2
3.4988198 4.2009077 0.47831044 12 10
3.4866428 4.1862874 -0.86289251 10 3
3.4943597 4.1940637 0.67028129 10 11
3.4734874 4.1675286 -0.66613811 14 4
3.5267856 4.2299752 0.87227875 15 12
3.4889903 4.1831636 -0.47656778 9 5
3.5171919 4.2169762 1.0673858 18 13
3.4841764 4.1759067 -0.28502154 15 6
3.5201235 4.217494 1.2682739 18 14
1.4328645 1.7161214 -0.039023459 1 7
3.5133674 4.2064137 1.4685394 0 15
1.5031465 1.7951951 -0.62737745 1 0
3.5118532 4.1926932 0.095464543 11 8
3.4531188 4.1211071 -1.2412797 7 1
3.5090377 4.1863585 0.28627777 12 9
3.4833457 4.1557074 -1.0540291 8 2
3.5242536 4.2030215 0.4798792 10 10
3.512661 4.1877108 -0.86570823 10 3
3.5319476 4.2092118 0.67466861 8 11
3.5033286 4.1736255 -0.66906309 12 4
3.5491498 4.226716 0.87415594 15 12
3.5151048 4.1846886 -0.47813654 9 5
3.5445182 4.2197051 1.0712013 16 13
3.5154345 4.1835976 -0.28638226 13 6
3.5461082 4.2186069 1.272323 16 14
1.3564798 1.6131566 -0.036789559 1 7
3.5404663 4.2089071 1.4737159 0 15
3.0916786 3.6649923 -1.2847778 2 0
3.5445194 4.201807 0.095953204 13 8
3.4687409 4.1105165 -1.2417295 5 1
3.5403771 4.1939263 0.28763855 11 9
3.5124857 4.1594129 -1.0582268 7 2
3.5460649 4.1976857 0.48075083 12 10
3.5483849 4.1989498 -0.87071419 10 3
3.5607121 4.2135367 0.67734975 10 11
3.5383792 4.185627 -0.67296219 12 4
3.571537 4.223351 0.87603313 15 12
3.5296898 4.1723938 -0.47813654 9 5
3.5802515 4.2306643 1.0773072 16 13
3.5384884 4.1798301 -0.28701031 13 6
3.5791767 4.2264018 1.2786217 16 14
1.3556406 1.600782 -0.03661504 20 7
3.5851026 4.2319016 1.4861391 0 15
3.0919461 3.6394544 -1.2796015 4 0
3.5650775 4.1948814 0.09609282 11 8
3.4762089 4.0888677 -1.2390301 5 1
3.5653458 4.1937146 0.28847593 11 9
3.5460629 4.169558 -1.0639511 8 2
3.5710232 4.1974225 0.48214525 12 10
3.5681429 4.192554 -0.87196559 9 3
3.5851402 4.2110372 0.67905587 8 11
3.5665686 4.1877422 -0.6753996 14 4
3.6016264 4.2289057 0.87978756 13 12
3.5532789 4.1706634 -0.47935677 9 5
3.5975454 4.2211289 1.0780705 16 13
3.5737884 4.1917715 -0.28868502 13 6
3.6090839 4.2316742 1.2840205 16 14
1.366411 1.6021258 -0.036754657 37 7
3.5948391 4.2134824 1.4840686 0 15
3.1071417 3.6315751 -1.2806365 4 0
3.5919673 4.1982312 0.096441872 11 8
3.4872141 4.074358 -1.2381303 5 1
3.5968502 4.2009645 0.28983662 10 9
3.5771978 4.1765399 -1.0689123 8 2
3.5999119 4.2015753 0.48406267 10 10
3.5948777 4.1956997 -0.87509429 9 3
3.6132963 4.2157035 0.68173701 8 11
3.5972328 4.1954846 -0.67856824 14 4
3.6292257 4.2313023 0.88291633 13 12
3.5898724 4.1839385 -0.48232001 11 5
3.6281443 4.2285442 1.0830315 15 13
3.5980749 4.1920223 -0.28952241 11 6
3.6357913 4.2344689 1.2885196 21 14
1.3706927 1.5958291 -0.036719754 19 7
3.609524 4.2009091 1.4840686 0 15
3.1292553 3.6329608 -1.2847778 4 0
3.6248755 4.2068748 0.096930534 11 8
3.4912353 4.0503516 -1.2345316 5 1
3.6193171 4.1974607 0.29046467 11 9
3.6038496 4.1795225 -1.0727284 7 2
3.6281416 4.2062092 0.48598015 10 10
3.6236966 4.1995788 -0.87853593 9 3
3.6422567 4.2195954 0.68441808 8 11
3.6196411 4.191915 -0.68003064 12 4
3.668509 4.2470107 0.88886088 15 12
3.6252968 4.1955042 -0.48510903 11 5
3.6672699 4.2440791 1.0902829 18 13
3.6607482 4.2335429 1.2921188 10 14
3.6368699 4.2044454 -0.097035073 8 7
3.6620903 4.2321091 1.4995979 0 15
3.1298873 3.6068771 -1.2796015 4 0
3.6552649 4.2123213 0.097349398 11 8
3.5079086 4.0410833 -1.235431 5 1
3.6457312 4.1983733 0.29140666 11 9
3.624294 4.172215 -1.074255 7 2
3.6618283 4.2139387 0.48842046 12 10
3.6546168 4.2041574 -0.88229024 9 3
3.6686842 4.2203403 0.68661177 8 11
3.6446717 4.1912394 -0.68198055 12 4
3.6910892 4.2431221 0.89073801 24 12
3.6569214 4.202363 -0.48737505 11 5
3.6815109 4.2291293 1.0899006 7 13
1.4257463 1.6372468 -0.11377834 1 6
3.6800814 4.2245045 1.2934685 3 14
3.6659737 4.2083101 -0.097419031 11 7
3.6717651 4.2134733 1.4975272 0 15
3.1348321 3.5872006 -1.2764956 4 0
3.6864738 4.2169609 0.097768255 11 8
3.514998 4.0193977 -1.2327321 5 1
3.6800857 4.2081747 0.29297677 12 9
3.6569328 4.1802244 -1.0795975 7 2
3.6870131 4.2131238 0.48981494 12 10
3.6900876 4.2151566 -0.8872962 9 3
3.7142091 4.2412124 0.69221777 17 11
3.6775894 4.1993976 -0.68539351 12 4
3.7084825 4.2331834 0.8913638 13 12
3.6781335 4.1970658 -0.48824662 11 5
3.6988404 4.2192044 1.0906639 2 13
1.399848 1.5962211 -0.11126622 11 6
3.7274766 4.2503729 1.3051661 1 14
3.6911883 4.2075162 -0.097698271 9 7
3.6609635 4.1715908 1.4871744 2 15
3.156918 3.5883892 -1.2806365 4 0
3.7110054 4.216723 0.098047487 11 8
3.5334597 4.0135694 -1.234531 5 1
3.7124979 4.2169352 0.29444221 11 9
3.6837497 4.1828084 -1.0834136 7 2
3.7194028 4.2218051 0.49225533 17 10
3.70274 4.2014136 -0.88698334 9 3
3.7243142 4.2244062 0.6914866 10 11
3.7006838 4.1976032 -0.68709904 8 4
3.7290339 4.2282681 0.89292812 6 12
3.7118039 4.2072544 -0.49086127 11 5
3.759578 4.2599077 1.1044028 1 13
1.4104216 1.5975586 -0.1116849 30 6
3.695121 4.1853957 1.2889695 1 14
3.7223301 4.2147365 -0.098152027 9 7
3.7003582 4.1883841 1.4975272 2 15
3.1534314 3.5605462 -1.274425 4 0
3.7408807 4.2223554 0.098466352 11 8
3.5364084 3.9901631 -1.2309325 5 1
3.7444208 4.2233768 0.29580292 14 9
3.7132304 4.1881967 -1.087993 7 2
3.7479255 4.2258434 0.49417275 15 10
3.7389381 4.2142329 -0.89230216 10 3
3.7435744 4.2179708 0.69246161 5 11
3.735085 4.2069263 -0.69075519 12 4
3.7909908 4.2683983 0.90419132 1 12
3.741025 4.2106557 -0.49277872 9 5
3.7736847 4.2474155 1.1044028 1 13
1.3984627 1.5734657 -0.11032415 22 6
3.8055232 4.2802453 1.3222623 1 14
3.7556262 4.2226353 -0.098640688 9 7
3.7213771 4.1826572 1.5001154 3 15
3.1587427 3.5403161 -1.2713192 4 0
3.7702417 4.2256837 0.098850302 13 8
3.5451262 3.9719784 -1.2291323 5 1
3.7684491 4.2207127 0.29653564 10 9
3.7481723 4.1965232 -1.0937173 8 2
3.7554231 4.2031641 0.49312687 7 10
3.7675221 4.2152295 -0.89543074 10 3
3.8098636 4.2626028 0.70196736 1 11
3.755038 4.1997824 -0.69173008 10 4
3.8058681 4.2551384 0.90419132 1 12
3.7650008 4.2079644 -0.49399894 5 5
3.7892265 4.2335572 1.1044028 1 13
3.7663469 4.2065172 -0.29590741 9 6
3.7457786 4.1820722 1.2961679 1 14
3.7930245 4.2348218 -0.099234067 6 7
3.7295082 4.1624489 1.4975272 3 15
3.1814113 3.5407634 -1.2754602 4 0
3.8044183 4.2326584 0.099338964 11 8
3.5596592 3.9589593 -1.2291323 5 1
3.7812252 4.2038989 0.29632628 5 9
3.7719893 4.1936307 -1.0963886 7 2
3.806052 4.2300205 0.49783325 1 10
3.8020375 4.2240753 -0.90012389 9 3
3.8254645 4.2486076 0.70196736 1 11
3.7823617 4.1992674 -0.69392377 10 4
3.8214378 4.2411618 0.90419137 1 12
3.777693 4.1911368 1.0967704 1 13
3.7983935 4.2126279 -0.29726812 13 6
3.7420785 4.148716 1.2898693 3 14
3.800482 4.2119842 -0.099024646 6 7
3.7563901 4.1616564 1.5021858 2 15
3.1833801 3.5181794 -1.2713192 4 0
3.8245392 4.2252831 0.099478602 5 8
3.5813057 3.9551759 -1.2318317 5 1
3.799782 4.1949916 -1.1002048 7 2
3.8207958 4.2167077 0.49783325 1 10
3.8379865 4.2341952 -0.90512985 10 3
3.8402689 4.2352304 0.70196736 1 11
3.8236718 4.2154441 -0.69879913 12 4
3.7910881 4.1780567 0.89355379 3 12
1.4526459 1.6009221 -0.18912803 2 5
3.776463 4.1604834 1.092191 1 13
3.8466415 4.2363086 -0.29988492 36 6
3.7722616 4.1529369 1.2952681 2 14
3.8339853 4.2194138 -0.099513307 6 7
3.7812884 4.1599565 1.506327 2 15
3.1878352 3.498477 -1.2682134 4 0
3.5872114 3.9340115 -1.2291323 5 1
3.8225937 4.1906805 0.29726833 1 9
3.8289568 4.1976566 -1.1044025 6 2
3.8301208 4.1974573 0.49713603 1 10
3.8607326 4.229526 -0.90700698 9 3
3.8175507 4.1807542 0.69514269 2 11
3.8664789 4.2328496 -0.70391703 12 4
3.7923234 4.1502156 0.89042509 3 12
3.7830164 4.1385798 1.0899006 1 13
3.8614066 4.2228541 -0.29988492 6 6
3.8077784 4.1627517 1.3024665 2 14
3.8527417 4.2104306 -0.099618025 1 7
3.8075271 4.1595564 1.5109859 2 15
3.1895776 3.4759412 -1.2640722 4 0
3.5824695 3.9013689 -1.2228341 5 1
3.8723285 4.2155538 0.29998976 1 9
3.8781188 4.2218571 -1.1143247 2 2
3.8231773 4.1605916 0.49434704 5 10
3.8808215 4.2218404 -0.90825844 9 3
3.8106229 4.1440215 0.69124275 2 11
3.8960111 4.2354002 -0.7065981 17 4
3.8121388 4.142767 0.89167666 3 12
1.4570413 1.583411 -0.18825646 29 5
3.8107371 4.1397929 1.0937169 1 13
3.8761234 4.2093506 -0.29988495 4 6
3.8354905 4.1637664 1.3069656 2 14
3.8442817 4.1703873 1.5197855 2 15
3.2095592 3.4732988 -1.2671781 4 0
3.5907736 3.8831182 -1.221034 5 1
3.8483181 4.1616306 0.29705897 3 9
3.9141619 4.2313538 -1.1204306 2 2
3.8430905 4.1530695 0.49504426 3 10
3.919688 4.2343621 -0.91389012 11 3
3.8385515 4.1452608 0.69368017 1 11
3.8959336 4.2057543 -0.70391762 6 4
3.8553877 4.1619844 0.89855981 1 12
1.4733939 1.5900062 -0.18965095 7 5
3.8571956 4.1610227 1.1028757 1 13
3.8632555 4.1646385 1.3114645 2 14
3.8778 4.1788588 1.5275501 2 15
3.2216644 3.4620728 -1.2671779 4 0
3.8906059 4.180932 0.099688016 1 8
3.5983186 3.8654847 -1.2192345 5 1
3.8492098 4.1335573 0.29601228 2 9
3.9422915 4.2320294 -1.1242468 12 2
3.8412642 4.122139 0.49295256 1 10
3.9323604 4.2198958 -0.9135772 3 3
3.9172502 4.2022061 0.70537966 1 11
3.9734902 4.2610459 -0.71537334 2 4
3.9130099 4.194725 0.90857154 1 12
3.8977635 4.1769152 1.1105081 1 13
3.8930023 4.1688991 1.3168634 2 14
3.9040852 4.1793008 -0.099827453 3 7
3.9161067 4.1907029 1.5368677 2 15
3.2252023 3.4429119 -1.2640722 4 0
3.9024408 4.1644087 0.099618211 1 8
3.6091251 3.8500562 -1.2183346 5 1
3.8628969 4.120769 0.29601225 2 9
3.9428728 4.2046127 -1.1204306 5 2
3.8930809 4.150063 0.49783322 1 10
3.9565301 4.2162261 -0.91576731 1 3
3.9101555 4.1653504 0.70147985 1 11
3.9052639 4.1586847 0.90356565 1 12
3.9284508 4.1804514 1.1150879 1 13
3.92747 4.1779466 -0.30051297 4 6
3.9208825 4.1694798 1.3213625 2 14
3.9124427 4.1605053 -0.099687837 1 7
3.9352756 4.1833224 1.5389382 2 15
3.2292469 3.4232023 -1.2609664 4 0
3.8997619 4.1339898 0.099199347 1 8
3.6218736 3.8380656 -1.2183346 5 1
3.9266157 4.159544 0.29978046 1 9
3.9513271 4.182795 0.50341129 1 10
3.9484897 4.1783304 0.70586717 1 11
1.5150485 1.6026801 -0.27079383 8 4
3.9441886 4.1708617 0.90919733 1 12
3.9446614 4.1699028 -0.50219148 1 5
3.9503891 4.1759586 1.1173779 1 13
3.9413023 4.1649008 -0.300513 2 6
3.9614823 4.1847577 1.3303605 2 14
3.9269428 4.146822 -0.099687837 1 7
3.9644668 4.1849885 1.5446321 2 15
3.239109 3.4085436 -1.2599311 4 0
3.9596963 4.1653633 0.10031631 1 8
3.6312115 3.8184826 -1.216535 5 1
3.9363286 4.1393356 0.2993618 2 9
4.0269866 4.2331882 -1.1356953 1 2
3.9583886 4.1596251 0.50236529 1 10
3.9781935 4.1775155 0.70830458 1 11
1.5266682 1.6025997 -0.27176851 30 4
3.9866979 4.1849837 0.91545469 1 12
3.9654157 4.1611886 -0.50288886 1 5
3.985359 4.180655 1.1227199 1 13
3.946239 4.1381721 -0.29967558 2 6
3.9990418 4.1920776 1.337559 2 14
3.9476352 4.1381893 -0.099827453 1 7
4.0024538 4.1941886 1.553432 1 15
3.2509887 3.3972154 -1.2599311 4 0
3.9845469 4.1637688 0.10059555 1 8
3.6411605 3.8036041 -1.2156353 5 1
3.9535158 4.1284556 0.29957113 3 9
3.9921851 4.1659207 0.50480574 1 10
4.0934043 4.2715449 -0.93704236 1 3
3.9947705 4.1671662 0.70879197 1 11
1.5099906 1.5746045 -0.267869 22 4
4.0067534 4.176743 0.9167062 3 12
3.9661222 4.1329436 -0.5011456 1 5
4.012794 4.1815791 1.1265365 1 13
3.9710045 4.13659 -0.30051297 2 6
4.0237207 4.1900368 1.3411582 1 14
3.9814525 4.1445727 -0.10031613 13 7
4.0411634 4.2052655 1.5627496 1 15
3.2702787 3.3947625 -1.263037 4 0
4.0129337 4.1642323 0.10094459 1 8
3.6462977 3.7824552 -1.2129358 5 1
4.0143132 4.1642127 0.30312997 1 9
4.014277 4.1612639 0.50585163 1 10
4.0122671 4.157732 -0.91514158 1 3
4.0396252 4.1846161 0.71415424 1 11
4.0343032 4.1776428 0.91983473 1 12
4.0074887 4.1484308 -0.50463188 1 5
4.0491943 4.190136 1.1326418 1 13
4.032618 4.1715255 -0.30407181 2 6
4.0545754 4.1927786 1.3465569 2 14
3.999341 4.1356626 -0.10042083 16 7
4.0631471 4.200171 1.5658555 2 15
3.2686584 3.3694599 -1.2578605 4 0
4.0295067 4.1537719 0.10101441 3 8
3.6642499 3.7759361 -1.2147354 5 1
4.0455189 4.1673708 0.30438602 1 9
4.0512161 4.1717782 -1.1303527 1 2
4.0343304 4.1529431 0.50654888 1 10
4.0451779 4.1626558 0.71269178 1 11
4.0334535 4.149138 -0.71049863 2 4
4.0653863 4.180531 0.92358929 3 12
4.0163894 4.1287041 -0.50393468 1 5
4.0877075 4.2020168 1.139511 1 13
4.0631456 4.1753054 -0.30532789 2 6
4.092926 4.2044444 1.3546553 1 14
4.02352 4.1317043 -0.10066517 14 7
4.0926123 4.2011828 1.5715494 3 15
3.2771137 3.3558383 -1.2568252 4 0
4.0509658 4.1468353 0.10118891 15 8
3.6678751 3.7533648 -1.2115861 5 1
4.0935502 4.1874995 0.30689815 1 9
4.0731525 4.1651831 0.50968647 1 10
1.6009958 1.6365963 -0.36261505 1 3
4.1041136 4.1939101 0.72049141 1 11
4.0756817 4.1634064 -0.71537334 2 4
4.1020684 4.1888947 0.92859513 1 12
4.0726051 4.1573558 -0.50916398 1 5
4.1050997 4.1905265 1.1402743 1 13
4.1196299 4.2038951 -0.30846804 2 6
4.1375904 4.2207456 1.364553 2 14
4.0435195 4.1233444 -0.10080479 4 7
4.1194253 4.1992855 1.5762081 2 15
3.2948101 3.349314 -1.2588958 4 0
4.0836477 4.1512008 0.10164268 16 8
3.6727509 3.7322078 -1.2088867 5 1
4.1277571 4.1931124 0.30836353 1 9
4.1107669 4.1729341 0.51247549 1 10
1.5681605 1.5913217 -0.35385478 14 3
4.1382351 4.1993551 0.72390383 1 11
4.1180634 4.1774278 -0.72024751 2 4
4.130537 4.1886144 0.93172383 3 12
4.1066804 4.1629725 -0.51160437 1 5
4.1507678 4.2061963 1.1486698 1 13
4.095726 4.1489663 -0.30553722 2 6
4.1557708 4.2083268 1.365453 2 14
4.1225204 4.1746569 -0.1024104 1 7
4.1571398 4.2082434 1.5850079 3 15
3.2956038 3.3268139 -1.2547548 4 0
4.1213551 4.1589336 0.10220116 15 8
3.686408 3.7187178 -1.2088867 5 1
4.1880999 4.2233372 0.31171301 1 9
4.1589804 4.1925087 0.5166589 1 10
1.5723146 1.5844353 -0.35354188 38 3
4.1507998 4.1813416 0.72341627 1 11
4.1109657 4.1397696 -0.71634769 2 4
4.1764889 4.2042799 0.93860704 3 12
4.1548877 4.1825352 -0.51578784 1 5
4.1875677 4.2139616 1.1547757 1 13
4.1608715 4.1856399 -0.30930543 2 6
4.1786814 4.2020841 1.3681524 3 14
4.1744633 4.1963778 -0.10331793 1 7
4.1711726 4.1916108 1.5844904 3 15
3.309926 3.3180246 -1.2557901 4 0
4.1471496 4.1558447 0.1024804 13 8
3.6911049 3.6975532 -1.2061872 5 1
4.1915278 4.1973853 0.31087565 1 9
4.1978512 4.2037177 -1.1547762 1 2
4.1876717 4.19206 0.51840198 1 10
1.5764391 1.5775408 -0.35322905 21 3
4.2102814 4.2117519 0.73121595 1 11
4.2320709 4.2320728 -0.73487186 2 4
4.2106962 4.2092276 0.94298708 1 12
4.1835518 4.1820931 -0.51753098 1 5
4.205029 4.2020955 1.155539 2 13
4.1726313 4.1682653 -0.30909604 2 6
4.1988387 4.1929812 1.369952 1 14
4.183424 4.1761303 -0.10317831 1 7
4.1721048 4.1633778 1.579314 3 15
3.3132744 3.2982719 -1.2526842 4 0
4.1857262 4.1653233 0.10307379 11 8
3.7067516 3.687396 -1.2070872 5 1
4.2110868 4.1890979 0.31129435 1 9
4.1763058 4.1530447 -1.1448542 2 2
4.2248869 4.1998925 0.52119106 1 10
4.2305918 4.2026248 0.73219091 1 11
4.207377 4.1781096 -0.72804713 2 4
4.2302375 4.2008104 0.94423872 4 12
4.2009511 4.1702724 -0.51787955 1 5
4.2308202 4.1984525 1.1585925 2 13
4.2098422 4.1761813 -0.31077081 2 6
4.1940756 4.1590891 1.3636533 2 14
4.1915689 4.1566033 -0.10303869 1 7
4.1639376 4.1277575 1.5710318 2 15
3.3165231 3.2785375 -1.2495782 4 0
4.2123156 4.1640706 0.10338791 13 8
3.7189605 3.6750829 -1.2070872 5 1
4.2484198 4.1968303 0.31296915 1 9
4.1963644 4.14396 -1.1463807 1 2
4.2381048 4.1837187 0.52101672 18 10
4.2328434 4.178525 -0.94204831 1 3
4.2586327 4.2025161 0.7346282 2 11
4.2523007 4.1948028 -0.7334094 2 4
4.2476892 4.1887918 0.94486439 3 12
4.2239971 4.1639743 -0.51892543 1 5
4.219552 4.1595922 1.1517234 1 13
4.2549658 4.1930385 -0.31307358 2 6
4.1995163 4.1369514 1.3609538 3 14
4.2687454 4.2036819 -0.10457449 1 7
4.1714363 4.1064219 1.5684435 3 15
3.3246191 3.2648151 -1.2485429 4 0
4.2539372 4.1759591 0.10405111 1 8
3.726202 3.6566198 -1.2052876 5 1
4.2658935 4.1847725 0.31317845 2 9
1.6649725 1.6333112 -0.45336229 1 2
4.2869024 4.2024417 -0.95080858 1 3
4.2732759 4.1876264 0.73462826 1 11
4.2754254 4.1882701 -0.73487186 2 4
4.2566409 4.1684098 0.94361293 3 12
4.2662539 4.1778226 -0.5224117 1 5
4.2172098 4.1283584 1.147144 2 13
4.2695751 4.1781616 -0.31307358 2 6
4.2334347 4.1413441 1.3672525 1 14
4.2919703 4.197145 -0.10478392 1 7
4.1788392 4.0850835 1.5658556 3 15
3.3387628 3.255887 -1.2495784 4 0
4.2785106 4.1708565 0.10429545 1 8
3.7194045 3.6245487 -1.1989888 5 1
4.2890606 4.1782179 0.3138065 11 9
1.6130066 1.5713214 -0.43771595 4 2
4.2893205 4.1770158 0.52380639 45 10
4.2987137 4.1846981 -0.95018297 1 3
4.2793331 4.1643767 0.73316592 1 11
4.3298583 4.2120786 -0.74169719 2 4
4.2768288 4.1590352 0.94486439 1 12
4.2922378 4.1740189 -0.52380621 1 5
4.2287803 4.1108742 1.1463801 1 13
4.2955942 4.174367 -0.31391099 2 6
4.2087264 4.0885224 1.3546553 3 14
4.3266802 4.2016406 -0.10527258 1 7
4.1875281 4.0650897 1.563785 3 15
3.3584337 3.2522774 -1.2526842 4 0
4.3304009 4.1920571 0.10520297 1 8
3.7544394 3.6332269 -1.2061872 5 1
4.3021822 4.1618319 0.31370181 3 9
4.330337 4.1861434 -0.95393735 1 3
4.2824225 4.1383791 0.73121595 1 11
4.3388257 4.191421 -0.74072158 2 4
4.2600603 4.1138906 0.93798125 3 12
4.3368797 4.1880746 -0.52746677 1 5
4.2318039 4.0851803 1.1433271 1 13
4.3503799 4.1981812 -0.31684181 2 6
4.2089481 4.0602756 1.3501562 3 14
4.3413196 4.1865129 -0.10527258 3 7
4.1919556 4.0410628 1.5601614 3 15
3.344702 3.2164295 -1.2433665 4 0
4.3507752 4.1824584 0.10534259 1 8
3.7558575 3.609298 -1.2025881 5 1
4.3181257 4.1481724 0.3138065 2 9
1.6225214 1.5586621 -0.4373343 26 2
4.2996974 4.1290269 0.52153969 1 10
4.3648725 4.1901546 -0.9583174 1 3
4.2882495 4.1151567 0.72975349 2 11
4.3706212 4.192739 -0.7436471 2 4
4.2601347 4.0853262 0.93485266 3 12
4.3888583 4.2087674 -0.53199881 1 5
4.229032 4.0540791 1.1387483 2 13
4.3765445 4.1940236 -0.31767914 4 6
4.2202783 4.0428653 1.3492564 3 14
4.4136786 4.2266545 -0.10666877 1 7
4.189291 4.0103736 1.5539496 3 15
3.3559079 3.2047355 -1.2433665 4 0
4.3393116 4.1423922 0.1047143 1 8
3.7740736 3.6015463 -1.2043877 5 1
4.3231869 4.1255574 0.31317845 1 9
1.6293731 1.5543437 -0.43771595 4 2
4.3140831 4.1139932 0.52154034 1 10
4.3794732 4.1748924 -0.9583174 1 3
4.2795959 4.0782514 0.72585368 1 11
4.3996024 4.1911507 -0.7460838 2 4
4.2908225 4.0875249 0.93860698 1 12
4.4179525 4.2071605 -0.53374195 2 5
4.2659101 4.0609503 1.1448536 1 13
4.3940501 4.1814756 -0.31788844 2 6
4.2117758 4.006618 1.3420581 3 14
4.3784094 4.1651354 -0.10548203 1 7
4.1913686 3.9858081 1.5498086 3 15
3.378288 3.2036371 -1.2475077 4 0
4.347219 4.1224766 0.10457468 1 8
3.766197 3.570241 -1.1980891 5 1
4.3172641 4.0912094 0.31171304 2 9
4.2558641 4.0316148 -1.1395116 2 2
4.3284187 4.0989084 0.52154034 1 10
4.4334559 4.1983762 -0.96707785 1 3
4.272913 4.0449319 0.72244138 2 11
4.4307775 4.1929121 -0.74900872 2 4
4.2648859 4.0345116 0.9298467 3 12
4.4210305 4.1807604 -0.53234738 2 5
4.2365589 4.0063143 1.1334057 1 13
4.3933773 4.153162 -0.31684175 2 6
4.0097513 3.7891822 1.2736729 2 14
4.384201 4.1415854 -0.10527258 1 7
4.2024441 3.9685035 1.5487733 3 15
3.3860819 3.1897671 -1.2464725 4 0
4.3528495 4.0990505 0.10436526 1 8
3.781472 3.559746 -1.1989888 2 1
4.3169756 4.0624256 0.31066632 2 9
4.2692118 4.017478 -1.1395116 3 2
4.3187666 4.0626907 0.51875132 1 10
4.4739833 4.2072363 -0.97270948 2 3
4.2841129 4.0272741 0.72195393 2 11
4.4424944 4.1747003 -0.74852121 2 4
4.2530246 3.9952574 0.92421502 3 12
4.4406767 4.1715364 -0.5330447 2 5
4.0329828 3.7872236 1.0753992 1 13
4.4486227 4.176075 -0.3197726 2 6
3.9533231 3.7098198 1.2516277 5 14
4.4277983 4.1536198 -0.10597068 1 7
4.2035894 3.941916 1.5441146 3 15
3.3915529 3.172648 -1.2444019 4 0
4.3729725 4.0892954 0.10450487 1 8
1.7154299 1.6035877 -0.5421319 1 1
4.3165374 4.0336943 0.30961958 1 9
4.2717347 3.9918268 -1.1364585 3 2
4.3533049 4.0666332 0.52119106 1 10
4.4828682 4.1861997 -0.9714579 1 3
4.2836347 3.9987481 0.71951652 2 11
4.4425263 4.1456251 -0.7460838 2 4
4.2727232 3.9857757 0.92546642 3 12
4.4639535 4.1641631 -0.53409058 1 5
3.9815664 3.7128696 1.0582263 5 13
4.3959689 4.0978756 -0.31495768 2 6
4.4247131 4.1217813 -0.10555183 1 7
4.2187366 3.9285359 1.5446322 3 15
3.3912818 3.1502736 -1.2402608 4 0
4.3696375 4.0576754 0.10408602 1 8
1.6895965 1.5684221 -0.53223413 12 1
4.3247328 4.0131707 0.30920091 2 9
4.2712488 3.9635398 -1.1326424 3 2
4.3265758 4.0134721 0.51631039 1 10
4.4887638 4.1624665 -0.96958077 2 3
4.3062987 3.9918714 0.72097892 1 11
4.4482341 4.1219954 -0.74462205 2 4
4.2721195 3.9574118 0.92233777 3 12
4.4346137 4.1079359 -0.52886122 2 5
4.0333934 3.7349672 1.0685301 1 13
4.386796 4.0607963 -0.31328294 2 6
4.043489 3.7416914 1.2718732 1 14
4.365675 4.0384164 -0.10380659 1 7
4.208313 3.8914878 1.5358324 2 15
3.3937387 3.1305566 -1.2371551 4 0
4.372015 4.0315523 0.10380678 1 8
1.6936277 1.5611942 -0.53178418 23 1
4.3269658 3.987222 0.30836356 2 9
4.285059 3.9486046 -1.1326423 3 2
4.3024588 3.9632463 0.51177818 1 10
4.4829206 4.1280394 -0.96520054 2 3
4.3026819 3.9606807 0.71805412 2 11
4.4538317 4.0983768 -0.74315959 2 4
4.2742753 3.9317772 0.91983473 3 12
4.4225311 4.0681529 -0.52572364 2 5
4.1013227 3.7713618 1.0830315 1 13
4.427413 4.0697875 -0.31516704 2 6
4.0938325 3.7618377 1.2835708 1 14
4.4239249 4.0637369 -0.10485373 1 7
4.2019515 3.8584809 1.5285856 2 15
3.4188907 3.131741 -1.2423315 4 0
4.3831091 4.0135689 0.10373697 1 8
1.7019424 1.5579041 -0.53268403 16 1
4.3445849 3.9768951 0.30867755 3 9
4.2930217 3.9283233 -1.1311159 3 2
4.3397865 3.9697235 0.51456726 1 10
4.4973044 4.1123643 -0.96520054 1 3
4.2901087 3.9215283 0.71366674 2 11
4.476903 4.0908413 -0.74462146 2 4
4.2814589 3.9122508 0.91858339 3 12
4.4661269 4.0795636 -0.52920985 1 5
4.1115632 3.7543728 1.0822688 1 13
4.4091382 4.0246859 -0.31286424 2 6
4.0954232 3.737015 1.2799715 1 14
4.401926 4.0166941 -0.10401601 1 7
4.2190042 3.8484313 1.5301383 3 15
3.4269443 3.1171868 -1.2412962 4 0
4.3786445 3.9828637 0.10331812 1 8
4.3170571 3.9240909 0.30574673 9 9
4.312521 3.9185936 -1.1326424 3 2
4.3270702 3.9304352 0.5114302 1 10
4.4816718 4.0708656 -0.95894319 2 3
4.281044 3.8872647 0.71001071 15 11
4.4610462 4.0492897 -0.73974663 2 4
4.2892361 3.8919725 0.91733181 3 12
4.433115 4.0211153 -0.52363181 2 5
4.1501646 3.7644613 1.089138 1 13
4.3958273 3.9858944 -0.31098014 2 6
4.1251187 3.7391195 1.2853703 2 14
4.3922114 3.9798193 -0.10345754 1 7
4.2266841 3.8284948 1.5280678 3 15
3.4286611 3.0980349 -1.2381903 4 0
4.3717456 3.9487886 0.10282945 1 8
3.8314433 3.459549 -1.1917903 5 1
4.3255982 3.9057393 0.30543271 12 9
4.3167491 3.8963776 -1.1303527 3 2
4.4899869 4.0499058 -0.95769173 2 3
4.2990108 3.8762836 0.71074194 25 11
4.4869499 4.0443234 -0.74169713 2 4
4.2845125 3.8618562 0.91357744 1 12
4.431623 3.9930561 -0.52188873 2 5
4.1661983 3.7525783 1.0899012 1 13
4.4186201 3.9785426 -0.31160817 2 6
4.1410413 3.7273057 1.28627 3 14
4.399437 3.9598844 -0.10331793 1 7
4.2149434 3.7924891 1.5192679 1 15
3.4279528 3.0757258 -1.2340492 4 0
4.3967228 3.9449542 0.10310868 1 8
3.8341918 3.4390161 -1.1890911 5 1
4.3302846 3.8826151 0.30480471 16 9
4.3215504 3.8734238 -1.128063 3 2
4.3166265 3.8676524 0.50707173 24 10
4.5004501 4.0323563 -0.95706594 1 3
4.3133192 3.863332 0.71098566 38 11
4.4796314 4.0108848 -0.73828483 2 4
4.280303 3.8310688 0.909823 3 12
4.4692922 3.9988177 -0.52467769 1 5
4.1961761 3.7544518 1.0944806 1 13
4.40797 3.9425652 -0.30993342 2 6
4.1824346 3.7395291 1.2952679 3 14
4.4013057 3.933841 -0.10303869 1 7
4.219512 3.7700312 1.5161622 3 15
4.3879428 3.9067657 0.1025502 1 8
3.8561018 3.4320431 -1.1917905 5 1
4.3362093 3.8579936 0.30417669 18 9
4.3386531 3.860168 -1.1288261 3 2
4.3143978 3.8372393 0.50515437 24 10
4.4952321 3.9966714 -0.95268583 2 3
4.299931 3.8216844 0.70635462 27 11
4.4682889 3.9699218 -0.73389691 2 4
4.2979355 3.81723 0.91044885 3 12
4.4451861 3.9480116 -0.5201456 2 5
4.2957134 3.8139119 1.1166147 1 13
4.426064 3.928262 -0.31014279 2 6
4.2259159 3.7493095 1.3042661 3 14
4.4103947 3.9116037 -0.10289907 1 7
4.2252851 3.7461109 1.5130564 3 15
1.7683492 1.5639547 -0.63255382 6 0
4.3745852 3.8675849 0.10192192 1 8
3.847616 3.4004939 -1.1854918 5 1
4.3406663 3.834902 0.30354866 14 9
4.3432708 3.837203 -1.1265365 3 2
4.3217926 3.8168812 0.50445718 17 10
4.5002708 3.9731109 -0.95080858 2 3
4.2998486 3.7948306 0.70416093 30 11
4.5178447 3.9858201 -0.73974663 2 4
4.3230867 3.8126557 0.91295177 1 12
4.4439983 3.919291 -0.51840252 2 5
4.2883816 3.7807183 1.111272 1 13
4.4397488 3.9127891 -0.31014279 2 6
4.2521386 3.7461286 1.3083152 3 14
4.4270229 3.8988295 -0.10296888 1 7
4.2354341 3.7287872 1.5120211 3 15
1.792668 1.5743439 -0.63928306 30 0
4.4000826 3.862844 0.10220116 1 8
3.8594623 3.3870435 -1.1854919 5 1
4.3488569 3.8165336 0.30323464 3 9
4.3654947 3.8297863 -1.1288261 3 2
4.3231068 3.7912617 0.50306267 22 10
4.5051994 3.9495656 -0.94893134 1 3
4.3026175 3.7706404 0.70245475 28 11
4.5131207 3.955117 -0.73682171 2 4
4.3119335 3.7774706 0.90794587 3 12
4.4576511 3.9037554 -0.51840252 1 5
4.260191 3.7295182 1.1005859 2 13
4.4233212 3.8709598 -0.30804935 2 6
4.271872 3.7384231 1.3105649 1 14
4.4128375 3.8604259 -0.10234059 1 7
4.2361417 3.7045484 1.50788 3 15
1.787689 1.5595006 -0.63565958 25 0
4.4008102 3.8377187 0.10192192 1 8
3.87361 3.3767879 -1.1863916 5 1
4.3328838 3.7771556 0.30124584 3 9
4.3574505 3.79723 -1.1234835 3 2
4.3236365 3.7664363 0.50166816 24 10
4.5093327 3.9268212 -0.94705421 2 3
4.2986293 3.7420132 0.69977361 26 11
4.4633279 3.8853858 -0.72658467 2 4
4.2916517 3.7346234 0.90106273 3 12
4.470571 3.888953 -0.51840252 2 5
4.2725358 3.7153685 1.1005865 2 13
4.4270873 3.8484097 -0.3074213 2 6
4.2518883 3.6961114 1.300667 3 14
4.4225931 3.8431511 -0.10227078 1 7
4.2425699 3.6854117 1.5058093 1 15
4.3983989 3.8100102 0.10157289 1 8
3.8788948 3.3588204 -1.184592 5 1
4.3535933 3.7685432 0.30176923 12 9
4.3700175 3.7827601 -1.1234835 3 2
4.3240504 3.7416461 0.50027364 24 10
4.5163546 3.9066753 -0.94580269 2 3
4.3110142 3.7277391 0.69977367 25 11
4.497889 3.8879547 -0.72999769 2 4
4.337544 3.7480345 0.90794575 1 12
4.4464259 3.8407631 -0.51404476 2 5
4.2967181 3.7114475 1.1036395 1 13
4.46099 3.8519804 -0.30888671 2 6
4.2500119 3.6685138 1.296168 3 14
4.426899 3.8198504 -0.10206136 1 7
4.236393 3.6541753 1.4990802 3 15
3.4798956 2.9931848 -1.2299081 4 0
4.3995399 3.7842047 0.10129364 1 8
3.8965073 3.3503416 -1.1863917 5 1
4.3470316 3.7363975 0.30040845 6 9
4.3749175 3.7590423 -1.1211938 3 2
4.3226204 3.7127926 0.4985306 24 10
4.51266 3.8746531 -0.94204831 2 3
4.3134584 3.703615 0.69806755 20 11
4.4813042 3.8463757 -0.72512293 2 4
4.3146214 3.7019985 0.90043694 3 12
4.4719052 3.8355947 -0.51543921 1 5
4.3043303 3.6905642 1.1021124 1 13
4.4477816 3.8122098 -0.30700263 2 6
4.2634296 3.6529107 1.296168 3 14
4.4705772 3.830395 -0.10275945 1 7
4.2564569 3.6456518 1.5016685 2 15
3.4873855 2.9785094 -1.2288729 4 0
4.3860054 3.7446833 0.10066535 1 8
3.8909721 3.3208568 -1.1809927 5 1
4.3622165 3.7217376 0.30051318 3 9
4.3910003 3.746295 -1.1219571 3 2
4.3385849 3.7002673 0.49887913 24 10
4.5021052 3.8383727 -0.93704236 2 3
4.4832859 3.8196223 -0.72317302 2 4
4.2980828 3.6605442 0.89417958 3 12
4.4737959 3.808847 -0.51404476 2 5
4.2842999 3.6475163 1.0937169 2 13
4.448894 3.7863035 -0.30616522 2 6
4.2939653 3.6531606 1.3015668 2 14
4.4267001 3.7647557 -0.10143308 1 7
3.4982781 2.9657083 -1.2288729 4 0
4.3990507 3.7293494 0.10066535 1 8
3.8965948 3.3022139 -1.1791931 5 1
4.3706074 3.702615 0.30019912 2 9
4.4017043 3.7276397 -1.1211938 3 2
4.5161428 3.821847 -0.93704247 2 3
4.3216648 3.6572673 0.69514263 2 11
4.4874964 3.7962606 -0.72170991 2 4
4.3168688 3.6506202 0.89543104 3 12
4.4779339 3.7854908 -0.51299888 2 5
4.3246307 3.6545999 1.1005859 1 13
4.4596901 3.7673965 -0.30595592 2 6
4.4306493 3.7415383 -0.10122364 1 7
3.517478 2.9609427 -1.2319788 4 0
4.4096308 3.7106245 0.10059553 1 8
3.9146359 3.2929285 -1.1809927 5 1
4.3590522 3.6667645 0.29852438 2 9
4.4041724 3.7034066 -1.1185226 3 2
4.3619027 3.6665628 0.4985306 1 10
4.5203829 3.7984335 -0.93516523 2 3
4.3380814 3.6439557 0.69563013 2 11
4.5074615 3.784893 -0.72268558 2 4
4.3447123 3.6482332 0.89855969 3 12
4.4758606 3.7570255 -0.51125568 2 5
4.4575105 3.738971 -0.3049092 2 6
4.4681988 3.746608 -0.10178213 1 7
4.2728214 3.5815127 1.4939036 9 15
3.5040751 2.9288242 -1.2236965 4 0
4.4065681 3.6831582 0.1002465 1 8
3.9195518 3.2749319 -1.1791931 5 1
4.3656945 3.6464036 0.29810572 2 9
4.415565 3.6867535 -1.1181409 3 2
4.3425517 3.6245048 0.49486998 12 10
4.5208206 3.7732966 -0.93266213 2 3
4.3623362 3.6397228 0.69758004 5 11
4.4986453 3.752125 -0.71927255 2 4
4.470583 3.7260706 -0.50916398 2 5
4.4484019 3.7062712 -0.30344376 2 6
4.2780786 3.5630987 1.2853705 9 14
4.4228525 3.6823666 -0.10045574 1 7
3.5137689 2.9171872 -1.2236965 4 0
4.4286318 3.6754153 0.10045592 1 8
3.9339597 3.2637174 -1.1800929 5 1
4.3707089 3.6247687 0.29758236 3 9
4.4202113 3.665823 -1.1162328 3 2
4.3744884 3.6266146 0.49713606 26 10
4.5187559 3.7448874 -0.92953354 2 3
4.4147582 3.6574008 0.70391715 1 11
4.5208893 3.7439945 -0.72073567 2 4
4.4706364 3.7010624 -0.50776953 2 5
4.3166599 3.5723217 1.089138 8 13
4.4643903 3.6932654 -0.30365309 2 6
4.2754731 3.535723 1.2808713 15 14
4.4233484 3.6567137 -0.10017651 1 7
4.2902746 3.5454431 1.4913155 31 15
3.5149858 2.8975317 -1.2205906 4 0
4.4105678 3.6345005 0.099757828 5 8
3.9272785 3.2350984 -1.1746942 5 1
4.4095449 3.631074 0.2993618 2 9
4.4344959 3.6516194 -1.1166145 3 2
4.528749 3.7265818 -0.92890775 2 3
4.5676646 3.7559273 -0.72609794 2 4
4.3567348 3.5812123 0.89324093 12 12
4.4712143 3.6753135 -0.50637501 2 5
4.3382063 3.5647097 1.0914278 22 13
4.4556499 3.6599112 -0.30218774 2 6
4.2968245 3.5281978 1.2835706 23 14
4.4391789 3.6437874 -0.10024632 1 7
4.292171 3.5218661 1.487692 30 15
3.5489972 2.9048228 -1.2288729 4 0
4.472754 3.6596029 0.10087477 1 8
3.9385478 3.2213688 -1.1746942 5 1
4.455574 3.6442487 0.30166453 1 9
4.4472146 3.6361191 -1.1166145 3 2
4.5264335 3.6982512 -0.9257791 2 3
4.3602347 3.5611959 0.69124281 7 11
4.5038624 3.6771889 -0.71391034 2 4
4.3670583 3.5654945 0.89292812 21 12
4.4747562 3.6521237 -0.50532913 2 5
4.3338876 3.5358956 1.0872294 16 13
4.4498239 3.6291883 -0.30093166 2 6
4.2985425 3.5045571 1.2804214 22 14
4.4636359 3.6391561 -0.10052556 1 7
4.3008308 3.5051734 1.4866568 37 15
3.5441239 2.8802319 -1.2236965 4 0
3.934083 3.1960037 -1.1701951 5 1
4.4507351 3.6131477 -1.1143247 3 2
4.3812847 3.5554953 0.49365044 7 10
4.5570798 3.6981564 -0.92953354 1 3
4.3797293 3.5529699 0.69246155 13 11
4.5283651 3.6722372 -0.7158609 2 4
4.3656678 3.539032 0.89011228 31 12
4.4812841 3.631465 -0.50463188 2 5
4.3410139 3.5177951 1.0860851 21 13
4.4866648 3.6345282 -0.3026064 2 6
4.301054 3.4829233 1.2777218 24 14
4.2995229 3.4792027 1.4819978 33 15
3.5416303 2.8587554 -1.2195553 4 0
3.9543149 3.1895938 -1.1728946 5 1
4.4000583 3.5478635 0.29622161 13 9
4.4504666 3.5885088 -1.1112717 3 2
4.3775387 3.528445 0.49190673 10 10
4.5484238 3.6648784 -0.92515337 2 3
4.3859224 3.5326777 0.6914866 17 11
4.5349722 3.6514263 -0.71488589 2 4
4.3672204 3.515105 0.88792229 30 12
4.5553856 3.6665559 -0.51160437 1 5
4.336442 3.4890816 1.0818866 16 13
4.3116646 3.4666708 1.277272 25 14
4.2965827 3.4520729 1.4768215 32 15
3.5455556 2.8415451 -1.2174847 4 0
4.4352903 3.5533381 0.09919934 11 8
3.9593413 3.1708968 -1.1710949 5 1
4.4124165 3.5324814 0.29622161 18 9
4.4568357 3.5680425 -1.1097451 2 2
4.3913832 3.5143888 0.49208099 14 10
4.5519342 3.6415732 -0.92327601 2 3
