# .PCD v0.7 - Point Cloud Data file format
VERSION 0.7
FIELDS x y z intensity ring
SIZE 4 4 4 4 2
TYPE F F F F U
COUNT 1 1 1 1 1
WIDTH 533
HEIGHT 1
VIEWPOINT 0 0 0 1 0 0 0
POINTS 533
DATA ascii
2.3379037 0.64308757 -0.21213716 7 5
2.3170593 0.62866282 -0.21004541 19 5
2.3230889 0.62160152 -0.21039402 32 5
2.3406565 0.61755419 -0.21178852 41 5
2.3331568 0.60687274 -0.21091697 37 5
2.3256111 0.59625012 -0.21004541 39 5
2.3218834 0.58666372 -0.20952247 33 5
2.3510776 0.57661021 -0.21178851 1 5
2.3724432 0.57307863 -0.21353163 1 5
2.3783062 0.56571531 -0.21388029 1 5
2.318151 0.55097914 -0.12487355 2 6
2.4177375 0.56707585 -0.30491698 1 4
2.3801687 0.55782586 -0.21388027 1 5
2.3181155 0.54242927 -0.12476888 10 6
2.4100311 0.55639952 -0.30369854 12 4
2.3976324 0.55309749 -0.21527475 1 5
2.3355653 0.53791982 -0.12560627 30 6
2.4216375 0.550183 -0.30491698 33 4
2.4189782 0.54913491 -0.21701787 1 5
2.3198979 0.52579117 -0.12466421 32 6
2.4312928 0.54345816 -0.30589193 40 4
2.3858798 0.53286994 -0.21388027 1 5
2.3158712 0.51638538 -0.12435021 49 6
2.4176645 0.53155833 -0.30394202 47 4
2.4032929 0.52795887 -0.21527475 1 5
2.3235123 0.50958127 -0.12466421 47 6
2.4117436 0.5214383 -0.30296734 41 4
2.3856468 0.51535898 -0.21353163 1 5
2.3155148 0.49936405 -0.12414086 37 6
2.4251997 0.51549226 -0.30442977 39 4
2.3952262 0.50868559 -0.21422887 1 5
2.3113823 0.490035 -0.12382683 38 6
2.4152374 0.50500882 -0.30296734 39 4
2.3930871 0.49950677 -0.21388027 2 5
2.3071294 0.48114356 -0.12351283 36 6
2.4247634 0.49817473 -0.30394202 40 4
2.3947308 0.49156761 -0.21388029 14 5
2.320534 0.47549438 -0.12414086 37 6
2.4303794 0.4904924 -0.3044298 39 4
2.3749475 0.47887287 -0.21196282 29 5
2.328054 0.46857303 -0.12445488 38 6
2.389873 0.4801476 -0.042548835 1 7
2.4340241 0.48239231 -0.30467325 34 4
2.400058 0.47522536 -0.21405457 37 5
2.3335941 0.46121755 -0.12466421 37 6
2.3189452 0.45748129 -0.041257367 4 7
2.4356933 0.47389242 -0.30467325 7 4
2.3958349 0.46570361 -0.21353163 38 5
2.3234253 0.45078701 -0.12403617 37 6
2.3323069 0.45166546 -0.041466791 29 7
2.3915751 0.45621824 -0.21300873 37 5
2.3308711 0.4437941 -0.12435021 38 6
2.4682095 0.46235898 -0.30832931 1 4
2.4029448 0.44969922 -0.21388027 26 5
2.3343694 0.43602237 -0.12445488 36 6
2.2980525 0.42840886 -0.0408036 55 7
2.5546999 0.47025746 -0.41142264 1 3
2.4619989 0.45230514 -0.30735439 1 4
2.3437357 0.42931002 -0.12487356 36 6
2.3073285 0.42222509 -0.040943217 65 7
2.5406935 0.45897558 -0.40891969 7 3
2.4517636 0.44202557 -0.30589193 1 4
2.4452438 0.43996894 -0.2173665 1 5
2.3490775 0.42224264 -0.1250829 36 6
2.3107567 0.41452202 -0.040978123 45 7
2.5344996 0.44872591 -0.4076682 25 3
2.4611104 0.4348467 -0.30686715 1 4
2.4545374 0.43324351 -0.21806374 1 5
2.3466032 0.41334781 -0.12487355 36 6
2.3023424 0.40472177 -0.0408036 14 7
2.5613532 0.44426414 -0.41173553 48 3
2.4821737 0.42963818 -0.30930457 1 4
2.4324758 0.42059872 -0.21597201 1 5
2.3460636 0.40481395 -0.12476888 33 6
2.5473084 0.4326748 -0.40923259 34 3
2.4875731 0.42163393 -0.30979177 1 4
2.4535735 0.41543195 -0.21771514 1 5
2.3533707 0.39761975 -0.12508291 11 6
2.3386335 0.3942914 -0.041396987 1 7
2.5507519 0.42410374 -0.40954542 38 3
2.4851129 0.41230005 -0.3093043 1 4
2.4432147 0.40490952 -0.21666922 1 5
2.3764193 0.39298862 -0.12623429 16 6
2.3281574 0.38417158 -0.041187551 1 7
2.3445461 0.38309404 0.041466866 1 8
2.5541658 0.41551629 -0.40985826 40 3
2.4982934 0.40553057 -0.3107667 1 4
2.4485469 0.39701825 -0.2170179 1 5
2.3797481 0.38500926 -0.12633894 36 6
2.3215878 0.37476826 -0.041047934 2 7
2.2965031 0.3670187 0.040594246 7 8
2.5497479 0.4056662 -0.40891963 39 3
2.5036144 0.39743033 -0.31125444 1 4
2.4361429 0.3862839 -0.21579768 5 5
2.3771322 0.37607643 -0.12612961 40 6
2.3426342 0.36977935 -0.041396983 2 7
2.2681341 0.35436925 0.040070672 20 8
2.5589566 0.39797705 -0.41017115 39 3
2.4971404 0.3874706 -0.31027925 2 4
2.4276326 0.37625143 -0.21492617 19 5
2.3626401 0.36533409 -0.12529224 37 6
2.3399577 0.36099041 -0.041327171 4 7
2.283195 0.34856176 0.04031501 39 8
2.5622833 0.38933951 -0.41048405 39 3
2.502403 0.37934592 -0.3107667 9 4
2.4387805 0.36926702 -0.21579768 32 5
2.3718007 0.35827735 -0.12571093 37 6
2.3021982 0.34324422 0.040629148 49 8
2.5773046 0.382422 -0.4126741 40 3
2.4637067 0.36424801 -0.21788946 41 5
2.3848917 0.35174498 -0.12633894 37 6
2.3661621 0.34813878 -0.041746031 69 7
2.2816153 0.3320387 0.040245201 46 8
2.5571184 0.37030941 -0.4092325 6 3
2.5089195 0.36243543 -0.31125444 42 4
2.4452431 0.35280114 -0.21614632 47 5
2.390059 0.34398764 -0.12654831 36 6
2.3436096 0.3364675 -0.041327171 43 7
2.2926595 0.3254782 0.040419724 48 8
2.5062382 0.35312212 -0.31076673 34 4
2.4405413 0.34343001 -0.21562341 40 5
2.3932226 0.33592075 -0.12665297 37 6
2.3645163 0.33146945 -0.04167622 48 7
2.2976878 0.31842205 0.040489532 47 8
2.5889332 0.35694212 -0.41392556 1 3
2.4515941 0.33626303 -0.21649495 41 5
2.3824513 0.32635576 -0.12602496 37 6
2.3597145 0.32240099 -0.041571502 48 7
2.3067122 0.31146941 0.040629148 47 8
2.6694858 0.35950637 -0.52357996 1 2
2.6332352 0.35368738 -0.4208087 1 3
2.4967787 0.33447185 -0.30930457 1 4
2.450721 0.32786655 -0.21632062 39 5
2.3914945 0.31909338 -0.12644362 37 6
2.3548791 0.3133724 -0.041466795 47 7
2.3216636 0.30524185 0.040873487 39 8
2.6278999 0.34457001 -0.5151844 4 2
2.6266189 0.34346959 -0.41955724 1 3
2.5569837 0.33345476 -0.31661642 1 4
2.4478993 0.31879583 -0.21597201 39 5
2.4044778 0.31228632 -0.12707166 36 6
2.3579421 0.30540666 -0.041501701 43 7
2.3456919 0.29965734 0.12393159 1 9
2.6238825 0.33379951 -0.41893148 1 3
2.5778251 0.32702726 -0.31905383 1 4
2.4588799 0.31150046 -0.21684356 33 5
2.4055533 0.30389288 -0.12707168 37 6
2.3569579 0.29733479 -0.041466795 12 7
2.2971725 0.2853148 0.12131478 5 9
2.6419313 0.3276653 -0.51747411 29 2
2.6171336 0.32412598 -0.41768003 1 3
2.555254 0.31555679 -0.31612894 1 4
2.394654 0.29445097 -0.12644365 36 6
2.3624032 0.28588152 0.041536678 1 8
2.2485828 0.27131253 0.11869799 12 9
2.6605453 0.32101968 -0.52090871 36 2
2.6143262 0.31451714 -0.41705427 1 3
2.5405722 0.30474335 -0.31417903 1 4
2.5183129 0.30162871 -0.22189863 1 5
2.4055829 0.28727379 -0.126967 32 6
2.4145749 0.28749397 -0.042444121 1 7
2.3554423 0.27670181 0.041397057 1 8
2.2435651 0.26276425 0.11838397 24 9
2.6441002 0.30967459 -0.51747406 37 2
2.6311047 0.30722165 -0.41955721 1 3
2.5771124 0.30000669 -0.31856632 1 4
2.5114338 0.29191548 -0.22120135 2 5
2.4085548 0.2791065 -0.12707166 7 6
2.4036448 0.27768615 -0.042234696 1 7
2.3444726 0.26711926 0.041187625 1 8
2.252362 0.25622633 0.11880267 32 9
2.6412635 0.30000052 -0.51671082 37 2
2.6400125 0.29892504 -0.4208087 1 3
2.5347471 0.28610998 -0.31320438 1 4
2.4906592 0.2806921 -0.21928394 9 5
2.421423 0.27203462 -0.1276997 3 6
2.3966033 0.26882157 -0.042095076 1 7
2.3572712 0.26066127 0.041397057 1 8
2.2770655 0.2509889 0.12005873 42 9
2.6501007 0.2916373 -0.51823735 37 2
2.6331351 0.28930637 -0.41955724 2 3
2.5652814 0.28094384 -0.31686044 3 4
2.4916239 0.27199811 -0.21928394 32 5
2.4381957 0.26573387 -0.12853706 17 6
2.4054792 0.26131859 -0.042234696 1 7
2.3661199 0.25328314 0.041536674 1 8
2.2779279 0.24303836 0.12005873 41 9
2.660814 0.28388953 -0.52014542 37 2
2.6419859 0.2809481 -0.4208087 7 3
2.5583508 0.27115127 -0.31588522 22 4
2.5163348 0.26580998 -0.22137569 41 5
2.427191 0.25596511 -0.12790903 27 6
2.418309 0.25417501 -0.042444121 1 7
2.3709674 0.24543457 0.041606482 1 8
2.2728019 0.23447101 0.11974471 43 9
2.6716008 0.27514148 -0.52205348 36 2
2.57113 0.26343384 -0.31734794 39 4
2.5093186 0.25621569 -0.2206784 47 5
2.4499702 0.24929067 -0.12906043 32 6
2.4152029 0.24532831 -0.042374317 1 7
2.367872 0.2363451 0.041536678 1 8
2.2775817 0.22693148 0.11995406 43 9
2.6647313 0.26503626 -0.52052706 32 2
2.6596544 0.26359382 -0.42331159 47 3
2.5542989 0.25225195 -0.31515428 33 4
2.506232 0.2470634 -0.22032979 41 5
2.4388995 0.23956624 -0.12843241 38 6
2.3881822 0.23416361 -0.041885644 2 7
2.3805854 0.22964421 0.04174611 1 8
2.282336 0.2193625 0.12016341 43 9
2.6773655 0.25685847 -0.52281672 16 2
2.6467495 0.25345382 -0.4211216 37 3
2.5610492 0.24434628 -0.31588548 39 4
2.4991457 0.23755872 -0.21963255 41 5
2.4396801 0.23147771 -0.12843239 34 6
2.4009297 0.22695434 -0.042095073 2 7
2.3594704 0.21929669 0.041362155 6 8
2.2910056 0.21253118 0.12058209 43 9
2.3569152 0.21781464 0.20708218 1 10
2.631882 0.24276374 -0.41861865 10 3
2.5737476 0.23649424 -0.31734794 40 4
2.5019038 0.22945361 -0.21980686 40 5
2.4444516 0.223323 -0.12864175 34 6
2.4116263 0.21990092 -0.042269599 22 7
2.3024244 0.2062953 0.040349912 29 8
2.2977018 0.20506483 0.12089611 42 9
2.2782788 0.20252986 0.20010972 2 10
2.5784726 0.22830752 -0.31783512 39 4
2.5066588 0.22106831 -0.22015549 39 5
2.4471679 0.21539012 -0.12874642 35 6
2.4183555 0.21200468 -0.042374313 36 7
2.3409846 0.20151727 0.041013103 39 8
2.2943895 0.19710173 0.12068677 42 9
2.2650418 0.19378527 0.19888929 12 10
2.6669333 0.22769891 -0.42393744 1 3
2.5733199 0.21880287 -0.31710422 39 4
2.5173044 0.21359627 -0.22102705 41 5
2.4459145 0.20668009 -0.12864174 34 6
2.4469419 0.20633565 -0.042862978 47 7
2.3715339 0.19622596 0.041536678 49 8
2.2930729 0.18892919 0.1205821 43 9
2.6912985 0.2207925 -0.42769182 1 3
2.5720527 0.21010587 -0.31686017 20 4
2.5279639 0.20561489 -0.2218986 40 5
2.4545493 0.19921361 -0.12906042 34 6
2.4157567 0.19521524 -0.042304508 32 7
2.3662562 0.18706028 0.04143196 46 8
2.2996914 0.18139425 0.12089609 42 9
2.2822299 0.17921539 0.20028377 59 10
2.723599 0.2133963 -0.43269771 1 3
2.5187337 0.19601817 -0.22102703 41 5
2.4592457 0.19052497 -0.12926978 34 6
2.3648696 0.17906195 0.041397057 47 8
2.3042941 0.17366531 0.12110545 41 9
2.2609866 0.16960777 0.19836634 40 10
2.6730759 0.20052062 -0.42456311 1 3
2.6308649 0.19643199 -0.32392859 1 4
2.519403 0.18722427 -0.22102705 39 5
2.4658394 0.18281111 -0.12958379 33 6
2.4409914 0.18011227 -0.042723361 1 7
2.3774471 0.17166939 0.041606482 38 8
2.3168099 0.16688339 0.12173349 39 9
2.2774351 0.16324921 0.19976084 47 10
2.6895225 0.19231504 -0.42706609 1 3
2.6315346 0.18724667 -0.32392859 1 4
2.5339217 0.17985536 -0.22224723 39 5
2.4764237 0.17490667 -0.13010713 5 6
2.4894497 0.17538884 -0.043561075 1 7
2.3054223 0.15797751 0.12110544 39 9
2.2760034 0.15516236 0.19958656 37 10
2.686204 0.18312703 -0.42644036 2 3
2.5984716 0.17623487 -0.31978533 4 4
2.5464611 0.1718145 -0.22329308 11 5
2.5088744 0.16883862 -0.13178189 1 6
2.4820654 0.16616422 -0.043421455 1 7
2.3099461 0.15018767 0.12131479 39 9
2.6966827 0.17438723 -0.42800465 30 3
2.5990713 0.167164 -0.31978506 22 4
2.5589468 0.1641349 -0.22433895 37 5
2.501476 0.15957074 -0.13136323 1 6
2.4786389 0.15724647 -0.043351647 1 7
2.4030399 0.14865999 0.042025346 1 8
2.3184304 0.14261456 0.12173349 39 9
2.2849612 0.14015439 0.20028377 1 10
2.7051618 0.16545469 -0.42925614 47 3
2.6253974 0.15965629 -0.32295361 33 4
2.5575156 0.15508026 -0.22416465 45 5
2.5020175 0.15083848 -0.13136321 1 6
2.483165 0.14883326 -0.043421455 1 7
2.3875735 0.13933937 0.041746106 1 8
2.3268893 0.13498288 0.12215216 38 9
2.2953818 0.13275319 0.20115533 1 10
2.6978343 0.1555566 -0.42800465 10 3
2.3464754 0.13488646 0.28858656 1 11
2.6497207 0.15185446 -0.3258788 40 4
2.5441425 0.14491288 -0.22294445 39 5
2.5105047 0.14255734 -0.13178189 2 6
2.4756835 0.13971315 -0.043281838 1 7
2.3960321 0.13144298 0.041885726 1 8
2.3413064 0.12762004 0.12288487 28 9
2.2839162 0.12369225 0.20010947 1 10
2.3033235 0.12434015 0.28322428 1 11
2.6165369 0.14079159 -0.32173494 39 4
2.5625391 0.13698785 -0.22451329 41 5
2.4850824 0.1319773 -0.13042116 5 6
2.4681683 0.13064708 -0.043142214 1 7
2.4164684 0.1236829 0.042234771 1 8
2.341738 0.11944708 0.12288488 9 9
2.3161714 0.11733245 0.20289844 1 10
2.2819555 0.11480059 0.28054318 7 11
2.6190176 0.1312993 -0.32197896 38 4
2.5669816 0.12824142 -0.22486192 41 5
2.5005655 0.12361099 -0.043700691 1 7
2.4088757 0.11528587 0.042095151 2 8
2.3221903 0.11032372 0.12183815 29 9
2.3324883 0.10999811 0.20429294 1 10
2.6214218 0.12270696 -0.32222271 38 4
2.579355 0.11983433 -0.22590779 41 5
2.5278213 0.116998 -0.13261928 36 6
2.4889963 0.1143304 -0.043491267 1 7
2.4032702 0.10661013 0.041990437 15 8
2.3484824 0.10376904 0.12319887 42 9
2.3169167 0.10156402 0.20289846 1 10
2.3084657 0.10038738 0.28371179 47 11
2.6297672 0.11389862 -0.32319736 38 4
2.5638139 0.11059382 -0.22451329 41 5
2.5122504 0.10749105 -0.13178189 42 6
2.4853661 0.10590621 -0.043421458 1 7
2.3448393 0.095408775 0.12298954 42 9
2.3053126 0.092993386 0.2018526 1 10
2.2750666 0.091376714 0.27956825 58 11
2.6340971 0.10533653 -0.32368484 37 4
2.5801108 0.10227562 -0.22590779 41 5
2.5225718 0.099553846 -0.13230526 39 6
2.5096982 0.09816844 -0.043840308 2 7
2.4139318 0.090624176 0.042164966 39 8
2.3571332 0.087667964 0.12361757 41 9
2.3215363 0.08593829 0.20324709 2 10
2.2654531 0.08307039 0.27834955 63 11
2.6423838 0.096430056 -0.32466009 36 4
2.5824268 0.093791947 -0.22608209 39 5
2.5169158 0.090531759 -0.13199124 38 6
2.4700575 0.087983035 -0.043142218 15 7
2.420229 0.082402073 0.042269677 47 8
2.3494406 0.079170913 0.12319889 42 9
2.3377523 0.078368604 0.20464157 2 10
2.2597768 0.074963927 0.27761832 56 11
2.6347685 0.086944491 -0.32368484 36 4
2.5907037 0.08503779 -0.22677933 39 5
2.5132241 0.081616409 -0.13178189 36 6
2.4903359 0.080001771 -0.043491263 7 7
2.4264979 0.074135959 0.042374391 45 8
2.3497026 0.070969865 0.1231989 42 9
2.3419948 0.070326835 0.20499021 2 10
2.2719305 0.06743028 0.27908078 55 11
2.6390245 0.077863298 -0.32417235 36 4
2.594981 0.075658508 -0.22712797 37 5
2.5374513 0.073536754 -0.13303797 15 6
2.4307401 0.06577415 0.042444199 45 8
2.3619149 0.063086763 0.12382691 42 9
2.280494 0.06011546 0.19958656 10 10
2.2761207 0.059602667 0.27956825 46 11
2.65714 0.069116019 -0.32636598 25 4
2.5773034 0.066139162 -0.22555913 9 5
2.5028281 0.062916726 -0.043700691 1 7
2.4269667 0.05677044 0.042374391 45 8
2.3621209 0.054842263 0.12382691 42 9
2.2822776 0.051394444 0.28029948 49 11
2.6573756 0.059375972 -0.32636598 31 4
2.5578799 0.055812985 -0.13408469 1 6
2.4930365 0.053963996 -0.043526169 1 7
2.4291408 0.048762638 0.042409293 43 8
2.3742793 0.046832293 0.12445495 39 9
2.3446026 0.045428235 0.20516451 42 10
2.2744963 0.043672785 0.2793245 49 11
2.6714506 0.050828341 -0.32807243 10 4
2.6035986 0.048628256 -0.22782516 1 5
2.5580511 0.047330957 -0.13408469 1 6
2.5291979 0.045914002 -0.04415445 1 7
2.433295 0.040349875 0.042479105 41 8
2.3624463 0.038350213 0.12382691 42 9
2.3467326 0.037685473 0.20533884 10 10
2.2845592 0.035888337 0.28054318 53 11
2.3188188 0.035616957 0.3673082 2 12
2.6475806 0.040204559 -0.23166005 2 5
2.534236 0.038042203 -0.13282861 1 6
2.5293431 0.037084498 -0.044154454 1 7
2.4454181 0.03201225 0.04268853 6 8
2.3745482 0.030255556 0.12445495 39 9
2.2846708 0.027914003 0.28054318 53 11
2.2972014 0.027266258 0.36386666 19 12
2.6317668 0.030776704 -0.23026557 12 5
2.5663128 0.029115388 -0.13450338 1 6
2.4934647 0.027853694 -0.043526169 1 7
2.380631 0.022021441 0.12476896 37 9
2.3509264 0.020927142 0.20568743 1 10
2.2986529 0.019659424 0.28224939 51 11
2.2893815 0.019180555 0.3626152 7 12
2.6218965 0.021507515 -0.22939399 32 5
2.5743876 0.020220395 -0.13492206 1 6
2.5295403 0.01942545 -0.044154454 1 7
2.4795766 0.015146895 0.04328192 1 8
2.3986685 0.013816528 0.12571102 13 9
2.3589547 0.01276324 0.20638466 1 10
2.294735 0.012016377 0.28176185 49 11
2.6219556 0.012357063 -0.22939399 31 5
2.5744405 0.011682594 -0.13492206 1 6
2.5375917 0.010630836 -0.044294074 1 7
2.4836135 0.0065012723 0.043351725 2 8
2.3709383 0.0049649747 0.20743054 1 10
2.2987335 0.0040125032 0.28224939 49 11
2.6319439 0.0036754627 -0.23026556 38 5
2.5784602 0.0026995444 -0.1351314 2 6
2.5376127 0.0022151181 -0.04429407 1 7
2.4576256 -0.0017157465 0.042897966 12 8
2.4206769 -0.0025349278 0.12686242 2 9
2.3948498 -0.0033438429 0.20952228 1 10
2.2987342 -0.0036108459 0.28224939 51 11
2.6359258 -0.0055206772 -0.23061417 39 5
2.5864441 -0.0058684656 -0.13555011 9 6
2.5496032 -0.0066748592 -0.044503499 1 7
2.4006805 -0.010894017 0.12581569 7 9
2.3788853 -0.011625516 0.20812784 1 10
2.3006907 -0.012046497 0.28249311 48 11
2.6418674 -0.014755125 -0.23113711 39 5
2.5475645 -0.015562377 -0.044468593 3 7
2.4675515 -0.018949807 0.043072481 32 8
2.3748448 -0.019895921 0.20777915 1 10
2.3085783 -0.019743701 0.28346807 48 11
2.635823 -0.023922624 -0.23061417 38 5
2.6003201 -0.024054281 -0.13628279 38 6
2.4694698 -0.027585389 0.043107387 42 8
2.4105318 -0.027768556 0.12633905 34 9
2.3787508 -0.02781768 0.20812781 1 10
2.3204045 -0.027945453 0.2849305 48 11
2.643692 -0.033223365 -0.23131141 37 5
2.5862405 -0.032952823 -0.1355501 14 6
2.5593913 -0.033504266 -0.044678029 42 7
2.4693584 -0.036205277 0.043107387 43 8
2.4243994 -0.036392558 0.12707175 39 9
2.3905854 -0.036719646 0.20917365 1 10
2.3202929 -0.036045004 0.2849305 45 11
2.6515286 -0.042579331 -0.23200867 36 5
2.5432632 -0.042172763 -0.044398785 42 7
2.4772067 -0.045402259 0.043247011 42 8
2.4062853 -0.044522528 0.12612969 41 9
2.3904426 -0.045064125 0.20917365 2 10
2.3122063 -0.044396631 0.28395554 43 11
2.6673 -0.052146193 -0.23340316 11 5
2.6178885 -0.052094355 -0.13722485 1 6
2.5411012 -0.051010016 -0.044363882 19 7
2.489038 -0.053876381 0.043456435 42 8
2.4141026 -0.053097438 0.12654839 41 9
2.3942544 -0.053497054 0.20952228 2 10
2.3180006 -0.052198015 0.2846868 12 11
2.6336751 -0.06114617 -0.13806222 1 6
2.4888346 -0.062564418 0.043456435 42 8
2.4258816 -0.061829228 0.1271764 42 9
2.3761382 -0.06097639 0.20795374 3 10
2.6454246 -0.070658989 -0.13869025 1 6
2.5526769 -0.069073401 -0.044573307 1 7
2.4925988 -0.071366154 0.043526247 42 8
2.4296443 -0.070412494 0.12738578 41 9
2.6691179 -0.080616377 -0.13994631 1 6
2.5923953 -0.079204842 -0.0452714 1 7
2.4883375 -0.079938084 0.043456439 42 8
2.4333758 -0.079022758 0.1275951 41 9
2.6568441 -0.089529261 -0.1393183 1 6
2.5961001 -0.088389583 -0.045341212 1 7
2.5000336 -0.089050621 0.043665864 41 8
2.4270971 -0.087300949 0.12728108 36 9
2.3912833 -0.08684855 0.20934798 39 10
2.656498 -0.099266477 -0.13931829 1 6
2.6037688 -0.0977512 -0.045480832 1 7
2.5036862 -0.09837012 0.043735668 19 8
2.4287736 -0.095851332 0.12738577 13 9
2.3969381 -0.095432959 0.2098709 40 10
2.6561353 -0.1085388 -0.1393183 1 6
2.5954199 -0.1065115 -0.045341212 1 7
2.5473001 -0.10854504 0.044503581 4 8
2.3866377 -0.10336819 0.20899935 38 10
2.6637416 -0.11769889 -0.13973695 1 6
2.5790508 -0.1148588 -0.045061976 1 7
2.4709985 -0.11393606 0.043177206 13 8
2.4779232 -0.11512218 0.13000257 1 9
2.3942425 -0.11165322 0.20969686 39 10
2.6752849 -0.12756714 -0.140365 2 6
2.6026022 -0.12501195 -0.045480829 4 7
2.4645936 -0.12226351 0.043072484 22 8
2.4814954 -0.12397033 0.1302119 2 9
2.4037879 -0.12050883 0.21056816 36 10
2.6329355 -0.13476093 -0.13816687 9 6
2.586174 -0.13327269 -0.045201592 25 7
2.5140738 -0.13351706 0.043945104 39 8
2.4690812 -0.13199192 0.12958388 2 9
2.6563807 -0.14525943 -0.13942295 30 6
2.6076567 -0.14350802 -0.045585547 40 7
2.5335572 -0.14342219 0.044294145 37 8
2.4626234 -0.14026909 0.12926985 5 9
2.657851 -0.15464704 -0.13952762 14 6
2.603147 -0.15237585 -0.045515735 39 7
2.5290489 -0.1520251 0.044224344 42 8
2.5906246 -0.16071868 -0.045306314 38 7
2.5364852 -0.16136001 0.044363957 41 8
2.4635773 -0.15758537 0.12937453 31 9
2.6040156 -0.17067622 -0.045550644 40 7
2.5319166 -0.1699452 0.044294152 41 8
2.4849324 -0.1676629 0.13052593 34 9
2.6053984 -0.1799026 -0.045585543 38 7
2.5432763 -0.17962752 0.044503581 41 8
2.4763629 -0.17577027 0.13010724 38 9
2.6067491 -0.18914077 -0.045620449 7 7
2.558588 -0.18968686 0.044782825 40 8
2.4737749 -0.18383323 0.13000259 37 9
2.5619318 -0.19847932 0.044852629 40 8
2.4850652 -0.19339694 0.1306306 37 9
2.6412828 -0.20972894 -0.046248734 1 7
2.5572376 -0.20709814 0.044782825 40 8
2.4963546 -0.20260607 0.13125864 25 9
2.6684735 -0.22079515 -0.046737403 1 7
2.5625143 -0.21608114 0.044887535 37 8
2.6756556 -0.23079592 -0.046877019 1 7
2.575649 -0.22669905 0.045131866 14 8
2.6429255 -0.23773471 -0.046318546 13 7
2.574842 -0.2356884 0.045131866 37 8
2.6639807 -0.24900594 -0.0467025 40 7
2.5819664 -0.2454318 0.045271486 42 8
2.6491625 -0.25695211 -0.046458162 10 7
2.581094 -0.25444296 0.045271486 41 8
2.5801902 -0.26345116 0.045271486 40 8
2.5911865 -0.27371645 0.045480914 41 8
2.602143 -0.28406182 0.04569035 40 8
2.5991993 -0.29246566 0.045655441 10 8
