# .PCD v0.7 - Point Cloud Data file format
VERSION 0.7
FIELDS x y z intensity ring
SIZE 4 4 4 4 2
TYPE F F F F U
COUNT 1 1 1 1 1
WIDTH 1245
HEIGHT 1
VIEWPOINT 0 0 0 1 0 0 0
POINTS 1245
DATA ascii
-1.2112468 -3.480185 0.19311976 69 9
-1.2203095 -3.5062239 -0.72163981 3 2
-1.2088995 -3.471489 0.32160449 66 10
-1.2420752 -3.5647528 -0.59789252 1 3
-1.2096016 -3.4696 0.45116025 54 11
-1.2179039 -3.4895 0.58537793 70 12
-1.2175094 -3.4864089 0.71782327 63 13
-1.2155026 -3.4767685 0.85031497 48 14
-1.2274414 -3.5089464 -0.064887851 70 7
-1.2202133 -3.4863307 0.98972416 54 15
-1.2309616 -3.5013542 0.064783253 69 8
-1.2486894 -3.5497992 -0.86876082 2 1
-1.2286931 -3.4910069 0.19395712 64 9
-1.232542 -3.5019424 -0.72163981 3 2
-1.2236581 -3.4747648 0.32230175 64 10
-1.2518859 -3.5529425 -0.59664106 1 3
-1.2269849 -3.4803336 0.45311016 51 11
-1.2359948 -3.501992 0.58819371 63 12
-1.2296711 -3.4821379 0.71782327 61 13
-0.59219193 -1.6760161 -0.093157969 1 6
-1.2315296 -3.4835277 0.85301435 48 14
-1.2410154 -3.5084109 -0.064957656 61 7
-1.2330194 -3.4838717 0.99024183 52 15
-1.2431754 -3.4970365 0.064783253 66 8
-1.2610722 -3.5454192 -0.86876082 2 1
-1.2435495 -3.4942238 0.19437581 66 9
-1.2473907 -3.5050173 -0.72316623 1 2
-1.2397894 -3.4817343 0.32334763 69 10
-1.2616278 -3.5411081 -0.5953896 1 3
-1.2377923 -3.4722903 0.45262271 51 11
-1.2508665 -3.5050979 0.58944517 60 12
-1.2984709 -3.6384916 -0.33799008 1 5
-1.2418178 -3.4778247 0.71782327 63 13
-0.57787979 -1.617514 -0.090017818 1 6
-1.2476169 -3.4902182 0.85571378 46 14
-1.2586411 -3.5191212 -0.065236896 61 7
-1.2464738 -3.4831843 0.99127704 52 15
-1.2567286 -3.4964392 0.064853065 69 8
-1.2734412 -3.5409954 -0.86876082 2 1
-1.2543876 -3.4861028 0.19416648 64 9
-1.2649367 -3.5154202 -0.72621918 1 2
-1.2559855 -3.4886322 0.32439348 66 10
-1.286032 -3.5701346 -0.60102117 1 3
-1.2539445 -3.4791532 0.45408511 50 11
-1.2644359 -3.5044267 0.59007096 60 12
-1.282764 -3.5552235 -0.33066902 1 5
-1.2579507 -3.4845476 0.72011334 61 13
-1.2878215 -3.5653422 -0.19866724 1 6
-1.2597934 -3.485842 0.85571384 47 14
-1.2736385 -3.522228 -0.06537652 63 7
-1.2632265 -3.4915283 0.99490058 54 15
-1.2757546 -3.5108259 0.06520211 64 8
-1.2804662 -3.5218771 -0.8651616 2 1
-1.265865 -3.479826 0.19406179 61 9
-1.2771993 -3.5109835 -0.72621918 1 2
-1.2695175 -3.4879718 0.32474211 66 10
-1.2944299 -3.5544875 -0.59914398 1 3
-1.2701583 -3.4859457 0.45554754 51 11
-1.2780141 -3.5037031 0.59069669 63 12
-1.2924346 -3.5432374 -0.32997176 1 5
-1.2741442 -3.4912012 0.72240311 61 13
-1.287927 -3.5270555 -0.19678314 1 6
-1.2746278 -3.4887452 0.85751349 47 14
-1.2845517 -3.5140045 -0.065306701 63 7
-1.2787237 -3.4961693 0.9974888 49 15
-1.293517 -3.5213678 0.065481342 64 8
-1.298131 -3.5320187 -0.86876082 2 1
-1.2862754 -3.4978812 0.19531786 61 9
-1.2962223 -3.5249305 -0.73003536 1 2
-1.283062 -3.4872584 0.32509074 64 10
-1.3068303 -3.549947 -0.59914398 3 3
-1.2878087 -3.4963927 0.45749748 51 11
-1.2909206 -3.5010738 0.5910095 57 12
-1.3020384 -3.5312259 -0.32927448 2 5
-1.2917601 -3.5014675 0.72545564 58 13
-1.3057648 -3.5375273 -0.19762051 1 6
-1.2894994 -3.4915862 0.85931301 47 14
-1.2995836 -3.5170021 -0.065446325 63 7
-1.2889111 -3.4862483 0.99593592 48 15
-1.3037138 -3.5112069 0.065376632 61 8
-1.3104514 -3.5274661 -0.86876082 2 1
-1.300566 -3.4989858 0.19563188 64 9
-1.3085196 -3.5203838 -0.73003536 1 2
-1.2980042 -3.4902284 0.32578796 64 10
-1.320591 -3.5490665 -0.59976971 3 3
-1.3027751 -3.4993179 0.45847243 51 11
-1.3072723 -3.5076528 0.59288681 57 12
-1.3213141 -3.5453296 -0.33101761 2 5
-1.3026019 -3.493258 0.72469234 61 13
-1.3222932 -3.5441756 -0.19824854 3 6
-1.3030418 -3.4907153 0.8602128 46 14
-1.3160495 -3.5236843 -0.06565576 61 7
-1.3037766 -3.4889665 0.9980064 54 15
-1.3131511 -3.499146 0.065237015 57 8
-1.3296059 -3.5411143 -0.87325984 2 1
-1.3176876 -3.5075123 0.19636457 60 9
-1.3249418 -3.5268219 -0.73232508 1 2
-1.3129827 -3.4931364 0.32648522 66 10
-1.3371446 -3.5555284 -0.6016469 1 3
-1.3093886 -3.4798861 0.45652252 50 11
-0.57281727 -1.5215374 -0.19962193 1 4
-1.3209019 -3.5067649 0.59351248 57 12
-1.3336825 -3.5406954 -0.33101761 2 5
-1.3196336 -3.50155 0.72736371 60 13
-1.3304279 -3.5283263 -0.19762053 3 6
-1.3193468 -3.4970851 0.86291224 46 14
-1.3297545 -3.5228102 -0.065725565 60 7
-1.3186786 -3.4916229 1.000077 54 15
-1.3324497 -3.5132382 0.06558606 58 8
-1.3530216 -3.5656028 -0.8804583 2 1
-1.3249619 -3.489821 0.19563189 58 9
-1.3400332 -3.5295172 -0.73385161 1 2
-1.3294139 -3.4997065 0.32753107 66 10
-1.3467396 -3.5434537 -0.60039544 3 3
-1.3271732 -3.4901378 0.45847243 50 11
-0.5329482 -1.4007862 -0.18402264 1 4
-1.3394589 -3.5187485 0.59632838 55 12
-1.3517035 -3.550915 -0.33241209 2 5
-1.3318492 -3.496922 0.72736371 60 13
-1.3441594 -3.5273929 -0.19782987 5 6
-1.3301569 -3.4888172 0.86201251 48 14
-1.348457 -3.5349627 -0.066039704 58 7
-1.3356798 -3.4996328 1.0037004 52 15
-1.3482826 -3.5179019 0.065760583 60 8
-1.3598772 -3.5463023 -0.87685913 2 1
-1.3414273 -3.4963634 0.19625992 58 9
-1.3523445 -3.5248184 -0.73385161 1 2
-1.3444775 -3.502486 0.32822835 61 10
-1.3661821 -3.5571723 -0.60352415 3 3
-1.3450437 -3.500308 0.46042237 48 11
-0.54780746 -1.4248577 -0.18743497 1 4
-1.3488976 -3.5066764 0.59507686 55 12
-1.3640913 -3.5461748 -0.33241209 2 5
-1.348983 -3.5050778 0.73003501 58 13
-1.3629225 -3.5394542 -0.19877191 5 6
-1.3458308 -3.4932444 0.86426198 50 14
-1.3586297 -3.5246367 -0.065934986 60 7
-1.3513626 -3.5039618 1.0062885 54 15
-1.4177078 -3.6626496 -1.0523583 1 0
-1.3619994 -3.5169036 0.065830395 60 8
-1.3708404 -3.5378988 -0.87595969 2 1
-1.3565123 -3.4991078 0.19667859 61 9
-1.3717374 -3.5383806 -0.73766768 1 2
-1.3566962 -3.4977708 0.32822832 61 10
-1.3914555 -3.5855296 -0.60915583 1 3
-1.3586916 -3.4992921 0.46090981 49 11
-1.3639917 -3.5093114 0.59632838 55 12
-1.3735737 -3.5339642 -0.3317149 2 5
-1.3633455 -3.5058365 0.73117989 55 13
-1.3825123 -3.5532885 -0.19981864 5 6
-1.362964 -3.5012376 0.86741126 48 14
-1.3723772 -3.5235989 -0.066004798 61 7
-1.3635864 -3.4992228 1.0062886 54 15
-1.3749954 -3.5139904 0.065865301 58 8
-1.3860227 -3.5403514 -0.87775892 2 1
-1.3738166 -3.5073698 0.19741131 69 9
-1.3869437 -3.5408833 -0.73919415 1 2
-1.3725317 -3.5022893 0.32909992 58 10
-1.3909824 -3.5475476 -0.60352415 1 3
-1.3795969 -3.5167041 0.46383467 48 11
-0.52147734 -1.3286059 -0.17524804 1 4
-1.3791207 -3.5118842 0.59757984 53 12
-1.3975526 -3.5588202 -0.33450386 2 5
-1.3719841 -3.49192 0.72927219 58 13
-1.3963679 -3.5521588 -0.20002799 5 6
-1.3773164 -3.5018995 0.868761 48 14
-1.3890612 -3.5299523 -0.066214226 55 7
-1.3786227 -3.501632 1.0083591 56 15
-1.3874964 -3.5133731 0.065935105 58 8
-1.4014359 -3.5468533 -0.8804583 2 1
-1.3877666 -3.5104656 0.19782999 69 9
-1.3995055 -3.5401599 -0.73995745 1 2
-1.383527 -3.4979603 0.32909992 60 10
-1.4079365 -3.5578542 -0.60602713 1 3
-1.3877159 -3.5049689 0.46285969 50 11
-1.3974259 -3.5258975 0.60070848 53 12
-1.408727 -3.5544116 -0.33450386 1 5
-1.3858434 -3.4948921 0.73079824 52 13
-1.4067848 -3.5458972 -0.19992329 7 6
-1.3955017 -3.5156674 0.87326002 47 14
-1.4045736 -3.5367217 -0.066423662 60 7
-1.3931845 -3.5062602 1.0109473 58 15
-1.4079039 -3.5289395 0.066319063 60 8
-1.4138074 -3.54194 -0.8804583 2 1
-1.4007519 -3.5074551 0.19793467 68 9
-1.4220475 -3.5607789 -0.74530005 1 2
-1.4031222 -3.5116105 0.330843 58 10
-1.4232793 -3.5602548 -0.60727853 1 3
-1.4014159 -3.5037904 0.46334717 48 11
-1.4097244 -3.5209985 0.60070848 53 12
-1.4329739 -3.5790675 -0.33729285 1 5
-1.403874 -3.5046134 0.73385119 54 13
-1.422125 -3.5483809 -0.20034198 8 6
-1.4070393 -3.5089664 0.87281013 50 14
-1.4213771 -3.5429332 -0.06663309 61 7
-1.411891 -3.5175116 1.0156062 58 15
-1.4224553 -3.5295677 0.066423781 58 8
-1.4363641 -3.5622864 -0.8867569 2 1
-1.4129876 -3.5025439 0.19793467 66 9
-1.4197792 -3.5193789 -0.73766768 1 2
-1.4183534 -3.5140815 0.33154067 60 10
-1.4460529 -3.5809085 -0.61165875 1 3
-1.419588 -3.5136015 0.46529713 49 11
-1.422748 -3.5178871 0.60102141 53 12
-1.4574114 -3.6035957 -0.34008181 1 5
-1.421991 -3.5142508 0.73690414 52 13
-1.4412488 -3.5600564 -0.20128404 10 6
-1.4200118 -3.5058391 0.87326002 47 14
-1.4344876 -3.5398028 -0.066667989 58 7
-1.4248874 -3.5143511 1.0161237 54 15
-1.4400456 -3.5375452 0.066668108 60 8
-1.4385003 -3.5319834 -0.8804583 2 1
-1.4312338 -3.5123873 0.19877203 68 9
-1.4364998 -3.5253105 -0.73995739 1 2
-1.4276037 -3.5017297 0.33084303 60 10
-1.463021 -3.5868132 -0.61353594 3 3
-1.4363436 -3.5196526 0.46675953 46 11
-1.4849814 -3.6370213 -0.48235866 2 4
-1.4395003 -3.5238714 0.6028986 57 12
-1.466967 -3.5911093 -0.33938459 1 5
-1.4372196 -3.5165353 0.73843062 58 13
-1.4559338 -3.5605502 -0.20159803 14 6
-1.438881 -3.5170944 0.8773092 50 14
-1.4468343 -3.5347743 -0.066667989 58 7
-1.4378775 -3.5111442 1.0166414 52 15
-1.4508637 -3.5287983 0.066598296 60 8
-1.4656466 -3.5629854 -0.88945633 2 1
-1.4495659 -3.5221457 0.19960941 68 9
-1.4628655 -3.5526991 -0.74682653 1 2
-1.4428519 -3.5040944 0.33154023 60 10
-1.4725221 -3.574379 -0.61228448 1 3
-1.4508892 -3.5201235 0.46749076 42 11
-1.4855589 -3.6024535 -0.47845888 2 4
-1.454805 -3.5261297 0.60415006 53 12
-1.4801202 -3.5857081 -0.33938462 1 5
-1.4471004 -3.5039859 0.73690414 52 13
-1.4712615 -3.5607281 -0.20191206 18 6
-1.4563577 -3.524658 0.88045847 47 14
-1.4629848 -3.5389419 -0.066842504 60 7
-1.4516026 -3.5096736 1.0176766 52 15
-1.5061378 -3.6271815 -1.0523583 1 0
-1.4668572 -3.530843 0.066737913 63 8
-1.4786967 -3.5575891 -0.88945633 2 1
-1.4686015 -3.5315621 0.20044678 68 9
-1.4698446 -3.5328121 -0.74377358 1 2
-1.464105 -3.519017 0.33345768 63 10
-1.4810591 -3.5580153 -0.61040723 3 3
-1.4637823 -3.5147815 0.46749076 45 11
-1.4941722 -3.5859895 -0.47699687 2 4
-1.4730406 -3.5335364 0.60634011 55 12
-1.4947855 -3.5839372 -0.33973321 1 5
-1.4644706 -3.5095294 0.73919433 54 13
-1.4835337 -3.5534682 -0.20180738 16 6
-1.4722704 -3.5264893 0.88225806 48 14
-1.4797987 -3.5427825 -0.067017041 58 7
-1.4711598 -3.5203724 1.0223354 56 15
-1.5194212 -3.6216371 -1.0523583 1 0
-1.4836576 -3.534663 0.066912442 58 8
-1.4902163 -3.5485528 -0.88855654 2 1
-1.4785994 -3.5208902 0.20013277 69 9
-1.4958555 -3.5602403 -0.75064278 1 2
-1.4769922 -3.5136273 0.33345768 60 10
-1.5048103 -3.5780561 -0.6147874 1 3
-1.4805037 -3.5185423 0.46870947 49 11
-1.5036004 -3.5734336 -0.4760215 2 4
-1.489964 -3.5392973 0.60821736 55 12
-1.5181129 -3.604404 -0.34217355 1 5
-1.4805232 -3.5134418 0.7411024 55 13
-1.4967055 -3.5501082 -0.20191206 18 6
-1.4845721 -3.5213282 0.88225806 47 14
-1.4968187 -3.5486507 -0.067226462 57 7
-1.4841895 -3.5169954 1.0228529 52 15
-1.5008322 -3.5426123 0.067156784 63 8
-1.5080603 -3.5579445 -0.89215571 2 1
-1.4941651 -3.5251617 0.20065615 66 9
-1.4969236 -3.5299551 -0.74530005 1 2
-1.4964184 -3.5270512 0.33520079 64 10
-1.5166684 -3.573046 -0.61478746 1 3
-1.4929402 -3.51544 0.46895319 47 11
-1.5107872 -3.5574646 -0.47455904 2 4
-1.4993759 -3.5288823 0.6072787 56 12
-1.5331761 -3.6066842 -0.34287083 1 5
-1.4975457 -3.5211592 0.74377328 57 13
-1.5131613 -3.5561528 -0.20254011 24 6
-1.4977664 -3.5199723 0.88315785 48 14
-1.5117121 -3.5510263 -0.067366078 58 7
-1.5049292 -3.5333822 1.0290647 56 15
-1.5157155 -3.5449703 0.067296393 64 8
-1.5213827 -3.5565076 -0.8930555 2 1
-1.508032 -3.5235972 0.20086548 66 9
-1.5225248 -3.5574605 -0.75216919 1 2
-1.5041845 -3.5129123 0.33432922 58 10
-1.5323973 -3.5770757 -0.61635178 1 3
-1.5108452 -3.5250669 0.4709031 45 11
-1.5325831 -3.5740626 -0.4774839 2 4
-1.5163573 -3.5345199 0.60915601 56 12
-1.5325587 -3.5722842 -0.34008181 1 5
-1.5115365 -3.5215864 0.74491817 60 13
-1.5288851 -3.5602913 -0.20306344 28 6
-1.5177361 -3.5326281 0.88765687 47 14
-1.5248872 -3.5475657 -0.067400984 55 7
-1.5142002 -3.521009 1.0269941 52 15
-1.5296667 -3.5433292 0.067366205 63 8
-1.550788 -3.590533 -0.90295327 2 1
-1.5282441 -3.5366459 0.20191219 66 9
-1.5396053 -3.5629377 -0.75445896 1 2
-1.5219729 -3.5204411 0.33554938 61 10
-1.5495805 -3.5825827 -0.61822897 1 3
-1.5286584 -3.5325243 0.47260925 49 11
-1.5560921 -3.5941942 -0.48089623 2 4
-1.5333976 -3.5400803 0.61103314 56 12
-1.5576906 -3.5961647 -0.34287083 1 5
-1.5230402 -3.514487 0.74453652 57 13
-1.5452771 -3.5640948 -0.20358683 34 6
-1.5316099 -3.5308836 0.88855666 47 14
-1.5420388 -3.5532272 -0.067610413 54 7
-1.5295601 -3.5227897 1.0290647 56 15
-1.5436233 -3.5416355 0.067436025 63 8
-1.5695428 -3.5993888 -0.90655255 2 1
-1.5437756 -3.5386119 0.20233089 66 9
-1.556744 -3.5683382 -0.75674868 1 2
-1.5390338 -3.5260639 0.3365953 64 10
-1.5683999 -3.5916345 -0.62073189 1 3
-1.5393914 -3.5235283 0.47212178 42 11
-1.5829389 -3.6214817 -0.48528352 2 4
-1.5528679 -3.5509956 0.61384898 60 12
-1.5820403 -3.6159861 -0.34531119 1 5
-1.5408064 -3.52174 0.74720782 60 13
-1.5577078 -3.5586791 -0.20358682 32 6
-1.5501789 -3.5397968 0.89215589 45 14
-1.5600493 -3.5606444 -0.067854747 52 7
-1.5465004 -3.5280457 1.0321705 53 15
-1.5640293 -3.5545292 0.067785069 60 8
-1.5805262 -3.5903211 -0.9056527 2 1
-1.5545074 -3.5295463 0.20212154 63 9
-1.5634784 -3.5482361 -0.75369573 1 2
-1.5567701 -3.5313375 0.33764115 64 10
-1.5959014 -3.6183953 -0.62636358 1 3
-1.5564872 -3.5290315 0.4735842 49 11
-1.5875576 -3.5977724 -0.48284614 2 4
-1.5660523 -3.5473599 0.61416185 56 12
-1.5833825 -3.5849266 -0.34287083 1 5
-1.5584658 -3.5268428 0.74949753 60 13
-1.5707415 -3.5529456 -0.20358682 36 6
-1.5576253 -3.5216155 0.88900656 46 14
-1.5757051 -3.5624917 -0.067994364 54 7
-1.5634977 -3.5332248 1.0352763 53 15
-1.5786719 -3.5524273 0.067854874 63 8
-1.607926 -3.6165557 -0.91375089 2 1
-1.5684421 -3.5277483 0.20233089 66 9
-1.5870259 -3.5678694 -0.75903827 1 2
-1.573947 -3.5368037 0.33868703 63 10
-1.613344 -3.6236298 -0.62824076 1 3
-1.5742586 -3.5341825 0.47504666 41 11
-1.6023488 -3.5955563 -0.48333365 4 4
-1.5808369 -3.5472851 0.61510044 55 12
-1.6023782 -3.5939353 -0.34426531 1 5
-1.5747657 -3.5303466 0.75140566 58 13
-1.585575 -3.5529127 -0.2039008 38 6
-1.5762638 -3.5303929 0.89260578 43 14
-1.5881302 -3.5569704 -0.067994371 52 7
-1.5829117 -3.5436211 1.0399351 48 15
-1.5969877 -3.56177 0.068134107 60 8
-1.6135287 -3.5969799 -0.91015172 2 1
-1.5889236 -3.5404737 0.2033776 63 9
-1.596253 -3.5551441 -0.75751179 1 2
-1.5846496 -3.5276535 0.33833838 60 10
-1.6172564 -3.6002409 -0.62511206 1 3
-1.5924788 -3.5434282 0.47699654 42 11
-1.6215891 -3.6065178 -0.48552731 6 4
-1.5940211 -3.5435467 0.61541337 57 12
-1.6149129 -3.5883203 -0.34426531 1 5
-1.5880747 -3.5286863 0.75216883 54 13
-1.6104674 -3.5767746 -0.20557557 46 6
-1.5927656 -3.5358064 0.89530522 41 14
-1.6038225 -3.5586977 -0.068133987 54 7
-1.5936826 -3.5345519 1.0388998 51 15
-1.6069384 -3.5507081 0.068029396 57 8
-1.6469743 -3.6374819 -0.92184919 2 1
-1.6029216 -3.5385442 0.20358695 63 9
-1.6193759 -3.574868 -0.76285458 1 2
-1.6012746 -3.5332673 0.33938429 63 10
-1.6363404 -3.6089656 -0.62761503 1 3
-1.6023786 -3.5324237 0.47626531 41 11
-1.6333488 -3.5990272 -0.48528352 10 4
-1.6112797 -3.5487528 0.6172905 56 12
-1.6268042 -3.5829446 -0.34426531 2 5
-1.5987594 -3.5195458 0.75140566 54 13
-1.6270757 -3.5802224 -0.20609894 40 6
-1.609937 -3.5408695 0.89800465 40 14
-1.6228597 -3.5676391 -0.068413228 57 7
-1.6108131 -3.5395172 1.0420055 48 15
-1.6226455 -3.5523531 0.068169013 57 8
-1.6483209 -3.6068969 -0.91555059 2 1
-1.6210763 -3.5456426 0.20431966 60 9
-1.6334764 -3.5727644 -0.76361769 1 2
-1.6152549 -3.53128 0.33973289 61 10
-1.6620795 -3.6319726 -0.63262099 1 3
-1.6163514 -3.5304191 0.47675279 41 11
-1.6500344 -3.6023283 -0.48650223 14 4
-1.6261257 -3.5484951 0.61822915 55 12
-1.6459407 -3.5917349 -0.34565982 2 5
-1.6208527 -3.5353591 0.75598496 57 13
-1.6378968 -3.5708902 -0.20588958 50 6
-1.6271629 -3.5458555 0.90070403 40 14
-1.6394743 -3.5710394 -0.06858775 54 7
-1.6296084 -3.5479169 1.0461466 48 15
-1.6400596 -3.5575628 0.068378441 57 8
-1.6543711 -3.5869646 -0.9119513 2 1
-1.6334423 -3.539963 0.20431966 58 9
-1.6508723 -3.5777369 -0.76590741 1 2
-1.6359234 -3.5437095 0.34147602 61 10
-1.6764047 -3.6297345 -0.63324672 1 3
-1.6361581 -3.5409741 0.47894648 41 11
-1.659268 -3.5893388 -0.48552731 10 4
-1.6476244 -3.5625186 0.62167072 61 12
-1.6534508 -3.5751169 -0.34461391 2 5
-1.6364824 -3.5368066 0.7575115 63 13
-1.6520306 -3.5687759 -0.20609893 48 6
-1.6362554 -3.5330801 0.89890438 40 14
-1.6552931 -3.572552 -0.068727367 55 7
-1.6427966 -3.5439599 1.0466644 44 15
-1.6575285 -3.5626957 0.068587877 57 8
-1.6668829 -3.5811675 -0.9119513 2 1
-1.6491625 -3.541481 0.20473833 60 9
-1.6683246 -3.5826304 -0.76819712 1 2
-1.6533308 -3.5488136 0.34252188 60 10
-1.6890638 -3.6238608 -0.63324672 1 3
-1.6510262 -3.540638 0.47967768 40 11
-1.6751432 -3.5907211 -0.48650223 8 4
-1.6600492 -3.5567458 0.62167072 61 12
-1.6659195 -3.5693233 -0.34461391 2 5
-1.65214 -3.5381889 0.75903803 54 13
-1.668704 -3.5720358 -0.2066223 54 6
-1.6543531 -3.539705 0.90205365 41 14
-1.6660588 -3.5631294 -0.068657555 55 7
-1.6608865 -3.5504529 1.0502878 45 15
-1.673353 -3.5641284 0.068727486 55 8
-1.6926289 -3.6035497 -0.91914988 2 1
-1.6666106 -3.5465493 0.20536637 58 9
-1.6758095 -3.5661244 -0.76590741 1 2
-1.6657077 -3.5430214 0.34252188 60 10
-1.7134732 -3.6429691 -0.63762689 1 3
-1.6701365 -3.5492234 0.48162761 40 11
-1.6885135 -3.5866473 -0.48674595 4 4
-1.6741388 -3.5545034 0.62229645 57 12
-1.6874825 -3.5812175 -0.34635705 2 5
-1.6728482 -3.5501604 0.76285422 54 13
-1.6888286 -3.582448 -0.20756437 62 6
-1.672519 -3.5462468 0.90520304 40 14
-1.6818987 -3.5645266 -0.068797171 55 7
-1.6732707 -3.5446334 1.0502878 45 15
-1.6892095 -3.5654936 0.06886711 57 8
-1.7001899 -3.5870528 -0.91645032 2 1
-1.6858271 -3.5551467 0.20620376 55 9
-1.6888696 -3.559958 -0.76590741 1 2
-1.6795373 -3.5386915 0.34269616 57 10
-1.7268147 -3.6366639 -0.63762689 1 3
-1.6850704 -3.5487506 0.48235878 38 11
-1.7010221 -3.5807316 -0.48674595 4 4
-1.6933186 -3.5629113 0.62479937 57 12
-1.6999738 -3.5753047 -0.34635705 2 5
-1.6892232 -3.551096 0.76438063 52 13
-1.7070962 -3.587055 -0.20819239 70 6
-1.6913687 -3.5524094 0.90835232 40 14
-1.7012092 -3.5730777 -0.069076419 55 7
-1.6872942 -3.5422592 1.0513231 42 15
-1.7057167 -3.5664949 0.069006726 55 8
-1.7217361 -3.5983763 -0.92094934 2 1
-1.7040194 -3.5597532 0.20683178 56 9
-1.7148479 -3.5823743 -0.77201331 1 2
-1.6987634 -3.5471835 0.34409067 58 10
-1.7292552 -3.6092365 -0.63387239 1 3
-1.6980653 -3.5425513 0.48235881 40 11
-1.7158508 -3.5780537 -0.48723346 4 4
-1.7106376 -3.5655861 0.62636375 55 12
-1.7210612 -3.5873127 -0.34810016 2 5
-1.7016075 -3.5451779 0.76438099 52 13
-1.7187415 -3.5792739 -0.2080877 68 6
-1.7079771 -3.5552669 0.91060179 40 14
-1.719492 -3.5776315 -0.06928584 58 7
-1.7061273 -3.5482383 1.0549465 48 15
-1.7251092 -3.5749264 0.069285959 58 8
-1.7342871 -3.5923438 -0.92094934 2 1
-1.7164357 -3.5537827 0.20683177 55 9
-1.7410049 -3.6046519 -0.77811921 1 2
-1.7154702 -3.5502017 0.34496224 55 10
-1.7556002 -3.6316333 -0.63887829 1 3
-1.7147431 -3.545537 0.48357752 38 11
-1.7456226 -3.6077797 -0.4921082 2 4
-1.729099 -3.5720389 0.62855381 54 12
-1.73531 -3.5848696 -0.34844878 2 5
-1.7208188 -3.5533519 0.76743352 52 13
-1.7355802 -3.5822394 -0.20861107 70 6
-1.7220778 -3.5527899 0.91150165 40 14
-1.7354592 -3.5788057 -0.069425464 58 7
-1.7244043 -3.5544281 1.05857 53 15
-1.7428288 -3.5796707 0.069495395 60 8
-1.7553492 -3.6037886 -0.92544848 2 1
-1.7305794 -3.5513608 0.20704111 56 9
-1.741536 -3.5738451 -0.7727766 1 2
-1.7322167 -3.5531464 0.34583423 55 10
-1.7648019 -3.6183817 -0.63762689 1 3
-1.738425 -3.5627232 0.4867461 45 11
-1.7582048 -3.6016645 -0.4921082 2 4
-1.7406895 -3.5642068 0.62824088 54 12
-1.7495608 -3.5823715 -0.34879741 2 5
-1.7392442 -3.5596714 0.77010483 51 13
-1.7550902 -3.5905149 -0.20944846 70 6
-1.7344682 -3.5467577 0.91150165 39 14
-1.7496977 -3.5763183 -0.069495268 58 7
-1.7401974 -3.5553281 1.0606406 46 15
-1.758841 -3.580744 0.069635011 60 8
-1.7885463 -3.6396146 -0.93624622 2 1
-1.7517782 -3.5632217 0.20808783 55 9
-1.760931 -3.5818391 -0.77582961 1 2
-1.7446102 -3.5470777 0.34583378 54 10
-1.780911 -3.6192884 -0.63887829 1 3
-1.7517282 -3.5584133 0.48698983 42 11
-1.7707672 -3.595505 -0.4921082 2 4
-1.7574866 -3.5669682 0.62980527 52 12
-1.7620559 -3.576242 -0.34879741 2 5
-1.7568681 -3.5641439 0.77239454 48 13
-1.7711471 -3.5915313 -0.20986713 70 6
-1.7554611 -3.5581572 0.91600066 39 14
-1.7621717 -3.5701885 -0.069495268 56 7
-1.7508874 -3.5457671 1.0596052 56 15
-1.7713287 -3.5745833 0.069635011 58 8
-1.8012394 -3.6333494 -0.93624622 2 1
-1.7653582 -3.5609722 0.20829719 55 9
-1.7908682 -3.610846 -0.78346175 1 2
-1.7622938 -3.5516751 0.34687966 58 10
-1.7882632 -3.6024342 -0.63700116 1 3
-1.7747334 -3.5736125 0.48991469 43 11
-1.7745785 -3.5717356 0.63168252 52 12
-1.7833956 -3.5879107 -0.35054049 2 5
-1.7666754 -3.5527165 0.77124971 46 13
-1.7890098 -3.5960557 -0.21049514 70 6
-1.7707219 -3.5592957 0.91780025 38 14
-1.7820195 -3.5804377 -0.069809407 58 7
-1.769524 -3.5537767 1.0637465 56 15
-1.788535 -3.579423 0.069844432 58 8
-1.8132772 -3.6273568 -0.93624622 2 1
-1.7860867 -3.5729637 0.2093439 56 9
-1.8045897 -3.6083989 -0.78422505 1 2
-1.7794101 -3.5565033 0.34792551 60 10
-1.8214191 -3.6388793 -0.64450997 1 3
-1.7830198 -3.5606072 0.48893973 42 11
-1.7943772 -3.5817258 0.63449824 51 12
-1.8042105 -3.5997894 -0.3522836 2 5
-1.7828478 -3.5556126 0.77315819 48 13
-1.7991353 -3.5865333 -0.21028584 70 6
-1.788633 -3.5655971 0.92094964 36 14
-1.8001624 -3.5870187 -0.070053741 60 7
-1.784767 -3.5547941 1.0658169 53 15
-1.8039949 -3.5806153 0.069984064 60 8
-1.8481022 -3.6665678 -0.94794357 2 1
-1.7985488 -3.5667069 0.2093439 56 9
-1.8224796 -3.6125958 -0.78651482 1 2
-1.7965796 -3.5612557 0.34897143 58 10
-1.8352571 -3.6363456 -0.64513564 1 3
-1.7983955 -3.5617633 0.48991469 43 11
-1.8095409 -3.5807297 0.63543689 49 12
-1.8185638 -3.5970249 -0.35263219 4 5
-1.8023365 -3.5633836 0.77621073 48 13
-1.8152497 -3.5873594 -0.21070449 70 6
-1.8037069 -3.5645483 0.92229927 38 14
-1.8171878 -3.5896344 -0.070228264 58 7
-1.8050197 -3.5640543 1.0704757 58 15
-1.8243561 -3.5882401 0.070263304 61 8
-1.8791975 -3.694509 -0.9569416 2 1
-1.8134202 -3.5636513 0.20955324 58 9
-1.844614 -3.6233876 -0.79033095 1 2
-1.8150424 -3.5652997 0.35001722 60 10
-1.855744 -3.643677 -0.64763868 1 3
-1.8186486 -3.5692971 0.49186456 40 11
-1.822652 -3.574074 0.63543689 48 12
-1.8371693 -3.6009841 -0.35367811 4 5
-1.8216333 -3.5689938 0.77888203 48 13
-1.8356513 -3.5949125 -0.21154186 70 6
-1.8176448 -3.5596492 0.9227491 38 14
-1.8330623 -3.5882919 -0.070332982 58 7
-1.822467 -3.5660148 1.0730639 56 15
-1.8447988 -3.5957625 0.070542537 60 8
-1.8749297 -3.6529219 -0.94794357 2 1
-1.8337688 -3.5711942 0.21039061 58 9
-1.8572518 -3.6169262 -0.79033095 1 2
-1.8271884 -3.5568511 0.34984291 58 10
-1.8799222 -3.6579332 -0.65139306 1 3
-1.8353486 -3.5696697 0.49283957 42 11
-1.8402598 -3.5761518 0.63700128 48 12
-1.8479038 -3.5910063 -0.35332948 4 5
-1.8430655 -3.5800683 0.78269863 49 13
-1.8527622 -3.5973606 -0.21206523 68 6
-1.8378214 -3.5668218 0.92634851 37 14
-1.8489494 -3.5868816 -0.070437685 56 7
-1.8364094 -3.5610285 1.0735815 60 15
-1.8555001 -3.5857491 0.070472725 58 8
-1.9199209 -3.7086563 -0.96413994 2 1
-1.8535707 -3.5789595 0.21122798 58 9
-1.8734767 -3.6173949 -0.79185748 1 2
-1.8478416 -3.5663733 0.35141173 60 10
-1.8817698 -3.6303039 -0.64763856 1 3
-1.8523659 -3.5720522 0.49405816 42 11
-1.8618307 -3.5872397 0.64013004 49 12
-1.8696048 -3.6022182 -0.35507259 4 5
-1.8519319 -3.5666447 0.78117174 48 13
-1.8699105 -3.5997334 -0.21258858 63 6
-1.8574486 -3.5742183 0.92994756 37 14
-1.8716046 -3.5999224 -0.070821635 55 7
-1.8523937 -3.5614526 1.0756521 58 15
-1.8717073 -3.5863411 0.070612341 60 8
-1.9238365 -3.6846569 -0.95964092 2 1
-1.8697523 -3.5795486 0.21164669 56 9
-1.8860934 -3.6108329 -0.79185748 1 2
-1.8658166 -3.5704954 0.35245803 58 10
-1.9200566 -3.6727295 -0.65639895 1 3
-1.8657445 -3.5673234 0.49430194 42 11
-1.8816707 -3.5947185 0.64263284 49 12
-1.8858646 -3.6027305 -0.35576981 2 5
-1.8734792 -3.5775499 0.78498793 52 13
-1.8843194 -3.5967226 -0.21279794 68 6
-1.8735334 -3.5746167 0.93174726 37 14
-1.8878747 -3.6004512 -0.070961259 56 7
-1.8701998 -3.5652294 1.078758 60 15
-1.8916649 -3.5939424 0.070891581 61 8
-1.9457656 -3.6951628 -0.96414006 2 1
-1.8840969 -3.5765347 0.21185601 56 9
-1.9060051 -3.6181226 -0.79491031 1 2
-1.8838415 -3.574537 0.35350347 58 10
-1.947605 -3.6939635 -0.66140485 1 3
-1.8818891 -3.5678127 0.4952769 43 11
-1.8988175 -3.5968637 0.64419723 49 12
-1.9151708 -3.627841 -0.35890746 1 5
-1.8887056 -3.5761971 0.78613281 51 13
-1.8968623 -3.5901239 -0.21279795 65 6
-1.8896415 -3.5749469 0.93354684 38 14
-1.9088436 -3.6097498 -0.071275406 55 7
-1.8934729 -3.5791709 1.0849695 60 15
-1.9117002 -3.6014476 0.071170822 60 8
-1.9257483 -3.6263883 -0.94794357 2 1
-1.8996927 -3.5773227 0.21227467 60 9
-1.9315196 -3.6357203 -0.80025303 1 2
-1.9037888 -3.5820131 0.35489795 58 10
-1.9586337 -3.6836534 -0.66077912 1 3
-1.902723 -3.5769947 0.49747056 45 11
-1.9125918 -3.5940347 0.64482301 49 12
-1.9315686 -3.6281676 -0.35960469 1 5
-1.9076382 -3.5817108 0.78880453 49 13
-1.9168971 -3.5975814 -0.21363533 65 6
-1.90332 -3.5721004 0.93444669 37 14
-1.9189231 -3.59987 -0.071205594 55 7
-1.9144228 -3.5899181 1.0901459 60 15
-1.9311789 -3.6091933 0.071450055 60 8
-1.956158 -3.6543438 -0.95694172 2 1
-1.9172016 -3.5815682 0.21290274 58 9
-1.9583942 -3.656987 -0.80635893 1 2
-1.915656 -3.5756807 0.35489795 60 10
-1.9839017 -3.7015133 -0.66515923 1 3
-1.9211402 -3.5829122 0.49917677 45 11
-1.9319689 -3.6015987 0.64732599 51 12
-1.9306486 -3.5961232 0.79338354 52 13
-1.9363759 -3.6052814 -0.21447268 68 6
-1.922531 -3.579504 0.93804598 38 14
-1.9336888 -3.5987713 -0.071310297 53 7
-1.9235721 -3.5784457 1.088593 62 15
-1.9431361 -3.6027699 0.071450055 60 8
-1.9849212 -3.6787069 -0.96503979 2 1
-1.9372827 -3.5889144 0.21374013 58 9
-1.9761064 -3.6608372 -0.80864853 1 2
-1.9303424 -3.5745687 0.35542089 58 10
-1.9886537 -3.6810112 -0.66265643 1 3
-1.9424504 -3.5939846 0.50161415 45 11
-1.9492275 -3.6035204 0.64889032 49 12
-1.9378922 -3.5810671 0.79147542 51 13
-1.9559287 -3.6128907 -0.21531005 68 6
-1.9396534 -3.5813391 0.94029534 39 14
-1.9557667 -3.6095815 -0.071659356 56 7
-1.9406556 -3.5802004 1.0911813 58 15
-1.9576122 -3.5994782 0.071519867 60 8
-1.9958886 -3.6683321 -0.96414006 2 1
-1.9574364 -3.596164 0.21457748 56 9
-2.0076444 -3.688405 -0.81628102 1 2
-1.949479 -3.5800564 0.35664105 58 10
-1.9977115 -3.6671078 -0.66140485 1 3
-1.9530835 -3.5836971 0.50112671 45 11
-1.9674703 -3.6070986 0.65076745 49 12
-1.9569628 -3.5863452 0.79414684 49 13
-1.9666131 -3.6025352 -0.21510069 68 6
-1.9614842 -3.5916493 0.94479436 40 14
-1.9779413 -3.6202815 -0.072008401 61 7
-1.9596258 -3.5852709 1.0948046 56 15
-1.9797794 -3.610157 0.071868919 58 8
-2.0442989 -3.7262669 -0.98123634 2 1
-1.9718987 -3.5928116 0.21478681 58 9
-2.0205061 -3.6813745 -0.8162809 1 2
-1.9677167 -3.583709 0.35768697 58 10
-2.0352261 -3.705128 -0.66953945 1 3
-1.9703599 -3.5855558 0.50234532 46 11
-1.9857609 -3.6105952 0.65264475 49 12
-1.9742022 -3.5880916 0.79605526 48 13
-1.9849546 -3.6061478 -0.21572876 68 6
-1.9721287 -3.581367 0.94389462 39 14
-1.9934621 -3.618609 -0.072113119 55 7
-1.9777247 -3.5885599 1.0979105 53 15
-1.9981759 -3.6137238 0.072078347 58 8
-2.0818195 -3.7634432 -0.99293369 2 1
-1.9882972 -3.592896 0.21520551 56 9
-2.0333452 -3.6742988 -0.8162809 1 2
-1.9869699 -3.5890191 0.3589071 56 10
-2.0347488 -3.6738079 -0.66515923 1 3
-1.9886374 -3.5890741 0.50380778 46 11
-1.9983528 -3.6036408 0.65264469 49 12
-1.9914764 -3.5897634 0.79796302 49 13
-2.0072231 -3.6166596 -0.21677548 68 6
-1.9921867 -3.5880904 0.94749379 40 14
-2.0128775 -3.6238661 -0.072357446 58 7
-1.9968069 -3.5934558 1.101534 60 15
-2.0205147 -3.6241934 0.072427392 58 8
-2.0474818 -3.6710577 -0.97043866 2 1
-2.0066648 -3.5963986 0.21583353 55 9
-2.0461578 -3.6671791 -0.8162809 1 2
-2.0014274 -3.5855415 0.35925576 56 10
-2.068748 -3.7046266 -0.67204237 1 3
-2.008898 -3.5959754 0.50575769 47 11
-2.0147746 -3.6035397 0.65389609 49 12
-2.0107028 -3.594784 0.80063432 48 13
-2.0276368 -3.6235745 -0.21761282 25 6
-2.0132656 -3.5964193 0.95154303 41 14
-2.0274684 -3.6203077 -0.072427258 58 7
-2.0131142 -3.5932052 1.1036046 58 15
-2.0311942 -3.6136312 0.07235758 58 8
-2.0270412 -3.6032977 0.21667093 55 9
-2.0781987 -3.694236 -0.82391334 1 2
-2.0178411 -3.5854788 0.35995302 56 10
-2.0816679 -3.6973822 -0.67204237 1 3
-2.0282583 -3.6010478 0.50746387 46 11
-2.0360725 -3.6119719 0.656712 49 12
-2.0251679 -3.5911624 0.80139792 48 13
-2.0461626 -3.6269119 -0.21824087 4 6
-2.0296392 -3.5961571 0.9533425 40 14
-2.048943 -3.6288798 -0.072741404 55 7
-2.0284958 -3.591202 1.1051575 62 15
-2.0467527 -3.6117387 0.072462298 56 8
-2.0455179 -3.6066241 0.21729894 53 9
-2.0910807 -3.6869597 -0.82391334 1 2
-2.038209 -3.5922761 0.36134747 55 10
-2.0945609 -3.6900935 -0.67204237 1 3
-2.043756 -3.5991249 0.5081951 46 11
-2.0506196 -3.6082783 0.65733773 49 12
-2.0396314 -3.5874858 0.8021608 48 13
-2.0647342 -3.6301641 -0.21886891 8 6
-2.0518169 -3.6059887 0.95784163 41 14
-2.0685215 -3.6338708 -0.072985739 58 7
-2.0486658 -3.5975292 1.1092983 62 15
-2.0672829 -3.6184633 0.072741538 55 8
-2.058094 -3.5994625 0.21729894 55 9
-2.1435707 -3.7474368 -0.83917797 1 2
-2.0592794 -3.5986159 0.36274201 55 10
-2.1159236 -3.696106 -0.67454529 1 3
-2.0592661 -3.5971363 0.50892627 45 11
-2.0710592 -3.6148095 0.6598407 49 12
-2.0664392 -3.6038289 0.80750382 48 13
-2.0899518 -3.6433611 -0.22012496 8 6
-2.0621107 -3.5933726 0.95649183 42 14
-2.0871663 -3.6370339 -0.073195159 55 7
-2.0660212 -3.5987325 1.1118866 60 15
-2.0915139 -3.6299207 0.073125489 56 8
-2.0766318 -3.6026385 0.21792699 56 9
-2.1174104 -3.6719017 -0.82391334 1 2
-2.0787964 -3.6034861 0.36396214 58 10
-2.1367111 -3.7023854 -0.67704827 1 3
-2.0813687 -3.6050372 0.5111199 46 11
-2.087616 -3.6144011 0.66109222 51 12
-2.081953 -3.6016934 0.80864865 48 13
-2.1106546 -3.6498756 -0.22096232 14 6
-2.0824475 -3.599648 0.96009105 43 14
-2.0998485 -3.6297266 -0.073195159 55 7
-2.0882468 -3.6082199 1.1170632 68 15
-2.1115711 -3.6367996 0.073404714 58 8
-2.1601775 -3.7190201 -0.99293369 2 1
-2.0972214 -3.6091831 0.21876436 58 9
-2.1479743 -3.6950405 -0.83078253 1 2
-2.0963714 -3.6048191 0.36483368 55 10
-2.1668532 -3.726016 -0.68267995 1 3
-2.0993009 -3.6084108 0.51258236 45 11
-2.1032026 -3.6122122 0.66203076 49 12
-2.1037664 -3.6117351 0.81246442 49 13
-2.1237516 -3.6445827 -0.22106701 17 6
-2.1022251 -3.6061902 0.96369028 42 14
-2.118551 -3.6327386 -0.073404588 56 7
-2.0998564 -3.5992391 1.1165454 65 15
-2.1242545 -3.6294067 0.073404722 58 8
-2.1172528 -3.6159964 0.21960175 58 9
-2.1721239 -3.7082248 -0.8353619 1 2
-2.1103277 -3.6012859 0.36518231 56 10
-2.1618629 -3.6877553 -0.67704827 1 3
-2.1169059 -3.6096225 0.5138011 43 11
-2.1311629 -3.6324797 0.66703671 52 12
-2.1173563 -3.6060624 0.81284612 51 13
-2.1486003 -3.6578124 -0.22232306 17 6
-2.1226981 -3.6122715 0.96728951 41 14
-2.137677 -3.6377616 -0.073648922 55 7
-2.1205912 -3.6072452 1.1212041 68 15
-2.140341 -3.6292329 0.073544346 56 8
-2.1359525 -3.6189041 0.22022976 56 9
-2.1850541 -3.7006204 -0.8353619 1 2
-2.133018 -3.6110525 0.36692545 56 10
-2.2082376 -3.7383943 -0.68768579 1 3
-2.1318929 -3.6077096 0.51453227 45 11
-2.1498618 -3.6352198 0.6689139 54 12
-2.1903219 -3.7021596 -0.37633863 1 5
-2.1333005 -3.6057801 0.81437254 48 13
-2.1586828 -3.6472294 -0.2221137 21 6
-2.144593 -3.6219816 0.97178853 42 14
-2.1574974 -3.6423213 -0.073893264 55 7
-2.1380932 -3.6081307 1.1237923 65 15
-2.1611717 -3.6354899 0.073823579 60 8
-2.1520259 -3.6186669 0.22064844 58 9
-2.2113678 -3.7169747 -0.8407045 1 2
-2.1551723 -3.6210802 0.36866859 58 10
-2.2455287 -3.7713978 -0.69519466 1 3
-2.1485376 -3.6070676 0.51550722 45 11
-2.1649394 -3.6331611 0.6698525 54 12
-2.1599529 -3.6219172 0.8197152 52 13
-2.1744721 -3.6448176 -0.22242774 31 6
-2.1612189 -3.6211662 0.97358811 42 14
-2.1777616 -3.6488841 -0.074172497 53 7
-2.1589611 -3.6159489 1.1284512 68 15
-2.1814349 -3.6420276 0.074102819 58 8
-2.1708047 -3.6214123 0.22127651 58 9
-2.2606771 -3.7698476 -0.85444283 1 2
-2.1698484 -3.6169529 0.36901724 56 10
-2.213309 -3.6893978 -0.68142843 1 3
-2.1747875 -3.6237526 0.51891959 47 11
-2.1776075 -3.6255825 0.6698525 52 12
-2.1780179 -3.6248324 0.82200491 51 13
-2.1916909 -3.6461465 -0.22295111 36 6
-2.1772313 -3.6206601 0.97538769 42 14
-2.1904845 -3.6412606 -0.074172497 53 7
-2.1815305 -3.6249435 1.1336275 68 15
-2.2036772 -3.6473167 0.074382059 58 8
-2.1923277 -3.627106 0.22211388 58 9
-2.2744801 -3.7615361 -0.85444283 1 2
-2.1851535 -3.6123841 0.36936578 58 10
-2.2724588 -3.7552326 -0.69519466 1 3
-2.194855 -3.6255639 0.52038205 46 11
-2.1980455 -3.6294041 0.67204255 54 12
-2.2031143 -3.6349099 0.82620311 52 13
-2.2118888 -3.6479504 -0.22357912 40 6
-2.1971827 -3.6222701 0.97808713 41 14
-2.209002 -3.6417556 -0.074347019 52 7
-2.1907938 -3.6103165 1.131557 60 15
-2.2157593 -3.6399896 0.074382059 58 8
-2.2112112 -3.6296651 0.2227419 58 9
-2.2875955 -3.7535741 -0.85444283 1 2
-2.2060463 -3.6183441 0.37076029 55 10
-2.2746155 -3.7308106 -0.69206601 1 3
-2.2130668 -3.6284339 0.52184439 47 11
-2.2189336 -3.6351981 0.67454547 54 12
-2.2151554 -3.6275845 0.82620311 52 13
-2.2343848 -3.6576397 -0.22462584 61 6
-2.2173107 -3.6282663 0.98168623 40 14
-2.2352595 -3.6562021 -0.074800774 55 7
-2.2164855 -3.6240723 1.1382864 62 15
-2.2368166 -3.645869 0.074661292 58 8
-2.2322271 -3.635541 0.22357927 58 9
-2.3000295 -3.7459681 -0.85444283 1 2
-2.2263746 -3.6245904 0.37215477 56 10
-2.3021042 -3.7464101 -0.69644624 1 3
-2.2288373 -3.6257615 0.52257568 50 11
-2.2357507 -3.63416 0.67579705 54 12
-2.2329509 -3.62819 0.82811081 52 13
-2.2534225 -3.660022 -0.22525388 12 6
-2.2381396 -3.6337786 0.98528558 43 14
-2.2490587 -3.6500797 -0.074835688 52 7
-2.2362189 -3.6278241 1.1419097 58 15
-2.2579443 -3.6516454 0.074940547 58 8
-2.2470069 -3.6311228 0.22378862 56 9
-2.3137448 -3.7375121 -0.85444283 1 2
-2.2480376 -3.6299565 0.37354925 56 10
-2.3116577 -3.7312303 -0.69519466 1 3
-2.2435715 -3.6213331 0.52306312 46 11
-2.2609134 -3.6464808 0.67955148 54 12
-2.2565844 -3.6366639 0.83192706 52 13
-2.2534981 -3.6288621 0.98618531 42 14
-2.2754993 -3.6642914 -0.075289451 55 7
-2.2549849 -3.6298428 1.1450155 58 15
-2.2818909 -3.6603146 0.075289585 58 8
-2.2681224 -3.6368151 0.22462599 58 9
-2.3267763 -3.7294135 -0.85444283 1 2
-2.2691338 -3.6356099 0.37494379 56 10
-2.3393142 -3.7465973 -0.69957489 1 3
-2.2683966 -3.6316063 0.52574426 46 11
-2.2746756 -3.6402409 0.67986435 58 12
-2.2755098 -3.6387527 0.83421671 51 13
-1.3558693 -2.1673179 -0.13398001 1 6
-2.2713218 -3.6292334 0.98843503 46 14
-2.2872162 -3.6546302 -0.075254537 55 7
-2.2737918 -3.6317739 1.1481214 58 15
-2.3046525 -3.669661 0.075638629 58 8
-2.2871816 -3.6390214 0.22525403 56 9
-2.339781 -3.7212684 -0.85444283 1 2
-2.2818117 -3.6276662 0.37494379 56 10
-2.3643475 -3.7588835 -0.70332927 1 3
-2.2888858 -3.6375046 0.52769417 46 11
-2.2926311 -3.6406367 0.68142861 55 12
-2.2948902 -3.6428139 0.83688802 49 13
-1.3396211 -2.1256368 -0.13167723 1 6
-2.2906184 -3.6332207 0.99158418 42 14
-2.307426 -3.6584642 -0.075498879 53 7
-2.2895486 -3.6287158 1.1496743 56 15
-2.3131695 -3.6548357 0.075499013 56 8
-2.3105564 -3.6478884 0.22630075 55 9
-2.300226 -3.6301773 0.37598965 56 10
-2.3922594 -3.7739661 -0.70770949 1 3
-2.3143253 -3.6496105 0.53061903 46 11
-2.3180263 -3.652627 0.68518317 54 12
-2.3096955 -3.6380963 0.83765119 49 13
-1.3277587 -2.0906007 -0.12979315 2 6
-2.3147831 -3.643295 0.9965331 45 14
-2.328763 -3.6638892 -0.075778112 55 7
-2.3073835 -3.6288536 1.1522626 51 15
-2.3345165 -3.6602259 0.075778246 58 8
-2.3297246 -3.6499016 0.22692879 55 9
-2.3650568 -3.7052557 -0.85444283 1 2
-2.3236077 -3.6389179 0.37773275 56 10
-2.3905318 -3.7422855 -0.70332927 1 3
-2.3249137 -3.6381636 0.53013158 46 11
-2.338213 -3.6561615 0.68737316 54 12
-2.3287301 -3.6399338 0.83994091 49 13
-1.3501216 -2.1095037 -0.13125853 1 6
-2.3316891 -3.6417582 0.9983328 45 14
-2.3501678 -3.6692088 -0.076057352 53 7
-2.3325443 -3.6402955 1.1584741 60 15
-2.3591714 -3.6705592 0.076162197 55 8
-2.3467717 -3.6484668 0.22734746 55 9
-2.3427637 -3.6408384 0.37877864 55 10
-2.4570403 -3.8169692 -0.7189728 1 3
-2.348346 -3.6467161 0.53256887 47 11
-2.3605909 -3.6629217 0.690189 54 12
-2.3509953 -3.6466341 0.8433755 48 13
-2.3815379 -3.6925938 -0.23027815 6 6
-2.3475556 -3.6385098 0.99968237 42 14
-2.3770578 -3.6828246 -0.076511107 55 7
-2.3546674 -3.6467378 1.1631329 65 15
-2.3741448 -3.6656582 0.076232009 55 8
-2.3638396 -3.6469564 0.22776617 53 9
-2.3662987 -3.6493547 0.38052174 55 10
-2.4703481 -3.8083696 -0.7189728 1 3
-2.3686264 -3.6501527 0.53427511 46 11
-2.3765912 -3.6596291 0.6911276 54 12
-2.3690581 -3.6466358 0.84528399 48 13
-2.3976789 -3.6892812 -0.23059213 46 6
-2.3687408 -3.6433632 1.0032817 43 14
-2.3909903 -3.6761804 -0.076546021 53 7
-2.3737051 -3.6482115 1.1662388 62 15
-2.3978546 -3.6740956 0.076581068 53 8
-2.3896608 -3.6587498 0.22902225 49 9
-2.3855608 -3.6510804 0.38156757 52 10
-2.4836276 -3.7997224 -0.71897274 1 3
-2.3900437 -3.6551547 0.53622502 46 11
-2.3958399 -3.6612284 0.69300479 52 12
-2.3925252 -3.6547709 0.84909976 49 13
-2.4247663 -3.7026114 -0.23195289 63 6
-2.3931901 -3.6530035 1.0082306 46 14
-2.4059992 -3.6711574 -0.076615825 53 7
-2.3885431 -3.6431353 1.1672741 62 15
-2.4150589 -3.6723862 0.076720677 55 8
-2.4068086 -3.6570594 0.2294409 52 9
-2.4048657 -3.6527154 0.38261345 53 10
-2.4968755 -3.7910309 -0.7189728 1 3
-2.4104323 -3.6583934 0.5379312 45 11
-2.4183915 -3.6676862 0.69582069 51 12
-2.4085124 -3.6513131 0.85024458 48 13
-2.4321766 -3.6857884 -0.2314295 46 6
-2.4123695 -3.6543846 1.0109299 45 14
-2.4298201 -3.6794231 -0.076964878 53 7
-2.4076357 -3.6444459 1.1703798 62 15
-2.4344916 -3.6739347 0.076930106 53 8
-2.4305985 -3.6652803 0.23048761 51 9
-2.4242094 -3.6542609 0.38365936 52 10
-2.4264827 -3.6549177 0.53866243 43 11
-2.4366465 -3.6674483 0.69738507 52 12
-2.4299364 -3.6559646 0.85329759 48 13
-2.4516621 -3.6872561 -0.23205756 57 6
-2.4402201 -3.668659 1.0172287 45 14
-2.4515102 -3.6842377 -0.07724411 53 7
-2.4342577 -3.6569259 1.1771091 72 15
-2.4561839 -3.6787198 0.077209346 56 8
-2.4455965 -3.6600957 0.23069698 51 9
-2.445807 -3.6590283 0.38505384 53 10
-2.5232809 -3.7735066 -0.7189728 1 3
-2.4458477 -3.6563263 0.54012489 43 11
-2.4626188 -3.6786189 0.70113939 52 12
-2.4503295 -3.6588795 0.85596889 49 13
-2.4656305 -3.6803341 -0.23216222 61 6
-2.4497559 -3.6552622 1.0158789 43 14
-2.4721501 -3.6872852 -0.077488445 50 7
-2.452389 -3.6564276 1.1796973 65 15
-2.4779403 -3.6833963 0.077488586 53 8
-2.4672818 -3.6647902 0.23153433 51 9
-2.4674695 -3.6636884 0.38644829 53 10
-2.6468141 -3.9284987 -0.75025958 1 3
-2.466363 -3.6592884 0.54183102 42 11
-2.4776552 -3.673275 0.70176512 52 12
-2.4751666 -3.6682045 0.86016667 51 13
-2.4896359 -3.6882598 -0.23320894 21 6
-2.4712257 -3.6596086 1.0194782 42 14
-2.4883647 -3.6836033 -0.077593148 50 7
-2.4748719 -3.6622512 1.184356 68 15
-2.497514 -3.6846569 0.077698022 55 8
-2.4867852 -3.6660724 0.23216234 51 9
-2.4802423 -3.6550531 0.38644829 53 10
-2.6050365 -3.8375173 -0.73461616 1 3
-2.4902723 -3.6670787 0.54426837 45 11
-2.5868454 -3.8078587 -0.56523031 2 4
-2.4949026 -3.6711397 0.70301658 52 12
-2.497889 -3.6741548 0.86360168 52 13
-2.4927537 -3.6638501 1.0230774 43 14
-2.5057082 -3.6815088 -0.077732787 48 7
-2.4909031 -3.6583798 1.1859089 62 15
-2.5148709 -3.6825223 0.077837631 55 8
-2.5108378 -3.6738591 0.23320909 51 9
-2.5910506 -3.7912264 -0.89260465 1 2
-2.5064805 -3.6661096 0.38854006 53 10
-2.5131474 -3.6731088 0.54646206 43 11
-2.6292748 -3.8413966 -0.571567 2 4
-2.5166316 -3.6754472 0.70551962 52 12
-2.5140288 -3.6702721 0.86474609 51 13
-2.5176487 -3.6728067 1.0280263 45 14
-2.5298533 -3.6892304 -0.078081824 50 7
-2.5145857 -3.6655939 1.1910853 62 15
-2.5345116 -3.683605 0.078047059 55 8
-2.5349727 -3.6815226 0.23425581 51 9
-2.6042678 -3.7821593 -0.89260465 1 2
-2.5237823 -3.6639016 0.38923728 55 10
-2.5282061 -3.6675828 0.54694951 43 11
-2.6426668 -3.832196 -0.571567 2 4
-2.5384188 -3.6796486 0.70802253 52 12
-2.5290544 -3.664706 0.86550927 48 13
-2.5337756 -3.6688073 1.029376 42 14
-2.5574918 -3.7017658 -0.078535587 50 7
-2.5328565 -3.6647401 1.1936735 60 15
-2.5610247 -3.6944573 0.078465924 55 8
-2.5523634 -3.6792154 0.23467451 52 9
-2.5479152 -3.6714387 0.39098039 55 10
-2.5500529 -3.6717784 0.54889947 43 11
-2.6265795 -3.7805598 -0.56523025 2 4
-2.5625224 -3.6869857 0.7111513 54 12
-2.5552807 -3.6751978 0.87008917 51 13
-2.5543587 -3.6711369 1.0325253 49 14
-2.5795379 -3.705945 -0.078814819 52 7
-2.5555701 -3.6701446 1.1983323 62 15
-2.5830657 -3.6986101 0.078745157 55 8
-2.5720546 -3.6801062 0.23530252 51 9
-2.630609 -3.763886 -0.89260465 1 2
-2.5721326 -3.6788502 0.39272353 53 10
-2.5696809 -3.6726134 0.55036181 43 11
-2.6966758 -3.852684 -0.57741672 2 4
-2.5799079 -3.6844912 0.71240264 54 12
-2.5748515 -3.6759045 0.87237895 48 13
-2.5693939 -3.6653898 1.0334251 46 14
-2.5936058 -3.6985562 -0.078849725 50 7
-2.5783501 -3.6754363 1.2029911 60 15
-2.6120694 -3.7124674 0.079233818 52 8
-2.5934401 -3.6846235 0.23613992 51 9
-2.5872524 -3.6731081 0.39307216 53 10
-2.7285049 -3.8722076 -0.7502597 1 3
-2.5916362 -3.6766012 0.55231178 43 11
-2.7101066 -3.8432477 -0.57741666 2 4
-2.6012182 -3.6888311 0.71490568 54 12
-2.5989881 -3.6829343 0.87619466 48 13
-2.6001604 -3.6818669 1.0406235 49 14
-2.618546 -3.7079017 -0.079233669 47 7
-2.5960977 -3.6747537 1.2055792 62 15
-2.6266794 -3.7070482 0.07930363 52 8
-2.6178393 -3.6918392 0.23718661 51 9
-2.6069772 -3.6738026 0.39411804 52 10
-2.6153042 -3.6841745 0.55474919 43 11
-2.6232319 -3.6926115 0.71740866 52 12
-2.6145976 -3.6790969 0.87733996 48 13
-2.6168723 -3.6795771 1.0424231 48 14
-2.6384282 -3.7085164 -0.079443112 52 7
-2.6156301 -3.6751137 1.208685 65 15
-2.6442499 -3.7043674 0.079443261 50 8
-2.6381917 -3.6945167 0.23791933 48 9
-2.783345 -3.8963511 -0.93076646 1 2
-2.6353626 -3.6878324 0.39655837 52 10
-2.6327665 -3.6814821 0.55572414 43 11
-2.6481047 -3.7015646 0.72085011 51 12
-2.6388524 -3.6859121 0.88115567 45 13
-2.6455894 -3.6925986 1.0487218 50 14
-2.6623571 -3.7160022 -0.079792149 50 7
-2.639056 -3.682122 1.2138615 65 15
-2.665858 -3.7085674 0.079722494 53 8
-2.6557381 -3.6917696 0.23833802 49 9
-2.6575327 -3.6915457 0.39795285 48 10
-2.6542423 -3.6856182 0.55767411 42 11
-2.67256 -3.7083235 0.72397882 51 12
-2.6625431 -3.6930656 0.88497186 41 13
-1.2781333 -1.7721756 -0.11451104 1 6
-2.6601017 -3.6869652 1.0496217 49 14
-2.687016 -3.7229002 -0.080141202 52 7
-2.6654644 -3.6916821 1.2200732 65 15
-2.6906381 -3.7128775 0.08003664 52 8
-2.6816189 -3.6977148 0.23938477 49 9
-2.6850839 -3.7011333 0.40004513 47 10
-2.6835344 -3.6962824 0.56084269 42 11
-2.6891005 -3.7012312 0.72460455 51 12
-2.6801658 -3.6875799 0.88611674 41 13
-1.2825789 -1.7640241 -0.11430168 2 6
-2.6834078 -3.6893322 1.0532209 50 14
-2.7059965 -3.7190239 -0.080280818 50 7
-2.687577 -3.6923544 1.2236966 68 15
-2.717732 -3.7228439 0.080455497 53 8
-2.7015777 -3.6980076 0.24001275 49 9
-2.7003393 -3.6949546 0.40039322 48 10
-2.7046242 -3.698108 0.56254882 41 11
-2.7090049 -3.7013855 0.7264818 49 12
-2.7080996 -3.6987941 0.89107776 41 13
-1.2769276 -1.7434231 -0.11325496 3 6
-2.7100918 -3.6988058 1.0586197 49 14
-2.7284203 -3.7224579 -0.080560058 50 7
-2.7050197 -3.6891818 1.2257673 68 15
-2.7354484 -3.7197788 0.080595113 50 8
-2.726846 -3.7067254 0.24116416 51 9
-2.7203069 -3.6951339 0.40143907 52 10
-2.7257576 -3.6998324 0.564255 40 11
-2.7341549 -3.7098742 0.72992331 49 12
-2.7256548 -3.6956389 0.89260417 41 13
-1.2924913 -1.7518128 -0.11409234 7 6
-2.7299292 -3.6987314 1.0613191 48 14
-2.7526236 -3.7294796 -0.080909111 47 7
-2.7264175 -3.6926243 1.2299082 68 15
-2.7525277 -3.7171159 0.080734722 52 8
-2.7516603 -3.7132299 0.24221085 49 9
-2.7474313 -3.704819 0.40353084 52 10
-2.7439263 -3.6987438 0.56547368 40 11
-2.7635741 -3.7225122 0.73430353 51 12
-2.7449191 -3.6960359 0.89489394 42 13
-1.2923386 -1.7395006 -0.11356899 10 6
-2.7572923 -3.7099905 1.0671678 42 14
-2.7692053 -3.7246618 -0.081013829 50 7
-2.7519736 -3.7001359 1.2356023 65 15
-2.7774434 -3.7235131 0.081083775 56 8
-2.7717731 -3.7132063 0.2428389 51 9
-2.7692378 -3.7084599 0.40492532 50 10
-2.7639501 -3.6986847 0.56693608 41 11
-2.7871974 -3.7270806 0.73711932 49 12
-2.7719159 -3.7052972 0.89947337 44 13
-1.3019923 -1.7397764 -0.113883 25 6
-2.7725608 -3.703464 1.0680676 43 14
-2.7941761 -3.7309792 -0.081362866 45 7
-2.7764549 -3.7059686 1.2407787 65 15
-2.8048379 -3.7329807 0.081502631 56 8
-2.7919188 -3.7130873 0.24346694 51 9
-2.7893512 -3.7083251 0.40597123 52 10
-2.7887814 -3.7048745 0.56937349 41 11
-2.8073208 -3.7267962 0.73899651 52 12
-2.7990119 -3.7144129 0.90405273 42 13
-1.288821 -1.7097034 -0.11220826 32 6
-2.7936859 -3.7046542 1.0712169 45 14
-2.8120008 -3.7275879 -0.081502482 45 7
-2.8010128 -3.7116745 1.2459552 62 15
-2.8299203 -3.7391117 0.081851691 54 8
-2.8145108 -3.7160552 0.24430431 51 9
-2.8119051 -3.7112687 0.40736565 50 10
-2.8136911 -3.7109346 0.57181084 41 11
-2.8322542 -3.7327099 0.74212521 52 12
-2.8238294 -3.7202582 0.90786892 44 13
-1.3020283 -1.7147378 -0.11283628 6 6
-2.8207448 -3.7135024 1.0766158 48 14
-2.8383026 -3.7352638 -0.081886433 47 7
-2.8174579 -3.7064886 1.2475079 60 15
-2.8514407 -3.7403431 0.08209601 52 8
-2.8444242 -3.7284398 0.24576974 52 9
-2.8296771 -3.707767 0.40806293 52 10
-2.8362656 -3.7137117 0.57376075 41 11
-2.8536625 -3.733788 0.74431539 51 12
-2.8344128 -3.7072601 0.90710574 41 13
-1.3237795 -1.7308065 -0.11419703 4 6
-2.8431623 -3.7160156 1.080215 49 14
-2.8683405 -3.7475643 -0.082375094 45 7
-2.8397732 -3.7089024 1.251649 58 15
-2.8693519 -3.7367101 0.082235627 50 8
-2.8695922 -3.734324 0.24681643 49 9
-2.8596034 -3.7199812 0.41050333 48 10
-2.8552647 -3.7116551 0.57497948 40 11
-2.8751142 -3.73476 0.74650538 49 12
-2.8617117 -3.7160087 0.91168505 42 13
-1.3261569 -1.7214283 -0.11388301 3 6
-2.8703918 -3.7245901 1.0856137 46 14
-2.8887293 -3.7470317 -0.082584523 45 7
-2.8645012 -3.7142639 1.2568254 58 15
-2.8946111 -3.7424896 0.082584679 49 8
-2.8899438 -3.7337615 0.24744447 49 9
-2.8823283 -3.7225797 0.41189781 50 10
-2.8767135 -3.7126508 0.57668561 41 11
-2.9014475 -3.7418737 0.74994695 49 12
-2.8879011 -3.7230616 0.91588295 41 13
-1.3272598 -1.7104772 -0.11346433 2 6
-2.8833754 -3.7145488 1.0856138 50 14
-2.9128287 -3.7511408 -0.082898669 45 7
-2.8904843 -3.721025 1.2625194 56 15
-2.9199479 -3.7481375 0.082933731 49 8
-2.9090986 -3.7315276 0.24796784 48 9
-2.9100091 -3.7313483 0.41398951 48 10
-2.9043109 -3.7213662 0.57961053 41 11
-2.9157083 -3.733279 0.75025982 48 12
-2.912967 -3.7284274 0.91969961 38 13
-2.9444046 -3.7673104 -0.25058445 4 6
-2.9107282 -3.7228827 1.0910126 49 14
-2.9332981 -3.7504005 -0.083108112 48 7
-2.9117899 -3.7215626 1.266143 58 15
-2.9478259 -3.7568009 0.083352581 49 8
-2.936909 -3.7401993 0.24922389 48 9
-2.9279387 -3.7274358 0.41468677 48 10
-2.9320059 -3.7299328 0.58253539 40 11
-2.9384921 -3.7354999 0.75276279 48 12
-2.9405324 -3.7367518 0.92427844 38 13
-2.9674194 -3.7695651 -0.25142184 29 6
-2.9357615 -3.7280102 1.0955117 50 14
-2.9513204 -3.7464225 -0.083247721 45 7
-2.9319358 -3.7204802 1.2692487 68 15
-2.9658806 -3.7527645 0.083492212 50 8
-2.961097 -3.7440245 0.25016594 45 9
-2.9557652 -3.7359431 0.4167785 45 10
-2.96349 -3.743021 0.58619148 38 11
-2.968689 -3.7468956 0.75714302 49 12
-2.9596546 -3.7341576 0.9261871 37 13
-3.0078595 -3.7936132 -0.2537246 57 6
-2.9608676 -3.733007 1.1000106 52 14
-2.9805369 -3.7564628 -0.083701484 47 7
-2.9533136 -3.7208147 1.2728722 62 15
-2.9914169 -3.7580333 0.083841249 50 8
-2.9865932 -3.7492869 0.25121269 46 9
-2.9749975 -3.733393 0.41765001 45 10
-2.9765387 -3.7326529 0.58619148 38 11
-2.9928377 -3.750406 0.75995874 48 12
-2.9775715 -3.7299402 0.92771351 37 13
-3.0061269 -3.7643635 -0.25246856 44 6
-2.9860423 -3.7378747 1.1045096 48 14
-3.0061162 -3.7616563 -0.084050529 45 7
-2.9831707 -3.7316086 1.2801192 65 15
