# .PCD v0.7 - Point Cloud Data file format
VERSION 0.7
FIELDS x y z intensity ring
SIZE 4 4 4 4 2
TYPE F F F F U
COUNT 1 1 1 1 1
WIDTH 1337
HEIGHT 1
VIEWPOINT 0 0 0 1 0 0 0
POINTS 1337
DATA ascii
3.9249201 3.201087 -1.1692954 5 1
4.4477239 3.6261833 -1.1154697 3 2
4.4000831 3.5860636 0.49661309 1 10
4.5331235 3.6931751 -0.92609185 2 3
4.3759789 3.5638773 0.692949 11 11
4.4982152 3.6621239 -0.71220475 2 4
4.3603954 3.5486557 0.89042509 24 12
4.4767604 3.6433578 -0.50498056 2 5
4.3312068 3.5236447 1.0853219 18 13
4.4564362 3.6242318 -0.30103633 4 6
4.301919 3.4973226 1.2799715 23 14
4.2943358 3.4886689 1.4825157 33 15
3.5361342 2.8655508 -1.2195553 4 0
3.9481864 3.1971767 -1.1728946 5 1
4.3792658 3.5449963 0.29527956 4 9
4.4511971 3.6032245 -1.1131799 3 2
4.378499 3.5431111 0.49277827 10 10
4.5244875 3.6599352 -0.9217118 1 3
4.3698683 3.5336034 0.69002408 15 11
4.5109701 3.6464007 -0.71220475 2 4
4.3666115 3.5284464 0.88917363 31 12
4.4987497 3.635221 -0.50602639 2 5
4.3297353 3.4973996 1.0818872 17 13
4.3004546 3.4712677 1.2759223 25 14
4.29145 3.46153 1.4773393 32 15
3.5340753 2.8435011 -1.2154143 4 0
4.4269028 3.5605931 0.099164449 5 8
3.9562831 3.1809366 -1.1719948 5 1
4.3978419 3.534692 0.29569826 13 9
4.4453859 3.5729046 -1.1086004 2 2
4.3815222 3.5203171 0.49173242 14 10
4.5249119 3.634227 -0.91920888 2 3
4.3775334 3.5145988 0.68929285 16 11
4.5577321 3.6579671 -0.71756637 2 4
4.3711948 3.5070043 0.88760924 28 12
4.3296652 3.4724398 1.0788344 17 13
4.3125429 3.4562383 1.2759223 27 14
4.4493356 3.5645912 -0.099513307 1 7
4.2914443 3.4368665 1.4731981 32 15
3.5590737 2.8432043 -1.2205906 4 0
4.4283662 3.5363853 0.098920114 13 8
3.9643171 3.1646738 -1.1710949 5 1
4.4148378 3.5230556 0.29601228 19 9
4.4516931 3.5524659 -1.1070739 3 2
4.3922248 3.5037591 0.49155805 17 10
4.5839043 3.6553562 -0.92859483 1 3
4.3711491 3.4844472 0.68636799 15 11
4.3725958 3.4831085 0.88541925 28 12
4.3264017 3.4450738 1.0750176 17 13
4.4660163 3.5549777 -0.29915223 2 6
4.3184824 3.4363089 1.2741227 28 14
4.4711428 3.5565062 -0.099722743 14 7
4.2988782 3.4182599 1.4716452 31 15
3.5598929 2.8235629 -1.2174848 4 0
4.4438181 3.5233893 0.098989926 15 8
3.9722857 3.1483948 -1.1701951 5 1
4.4145827 3.4977036 0.2951749 20 9
4.4671421 3.5393465 -1.1078372 3 2
4.4028683 3.4871683 0.49138379 17 10
4.3770571 3.4642434 0.6853931 13 11
4.3738823 3.4592454 0.88322914 27 12
4.4975014 3.5570142 -0.50166857 4 5
4.3399386 3.4311717 1.0753998 18 13
4.4830999 3.5430801 -0.29946625 22 6
4.3121023 3.4067156 1.2687238 28 14
4.3001709 3.3948517 1.4680216 30 15
3.5697279 2.8111181 -1.2174847 4 0
4.4513736 3.5041485 0.098885208 15 8
3.9801881 3.1321001 -1.1692953 5 1
4.417347 3.4748621 0.29454684 21 9
4.4594107 3.5079513 -1.1028762 3 2
4.3993535 3.4594615 0.48964068 19 10
4.3781981 3.440357 0.68368691 15 11
4.5161743 3.5474994 -0.70513642 8 4
4.3719478 3.4329782 0.88041341 27 12
4.5208592 3.5499077 -0.50288886 17 5
4.3503456 3.4147882 1.0750176 20 13
4.4875841 3.5212445 -0.29894289 22 6
4.3147674 3.384428 1.2660246 28 14
4.3135171 3.3810122 1.4685395 32 15
3.5703874 2.7915018 -1.214379 4 0
4.4541259 3.4811988 0.09867578 15 8
3.9849555 3.1133876 -1.1674957 5 1
4.4200048 3.4520471 0.29391885 21 9
4.459249 3.4826972 -1.0998232 3 2
4.4004064 3.4355044 0.48842046 17 10
4.5643139 3.562185 -0.91701871 12 3
4.3839192 3.4201701 0.68271202 30 11
4.537919 3.5390413 -0.7065981 14 4
4.3698845 3.406764 0.87759757 27 12
4.5222254 3.5255291 -0.50166863 24 5
4.3529496 3.3923399 1.0727285 20 13
4.4840899 3.4932868 -0.29789615 20 6
4.3265553 3.3693445 1.2660245 28 14
4.4639573 3.475096 -0.098745398 6 7
4.3069949 3.3516998 1.4623278 32 15
3.5679021 2.7695446 -1.2102379 4 0
4.4567723 3.4582736 0.098466359 15 8
3.998878 3.1018484 -1.1683955 5 1
4.4304504 3.4353716 0.29381415 22 9
4.4729319 3.4683118 -1.1002049 5 2
4.4170971 3.4237833 0.4889434 43 10
4.5751576 3.5450218 -0.91670591 18 3
4.542398 3.5171015 -0.70538014 17 4
4.3848724 3.393908 0.87822318 27 12
4.5092936 3.4902101 -0.49887961 22 5
4.3492355 3.3651118 1.0689117 20 13
4.4994178 3.480056 -0.29810551 20 6
4.3305812 3.3482623 1.263775 29 14
4.4776421 3.4607167 -0.098780312 8 7
4.3140826 3.3331013 1.4607749 32 15
3.5806081 2.7594304 -1.211273 4 0
4.4561424 3.4329329 0.098187111 16 8
4.0004168 3.0807374 -1.1656961 7 1
4.4471636 3.4235394 0.29412818 23 9
4.4896789 3.4562685 -1.1013497 3 2
4.4432316 3.4192815 0.49051225 7 10
4.5671501 3.5133731 -0.9126386 20 3
5.7436891 4.4168501 0.88964611 9 11
4.5483518 3.4963858 -0.70440453 17 4
4.3841615 3.3689535 0.87572026 28 12
4.5182891 3.4720223 -0.49853104 20 5
4.3485012 3.3403409 1.0658587 21 13
4.4956956 3.4521656 -0.29705879 22 6
4.3391504 3.3307526 1.2628751 30 14
4.4738317 3.4328914 -0.098431259 13 7
4.3195591 3.3133194 1.4587044 33 15
3.5902185 2.7469158 -1.2112731 4 0
4.4712763 3.4197862 0.098256923 11 8
4.0018582 3.0596521 -1.1629968 5 1
5.7611318 4.4047184 0.38006383 5 9
4.4892368 3.43104 -1.0982968 3 2
5.7723675 4.4101171 0.63553929 14 10
4.5746775 3.4938116 -0.91169995 19 3
5.7937837 4.4232764 0.89500839 11 11
4.5368586 3.4624219 -0.70074838 14 4
4.3905997 3.3507998 0.87478167 28 12
4.5208774 3.4489768 -0.4974851 20 5
4.3476448 3.3156176 1.0628064 20 13
4.4981899 3.4291856 -0.29643077 22 6
4.3321514 3.3014112 1.2574763 29 14
4.4820094 3.4156139 -0.098361455 13 7
4.3228397 3.2931228 1.4561161 33 15
3.6059384 2.7390418 -1.2133437 4 0
5.8154259 4.4173503 0.12747221 7 8
4.0150857 3.0487225 -1.1638966 7 1
5.8082895 4.4087334 0.3821573 9 9
4.4792891 3.3987358 -1.092954 3 2
5.8210635 4.4152241 0.63919979 14 10
4.5830913 3.4762332 -0.91107422 18 3
5.8432183 4.4304261 0.9003706 12 11
4.5498967 3.4485579 -0.70099211 17 4
4.3896742 3.3259094 0.87227881 28 12
4.5328879 3.4331758 -0.4974851 20 5
4.352356 3.296442 1.0612794 20 13
4.4983897 3.4058115 -0.29569808 22 6
4.329092 3.2764416 1.2534273 27 14
4.4811463 3.3902967 -0.098082222 13 7
4.3312287 3.275681 1.4550809 33 15
3.59341 2.7107797 -1.2060965 6 0
5.8627415 4.4211063 0.12817031 7 8
4.0225916 3.0323412 -1.1629966 7 1
5.8579655 4.4158969 0.38446006 9 9
4.4874005 3.3814986 -1.0921909 3 2
5.8802299 4.4294658 0.64408058 16 10
4.5888848 3.455462 -0.90982276 19 3
5.9220877 4.4577541 0.91012007 46 11
4.5476298 3.4219139 -0.69879913 14 4
4.3864703 3.3006477 0.86946291 30 12
4.5203657 3.4001591 -0.49487045 19 5
4.3669753 3.2835877 1.0620426 20 13
4.5038652 3.3852866 -0.29527935 22 6
4.3373852 3.2589695 1.2525272 25 14
4.4859705 3.3706112 -0.097942598 14 7
4.3173518 3.2427382 1.4467987 34 15
3.6090364 2.7028534 -1.2081673 4 0
5.910984 4.4268112 0.12890331 9 8
4.0388651 3.0236576 -1.1647964 7 1
5.9229136 4.4325199 0.38770488 12 9
4.4960322 3.3634632 -1.0914277 3 2
5.9227815 4.4291964 0.64704382 40 10
4.5860801 3.4295795 -0.90700698 20 3
5.9098086 4.4178872 0.90597659 30 11
4.5446424 3.3961186 -0.69660485 40 4
4.4027143 3.2888613 0.8704015 31 12
4.5258226 3.37959 -0.49417326 19 5
4.3652563 3.25969 1.0589896 20 13
4.5150666 3.3703344 -0.29527941 22 6
4.3434834 3.2410738 1.2511779 29 14
4.4945035 3.3525398 -0.097872786 14 7
4.3193517 3.2207198 1.4436928 34 15
3.6189189 2.6896067 -1.2081673 4 0
5.9664607 4.432704 0.12974101 13 8
4.0473166 3.0058024 -1.1638966 7 1
5.9607387 4.425221 0.38906562 21 9
4.505178 3.34462 -1.0906644 3 2
5.9405746 4.4086475 0.64721817 34 10
4.586524 3.4025283 -0.90450406 20 3
4.3864493 3.2529154 0.67052501 7 11
4.5640268 3.3833728 -0.6975798 46 4
4.4042006 3.2636981 0.86821145 30 12
4.5365772 3.3617949 -0.49399894 20 5
4.3619642 3.2312198 1.0551735 20 13
4.5119228 3.3410878 -0.29423267 24 6
4.3496313 3.2197323 1.2493781 29 14
4.4944825 3.3257425 -0.097593546 16 7
4.3270264 3.2006657 1.4421399 35 15
3.6313937 2.6792524 -1.2092025 4 0
5.9947739 4.4213448 0.13002026 18 8
4.0452371 2.9824033 -1.1602973 7 1
5.961678 4.3937235 0.38812357 19 9
4.5105028 3.3242154 -1.0891379 3 2
4.4336615 3.2663903 0.48179665 12 10
4.5951924 3.3841536 -0.90387821 20 3
4.4073691 3.2446468 0.67198753 15 11
4.5630198 3.3580072 -0.69562989 36 4
4.4076114 3.2424505 0.86664706 33 12
4.5386553 3.3388526 -0.49295297 20 5
4.3621445 3.2078328 1.0525022 18 13
4.5171208 3.3205848 -0.29381394 24 6
4.3467116 3.1941435 1.245329 25 14
4.5028405 3.3076665 -0.097523741 16 7
4.336616 3.1843972 1.4416223 34 15
3.6344903 2.6619928 -1.207132 4 0
6.0117831 4.4015746 0.13005516 5 8
4.0524755 2.9659662 -1.1593975 7 1
4.4386444 3.2485993 0.28826654 21 9
4.5125732 3.3014941 -1.0868483 3 2
4.4289556 3.2391307 0.48005351 14 10
4.5942183 3.3587697 -0.90137535 20 3
4.4138608 3.2257276 0.6712563 17 11
4.5650973 3.3350315 -0.69416749 34 4
4.4039831 3.2173295 0.86383122 33 12
4.5454535 3.3194678 -0.49243009 20 5
4.3669729 3.1879544 1.0509762 21 13
4.5190053 3.2977319 -0.29318595 24 6
4.3420892 3.1674693 1.2408301 27 14
4.5024753 3.2844682 -0.097279407 17 7
4.3377867 3.1631684 1.4385163 34 15
3.6437585 2.6492925 -1.207132 4 0
4.4866028 3.262105 0.096825831 15 8
4.0622897 2.9525099 -1.1593974 7 1
4.4451103 3.2295623 0.28795248 22 9
4.5177135 3.2811105 -1.0853218 3 2
4.4289484 3.2154586 0.47883332 17 10
4.6021338 3.3411934 -0.90074944 20 3
4.4100733 3.2005796 0.66906261 18 11
4.5632744 3.3105524 -0.69221753 36 4
4.400795 3.1915014 0.86101556 33 12
4.5424962 3.2930553 -0.49086133 22 5
4.3727517 3.1700001 1.0498308 21 13
4.523448 3.278039 -0.29276726 24 6
4.3494129 3.1507657 1.23993 25 14
4.496098 3.2558296 -0.096895464 16 7
4.3362842 3.1389444 1.4343753 36 15
3.6462598 2.6326702 -1.2050616 4 0
4.4785056 3.2323785 0.096406966 16 8
4.0725718 2.9383106 -1.1593974 7 1
4.4514966 3.2105224 0.28763852 23 9
4.5285707 3.2661095 -1.0853218 3 2
4.4250407 3.1902676 0.47726452 22 10
4.6009502 3.3158681 -0.89824671 21 3
4.4131637 3.1793652 0.66784388 16 11
4.5683603 3.2899621 -0.69124258 36 4
4.4151144 3.1784267 0.86164111 33 12
4.550158 3.2756445 -0.49051267 23 5
4.3710418 3.1455438 1.0467778 20 13
4.5251327 3.2552342 -0.2921392 27 6
4.3540573 3.1310122 1.2381306 27 14
4.502563 3.2366147 -0.096790746 16 7
4.334662 3.1147728 1.4302342 33 15
3.6522877 2.6176746 -1.2040262 4 0
4.4735065 3.2050791 0.096057922 16 8
4.0764647 2.9195409 -1.1575979 7 1
4.4594288 3.1926377 0.28742915 23 9
4.5367513 3.2479949 -1.0845584 3 2
4.4345303 3.1736419 0.47709021 21 10
4.6012487 3.2917452 -0.89605659 21 3
4.4177775 3.1593213 0.66686898 17 11
4.5733576 3.2693763 -0.69026828 36 4
4.4133234 3.1538115 0.85913825 31 12
4.5502148 3.2516358 -0.48929247 23 5
4.3724098 3.1234181 1.0444887 21 13
4.5267162 3.2324538 -0.29151121 24 6
4.3617868 3.1135311 1.2372308 27 14
4.5170903 3.2231994 -0.096860558 16 7
4.3407907 3.096257 1.4286813 35 15
3.6582553 2.6026695 -1.202991 4 0
4.4879255 3.1917624 0.096127726 16 8
4.0834546 2.9030344 -1.1566981 7 1
4.454267 3.1654813 0.28638247 28 9
4.5448613 3.2298634 -1.0837952 3 2
4.4472046 3.1592977 0.47726452 22 10
4.6094904 3.2733746 -0.89543074 21 3
4.4174485 3.1358364 0.6651628 18 11
4.5669336 3.2407563 -0.68758714 38 4
4.4178619 3.1338141 0.85788685 33 12
4.5566635 3.2322731 -0.48876956 23 5
4.3768821 3.1035941 1.0429617 17 13
4.521678 3.2050838 -0.29046449 24 6
4.3535476 3.0847676 1.2318319 28 14
4.5136285 3.1970091 -0.096546419 16 7
4.343688 3.075505 1.4260931 34 15
3.6673162 2.5898864 -1.202991 4 0
4.4925056 3.171463 0.09598811 18 8
4.0840096 2.8820221 -1.1539986 7 1
4.4538631 3.1418581 0.28564975 27 9
4.5496883 3.2094555 -1.0822687 3 2
4.4468088 3.1357164 0.47604433 22 10
4.6112018 3.2504344 -0.89355356 21 3
4.4251218 3.1181118 0.6646753 17 11
4.5684824 3.2179356 -0.68612415 36 4
4.414238 3.1081367 0.85507095 33 12
4.5614033 3.2117584 -0.48807234 24 5
4.3828716 3.0849073 1.0418168 18 13
4.5312047 3.1881301 -0.2903598 22 6
4.3626952 3.0684302 1.231382 30 14
4.5084014 3.1697338 -0.096197367 16 7
4.3496566 3.0569899 1.4245403 33 15
3.6763351 2.5770679 -1.202991 6 0
4.5002732 3.1534681 0.095918305 18 8
4.1068144 2.8766921 -1.1575978 7 1
4.454988 3.1194165 0.28502169 26 9
4.5608649 3.1935527 -1.0822687 3 2
4.4381399 3.1064663 0.47395268 19 10
4.6144266 3.2286577 -0.89198923 21 3
4.424592 3.0946825 0.66296911 16 11
4.5796862 3.2019701 -0.68612409 38 4
4.4169641 3.0870516 0.85350657 33 12
4.5562549 3.1844034 -0.48632917 23 5
4.3920031 3.0684662 1.0414352 21 13
4.5341191 3.1665745 -0.28983641 22 6
4.3669877 3.0487213 1.2295824 29 14
4.506319 3.1448228 -0.095918134 16 7
4.3460426 3.0318394 1.4198816 34 15
3.6789641 2.5598066 -1.2009203 4 0
4.499763 3.1297457 0.095673971 16 8
4.1072316 2.8556628 -1.1548984 7 1
4.4642081 3.1027086 0.28491706 30 9
4.5800452 3.183217 -1.0841769 3 2
4.4375038 3.0829966 0.47273248 22 10
4.6094446 3.201261 -0.88886052 21 3
4.4304738 3.0758238 0.66223788 18 11
4.5810504 3.1791716 -0.68466228 38 4
4.424468 3.0693624 0.8528809 33 12
4.5558844 3.1605291 -0.485109 23 5
4.3817143 3.0385735 1.0364742 18 13
4.5435042 3.1495919 -0.2897318 22 6
4.3744006 3.0312383 1.2286826 30 14
4.515624 3.1279354 -0.09588322 14 7
4.3518329 3.0133522 1.4183284 33 15
3.6846986 2.5447524 -1.199885 5 0
4.4925575 3.1015236 0.095290013 18 8
4.1043434 2.8324549 -1.1512992 7 1
4.4717245 3.0848374 0.2847077 30 9
4.5733533 3.1549463 -1.0799791 3 2
4.4449573 3.0652268 0.47238386 22 10
4.6092057 3.177305 -0.88667047 21 3
4.4215703 3.0468218 0.65931302 17 11
4.5921197 3.1631629 -0.68466234 44 4
4.4237657 3.0460587 0.85069084 28 12
4.5603242 3.1400883 -0.48441175 22 5
4.3825912 3.0165803 1.0341845 18 13
4.5330791 3.1189964 -0.28837106 22 6
4.3753204 3.009325 1.2259833 30 14
4.5215726 3.1087544 -0.09577851 16 7
4.3543644 2.9926734 1.4157404 33 15
3.6999338 2.5362432 -1.2019557 6 0
4.5017066 3.0846934 0.095255114 20 8
4.11099 2.815907 -1.1503999 7 1
4.4692831 3.0601809 0.28387037 28 9
4.5875793 3.1411798 -1.0807424 5 2
4.4556293 3.0496936 0.47238386 22 10
4.6137476 3.1567335 -0.88541895 22 3
4.422348 3.0246439 0.65785056 18 11
4.5867457 3.1359115 -0.68222427 44 4
4.4278483 3.0261381 0.84943926 30 12
4.5729032 3.1252732 -0.48458603 23 5
4.3947163 3.0023696 1.034566 20 13
4.5307426 3.0941434 -0.28753364 22 6
4.3648758 2.9797492 1.2201344 32 14
4.5208354 3.0850606 -0.095534176 14 7
4.3695703 2.980722 1.4172931 32 15
3.7023747 2.5189662 -1.199885 5 0
4.5074868 3.0655861 0.095150396 20 8
4.1207929 2.8015425 -1.1503993 7 1
4.4727979 3.0408545 0.28345165 30 9
4.5774059 3.1108019 -1.0757813 5 2
4.4563599 3.0274022 0.47133794 22 10
4.6165676 3.1350613 -0.88385463 20 3
4.4378052 3.0125349 0.65858179 18 11
4.5905504 3.1162236 -0.68124932 46 4
4.4215126 3.0003469 0.84631056 30 12
4.5738907 3.1025822 -0.48354018 24 5
4.3954196 2.9804008 1.0322763 21 13
4.5398636 3.0771871 -0.28742898 22 6
4.3715062 2.9630723 1.2192346 31 14
4.5177965 3.0610795 -0.095254935 16 7
4.3666358 2.9575472 1.413152 32 15
3.6979005 2.4980245 -1.1957439 3 0
4.5176282 3.0506201 0.095150389 20 8
4.1300611 2.7878609 -1.1503993 5 1
4.4712687 3.0181823 0.2827189 27 9
4.5909505 3.0978034 -1.0765445 5 2
4.4498577 3.0014648 0.46959484 22 10
4.6220241 3.1164229 -0.88291609 21 3
4.4395404 2.9922557 0.65736318 18 11
4.5876894 3.0921082 -0.67930007 44 4
4.4281621 2.9834599 0.84568489 30 12
4.5676284 3.0762689 -0.4817971 23 5
4.4052777 2.9658091 1.0322769 20 13
4.541759 3.0565393 -0.28690562 22 6
4.3748422 2.9442067 1.2174351 31 14
4.5196276 3.0404987 -0.095080413 16 7
4.363595 2.9344277 1.4090111 32 15
3.7093735 2.4878995 -1.1967793 5 0
4.5028052 3.0189197 0.094626829 18 8
4.1360455 2.7719812 -1.1494997 7 1
4.4801192 3.0014436 0.28261426 31 9
4.5995679 3.0814676 -1.0761629 5 2
4.4531636 2.982259 0.46889758 22 10
4.617559 3.0911899 -0.88010025 21 3
4.449439 2.9775159 0.65736318 18 11
4.5951557 3.0738664 -0.67881256 44 4
4.4319797 2.9635956 0.84443343 30 12
4.5695233 3.0555689 -0.48092556 20 5
4.3971357 2.9391823 1.0280786 21 13
4.5518694 3.0414624 -0.28690562 24 6
4.3786097 2.9245915 1.2156357 31 14
4.5285497 3.0235949 -0.095045507 16 7
4.364171 2.9127424 1.4059052 33 15
3.7148197 2.4727941 -1.1957439 5 0
4.5033264 2.9965382 0.094417401 18 8
4.1424522 2.755367 -1.1485999 7 1
4.4822531 2.9802558 0.2820909 28 9
4.6135664 3.0675666 -1.0769261 5 2
4.4552493 2.9611828 0.46802601 22 10
4.6184492 3.0684922 -0.87822294 20 3
4.441617 2.9498847 0.65468204 18 11
4.6075106 3.0589066 -0.67905635 48 4
4.443944 2.949198 0.84474629 31 12
4.5668812 3.0307846 -0.47953102 23 5
4.3926454 2.9140475 1.024644 21 13
4.5491414 3.0167248 -0.28606823 27 6
4.3855433 2.9071345 1.2147356 31 14
4.5374103 3.0066631 -0.095010616 17 7
4.3694797 2.8942912 1.4043523 33 15
3.7202034 2.4576848 -1.1947087 5 0
4.5137596 2.9807987 0.094417393 20 8
4.1357818 2.7301536 -1.1441009 5 1
4.4792905 2.9557946 0.28125352 27 9
4.6111355 3.0427966 -1.0738733 5 2
4.4722123 2.9500003 0.4687233 21 10
4.6291327 3.0523505 -0.87822288 20 3
4.4386258 2.9256258 0.65273213 20 11
4.596612 3.0286055 -0.67588705 46 4
4.444314 2.9271469 0.84286904 33 12
4.5779581 3.0140266 -0.47953102 22 5
4.4077077 2.9019375 1.0257888 21 13
4.5529714 2.9964342 -0.28564957 24 6
4.3858972 2.885381 1.2120363 31 14
4.53618 2.9831176 -0.094766267 17 7
4.3698707 2.8726528 1.4012464 33 15
3.7291865 2.4440324 -1.1947087 3 0
4.5141015 2.9584491 0.094207972 20 8
4.1550665 2.7221086 -1.1468002 7 1
4.4828982 2.9357626 0.28083482 27 9
4.609117 3.0172718 -1.0708202 5 2
4.4663224 2.9226806 0.46698019 19 10
4.6303701 3.0288765 -0.87634575 20 3
4.4488115 2.9101131 0.65273213 20 11
4.5988493 3.0071084 -0.67466903 48 4
4.4445825 2.9051318 0.84099174 33 12
4.5834484 2.9947579 -0.47900811 23 5
4.4084535 2.8793185 1.023499 21 13
4.5538883 2.973176 -0.28502151 27 6
4.3833866 2.8607671 1.2084371 31 14
4.5381927 2.9617994 -0.094591737 17 7
4.3831081 2.8594918 1.4022818 33 15
3.7215006 2.4204679 -1.1895324 3 0
4.5182085 2.9375226 0.094068334 20 8
4.1715512 2.7111101 -1.1485999 5 1
4.4897695 2.9179213 0.28062549 26 9
4.6262054 3.0054438 -1.0723467 5 2
4.468143 2.9016454 0.46610862 22 10
4.6409144 3.0126963 -0.87634581 20 3
4.4577813 2.8927078 0.65248835 21 11
4.6081734 2.9891531 -0.67442524 51 4
4.4513831 2.8874485 0.84036613 34 12
4.5738125 2.9657335 -0.47691637 24 5
4.4168291 2.8628478 1.0231175 21 13
4.5659165 2.9583473 -0.28512624 27 6
4.3966179 2.8475661 1.2093368 30 14
4.5384345 2.9394166 -0.094382316 17 7
4.3719797 2.8305283 1.3955525 35 15
3.7396657 2.4137473 -1.1926382 5 0
4.5128036 2.912765 0.09375421 20 8
4.1608696 2.6845825 -1.143201 5 1
4.4898572 2.8957348 0.27999747 26 9
4.6317186 2.9860837 -1.0712018 5 2
4.4715447 2.8817146 0.46541137 22 10
4.6342759 2.9865875 -0.87321711 21 3
4.4623442 2.8746834 0.65175718 20 11
4.6097159 2.968483 -0.67320597 48 4
4.4547906 2.8676171 0.83911467 34 12
4.5774364 2.9454365 -0.47621918 23 5
4.4097881 2.8375602 1.0193019 22 13
4.5656214 2.9367073 -0.28449813 29 6
4.4027572 2.8308635 1.208437 31 14
4.5419378 2.9192328 -0.094242699 17 7
4.381834 2.8152487 1.3955525 35 15
3.7411439 2.3971629 -1.1905676 5 0
4.5077877 2.8872888 0.093440063 20 8
4.1767788 2.6742458 -1.1450006 5 1
4.4965744 2.8778901 0.27978814 26 9
4.6399426 2.9696484 -1.0708202 5 2
4.4726839 2.8615029 0.4645398 24 10
4.6363516 2.9650722 -0.87165284 21 3
4.4539552 2.847327 0.6490761 22 11
4.6150303 2.9491677 -0.67247534 51 4
4.4581137 2.8477969 0.83786321 33 12
4.5871782 2.9302421 -0.47621918 24 5
4.4047751 2.81264 1.0158674 18 13
4.5590091 2.9100077 -0.28345144 27 6
4.4060402 2.8112857 1.2066373 31 14
4.5521007 2.9033599 -0.094242699 19 7
4.3802309 2.7926679 1.3919289 34 15
3.752749 2.386163 -1.1916029 3 0
4.517839 2.8715343 0.093440056 18 8
4.1729307 2.6512885 -1.1414014 7 1
4.4964762 2.8557527 0.27916008 27 9
4.648623 2.9523826 -1.0704386 5 2
4.474236 2.8405328 0.46366826 22 10
4.6466737 2.9488692 -0.87165272 21 3
4.4605126 2.8296356 0.64858848 21 11
4.6068568 2.9213457 -0.66979367 48 4
4.4696965 2.8332744 0.83817607 33 12
4.5973792 2.9142108 -0.47621918 24 5
4.4162245 2.7982991 1.0162485 20 13
4.5590162 2.8876624 -0.28282341 29 6
4.4026561 2.7875483 1.2030382 30 14
4.5554485 2.8831756 -0.094103083 17 7
4.3915858 2.7783921 1.3924465 35 15
3.757787 2.3709884 -1.1905676 5 0
4.5193782 2.8504143 0.093265541 16 8
4.1854563 2.6387856 -1.1423013 5 1
4.4895201 2.829392 0.27811337 27 9
4.6456127 2.9277651 -1.0673857 5 2
4.4841237 2.8248985 0.46366829 22 10
4.6469088 2.9263163 -0.86977553 21 3
4.4653225 2.8108771 0.64785731 20 11
4.6052661 2.8978453 -0.66808742 44 4
4.461165 2.8060863 0.83473438 34 12
4.5940309 2.8896592 -0.47482461 24 5
4.4226422 2.7807755 1.0154853 21 13
4.5724511 2.8738561 -0.28303277 29 6
4.4057584 2.7680168 1.2012385 31 14
4.5570188 2.8619373 -0.093928568 19 7
4.3979864 2.7609904 1.3914113 35 15
3.7496657 2.3476059 -1.1853912 5 0
4.5309963 2.835681 0.093300447 18 8
4.1913385 2.6220913 -1.1414014 7 1
4.4993687 2.8137045 0.27811337 27 9
4.6508098 2.9084089 -1.0662408 5 2
4.4753737 2.7976103 0.46175081 24 10
4.6570964 2.9100769 -0.86977559 22 3
4.4683719 2.7910676 0.64688241 20 11
4.6119852 2.8796504 -0.66759998 44 4
4.4558525 2.7810824 0.8319186 33 12
4.590569 2.8651648 -0.47343013 27 5
4.4323201 2.7653232 1.0154858 20 13
4.585844 2.8599918 -0.28324211 27 6
4.4054718 2.7464345 1.198539 31 14
4.5500093 2.835438 -0.093579516 16 7
4.3879199 2.7333658 1.3851998 35 15
3.7648096 2.3379221 -1.1874616 5 0
4.5226698 2.8074546 0.092916489 18 8
4.2042322 2.6087677 -1.1423013 5 1
4.5023756 2.7937686 0.2776947 28 9
4.6614404 2.8913403 -1.0662408 5 2
4.4855967 2.781189 0.46175081 24 10
4.6509399 2.8825829 -0.86664683 21 3
4.4802613 2.7757137 0.64712614 22 11
4.62082 2.8616829 -0.66735619 42 4
4.4705701 2.7686327 0.83285719 34 12
4.5942631 2.8441267 -0.47273293 24 5
4.4357491 2.7449238 1.0139593 22 13
4.5827055 2.83476 -0.28240469 29 6
4.4138503 2.7292449 1.1980892 32 14
4.5581775 2.8184876 -0.093544617 19 7
4.3908615 2.713968 1.3831291 35 15
3.776237 2.3267941 -1.1884971 5 0
4.5268469 2.7892954 0.092811771 18 8
4.2029047 2.5886779 -1.1396023 7 1
4.5086985 2.7759392 0.27748531 27 9
4.6648149 2.8709381 -1.0647143 5 2
4.4884901 2.7613373 0.46105358 24 10
4.6571093 2.8650727 -0.86602116 22 3
4.4657674 2.746284 0.64371377 21 11
4.6235199 2.8421867 -0.66638124 42 4
4.4768424 2.7509413 0.83223152 34 12
4.6041636 2.8280709 -0.47273293 24 5
4.4247527 2.717869 1.0093799 23 13
4.5733585 2.8080528 -0.28125334 29 6
4.4112515 2.7074568 1.1949399 31 14
4.5679884 2.8025579 -0.09354461 19 7
4.3970127 2.6966074 1.3820938 35 15
3.7789884 2.3112338 -1.186944 5 0
4.5348506 2.7724328 0.09277688 18 8
4.211916 2.5739903 -1.1396023 5 1
4.5064297 2.7528968 0.27675262 28 9
4.6726351 2.8544285 -1.0643327 5 2
4.489121 2.7412469 0.46018207 22 10
4.6552792 2.8415928 -0.86383098 21 3
4.4634638 2.7234421 0.64200759 20 11
4.6215496 2.8187933 -0.66467571 36 4
4.4644918 2.7219286 0.82816422 30 12
4.6072011 2.8078353 -0.47203562 24 5
4.4275064 2.6983216 1.0078534 22 13
4.5763102 2.7879143 -0.28083465 29 6
4.4140186 2.6879864 1.1931403 31 14
4.5674939 2.7803576 -0.093335167 17 7
4.3997989 2.6772246 1.3800234 35 15
3.7841299 2.2953644 -1.1859087 5 0
4.5376606 2.7524388 0.092637241 20 8
4.2208738 2.5592756 -1.1396018 5 1
4.5023479 2.7288666 0.27591524 31 9
4.6729908 2.831181 -1.0620431 5 2
4.5008411 2.7258084 0.46035638 22 10
4.6605935 2.8214438 -0.86289245 22 3
4.4814348 2.7129843 0.64322627 21 11
4.6160769 2.7933931 -0.66248143 42 4
4.4672036 2.7022414 0.82691276 33 12
4.6101556 2.7876112 -0.47133842 27 5
4.437367 2.682075 1.0078528 22 13
4.5830789 2.769058 -0.28062531 29 6
4.4138312 2.665746 1.1904408 32 14
4.5617666 2.7550917 -0.093021035 19 7
4.4025021 2.6578555 1.3779527 25 15
3.7689469 2.2681944 -1.1786618 5 0
4.544292 2.733726 0.092567436 19 8
4.2335649 2.5457973 -1.1405016 7 1
4.5157423 2.7144053 0.27612457 28 9
4.6777973 2.811816 -1.0608982 5 2
4.4898348 2.6977654 0.45826516 24 10
4.6670251 2.8031268 -0.86226666 22 3
4.4828382 2.6914322 0.64200759 17 11
4.6262832 2.7764564 -0.66248202 29 4
4.4753833 2.6848342 0.8265999 34 12
4.6027703 2.761255 -0.46959528 24 5
4.4399672 2.6625314 1.0063263 22 13
4.5875773 2.7499611 -0.28031126 29 6
4.5581093 2.7301352 -0.092741802 17 7
3.7901123 2.2629466 -1.182803 5 0
4.5452204 2.7127235 0.092392921 19 8
4.239079 2.529006 -1.1396023 5 1
4.52176 2.6965785 0.27591524 30 9
4.6774673 2.7894351 -1.0586084 6 2
4.4992242 2.6820776 0.45826459 22 10
4.6598125 2.7767057 -0.85913801 21 3
4.4887958 2.6737354 0.64152014 18 11
4.6223011 2.7521672 -0.66053212 17 4
4.4677539 2.6590922 0.82347113 30 12
4.6055336 2.7410951 -0.46889809 24 5
4.4340496 2.6379817 1.0028924 20 13
4.5919986 2.7308693 -0.27999729 31 6
4.5710502 2.7162492 -0.092811607 19 7
3.7946625 2.2477367 -1.1817678 5 0
4.5512223 2.6948025 0.092323117 19 8
4.231112 2.5042665 -1.1351029 7 1
4.5186458 2.674449 0.27518255 28 9
4.6804152 2.7690954 -1.0570821 8 2
4.5016999 2.6622982 0.45756733 24 10
4.6626759 2.7564008 -0.85788655 22 3
4.4793024 2.6469421 0.63883907 18 11
4.6382394 2.7408624 -0.66150647 17 4
4.4799495 2.64627 0.82409692 31 12
4.618505 2.7270265 -0.46924663 24 5
4.5808611 2.7026439 -0.27874121 29 6
4.5731421 2.6970136 -0.09267199 16 7
4.4933324 2.6488891 1.3976231 0 15
3.7954338 2.2312231 -1.1796972 5 0
4.5497875 2.6736174 0.092113681 21 8
4.236033 2.4882469 -1.134203 7 1
4.5154352 2.6523678 0.27444986 28 9
4.6828008 2.7495825 -1.0555556 10 2
4.5001931 2.6413054 0.45652148 24 10
4.6666799 2.7379236 -0.8569479 20 3
4.4829173 2.6290624 0.63810778 11 11
4.6318913 2.7164295 -0.65931284 17 4
4.6172104 2.7056513 -0.46820083 23 5
4.5846276 2.6844115 -0.27842718 29 6
4.5768838 2.6788023 -0.092567272 21 7
4.3953743 2.5715401 1.3644941 3 15
3.8061483 2.2205725 -1.1807323 5 0
4.5551748 2.6564991 0.092043877 21 8
4.237525 2.4702625 -1.132404 7 1
4.5108609 2.6285465 0.27361247 10 9
4.6720133 2.72136 -1.050976 10 2
4.5089283 2.6263664 0.45652151 10 10
4.6689038 2.7184603 -0.85569644 22 3
4.636198 2.697248 -0.65858227 17 4
4.616291 2.6835105 -0.46715492 23 5
4.4626756 2.5931702 1.003274 1 13
4.5870628 2.6643784 -0.27800852 27 6
4.4014864 2.556587 1.1751443 3 14
4.5689125 2.6527696 -0.092218228 17 7
4.4009833 2.5542409 1.3634589 3 15
3.8142622 2.2066064 -1.1807323 5 0
4.5666113 2.6407881 0.092078775 17 8
4.2465515 2.4547141 -1.1324034 7 1
4.6717553 2.6983275 -1.0486864 11 2
4.6719937 2.6973779 -0.85444492 23 3
4.6426139 2.6782553 -0.65809417 17 4
4.4817462 2.5844107 0.81940395 1 12
4.6105595 2.6576192 -0.4655861 23 5
4.438127 2.5571942 0.99564153 2 13
4.5985274 2.6485455 -0.27811319 24 6
4.4209585 2.5462739 1.1778437 3 14
4.569941 2.6310163 -0.092043705 16 7
4.395246 2.5294223 1.3588002 3 15
3.8189735 2.1906881 -1.1796972 5 0
4.2622828 2.4430082 -1.1342036 5 1
4.6845541 2.6839547 -1.0494497 12 2
4.6715631 2.6743464 -0.85256779 22 3
4.5123763 2.582171 0.6383515 1 11
4.6420588 2.6553082 -0.6566323 19 4
4.4534626 2.5463946 0.81252086 3 12
4.6180787 2.6405187 -0.46541181 23 5
4.4265738 2.5299952 0.99106169 2 13
4.602541 2.6295066 -0.27779919 22 6
4.4167242 2.5223205 1.1742445 1 14
4.3977742 2.5094664 1.3567295 3 15
3.8198812 2.1735239 -1.1776267 5 0
4.2538433 2.4184844 -1.1297039 7 1
4.6802387 2.6598268 -1.0463967 12 2
4.4955068 2.5538044 0.45233801 3 10
4.6722808 2.6531472 -0.85100341 21 3
4.4799299 2.5428872 0.63250184 2 11
4.6478472 2.6371279 -0.6561442 17 4
4.4691968 2.5347328 0.81377232 3 12
4.630734 2.6263497 -0.46576044 9 5
4.4353781 2.5145292 0.99106169 2 13
4.4322839 2.5107307 1.1760441 3 14
4.4098706 2.4960024 1.3577648 1 15
3.8274455 2.1601758 -1.1776267 5 0
4.6153679 2.6038098 0.092497632 1 8
4.2588649 2.4017076 -1.1288042 7 1
4.4975605 2.5352786 0.27057698 2 9
4.6860747 2.6415441 -1.0456334 12 2
4.493979 2.5322263 0.45129213 1 10
4.5233741 2.5467098 0.63737655 1 11
4.6501045 2.6169922 -0.65516984 6 4
4.4676862 2.5133064 0.81189507 3 12
4.4441295 2.4990304 0.99106175 2 13
4.4189334 2.4828358 1.1701953 3 14
4.4118195 2.4768097 1.3556943 3 15
3.8417032 2.150579 -1.1796972 5 0
4.554625 2.5486252 0.091101438 1 8
4.2774277 2.3925338 -1.1315037 7 1
4.4994082 2.5156684 0.27015832 2 9
4.6884103 2.6213415 -1.044107 10 2
4.509747 2.5204129 0.45198938 1 10
4.4975739 2.5115495 0.63250184 1 11
4.4798832 2.49962 0.81252086 3 12
4.4493957 2.4815881 0.99029893 2 13
4.6228476 2.5772736 -0.2773805 2 6
4.4190631 2.4626513 1.1679457 3 14
4.575233 2.5486326 -0.09141542 1 7
4.4069347 2.453877 1.3515532 4 15
3.8289199 2.1259017 -1.1734855 3 0
4.5565004 2.5288277 0.090961821 1 8
4.2823439 2.3756981 -1.1306043 7 1
4.5151501 2.5038204 0.27057701 2 9
4.4906368 2.4891996 0.44920039 1 10
4.4854732 2.4842942 0.62957692 2 11
4.4816666 2.4801421 0.81126922 3 12
4.617887 2.5555258 -0.46175125 1 5
4.4545937 2.4641442 0.98953509 2 13
4.5828762 2.534059 -0.27444968 2 6
4.441277 2.4547515 1.171545 1 14
4.5700974 2.5249133 -0.09113618 1 7
4.4188566 2.4403455 1.3525884 4 15
3.8363173 2.1125224 -1.1734854 5 0
4.5512848 2.5051968 0.090682596 1 8
4.2871966 2.3588555 -1.129704 7 1
4.5238624 2.4880428 0.27057698 2 9
4.4992967 2.4735124 0.44920039 3 10
4.6880951 2.5762367 -0.84724903 1 3
4.4941187 2.4686203 0.62957692 2 11
4.6389723 2.547138 -0.6498071 2 4
4.4747119 2.4559276 0.8084535 4 12
4.5988345 2.5240517 -0.45896229 2 5
4.4562836 2.4448011 0.98800921 2 13
4.5846877 2.5142081 -0.27403098 4 6
4.4293122 2.4279935 1.1661462 3 14
4.5683618 2.5031786 -0.090926744 1 7
4.4154854 2.4184127 1.3489648 4 15
3.8402774 2.0972676 -1.1724503 5 0
4.5459599 2.4816277 0.090403341 1 8
4.2782984 2.3345401 -1.1252055 7 1
4.5426078 2.478766 0.27120501 1 9
4.803504 2.6200449 -1.0635694 1 2
4.504406 2.4558833 0.44885179 3 10
4.6589003 2.5390589 -0.84036589 2 3
4.5096807 2.456718 0.63055193 2 11
4.6299624 2.5222428 -0.64736974 2 4
4.4828315 2.4410765 0.80845356 4 12
4.6811152 2.5479879 -0.46628335 1 5
4.4544435 2.4236026 0.98571897 2 13
4.575891 2.4886456 -0.27298427 4 6
4.4322033 2.4104996 1.1647965 4 14
4.5696111 2.4841943 -0.090787135 3 7
4.4268765 2.4056008 1.3500001 4 15
3.8506076 2.0863626 -1.1734855 3 0
4.5647149 2.4722519 0.090612777 1 8
4.292871 2.3240523 -1.1270045 7 1
4.5016232 2.4370654 0.26827416 4 9
4.5020103 2.4352434 0.44780648 3 10
4.7124729 2.5480244 -0.84850049 1 3
4.4968462 2.430424 0.62762702 1 11
4.6383004 2.5068765 -0.64736974 2 4
4.4856887 2.4233794 0.80751497 4 12
4.6369452 2.5040503 -0.461054 2 5
4.4935522 2.4256048 0.99258864 1 13
4.6052117 2.4848375 -0.27424031 2 6
4.4264531 2.3883848 1.1611974 4 14
4.5813427 2.470926 -0.09085694 3 7
4.4246268 2.3854082 1.3468945 3 15
3.8694167 2.0799837 -1.177109 3 0
4.5658417 2.453316 0.090473153 1 8
4.2936869 2.3061163 -1.1252049 7 1
4.5083432 2.4203932 0.26816952 4 9
4.5100613 2.4203019 0.44780591 3 10
4.668673 2.5043709 -0.83911437 2 3
4.4838877 2.4042406 0.62470216 3 11
4.6680179 2.5019219 -0.65029508 2 4
4.4801903 2.4002421 0.80501187 3 12
4.6280937 2.4784441 -0.45931092 2 5
4.4531116 2.3847377 0.98190278 2 13
4.6028609 2.4638977 -0.27361229 2 6
4.4467907 2.3793533 1.1643466 2 14
4.5828867 2.451148 -0.090717323 3 7
4.4312234 2.3690369 1.3463769 3 15
3.856555 2.0548873 -1.1708974 3 0
4.5761423 2.4383044 0.090508059 1 8
4.3017097 2.2911153 -1.1252055 7 1
4.5185275 2.4055789 0.26827419 4 9
4.5118656 2.4000139 0.44710872 3 10
4.667357 2.4816773 -0.83723718 2 3
4.5027695 2.3941643 0.62616456 3 11
4.6416659 2.4669807 -0.64541984 2 4
4.4780731 2.3790314 0.80313468 4 12
4.6085625 2.4473214 -0.4565219 2 5
4.454886 2.3647194 0.9803763 4 13
4.5942173 2.4376512 -0.27256557 4 6
4.4399872 2.3548222 1.1602975 4 14
4.5631499 2.4201436 -0.090158857 1 7
4.420691 2.3435998 1.3406827 4 15
3.8602884 2.0396066 -1.169862 3 0
4.5638304 2.4103084 0.090089217 3 8
4.3135257 2.2771521 -1.1261047 7 1
4.5374942 2.3953872 0.26890221 1 9
4.5307903 2.3898258 0.44815454 3 10
4.6690011 2.4616859 -0.83598572 2 3
4.5115132 2.377646 0.62616456 2 11
4.6471634 2.4480994 -0.64493281 2 4
4.4880991 2.364305 0.80344754 4 12
4.6734905 2.4609263 -0.46209988 1 5
4.4631138 2.3491533 0.9803763 2 13
4.6097684 2.4253178 -0.27298424 4 6
4.4533534 2.3420317 1.1616471 4 14
4.5821881 2.4097857 -0.090368278 3 7
4.427134 2.3272564 1.340165 5 15
3.8708079 2.0279114 -1.1708974 3 0
4.5682559 2.3933036 0.09001939 3 8
4.3106947 2.2574117 -1.1234059 7 1
4.5263634 2.3693459 0.26775086 4 9
4.5179176 2.3629165 0.4460628 3 10
4.6736374 2.4443595 -0.83535999 2 3
4.522892 2.3645124 0.62665212 1 11
4.6376634 2.4234807 -0.64249486 4 4
4.4980741 2.3495398 0.80376035 4 12
4.6149387 2.409555 -0.45547602 2 5
4.5022063 2.3506949 0.9872455 1 13
4.6071625 2.4044721 -0.27235621 2 6
4.452456 2.3227448 1.1593976 4 14
4.5870271 2.3919263 -0.090298474 3 7
4.4403706 2.314466 1.341718 5 15
3.8740809 2.0132849 -1.169862 3 0
4.5765815 2.3773439 0.09001939 1 8
4.3220077 2.2441459 -1.1243051 7 1
4.52356 2.3487992 0.26712281 5 9
4.5257292 2.3479202 0.4460628 3 10
4.675127 2.4243915 -0.83410841 2 3
4.5064454 2.3359199 0.62323976 3 11
4.6637197 2.4164107 -0.64493227 2 4
4.4935646 2.3282483 0.80157036 4 12
4.6299806 2.3979044 -0.4561733 4 5
4.4580779 2.3078883 0.97579741 2 13
4.5871463 2.3736899 -0.27068147 2 6
4.4432287 2.2982345 1.1548986 4 14
4.5878286 2.373028 -0.090158857 3 7
4.4411573 2.296181 1.3396477 1 15
3.8913891 2.0050576 -1.1729678 3 0
4.5951052 2.3676507 0.090228826 1 8
4.3294258 2.2298021 -1.1243052 7 1
4.5228524 2.3284249 0.26659945 5 9
4.5480709 2.339397 0.44745785 3 10
4.6796284 2.4070663 -0.83348274 2 3
4.5106354 2.3191485 0.62275225 3 11
4.6858311 2.4081919 -0.64688277 2 4
4.4893656 2.3062289 0.79938024 4 12
4.6099653 2.3671656 -0.45338431 4 5
4.4761868 2.2984719 0.97808659 4 13
4.5985456 2.3602901 -0.2708908 4 6
4.440423 2.2781491 1.1521993 4 14
4.5818491 2.3496976 -0.08987961 3 7
4.4405494 2.2762589 1.3370594 4 15
3.8815067 1.9819971 -1.1677916 3 0
4.5792274 2.337261 0.089740157 3 8
4.3275409 2.2078469 -1.1216062 7 1
4.5531101 2.3219306 0.26785553 2 9
4.5246639 2.3064263 0.4443197 1 10
4.6923561 2.3908751 -0.83410853 2 3
4.5159683 2.3000112 0.62226474 2 11
4.6596627 2.3721685 -0.64200801 4 4
4.4911456 2.285392 0.7981289 3 12
4.6470213 2.3647118 -0.45617333 1 5
4.4779778 2.2777104 0.97656012 4 13
4.5968933 2.3371832 -0.27026281 4 6
4.4526119 2.2628496 1.1530992 4 14
4.5872717 2.330277 -0.089809805 3 7
4.4458113 2.2574413 1.3360239 6 15
3.8815079 1.9649451 -1.1657211 3 0
4.5730848 2.3140383 0.089460924 3 8
4.3421769 2.1962466 -1.1234053 7 1
4.534452 2.2925048 0.26628542 4 9
4.5291314 2.2888198 0.44397104 5 10
4.6759872 2.3620126 -0.82972819 2 3
4.5310583 2.2878108 0.6232397 1 11
4.664372 2.354099 -0.6415199 4 4
4.5096769 2.2750401 0.80000603 4 12
4.6232271 2.332324 -0.45303568 2 5
4.4823952 2.2602959 0.97579741 1 13
4.6264262 2.3319097 -0.27151886 4 6
4.4570022 2.2455404 1.1521993 4 14
4.595377 2.3142512 -0.089809798 3 7
4.4433117 2.2366958 1.3329183 3 15
3.8917966 1.9531159 -1.1667563 3 0
4.5847077 2.2998576 0.089530729 1 8
4.3393645 2.1758342 -1.1207058 7 1
4.5495691 2.2802408 0.26670411 5 9
4.5370917 2.2729995 0.44397104 5 10
4.6877379 2.3474443 -0.83035403 2 3
4.5106153 2.2577631 0.61933994 3 11
4.6832108 2.3431356 -0.64298302 2 4
4.5069909 2.2539821 0.7981289 4 12
4.629559 2.3152795 -0.45286137 4 5
4.4656739 2.2323449 0.97045475 1 13
4.6273894 2.3121781 -0.27110016 2 6
4.4560971 2.2256138 1.1499498 4 14
4.6070065 2.2999816 -0.089879625 3 7
4.4476333 2.2194498 1.331883 1 15
3.9089677 1.9446828 -1.169862 3 0
4.621357 2.298085 0.090089217 1 8
4.3451891 2.1598053 -1.1202559 7 1
4.5485578 2.2599039 0.26618075 5 9
4.5557055 2.262464 0.44501692 3 10
4.6959038 2.3310652 -0.83035403 3 3
4.5042424 2.2349467 0.61738998 3 11
4.6700206 2.3161881 -0.64005804 2 4
4.5077524 2.234725 0.79687732 4 12
4.6411829 2.3008735 -0.45320994 4 5
4.483994 2.2219746 0.97274399 4 13
4.599638 2.2782805 -0.26900673 6 6
4.4498687 2.2031274 1.1463506 4 14
4.597084 2.2750177 -0.089530565 3 7
4.4605494 2.2064798 1.3334359 4 15
3.9053371 1.9258983 -1.1667563 3 0
4.5863028 2.260721 0.089251488 3 8
4.3631887 2.1497955 -1.1229554 7 1
4.5420852 2.2369521 0.2653434 4 9
4.5564251 2.2430289 0.4443197 1 10
4.7040105 2.3146625 -0.83035403 3 3
4.5120168 2.219209 0.61738998 3 11
4.6638274 2.2928653 -0.63810766 4 4
4.5332532 2.2276917 0.80000603 3 12
4.6760077 2.297843 -0.4558247 1 5
4.4987717 2.2097702 0.9742704 4 13
4.6254911 2.2710121 -0.27005342 4 6
4.4802732 2.1987453 1.1521994 4 14
4.5942259 2.2536716 -0.089321136 3 7
4.471694 2.1925962 1.3344712 5 15
3.9085639 1.9105607 -1.1657211 3 0
4.5977592 2.2464523 0.089321293 3 8
4.356658 2.1277092 -1.1193562 7 1
4.5534539 2.2228386 0.2655527 5 9
4.5355778 2.2131295 0.44153073 5 10
4.6943083 2.2895677 -0.82722545 2 3
4.5197353 2.2034466 0.61738998 2 11
4.6468186 2.2643983 -0.63469583 4 4
4.4983797 2.191092 0.79249716 3 12
4.6410117 2.2605662 -0.45164123 2 5
4.4958668 2.1888971 0.97198069 2 13
4.640574 2.2583492 -0.27047214 4 6
4.4861684 2.1822391 1.1517494 1 14
4.6056623 2.2393687 -0.089390956 3 7
4.4515195 2.1634631 1.3261889 4 15
3.9117324 1.8952198 -1.1646857 5 0
4.5875769 2.2216725 0.088972248 3 8
4.3710747 2.115886 -1.1211559 7 1
4.5557919 2.20432 0.26523867 5 9
4.5396891 2.1955483 0.44118211 5 10
4.6880431 2.2662904 -0.82472247 2 3
4.5345483 2.191112 0.61836493 3 11
4.6904459 2.2654297 -0.63957006 4 4
4.5131154 2.1788127 0.79374862 4 12
4.6363144 2.2382898 -0.45042107 4 5
4.4787254 2.1612463 0.96663809 1 13
4.6592231 2.2473416 -0.27110016 2 6
4.4709382 2.155565 1.1459007 4 14
4.6206551 2.226754 -0.089530565 3 7
4.4416404 2.1395264 1.3210127 1 15
3.9148412 1.87988 -1.1636504 3 0
4.6313586 2.2229521 0.089670338 1 8
4.3608642 2.0921845 -1.1166573 7 1
4.5598578 2.1866755 0.26502937 5 9
4.5473242 2.1796889 0.44118205 3 10
4.6959262 2.2499111 -0.82472247 2 3
4.5242662 2.1666944 0.61592764 3 11
4.6947427 2.2473297 -0.63908309 2 4
4.5206947 2.1630445 0.79374868 4 12
4.651288 2.2255306 -0.45111826 4 5
4.4897852 2.1472926 0.96740133 4 13
4.6273961 2.2121141 -0.2687974 6 6
4.4714022 2.1365833 1.144101 4 14
4.6211829 2.2071629 -0.089390956 3 7
4.4734883 2.1356623 1.3282595 4 15
3.9318454 1.8711851 -1.1667563 3 0
4.5921397 2.1844397 0.088762827 3 8
4.3646216 2.0752745 -1.115757 7 1
4.5512271 2.1630299 0.26408729 5 9
4.5836997 2.1774826 0.4439711 1 10
4.6966138 2.2301149 -0.82347089 2 3
4.5210409 2.1457829 0.61446512 3 11
4.6631012 2.2122104 -0.63372082 4 4
4.5282173 2.1472502 0.79374862 3 12
4.6716313 2.2152557 -0.45233843 1 5
4.4972529 2.1316082 0.96740133 4 13
4.6170397 2.187398 -0.26775068 6 6
4.4717889 2.1176248 1.1423014 4 14
4.628859 2.1910195 -0.089390956 3 7
4.4739308 2.1167302 1.326189 5 15
3.920881 1.849207 -1.1615798 3 0
4.5997362 2.1683974 0.08876282 5 8
4.3718386 2.0600274 -1.115757 7 1
4.5659781 2.150533 0.26450601 5 9
4.5480089 2.1411028 0.4397876 5 10
4.7007947 2.2120259 -0.82284522 2 3
4.5320973 2.1316772 0.61495268 3 11
4.6636095 2.1925404 -0.63274592 4 4
4.517807 2.1230302 0.79061991 1 12
4.6576958 2.1887674 -0.45024669 2 5
4.5011125 2.1142259 0.96663809 4 13
4.6354947 2.1763597 -0.2683787 4 6
4.4879742 2.106143 1.1445509 2 14
4.621995 2.1680532 -0.089111708 3 7
4.469049 2.0953584 1.3225656 6 15
3.9203112 1.8322386 -1.1595093 3 0
4.6036544 2.1506341 0.088693015 3 8
4.3860655 2.0480533 -1.1175566 7 1
4.5676551 2.1328459 0.26419199 5 9
4.5410109 2.1184742 0.43839312 7 10
4.7120671 2.1972742 -0.82347089 2 3
4.5395098 2.115845 0.61495262 3 11
4.6816506 2.1820962 -0.63420779 4 4
4.5194502 2.1055355 0.78968132 4 12
4.6526642 2.1666093 -0.4490265 4 5
4.5013452 2.0951884 0.96511161 4 13
4.6539283 2.1652217 -0.26900673 2 6
4.4754972 2.082207 1.1396019 3 14
4.6219063 2.1493423 -0.088972092 3 7
4.4742208 2.0797114 1.3220478 4 15
3.9228597 1.8176048 -1.158474 5 0
4.6361647 2.14712 0.089181684 1 8
4.3892965 2.0318592 -1.1166568 7 1
4.5710788 2.116008 0.26398265 5 9
4.544395 2.1017301 0.43804449 5 10
4.7049847 2.1750042 -0.82096809 2 3
4.5501051 2.1024461 0.61544013 3 11
4.6888609 2.1665599 -0.63420779 2 4
4.5264082 2.0905354 0.78968132 6 12
4.6525888 2.1478269 -0.44832927 4 5
4.4940066 2.0736706 0.9620586 4 13
4.6356916 2.1380644 -0.26754129 4 6
4.4947653 2.0730665 1.1427513 4 14
4.6290088 2.1340024 -0.088972092 3 7
4.4565282 2.0535474 1.3148009 4 15
3.9393988 1.8094229 -1.1615798 5 0
4.5960088 2.1100423 0.088274159 1 8
4.3818402 2.0107908 -1.113058 7 1
4.5784364 2.1000402 0.26398265 5 9
4.5984282 2.1082387 0.44257659 1 10
4.7013955 2.1544533 -0.81909078 2 3
4.5390048 2.079078 0.61300272 3 11
4.6783457 2.1419146 -0.63177097 4 4
4.5426588 2.0788336 0.7912457 3 12
4.6832366 2.1431656 -0.45059532 1 5
4.4972887 2.057122 0.96129543 2 13
4.6354904 2.119359 -0.26712263 6 6
4.4842505 2.049263 1.1382523 4 14
4.6364293 2.1178322 -0.088972092 3 7
4.4777284 2.0443964 1.3189421 4 15
3.9456913 1.7956598 -1.1615798 3 0
4.6069856 2.095643 0.088343963 5 8
4.3852844 1.9938713 -1.1121578 7 1
4.5675559 2.0757809 0.26293591 5 9
4.5694795 2.0756929 0.43909091 3 10
4.7196789 2.1429303 -0.82096797 3 3
4.5462351 2.06322 0.61300272 3 11
4.682179 2.1239297 -0.63128287 4 4
4.5606818 2.0678594 0.79312289 1 12
4.6761723 2.120224 -0.44920081 1 5
4.5044422 2.0414097 0.96129543 4 13
4.6428609 2.103164 -0.26712263 4 6
4.5126777 2.0432463 1.143651 2 14
4.6510811 2.1049318 -0.089111708 3 7
4.4725175 2.0231791 1.3153186 3 15
3.9554565 1.7834668 -1.1626152 5 0
4.6033359 2.0746181 0.08813455 3 8
4.395771 1.9801508 -1.113058 7 1
4.5674877 2.0565472 0.26251721 5 9
4.5694299 2.0564599 0.43839315 7 10
4.7127185 2.1199579 -0.81846499 3 3
4.5497861 2.0457125 0.61251515 3 11
4.6859422 2.1059468 -0.63079602 4 4
4.5210228 2.0308802 0.78498834 4 12
4.6621022 2.0932741 -0.4471091 4 5
4.5079594 2.0240641 0.96053219 4 13
4.6611071 2.0918527 -0.26775068 2 6
4.5020032 2.0195045 1.1391522 2 14
4.6328559 2.0772288 -0.088623054 3 7
4.4848399 2.0099256 1.3168714 5 15
3.9443278 1.7610784 -1.1574388 3 0
4.628809 2.0666883 0.088483587 1 8
4.4062161 1.9663843 -1.1139574 7 1
4.5746398 2.04059 0.26251724 4 9
4.5623775 2.0332112 0.43699864 7 10
4.7168479 2.1010642 -0.81783932 2 3
4.5569 2.0298173 0.61251515 3 11
4.6823854 2.0847313 -0.62933302 2 4
4.5316935 2.0166941 0.78561407 4 12
4.67484 2.0794199 -0.44763198 4 5
4.5189352 2.0091243 0.96129543 4 13
4.6541409 2.0682669 -0.26691329 4 6
4.4951262 1.9966627 1.1355529 4 14
4.6327672 2.0578005 -0.088483423 3 7
4.4777036 1.9879856 1.3127302 6 15
3.9575171 1.750428 -1.1595093 3 0
4.6107473 2.0383902 0.087994926 1 8
4.4044814 1.9462817 -1.1117078 7 1
4.5857425 2.0254247 0.2627266 5 9
4.5585108 2.012444 0.43595272 3 10
4.702467 2.0750153 -0.81408489 2 3
4.5715733 2.0163071 0.6134901 2 11
4.7117915 2.0771656 -0.63225788 4 4
4.5408626 2.0008664 0.785927 4 12
4.6838942 2.0638912 -0.44780633 2 5
4.5402927 1.9996715 0.96434838 2 13
4.6576767 2.0503974 -0.26670396 6 6
4.494935 1.9778191 1.1337533 4 14
4.6402779 2.040808 -0.088483423 3 7
4.4708123 1.9653426 1.3085893 6 15
3.963603 1.7366017 -1.1595092 3 0
4.6068449 2.0174689 0.08778549 3 8
4.4041071 1.927771 -1.1099082 7 1
4.5854654 2.0062017 0.26230791 5 9
4.5728106 1.9997115 0.43665004 1 10
4.7169209 2.061754 -0.81533641 3 3
4.54948 1.98762 0.60959035 3 11
4.7044601 2.0543492 -0.63030797 4 4
4.5641122 1.9921162 0.78874266 1 12
4.6910701 2.0475299 -0.44780636 1 5
4.507658 1.9665389 0.95595282 2 13
4.6501594 2.027739 -0.26586655 6 6
4.5071697 1.9644535 1.135103 4 14
4.6363745 2.0198047 -0.088274002 3 7
4.4776459 1.9497235 1.3085893 1 15
3.9660964 1.7212183 -1.158474 3 0
4.6101885 1.999787 0.087715678 3 8
4.4036579 1.9092841 -1.1081086 7 1
4.5792665 1.985422 0.26157519 5 9
4.5724478 1.9805726 0.43595329 7 10
4.7168384 2.0421357 -0.81408489 20 3
4.5527477 1.9701498 0.6091029 3 11
4.6897378 2.0284619 -0.62738377 4 4
4.5525627 1.9691292 0.78561407 3 12
4.6908736 2.0279787 -0.4471091 4 5
4.528913 1.957021 0.95900571 4 13
4.6755438 2.019417 -0.26691329 2 6
4.5014758 1.9433007 1.1319536 2 14
4.6503906 2.0075877 -0.088413611 3 7
4.4947281 1.9394571 1.3116949 3 15
3.9649818 1.7043111 -1.1564035 3 0
4.6167946 1.9844872 0.087715678 3 8
4.4171271 1.8977482 -1.1099082 7 1
4.5824976 1.9678501 0.26136583 2 9
4.5756726 1.9630276 0.43560413 7 10
4.7217693 2.0257051 -0.81377208 21 3
4.5738506 1.961301 0.61105281 3 11
4.7183337 2.0222814 -0.63030797 4 4
4.5448833 1.9470017 0.78311116 4 12
4.688767 2.0076697 -0.4462375 4 5
4.5389881 1.9435362 0.95976901 4 13
4.6528368 1.9913265 -0.26523852 4 6
4.4989367 1.9245313 1.1297041 4 14
4.6389832 1.9834795 -0.088064566 4 7
4.4854832 1.9169244 1.3070364 5 15
3.9706113 1.6911541 -1.1564035 3 0
4.6604924 1.9840235 0.088413775 1 8
4.4165521 1.8792671 -1.1081088 7 1
4.5856633 1.9502798 0.26115653 5 9
4.5748239 1.9447246 0.43490693 3 10
4.7233567 2.0068944 -0.81283343 23 3
4.57336 1.9422203 0.61007786 1 11
4.7034373 1.9964901 -0.62738377 4 4
4.5498328 1.9303546 0.78279823 4 12
4.6825585 1.9866661 -0.44501734 2 5
4.5421286 1.9261479 0.95900625 2 13
4.6597595 1.9750717 -0.26523852 6 6
4.512804 1.9118572 1.1315038 4 14
4.6495619 1.968835 -0.088134378 4 7
4.4796944 1.8959835 1.3034129 5 15
3.9764903 1.6772827 -1.1564034 3 0
4.6194811 1.947546 0.08750625 3 8
4.4302683 1.8668647 -1.1099083 7 1
4.5979652 1.9365852 0.26147053 5 9
4.599946 1.9364748 0.43665001 1 10
4.7157674 1.984264 -0.81033039 25 3
4.5764518 1.924704 0.60959029 2 11
4.7140369 1.9815996 -0.62787116 4 4
4.56565 1.9182855 0.78436261 3 12
4.6931396 1.9718512 -0.44536602 1 5
4.5596852 1.9148434 0.96129543 1 13
4.6666255 1.9587952 -0.26523852 6 6
4.5176535 1.8953377 1.1310537 4 14
4.6453409 1.9479542 -0.08792495 4 7
4.4969745 1.8848161 1.3065187 2 15
3.9858859 1.6648819 -1.1574388 3 0
4.6225595 1.9298694 0.087436438 5 8
4.4187741 1.8438832 -1.1054094 7 1
4.6046968 1.9205247 0.26147053 5 9
4.5772543 1.908139 0.43386102 5 10
4.7190189 1.9662701 -0.80970472 25 3
4.5501571 1.8949813 0.60520309 3 11
4.7135954 1.9620796 -0.62689561 4 4
4.5650229 1.8993005 0.78311116 3 12
4.6852779 1.949333 -0.44397146 2 5
4.5300856 1.8838397 0.95366359 2 13
4.6771235 1.9440255 -0.26544788 4 6
4.5152445 1.8758173 1.1288043 4 14
4.6631927 1.9363294 -0.088134386 3 7
4.4963899 1.8661439 1.3044481 2 15
3.9881036 1.6494807 -1.1564035 3 0
4.6218758 1.9106669 0.087296829 3 8
4.4179792 1.8254719 -1.1036097 7 1
4.6058354 1.9021513 0.26115653 2 9
4.5802031 1.8906302 0.43351236 5 10
4.7276788 1.9505399 -0.81001759 25 3
4.5604153 1.8805991 0.60569054 3 11
4.7094026 1.9410764 -0.62543374 4 4
4.5478806 1.8735731 0.77904379 4 12
4.6902113 1.9322083 -0.44379717 4 5
4.5402656 1.8695091 0.95442629 4 13
4.6617165 1.9185666 -0.26419181 4 6
4.5163579 1.8578215 1.1274545 4 14
4.6588268 1.9154761 -0.08792495 4 7
4.495729 1.847501 1.3023776 5 15
3.9938366 1.6355505 -1.1564035 3 0
4.6581278 1.906641 0.087855294 1 8
4.4423604 1.8174165 -1.1081086 7 1
4.5902629 1.8769923 0.25990048 2 9
4.5904632 1.8761392 0.43386102 5 10
4.7161722 1.926554 -0.80688882 6 3
4.5963554 1.8766754 0.60959029 1 11
4.7014461 1.9186263 -0.6234833 4 4
4.5543933 1.8576853 0.77904379 4 12
4.7043071 1.9188334 -0.4444944 4 5
4.5504003 1.8551304 0.95518953 2 13
4.6609869 1.899269 -0.26377314 6 6
4.5137916 1.8383687 1.125205 4 14
4.6469641 1.8916612 -0.087575905 4 7
4.5075183 1.833982 1.3039305 5 15
3.9887798 1.6172428 -1.1532977 3 0
4.6462231 1.8828578 0.08750625 3 8
4.4414515 1.7989756 -1.1063091 4 1
4.6004887 1.8624552 0.26010975 5 9
4.5822096 1.8541242 0.43246654 1 10
4.7338552 1.9145271 -0.80876613 2 3
4.5918369 1.8561552 0.60812789 2 11
4.7044344 1.900715 -0.62299639 4 4
4.5608487 1.8417794 0.77904379 4 12
4.7386866 1.9135946 -0.4471091 1 5
4.5859766 1.8509932 0.96129543 1 13
4.6712933 1.8844808 -0.2639825 6 6
4.5129509 1.8196895 1.1234055 3 14
4.6424103 1.8709452 -0.087366484 4 7
4.4923897 1.8095737 1.2977188 4 15
3.9908161 1.6018696 -1.1522624 3 0
4.6230717 1.8547159 0.086947769 5 8
4.4477048 1.7834598 -1.1063091 7 1
4.6047859 1.8464469 0.26000512 5 9
4.5849552 1.8366374 0.432118 4 10
4.7313404 1.8943185 -0.80720174 3 3
4.5817013 1.8334761 0.60593426 5 11
4.7147264 1.8857571 -0.6234833 4 4
4.5540929 1.8215083 0.77685368 4 12
4.6972375 1.8778114 -0.44257703 2 5
4.5377169 1.8131189 0.9498474 1 13
4.7000999 1.8770534 -0.26523852 4 6
4.5192761 1.8039242 1.1234056 4 14
4.6820178 1.8688846 -0.087994754 1 7
4.5109267 1.7996763 1.3013424 1 15
4.0071535 1.5922121 -1.1553683 3 0
4.6291962 1.839376 0.086947769 3 8
4.4391055 1.7629453 -1.1027098 7 1
4.6167727 1.8325714 0.26031914 2 9
4.5857811 1.818417 0.4315955 4 10
4.7412696 1.8800734 -0.80782747 3 3
4.5840654 1.8168108 0.60544682 5 11
4.7283354 1.8730376 -0.62445825 4 4
4.5622606 1.8063266 0.7771666 4 12
4.6982064 1.859203 -0.44205409 4 5
4.5290999 1.7922831 0.94679391 4 13
4.6802969 1.8511734 -0.26377314 2 6
4.5288587 1.7903595 1.1243055 4 14
