# .PCD v0.7 - Point Cloud Data file format
VERSION 0.7
FIELDS x y z intensity ring
SIZE 4 4 4 4 2
TYPE F F F F U
COUNT 1 1 1 1 1
WIDTH 1290
HEIGHT 1
VIEWPOINT 0 0 0 1 0 0 0
POINTS 1290
DATA ascii
2.3369231 0.45552218 -0.20830229 2 5
12.348556 2.4047918 2.4454076 6 13
2.2957425 0.44666335 -0.12257078 40 6
13.040488 2.534816 3.066983 2 14
2.3183289 0.45021808 -0.041222461 10 7
11.809421 2.2912433 3.2233326 4 15
4.1410084 0.79818326 -1.130004 3 0
4.5870109 0.8824901 -1.0784152 4 1
3.1617084 0.60770553 0.16873118 2 9
5.1033211 0.98089898 -1.010143 2 2
13.320815 2.5579493 1.186712 6 10
2.3920183 0.45889929 -0.38576737 1 3
13.276813 2.5447016 1.6598603 16 11
2.3318064 0.44650289 -0.29151165 47 4
13.24376 2.5335748 2.135644 4 12
2.3541541 0.45035735 -0.20969677 4 5
2.305135 0.44014472 -0.12298947 45 6
16.699675 3.1856401 3.9249454 24 14
11.430205 2.1762927 3.1177344 1 15
4.1323805 0.78157032 -1.1268982 3 0
4.6053824 0.86936384 -1.0820143 4 1
3.1873627 0.60110629 0.16998725 1 9
5.0951381 0.96089458 -1.0078532 2 2
13.337494 2.5129137 1.187409 3 10
2.4052539 0.45273861 -0.38764462 2 3
2.3392038 0.43946075 -0.29224259 44 4
23.903465 4.4863696 3.8520429 8 12
22.38752 4.1978016 4.4275336 12 13
2.3145092 0.43356702 -0.12340814 45 6
16.710693 3.1273234 3.9249454 35 14
2.297828 0.42961207 -0.0408036 59 7
11.82703 2.2090974 3.2238507 4 15
4.1350832 0.76713979 -1.1268982 5 0
3.2521119 0.60274404 0.057732489 1 8
4.5968928 0.8511548 -1.0793149 4 1
3.2169366 0.59506333 0.17145267 1 9
5.113905 0.9459613 -1.0109061 2 2
24.074852 4.4489789 2.1419382 14 10
23.976509 4.4221511 2.993598 7 11
2.3426754 0.43165281 -0.29248631 42 4
23.876242 4.3950295 3.8451598 8 12
2.3494039 0.43246749 -0.20899957 43 5
22.595123 4.1551414 4.4656925 6 13
2.321902 0.42656729 -0.12372217 50 6
16.719595 3.0686173 3.9244962 28 14
2.3209496 0.42555606 -0.041187551 69 7
12.773386 2.3397446 3.479564 18 15
4.1491394 0.75477427 -1.1300038 3 0
4.5883317 0.83301377 -1.0766157 4 1
3.2543676 0.59024531 0.17333674 1 9
5.1210403 0.9288041 -1.0116695 2 2
24.113762 4.3691826 2.1440301 14 10
2.3869739 0.4320654 -0.38420302 48 3
23.999615 4.3398376 2.9945731 7 11
2.3441677 0.42347327 -0.29248631 42 4
23.918653 4.316576 3.8495402 8 12
2.3508987 0.4242644 -0.20899954 38 5
22.636541 4.0811157 4.471035 12 13
2.3194454 0.41775328 -0.12351283 42 6
14.9446 2.6889589 3.5056372 8 14
2.3165162 0.41638988 -0.041082837 43 7
11.874488 2.1322796 3.2326505 12 15
4.1441417 0.73893106 -1.1279334 3 0
4.5988851 0.81835902 -1.0784152 4 1
3.2760725 0.58237821 0.17438348 1 9
5.1281166 0.9116109 -1.0124327 2 2
24.148485 4.2884612 2.1457732 14 10
2.4040277 0.42649052 -0.38670596 57 3
23.963797 4.2470345 2.988236 7 11
2.3495412 0.41597956 -0.29297379 47 4
23.925793 4.2316751 3.8482883 8 12
2.3484414 0.41536105 -0.20865092 5 5
22.673845 4.0061774 4.4756169 6 13
2.3130224 0.40826505 -0.12309414 42 6
14.959655 2.6377873 3.5069871 8 14
10.926743 1.9227504 2.972796 10 15
4.1619205 0.72711939 -1.1320746 3 0
4.5940351 0.80096304 -1.0766157 4 1
3.2779853 0.57151181 0.17438346 1 9
5.1157947 0.89100873 -1.0093797 2 2
2.3899319 0.41539183 -0.38420305 59 3
24.005857 4.168107 2.9916482 7 11
2.3470674 0.40709651 -0.29248631 42 4
23.955269 4.1550174 3.8507919 8 12
2.3852129 0.41328517 -0.21178851 2 5
22.699301 3.9290099 4.4779043 12 13
2.3262417 0.40222979 -0.12372217 42 6
14.949565 2.5822456 3.5024879 8 14
10.927348 1.885517 2.9712429 17 15
4.137774 0.70802844 -1.1248276 3 0
2.3652575 0.40472716 0.041885726 1 8
4.6043496 0.78703642 -1.0784153 4 1
24.215797 4.1349349 1.2874651 10 9
5.1111326 0.87182397 -1.0078533 2 2
2.4127169 0.41111353 -0.38764462 54 3
23.996063 4.084486 2.9887233 7 11
2.3503613 0.39964315 -0.29273006 24 4
23.934568 4.0654225 3.8451598 8 12
2.3709269 0.40228978 -0.21039404 1 5
22.69672 3.8510921 4.4748511 6 13
2.331501 0.39518037 -0.1239315 42 6
14.958046 2.5326531 3.5024879 5 14
2.3344827 0.39484867 -0.041327164 1 7
10.928149 1.8463933 2.9696901 21 15
4.1477213 0.69558018 -1.1268983 3 0
2.3272116 0.38985994 0.041187625 5 8
4.6070685 0.77095813 -1.0784152 4 1
24.226139 4.049727 1.2872555 10 9
5.1217408 0.85616827 -1.0093797 2 2
24.120611 4.0277605 2.1394975 14 10
2.4024467 0.40073836 -0.3857674 57 3
24.01409 4.0013566 2.9892108 7 11
23.968102 3.9850843 3.8482885 8 12
2.3722482 0.39442459 -0.21039404 1 5
22.741014 3.7769835 4.4809575 6 13
2.3387773 0.3880218 -0.12424552 39 6
14.986023 2.4836061 3.5069871 5 14
2.327956 0.38539052 -0.041187551 1 7
10.932622 1.8079284 2.9691727 21 15
4.1577482 0.68234783 -1.1289686 3 0
2.2851448 0.37461647 0.040419724 22 8
4.5943465 0.75235552 -1.074816 4 1
5.1208234 0.8376497 -1.0086166 2 2
24.110931 3.939677 2.1374061 14 10
2.401881 0.39203325 -0.38545451 50 3
24.016157 3.9155846 2.9877484 7 11
2.407954 0.39216051 -0.29955474 1 4
23.950668 3.8963373 3.8432829 8 12
2.3854094 0.38806269 -0.21143991 1 5
22.746305 3.6963241 4.4794307 6 13
2.3361747 0.37921494 -0.12403619 38 6
14.450215 2.3430219 3.3796647 10 14
2.3648183 0.38301736 -0.041815832 1 7
10.950309 1.7716036 2.9722786 22 15
4.1601048 0.66782933 -1.1289686 3 0
2.2884126 0.36695457 0.040454626 39 8
4.5930963 0.73569608 -1.0739161 4 1
5.1295314 0.82069856 -1.0097612 2 2
24.148144 3.8592675 2.1394975 14 10
2.4168894 0.38582584 -0.38764459 54 3
24.049286 3.8348489 2.9901862 7 11
2.3818626 0.37938175 -0.29614237 1 4
23.94071 3.8089795 3.8395283 8 12
2.3788791 0.37848088 -0.21074267 1 5
22.817244 3.6261411 4.4908795 6 13
2.3414292 0.37168458 -0.12424552 18 6
14.439058 2.289511 3.3751657 18 14
2.3740411 0.37601095 -0.041955456 1 7
10.965965 1.7348807 2.9748664 23 15
4.1700439 0.65450478 -1.131039 3 0
2.319313 0.3636094 0.040978197 49 8
4.5956368 0.71965748 -1.0739162 4 1
5.1207271 0.80097133 -1.0074717 2 2
24.153597 3.7737153 2.1388006 14 10
2.4143186 0.3767772 -0.38701889 39 3
24.054674 3.7496707 2.9892108 7 11
2.3910182 0.37228617 -0.29711762 1 4
23.949961 3.7247736 3.838903 16 12
2.3880606 0.37139872 -0.21143991 1 5
22.868555 3.5525029 4.4985113 6 13
2.3506069 0.36473361 -0.12466422 40 6
14.44889 2.2393897 3.3756156 18 14
2.3753393 0.36772212 -0.041955456 1 7
10.991046 1.6995411 2.9800427 27 15
4.1684852 0.63935781 -1.130004 3 0
2.3185916 0.35520893 0.040943295 51 8
4.6096787 0.70538092 -1.0766157 4 1
24.252035 3.7110877 1.2857902 10 9
5.1118479 0.78131074 -1.005182 2 2
24.158745 3.6881711 2.1381032 14 10
2.4234297 0.36953893 -0.38827032 39 3
24.067614 3.6656752 2.9892106 7 11
2.3844531 0.36274278 -0.29614264 1 4
23.942654 3.642355 3.8357744 16 12
2.3814633 0.36186391 -0.21074267 2 5
2.3676634 0.35892037 -0.12550159 51 6
14.466253 2.1904023 3.3778653 18 14
2.3409567 0.35445505 -0.041327171 1 7
10.992802 1.6625085 2.9790075 27 15
4.1515856 0.62194192 -1.1248275 3 0
2.3177793 0.34722251 0.040908393 54 8
4.6081371 0.68951488 -1.0757157 4 1
24.252991 3.6246324 1.2851622 10 9
5.1300769 0.76578194 -1.0082347 2 2
24.155706 3.6014736 2.1367087 14 10
2.4265957 0.36179113 -0.38858318 50 3
24.111055 3.5905151 2.9931107 7 11
2.4170589 0.35950801 -0.30004221 1 4
23.964993 3.560214 3.8373384 24 12
2.3866539 0.3541331 -0.21109131 2 5
23.826307 3.5353613 4.6820698 28 13
2.3688405 0.35106742 -0.12550159 47 6
14.492714 2.1452675 3.3823643 21 14
2.3659184 0.34979042 -0.041746031 2 7
10.99854 1.6241233 2.979008 25 15
4.1689177 0.6104092 -1.1289687 3 0
2.3348064 0.34144413 0.041187625 57 8
4.6028032 0.67229748 -1.0739161 4 1
5.1520162 0.75159866 -1.0120511 1 2
24.167517 3.5213556 2.1367087 14 10
2.4337084 0.3541725 -0.38952184 54 3
24.068436 3.4983404 2.9862857 7 11
2.4143703 0.35049778 -0.29955477 2 4
23.983135 3.4773936 3.8382769 40 12
2.4095652 0.3489415 -0.21300872 3 5
22.997187 3.3303406 4.5168319 32 13
2.3621445 0.34165335 -0.1250829 45 6
14.500113 2.0946686 3.3823643 21 14
2.3592076 0.34038791 -0.041606408 2 7
11.011788 1.586826 2.9810781 23 15
4.1711268 0.5951243 -1.1289687 3 0
2.3399434 0.33385634 0.041257441 57 8
4.6205554 0.65842688 -1.0775152 2 1
2.3728006 0.33769926 0.12560634 1 9
2.4607451 0.34977749 -0.48312846 1 2
24.192093 3.4344389 2.1377573 14 10
2.4389017 0.34580415 -0.39014754 57 3
24.072639 3.4131835 2.9853108 7 11
2.411648 0.34151062 -0.29906756 2 4
23.991213 3.3931079 3.8376508 56 12
2.3851225 0.33690515 -0.21074268 19 5
22.258854 3.1401625 4.3695245 17 13
2.3614032 0.33271527 -0.12497824 42 6
14.523133 2.043678 3.3859634 21 14
2.3762233 0.33437932 -0.041885644 5 7
11.030652 1.550257 2.9847016 25 15
4.184659 0.58215863 -1.1320745 1 0
2.3451123 0.32582861 0.041327246 55 8
4.646101 0.64470029 -1.0829141 2 1
2.3324203 0.3236503 0.12340823 8 9
2.4191685 0.33525729 -0.47473288 11 2
24.192099 3.3483264 2.136709 14 10
2.440094 0.33728915 -0.39014754 57 3
24.108589 3.3281929 2.988236 7 11
2.4187827 0.33348304 -0.29979846 4 4
23.995085 3.3082564 3.8363996 100 12
2.3922052 0.32939327 -0.21126562 32 5
2.3724437 0.32582855 -0.12550159 45 6
14.547551 1.9953563 3.3900123 23 14
11.039825 1.5122703 2.9857371 21 15
4.2249532 0.57273692 -1.1424273 1 0
2.3580699 0.31966126 0.041536678 55 8
3.1998713 0.43320924 -0.74548769 1 1
24.148352 3.2563989 2.1318312 13 10
2.4529448 0.33077896 -0.39202473 57 3
24.099817 3.2455828 2.9857984 14 11
2.4120059 0.32440114 -0.29882351 26 4
24.002573 3.2239459 3.8357742 24 12
2.4091377 0.3231605 -0.2126601 37 5
22.312792 2.9930265 4.3760123 64 13
2.3754907 0.31822395 -0.12560627 42 6
14.573405 1.949684 3.3945115 23 14
2.3844459 0.3185775 -0.041990362 65 7
11.154183 1.4882853 3.0152421 6 15
2.3472757 0.30985948 0.041327246 55 8
3.1279471 0.41235757 -0.72839141 3 1
2.3187284 0.30567819 0.12257085 42 9
2.4486449 0.32237029 -0.48007551 47 2
24.24988 3.1882644 2.1398492 14 10
2.4501674 0.32170078 -0.391399 57 3
24.103128 3.1604004 2.9848237 28 11
2.4209964 0.31701228 -0.29979846 33 4
24.026838 3.1461437 3.8379636 29 12
2.3943918 0.31310236 -0.21126561 40 5
22.303633 2.9125733 4.3721981 64 13
2.3864894 0.31122071 -0.12612961 45 6
14.846796 1.9335341 3.4565978 21 14
2.3716087 0.30886033 -0.041746028 15 7
3.1940787 0.41087165 -0.8629027 1 0
2.3522573 0.30258361 0.041397057 55 8
3.1215661 0.40099007 -0.72659183 4 1
2.3296866 0.29885244 0.12309422 49 9
2.4517028 0.31407097 -0.48045719 47 2
24.201576 3.0960069 2.1346171 14 10
2.4512208 0.31357446 -0.391399 54 3
24.111507 3.0801957 2.9845798 42 11
2.4476333 0.31224725 -0.30296707 40 4
24.039637 3.062499 3.8382769 49 12
2.4093051 0.30650187 -0.21248578 39 5
23.002607 2.9262969 4.5072885 45 13
2.3756204 0.30179653 -0.12550159 40 6
12.107012 1.5316223 3.2699203 9 15
3.1800888 0.39835709 -0.85876161 1 0
2.3652046 0.29585937 0.041606482 55 8
3.1190789 0.3896074 -0.72569191 4 1
2.3306646 0.29112577 0.12309422 34 9
2.4507821 0.30569655 -0.48007551 48 2
24.207756 3.0152349 2.1342685 14 10
2.464062 0.30647841 -0.39327621 54 3
24.126053 2.9965184 2.9850676 100 11
2.4132485 0.29930294 -0.29857975 10 4
24.05162 2.983 3.8385897 66 12
2.4083309 0.29826623 -0.21231146 43 5
2.3786416 0.29374635 -0.12560627 42 6
14.931174 1.8412547 3.4732442 84 14
2.4054108 0.296626 -0.042304505 1 7
11.260712 1.386638 3.0400891 2 15
3.2543325 0.39612341 -0.87843186 1 0
2.3701432 0.28849825 0.041676302 48 8
3.1396995 0.38161251 -0.73019105 4 1
2.4479361 0.29666677 -0.47931224 46 2
24.301207 2.9407623 2.1415923 14 10
2.4729092 0.29925418 -0.39452767 54 3
24.137823 2.916728 2.9853108 100 11
24.042274 2.8966565 3.8354609 37 12
2.4212263 0.2912862 -0.21335733 42 5
23.912777 2.8768325 4.6816883 78 13
2.3895175 0.28704843 -0.12612963 40 6
14.923655 1.7901025 3.4700949 18 14
2.4064317 0.28822824 -0.042304508 1 7
14.129331 1.6898268 3.812923 9 15
2.3810647 0.28139707 0.04185082 32 8
4.6234608 0.5455879 -1.0748159 4 1
2.4450073 0.28808737 -0.47854906 43 2
2.4932153 0.29332763 0.21963234 1 10
2.4739385 0.290622 -0.39452767 54 3
24.151806 2.8329103 2.9857986 100 11
2.4388893 0.28564048 -0.30150494 1 4
24.046352 2.8120444 3.8345225 25 12
2.4143126 0.28190783 -0.2126601 31 5
23.934376 2.7947037 4.6839809 43 13
2.3905048 0.27870509 -0.12612961 39 6
19.887058 2.3150914 4.6222939 15 14
2.3875594 0.27751696 -0.041955456 1 7
14.121709 1.6389333 3.8092992 9 15
4.6021042 0.52678508 -1.0694171 4 1
2.3732722 0.27123973 0.12518767 2 9
2.4616516 0.28090534 -0.48160201 42 2
2.3754985 0.27065423 0.20917365 1 10
2.4690993 0.28088215 -0.39358911 47 3
24.14971 2.747246 2.9843359 100 11
2.4556508 0.27891818 -0.30345455 1 4
24.069761 2.729641 3.8367126 100 12
23.9347 2.705863 4.6820722 21 13
2.4014337 0.2710622 -0.12665299 15 6
2.4322305 0.27410731 -0.042723361 1 7
14.129266 1.5898484 3.8098173 9 15
4.1875997 0.46527395 -1.1289686 1 0
2.3730803 0.26324901 0.041676302 2 8
4.6040034 0.50991499 -1.0694171 4 1
2.3742046 0.26295429 0.12518767 2 9
2.4704225 0.27317327 -0.48312846 38 2
2.3586056 0.26039332 0.20760486 10 10
2.4484661 0.26988152 -0.39014754 19 3
24.165537 2.6593599 2.9850674 100 11
2.4723947 0.27208114 -0.30540445 1 4
24.079147 2.6456108 3.8367131 56 12
2.4538512 0.26917481 -0.21597201 1 5
23.949858 2.6229341 4.6832147 21 13
19.898865 2.1757736 4.6213946 70 14
2.4371483 0.26605129 -0.042793173 1 7
14.009896 1.5269096 3.7761705 2 15
4.1775951 0.45014387 -1.1258628 3 0
2.391834 0.2573024 0.04199044 3 8
4.6211705 0.4963083 -1.0730164 4 1
2.3750639 0.25507906 0.12518767 2 9
2.4654584 0.26435211 -0.4819836 6 2
24.166325 2.578371 2.984092 98 11
2.4693353 0.26346016 -0.30491725 1 4
24.109392 2.5680413 3.8401542 40 12
2.442843 0.25977129 -0.21492612 2 5
23.958422 2.5435035 4.683217 14 13
2.4052093 0.25492036 -0.12675764 2 6
19.902092 2.1093581 4.6204948 75 14
2.4380169 0.25796723 -0.04279317 1 7
17.526768 1.8514191 4.7224131 10 15
4.1905932 0.43749243 -1.1289687 3 0
4.6111612 0.47977212 -1.0703169 4 1
2.3759398 0.24678637 0.12518767 2 9
2.3523538 0.24392267 0.2069076 42 10
2.48557 0.25729787 -0.39577919 2 3
24.180672 2.4988248 2.9848239 63 11
2.4702399 0.25483945 -0.30491725 1 4
24.108381 2.4828615 3.8385897 32 12
2.4635098 0.25371069 -0.21666922 2 5
23.982351 2.4656405 4.6862679 7 13
2.4259095 0.24898267 -0.12780437 2 6
19.907394 2.0396795 4.6200447 15 14
2.4269664 0.24823391 -0.042583738 1 7
4.1767182 0.42130965 -1.1248276 3 0
4.620563 0.46445379 -1.0721164 4 1
2.3787735 0.23869117 0.12529232 4 9
2.5043163 0.25128838 -0.48923436 2 2
2.3472438 0.23511359 0.20638469 51 10
2.5218332 0.25215822 -0.40141082 2 3
24.20307 2.4157882 2.9865298 49 11
2.4908679 0.2481827 -0.30735436 1 4
24.130663 2.4000547 3.8407795 24 12
2.4505029 0.24372892 -0.21544908 7 5
24.022068 2.3850203 4.6923766 7 13
2.4208012 0.2399215 -0.12749034 9 6
19.922152 1.9709395 4.6218443 15 14
2.4198585 0.23897515 -0.042444121 1 7
17.539265 1.7290139 4.7224126 31 15
4.1743174 0.4063541 -1.1237922 5 0
2.3883855 0.23207958 0.041885722 49 8
4.6687083 0.45283619 -1.0829142 2 1
2.5071323 0.24273488 -0.48961601 6 2
2.3539991 0.2274942 0.2069076 53 10
2.4991031 0.24107705 -0.39765638 2 3
24.207407 2.330914 2.9860425 28 11
2.4759111 0.2379676 -0.30540445 1 4
24.123163 2.3143044 3.8382769 16 12
2.4434056 0.23441304 -0.21475187 29 5
24.006796 2.2989008 4.6877942 7 13
2.4335535 0.23261064 -0.1281184 27 6
19.952185 1.9036112 4.6272426 5 14
2.4366033 0.23204277 -0.042723361 2 7
17.541346 1.6674097 4.7213774 28 15
4.1641707 0.3906987 -1.1206864 3 0
2.393163 0.22411337 0.041955531 56 8
2.5301285 0.23649444 -0.58667219 6 1
2.3627141 0.22001413 0.20760512 49 10
2.5018966 0.23253426 -0.39796931 9 3
24.221323 2.2469549 2.9867735 14 11
2.4767268 0.22932296 -0.30540445 1 4
24.166502 2.2333503 3.8439083 16 12
2.4680159 0.22808199 -0.21684356 41 5
24.010761 2.2147429 4.6870337 7 13
2.4363391 0.22429697 -0.12822305 32 6
16.24835 1.493014 3.7670302 3 14
2.4453635 0.22426823 -0.042862978 2 7
4.1770525 0.37720197 -1.1237922 5 0
2.401897 0.21647683 0.042095147 52 8
2.5154116 0.22626504 -0.58307302 23 1
2.3711967 0.21287552 0.12476898 44 9
2.5087662 0.2252259 -0.48961604 46 2
2.3753746 0.21283157 0.20865071 49 10
2.4636331 0.21987385 0.30369836 1 11
2.4775121 0.2206755 -0.30540445 2 4
24.170212 2.1486349 3.8432827 8 12
2.4628813 0.21850707 -0.21632062 49 5
24.045727 2.1333392 4.6923766 7 13
2.4271603 0.21490978 -0.1276997 45 6
19.939758 1.7620428 4.6213946 20 14
2.4540994 0.21643299 -0.043002598 4 7
12.799265 1.126541 3.4428115 1 15
4.1707087 0.36122397 -1.1217216 3 0
2.4106071 0.20878202 0.042234771 57 8
2.54725 0.22016753 -0.59027141 43 1
2.3719254 0.2045977 0.12476898 48 9
2.5017502 0.21535631 -0.4880895 47 2
2.3761387 0.20412448 0.20865071 47 10
2.5074325 0.21496259 -0.39859498 34 3
2.4050505 0.20618537 0.29638621 2 11
2.4881566 0.21287379 -0.30662313 3 4
24.18544 2.064918 3.8445342 8 12
2.4556887 0.20923145 -0.21562341 43 5
24.061209 2.0458636 4.6939001 7 13
2.433902 0.20651948 -0.12801372 36 6
17.592493 1.486568 4.7306943 7 15
4.1719446 0.34666213 -1.1217217 3 0
2.4193275 0.20060681 0.042374387 57 8
2.5383294 0.21002704 -0.58802199 40 1
2.3865581 0.1974691 0.12550166 47 9
2.5064001 0.20694467 -0.48885274 43 2
2.3768365 0.1958306 0.20865071 46 10
2.5258863 0.20766596 -0.40141082 46 3
2.3840265 0.1955841 0.29370505 12 11
24.216125 1.9824332 3.8482885 8 12
2.4623613 0.20114538 -0.21614632 46 5
24.060377 1.9612172 4.6923766 7 13
2.4425707 0.19866933 -0.12843239 38 6
19.957682 1.6197848 4.6227441 65 14
2.4635231 0.19994193 -0.043142214 47 7
4.1692777 0.33179161 -1.1206864 3 0
2.4120059 0.19194771 0.042234771 55 8
2.5467827 0.202226 -0.58982164 40 1
2.3971879 0.18992536 0.12602504 41 9
2.5090644 0.19834971 -0.48923436 47 2
2.3755198 0.1873754 0.20847644 38 10
2.5245917 0.19913386 -0.40109795 47 3
2.5113511 0.19720748 -0.30930457 40 4
24.234713 1.8988105 3.8501658 8 12
2.4590759 0.19223769 -0.21579771 46 5
24.058922 1.8808007 4.6908474 7 13
2.4511807 0.19119129 -0.12885109 38 6
19.970715 1.5542028 4.6245437 80 14
2.4522443 0.19041191 -0.04293279 9 7
12.321134 0.95455432 3.311331 1 15
4.1703544 0.31796482 -1.1206863 5 0
2.4206371 0.18413313 0.042374391 52 8
2.5416434 0.19289172 -0.58847183 12 1
2.5175388 0.19062167 -0.49076086 46 2
2.5252714 0.19031951 -0.40109795 47 3
2.3833237 0.1792043 0.29346135 47 11
2.4981673 0.18739986 -0.30759838 38 4
24.229061 1.8175415 3.8482888 8 12
2.475594 0.18527207 -0.21719217 43 5
24.100576 1.7994556 4.6977162 7 13
2.4438663 0.18203981 -0.12843239 38 6
19.989622 1.4854878 4.6276932 80 14
17.599163 1.3047577 4.7286239 10 15
4.1675858 0.30312422 -1.1196512 3 0
2.4252234 0.17639564 0.042444199 57 8
2.529938 0.18268037 -0.49305055 45 2
2.5317996 0.18236941 -0.40203655 41 3
2.3680649 0.17016105 0.29151145 50 11
24.26284 1.7349209 3.8526688 8 12
2.4802008 0.17691359 -0.21754082 43 5
24.071165 1.7170044 4.6908474 7 13
2.4404719 0.17365161 -0.12822305 35 6
19.98472 1.4184964 4.6254435 80 14
2.4814091 0.17569402 -0.043421455 1 7
17.63059 1.2452264 4.7358713 28 15
4.18784 0.29063866 -1.1248275 3 0
2.4338038 0.16848186 0.042583816 55 8
4.6211519 0.3190923 -1.0694171 4 1
2.3950315 0.16495669 0.12581569 1 9
2.5148609 0.17320991 -0.4899976 47 2
2.4090979 0.16550425 0.2112654 1 10
2.5127134 0.17218198 -0.3989079 7 3
2.3864682 0.16311154 0.29370505 31 11
2.5132492 0.17133616 -0.3093043 1 4
24.27663 1.6507584 3.85392 8 12
2.4887249 0.16922791 -0.21823806 43 5
24.084846 1.6334947 4.6923766 7 13
19.997322 1.3492569 4.6272426 70 14
2.4780166 0.16676201 -0.043351643 1 7
17.625193 1.183025 4.733283 28 15
4.1695523 0.27474928 -1.1196512 3 0
2.4463496 0.16077143 0.042793248 57 8
4.6300163 0.30346808 -1.0712168 4 1
2.4354529 0.15920156 0.12790914 1 9
2.527205 0.16519924 -0.49228737 42 2
2.4017081 0.15657479 0.21056814 1 10
2.5217557 0.16307518 -0.31027928 1 4
2.4873121 0.16041191 -0.21806374 41 5
24.133503 1.5521902 4.7007689 7 13
20.003855 1.2795736 4.6276927 75 14
2.4985406 0.15938348 -0.043700691 1 7
17.631144 1.1216209 4.7338009 28 15
4.1743426 0.26043463 -1.1206864 5 0
2.4329252 0.15136127 0.042548917 41 8
4.6271567 0.28706405 -1.0703168 4 1
2.4359937 0.15069862 0.12790914 1 9
2.5316849 0.15661839 -0.49305055 43 2
2.4062178 0.14843504 0.21091679 1 10
2.553287 0.1570614 -0.40516526 1 3
2.4053817 0.1475407 0.29589874 4 11
2.4866443 0.15208957 -0.30589193 1 4
2.4858949 0.15117282 -0.21788944 42 5
23.198151 1.4107312 4.5175924 6 13
2.525888 0.15316243 -0.13261928 1 6
20.023764 1.2106843 4.6312919 75 14
2.4990816 0.1506615 -0.043700691 1 7
17.634951 1.060065 4.7338009 28 15
4.1984119 0.24649081 -1.1268982 5 0
2.4474127 0.14368878 0.042793252 36 8
4.6203489 0.27045381 -1.0685172 4 1
2.448468 0.1428932 0.12853716 2 9
2.5440013 0.14802305 -0.49534023 43 2
2.4027672 0.13938458 0.21056816 2 10
2.5972311 0.15021063 -0.41204834 1 3
2.5505772 0.14706577 -0.31369185 1 4
2.4414856 0.14034809 0.38733181 1 12
2.5043092 0.14352098 -0.21945824 31 5
23.156122 1.3230139 4.5084338 6 13
2.4985156 0.14231402 -0.13115385 1 6
20.03196 1.1375014 4.6321921 76 14
2.4995923 0.14193769 -0.043700691 1 7
17.646259 0.99894154 4.7358713 28 15
4.1838145 0.23098101 -1.1227568 5 0
2.4479225 0.13471696 0.042793248 56 8
4.6290922 0.25394556 -1.0703168 4 1
2.4369864 0.13368967 0.12790914 1 9
2.5484233 0.13935564 -0.49610344 46 2
2.4231334 0.13208026 0.21231125 2 10
2.5701251 0.13964383 -0.4076682 1 3
2.3924999 0.12957294 0.29419252 41 11
2.5074909 0.1353617 -0.30832961 1 4
2.4399889 0.13171773 0.38701901 20 12
2.4968369 0.13435075 -0.218761 37 5
23.109627 1.239436 4.4985142 6 13
2.5109637 0.13423073 -0.13178189 1 6
20.026077 1.0670557 4.6299424 45 14
2.5120533 0.13385053 -0.043910116 1 7
17.659283 0.937846 4.7384596 28 15
4.1845956 0.21637823 -1.122757 5 0
2.4563439 0.12701331 0.042932864 51 8
4.6182318 0.2379905 -1.0676174 4 1
2.4374382 0.12518154 0.12790914 2 9
2.5449729 0.13026018 -0.49534026 38 2
2.4156206 0.12321568 0.21161403 6 10
2.5784652 0.13152203 -0.40891966 1 3
2.42662 0.12335211 0.29833612 47 11
2.5436118 0.12885411 -0.31271663 1 4
2.5032604 0.12593399 -0.21928394 47 5
23.235178 1.168915 4.5221744 6 13
2.4954369 0.12510383 -0.13094452 1 6
20.033398 1.0008298 4.6308422 40 14
2.4965281 0.12428492 -0.043630887 2 7
17.648943 0.87553149 4.7348361 24 15
4.1814313 0.20231256 -1.1217217 5 0
2.460767 0.11863025 0.043002676 54 8
4.6229277 0.22205418 -1.0685172 4 1
2.45382 0.11743687 0.12874649 2 9
2.5532348 0.12219474 -0.49686673 6 2
2.6104791 0.12401989 -0.41392556 1 3
2.4111729 0.11413053 0.29638621 48 11
2.5361142 0.11960094 -0.31174192 2 4
2.4349291 0.11440209 0.38608035 61 12
2.5076652 0.11738209 -0.21963255 46 5
2.507829 0.11695112 -0.13157254 2 6
20.058184 0.93188375 4.6357913 66 14
2.5129271 0.11630864 -0.043910123 2 7
17.657679 0.81419057 4.7363882 28 15
4.1589856 0.18594898 -1.1155101 3 0
2.4571707 0.10986054 0.042932864 57 8
4.6392488 0.20661259 -1.0721164 4 1
2.4442387 0.1084275 0.12822314 4 9
5.148519 0.22749026 -1.0017474 2 2
2.4343359 0.10713804 0.21318281 62 10
2.5951285 0.11375967 -0.41142264 1 3
2.4254389 0.10632118 0.2980924 57 11
2.5563486 0.11161273 -0.31417903 9 4
2.4234722 0.10538862 0.38420314 57 12
2.5120406 0.10879972 -0.21998116 43 5
23.317486 1.0058334 4.5366735 6 13
2.5242043 0.10844504 -0.13240993 3 6
20.061466 0.85836494 4.6357913 71 14
2.4873455 0.10642543 -0.043456361 22 7
17.658487 0.75246185 4.7358713 28 15
4.1789112 0.17222668 -1.1206864 3 0
2.4615531 0.10101835 0.043002676 55 8
4.6088219 0.1883311 -1.064918 4 1
5.1571283 0.20983753 -1.0032738 2 2
2.4287226 0.098397344 0.21265988 42 10
2.5994573 0.10485882 -0.41204834 2 3
2.4178782 0.097112656 0.29711744 48 11
2.4376419 0.097480357 0.38639319 57 12
2.5243497 0.10050531 -0.22102703 45 5
24.187929 0.95880997 4.7053485 7 13
2.5086019 0.099002518 -0.13157256 22 6
20.079916 0.78893888 4.6393905 76 14
17.680311 0.69157666 4.7410483 28 15
4.1833482 0.157783 -1.1217217 3 0
2.4658709 0.093005046 0.043072481 52 8
4.6133151 0.17319377 -1.0658178 4 1
5.1617532 0.19197913 -1.0040371 2 2
2.4409978 0.0903605 0.21370575 47 10
2.6076868 0.096530966 -0.41329983 2 3
2.4221544 0.089240827 0.29760492 48 11
2.5471468 0.093399629 -0.31296036 46 4
2.4379673 0.088970162 0.38639319 49 12
2.5326498 0.091984086 -0.2217243 46 5
24.194899 0.87874192 4.7061143 7 13
2.5000179 0.089488283 -0.043665785 55 7
17.690338 0.63012689 4.7431183 28 15
4.1722641 0.14351203 -1.118616 3 0
2.4781718 0.084807873 0.043281917 52 8
4.6216822 0.15735544 -1.0676174 4 1
2.4552059 0.083592944 0.12874649 35 9
5.1427402 0.17419745 -1.0002209 2 2
2.4432755 0.082332939 0.21388008 44 10
2.5902393 0.086832747 -0.41048399 7 3
2.4284031 0.080983222 0.29833612 49 11
2.5534093 0.084704638 -0.31369156 48 4
2.4343004 0.080753431 0.38576746 51 12
2.5369236 0.083715722 -0.22207293 45 5
24.193895 0.79414546 4.7053485 7 13
2.5152063 0.08211901 -0.13188659 50 6
17.663813 0.57362849 4.080162 3 14
2.5042982 0.081326537 -0.043735594 57 7
17.701984 0.5717755 4.7457066 31 15
4.1727395 0.12894811 -1.118616 5 0
2.4904318 0.076960586 0.043491345 52 8
4.6221781 0.14202946 -1.0676174 4 1
5.1315427 0.1558883 -0.99793118 2 2
2.4435477 0.073804341 0.21388008 49 10
2.6023598 0.07860107 -0.41236123 46 3
2.4405632 0.07328672 0.29979855 49 11
2.551692 0.076179244 -0.31344783 43 4
2.4345675 0.07225731 0.38576746 48 12
2.5292342 0.074623987 -0.22137569 45 5
23.383965 0.68993396 4.5473585 6 13
2.5214539 0.073955193 -0.13220058 32 6
2.5025682 0.072525837 -0.043700691 46 7
17.671045 0.50903022 4.736907 14 15
4.1576953 0.11468282 -1.1144749 3 0
2.4826894 0.068047069 0.043351725 52 8
4.6304383 0.12610516 -1.0694171 4 1
5.1595068 0.13961269 -1.0032738 2 2
2.4358122 0.065485977 0.21318281 44 10
2.6144667 0.069832429 -0.41423845 53 3
2.4427888 0.064820297 0.3000423 46 11
2.5638485 0.067584887 -0.31491026 43 4
2.4427037 0.063964836 0.38701898 54 12
2.5334625 0.065898992 -0.22172429 42 5
23.356791 0.60754359 4.5416346 33 13
2.5207973 0.064248875 -0.044014834 40 7
17.692022 0.44783619 4.7420826 21 15
4.1735382 0.09981177 -1.118616 3 0
2.4909084 0.059571024 0.043491341 51 8
4.6152649 0.10957209 -1.0658178 4 1
2.5038674 0.059007689 0.13125862 1 9
5.1442823 0.12033259 -1.0002209 2 2
2.4479871 0.056835856 0.21422869 15 10
2.6048305 0.060022507 -0.4126741 13 3
2.4330773 0.056064833 0.2988236 30 11
2.5720072 0.058815829 -0.31588551 41 4
2.4527867 0.055662408 0.38858333 49 12
2.553596 0.05750424 -0.22346739 42 5
23.370636 0.52218974 4.5439243 39 13
2.5498734 0.056529954 -0.13366599 1 6
14.47369 0.31835026 3.3423228 2 14
2.5170078 0.055361837 -0.043945018 7 7
17.714724 0.38653558 4.7477765 28 15
4.1738615 0.085243665 -1.118616 5 0
2.4911101 0.050441541 0.043491345 48 8
4.6195326 0.092732631 -1.0667177 4 1
2.4800963 0.049785521 0.13000257 1 9
5.1682258 0.10284476 -1.0048004 2 2
2.5722053 0.04938912 -0.31588551 40 4
2.4569161 0.047175441 0.38920906 30 12
2.5577652 0.048665304 -0.22381604 42 5
23.37624 0.44068673 4.5446897 46 13
2.5420675 0.047479019 -0.13324732 1 6
14.392881 0.26630774 3.323427 2 14
17.723692 0.32484263 4.7498474 28 15
4.1818595 0.070805356 -1.1206864 3 0
2.5072591 0.042451773 0.043770585 23 8
4.6159172 0.077348806 -1.0658178 4 1
2.5042186 0.04152596 0.13125864 1 9
5.1567745 0.084611513 -1.0025105 2 2
2.4941432 0.040488083 0.21823785 1 10
5.8404198 0.094809078 -0.92515337 2 3
2.4572275 0.039459877 0.30174845 2 11
2.5525072 0.040544353 -0.31344783 16 4
2.5718646 0.039953914 -0.22503622 23 5
23.397207 0.36347556 4.5485067 46 13
2.5781574 0.039600395 -0.1351314 1 6
2.5473249 0.038238682 -0.044468593 1 7
17.728582 0.26302606 4.7508826 29 15
4.1704807 0.056778464 -1.1175805 3 0
4.6200566 0.061286248 -1.0667176 4 1
2.504348 0.032783687 0.13125862 1 9
5.1413226 0.067303546 -0.99945766 2 2
2.4703572 0.031908695 0.21614613 2 10
5.8486156 0.074520752 -0.92640477 2 3
2.4771993 0.031131102 0.30418581 2 11
24.338778 0.29737008 3.8551717 8 12
23.406185 0.28189021 4.5500331 46 13
2.5662973 0.030460244 -0.13450338 1 6
14.273546 0.16691931 3.2955329 2 14
2.5474429 0.029345948 -0.044468593 1 7
17.727463 0.20112199 4.7503657 29 15
4.1706538 0.042221297 -1.1175805 3 0
2.5354888 0.025225284 0.044259254 2 8
4.628037 0.045236021 -1.0685172 4 1
2.5204248 0.024195589 0.13209601 1 9
5.1533046 0.049470723 -1.0017473 2 2
2.4784224 0.023359794 0.21684335 2 10
5.836988 0.053993624 -0.92452753 2 3
2.4911883 0.022610504 0.30589202 6 11
2.6063228 0.023200588 -0.32002905 1 4
24.363369 0.21261044 3.8589263 24 12
2.5800459 0.02251514 -0.22573343 2 5
23.41684 0.2002745 4.5519404 19 13
2.558399 0.021434398 -0.13408469 1 6
14.274043 0.11709051 3.2955332 2 14
2.5475295 0.02045407 -0.044468589 2 7
17.724194 0.13921376 4.74933 17 15
4.1669121 0.027636006 -1.1165453 3 0
2.4855697 0.016051114 0.043386627 13 8
4.624269 0.02905737 -1.0676174 4 1
2.5324771 0.015470047 0.13272403 1 9
5.1455941 0.031432696 -1.000221 2 2
2.4585655 0.014589455 0.21510024 13 10
5.8489943 0.033690684 -0.92640483 2 3
2.6063879 0.01410199 -0.32002905 5 4
24.425198 0.12790252 3.8686249 49 12
2.5840938 0.013531604 -0.22608209 2 5
24.15361 0.12225337 4.695045 29 13
2.5664475 0.012542146 -0.13450338 1 6
14.239286 0.067108601 3.2874346 2 14
2.5715821 0.011669624 -0.044887453 3 7
17.734226 0.077381343 4.7519178 21 15
4.1824384 0.013142028 -1.1206864 5 0
2.4716129 0.007333749 0.043142296 22 8
4.6321373 0.012936019 -1.0694171 4 1
2.5365105 0.0066397395 0.13293338 1 9
5.1495981 0.013479932 -1.0009841 2 2
5.8490758 0.013272121 -0.92640477 2 3
2.503196 0.0052419351 0.30735445 39 11
2.5726748 0.004939666 -0.31588551 22 4
24.370186 0.04253884 3.859865 24 12
2.5980718 0.0045350068 -0.22730224 10 5
23.72197 0.037256021 4.6110911 27 13
2.5784595 0.003600772 -0.13513142 1 6
14.266715 0.017433347 3.2937331 2 14
17.751781 0.015495779 4.7565775 29 15
4.1747313 -0.0021858844 -1.118616 3 0
2.5096173 -0.0017520438 0.043805487 39 8
4.6204619 -0.0040321136 -1.0667177 4 1
2.52054 -0.0021995862 0.13209601 2 9
5.1456866 -0.0053885519 -1.0002209 2 2
2.5084167 -0.0030646105 0.21945804 47 10
5.8451343 -0.0081613511 -0.9257791 2 3
2.4833474 -0.003900836 0.30491707 45 11
2.6342134 -0.004597574 -0.32344109 33 4
24.378088 -0.042547833 3.8611162 33 12
2.606041 -0.0050032455 -0.22799952 37 5
23.280218 -0.048758041 4.5252247 13 13
2.578455 -0.0058503388 -0.1351314 1 6
2.5775998 -0.0062982775 -0.044992164 65 7
17.774906 -0.046534691 4.7627888 10 15
4.170836 -0.016014939 -1.1175804 3 0
2.5495913 -0.010234769 0.044503581 45 8
4.6243196 -0.019370418 -1.0676174 4 1
2.5085332 -0.010945612 0.13146795 2 9
5.1534896 -0.023385955 -1.0017474 2 2
2.4884672 -0.011726713 0.21771494 42 10
5.8490257 -0.027563088 -0.92640477 2 3
2.4932463 -0.012184395 0.30613577 55 11
2.5944827 -0.013131969 -0.31856632 3 4
22.678989 -0.11874799 3.5920489 19 12
2.609992 -0.014121555 -0.22834814 41 5
22.53194 -0.12191072 4.3798285 29 13
2.594399 -0.014490008 -0.13596877 1 6
2.5515668 -0.015141479 -0.044538405 45 7
11.88646 -0.072611153 3.1850274 3 15
4.1630282 -0.030517137 -1.1155101 5 0
2.527544 -0.018969359 0.044119626 43 8
4.6242237 -0.035512187 -1.0676174 4 1
2.5164723 -0.019325498 0.13188666 6 9
5.1494565 -0.040444564 -1.0009841 2 2
2.4864223 -0.019962702 0.21754062 46 10
5.8251905 -0.047785379 -0.92265046 2 3
2.4872332 -0.020837484 0.30540451 46 11
6.727231 -0.057533439 -0.82603079 2 4
22.330818 -0.19098033 3.536984 31 12
2.6019616 -0.022706972 -0.22765088 41 5
22.185858 -0.19748554 4.3126659 39 13
2.6023214 -0.023618564 -0.13638747 3 6
14.492161 -0.13405985 3.345922 2 14
2.5814967 -0.023880154 -0.045061976 45 7
11.820477 -0.11140866 3.167428 1 15
4.1744876 -0.045174059 -1.118616 5 0
2.5414643 -0.027502362 0.044363964 42 8
4.6162863 -0.050760761 -1.0658178 4 1
2.5163891 -0.028109509 0.13188665 10 9
5.1375055 -0.058285657 -0.99869442 2 2
2.5082521 -0.028894262 0.21945804 48 10
5.8368511 -0.067238659 -0.92452765 2 3
2.4831805 -0.029038906 0.30491704 40 11
6.7071543 -0.079605862 -0.82359266 2 4
22.288532 -0.26842868 3.5304134 50 12
2.6118281 -0.03191109 -0.22852246 42 5
22.189009 -0.27110338 4.313427 61 13
14.491635 -0.18211685 3.3459218 2 14
2.5753989 -0.032814685 -0.044957262 45 7
11.812288 -0.15256932 3.1653574 1 15
4.1781673 -0.059800759 -1.1196512 3 0
2.5453458 -0.036875051 0.044433776 42 8
4.6316576 -0.067908518 -1.0694171 4 1
5.1490493 -0.076393276 -1.0009841 2 2
2.5121205 -0.037709337 0.21980667 49 10
5.8286653 -0.08851137 -0.92327619 2 3
2.4830575 -0.038140025 0.30491707 16 11
6.702848 -0.10412659 -0.82310522 2 4
22.303202 -0.35036665 3.5329165 50 12
2.6057241 -0.040933982 -0.22799952 42 5
22.19375 -0.35252187 4.3145738 61 13
2.594105 -0.041657198 -0.13596877 9 6
15.231296 -0.24724944 3.5168848 5 14
2.5792601 -0.042319383 -0.04502707 46 7
11.776881 -0.19528599 3.1560402 1 15
4.1817961 -0.074453704 -1.1206864 5 0
2.5531983 -0.045903515 0.044573385 42 8
4.6235981 -0.083934106 -1.0676174 4 1
2.5600562 -0.046920724 0.13418944 1 9
5.1369739 -0.094150484 -0.99869442 2 2
2.5199418 -0.046625465 0.22050393 49 10
5.8441205 -0.10915177 -0.9257791 2 3
22.366028 -0.42163968 2.7466908 50 11
6.6905351 -0.12729672 -0.82164276 2 4
22.295919 -0.42810357 3.5319781 56 12
2.6195097 -0.05029716 -0.22921969 41 5
22.206129 -0.43025658 4.3172431 61 13
15.177732 -0.29937741 3.5047371 11 14
2.5770972 -0.051282633 -0.044992164 43 7
11.787717 -0.2366264 3.1591458 1 15
4.1699214 -0.088803634 -1.1175804 5 0
2.5690162 -0.055158962 0.044852626 40 8
4.6232777 -0.10007299 -1.0676175 4 1
2.5678737 -0.055582818 0.13460813 1 9
5.1405396 -0.11216697 -0.99945766 2 2
2.5157797 -0.055333804 0.22015528 52 10
5.8437042 -0.1295509 -0.9257791 2 3
22.392206 -0.50032991 2.7501032 56 11
6.6900764 -0.14948261 -0.82164276 2 4
22.308203 -0.50234842 3.5341685 56 12
2.619318 -0.059440635 -0.22921968 41 5
22.226086 -0.50826162 4.3214412 56 13
2.6376791 -0.060778517 -0.13827157 1 6
2.5829105 -0.059967559 -0.045096878 45 7
11.786866 -0.27571452 3.1591456 1 15
4.1618795 -0.10244095 -1.1155101 3 0
2.5668204 -0.063628271 0.044817723 9 8
4.6385055 -0.11579283 -1.0712167 4 1
2.5676754 -0.064097889 0.13460813 1 9
5.1519141 -0.129509 -1.0017473 2 2
2.5235491 -0.063877791 0.22085252 49 10
5.8313937 -0.14862663 -0.92390186 2 3
22.394392 -0.57468426 2.7505906 50 11
6.6895432 -0.17166688 -0.82164347 2 4
22.320236 -0.57667941 3.5363584 50 12
2.6191065 -0.068126284 -0.22921969 38 5
22.206612 -0.58150053 4.3180094 61 13
2.6414564 -0.06963031 -0.13848092 1 6
16.348148 -0.43094656 3.775578 28 14
2.5886943 -0.068691596 -0.045201588 39 7
11.778162 -0.31459337 3.1570749 1 15
4.1615167 -0.11624168 -1.11551 5 0
4.6186161 -0.13062312 -1.0667176 4 1
2.5874007 -0.073628478 0.13565485 1 9
5.1357322 -0.14704229 -0.99869448 2 2
2.5352731 -0.072587967 0.22189839 48 10
5.8229704 -0.1677359 -0.9226504 2 3
17.336473 -0.50242096 2.1295447 34 11
6.7047772 -0.1954795 -0.82359266 2 4
22.329933 -0.65493548 3.5382357 56 12
2.6188526 -0.077268258 -0.22921968 12 5
22.231916 -0.65982795 4.3233514 69 13
2.6491821 -0.079088666 -0.13889958 1 6
16.350439 -0.48812592 3.7764781 28 14
2.5984325 -0.078027509 -0.045376115 9 7
11.827197 -0.35722134 3.1705337 1 15
4.1765103 -0.13198179 -1.1196512 3 0
2.5863006 -0.082181461 0.045166768 1 8
4.6142111 -0.14742583 -1.065818 4 1
2.5831203 -0.082982995 0.13544549 1 9
5.1390829 -0.16599146 -0.99945766 2 2
2.5349901 -0.081879705 0.22189839 48 10
5.8499575 -0.18997465 -0.92703062 2 3
17.290865 -0.56453389 2.1241825 23 11
6.6960797 -0.21979196 -0.82261842 2 4
22.347126 -0.73742592 3.5413642 12 12
2.6568594 -0.089065559 -0.13931829 1 6
16.342695 -0.54785407 3.7751279 31 14
2.6281083 -0.088560924 -0.045899693 2 7
11.93007 -0.40409923 3.1984863 1 15
4.1798592 -0.14742477 -1.1206863 3 0
2.6179571 -0.092793509 0.045725245 1 8
4.6214299 -0.16461426 -1.0676175 4 1
2.574815 -0.092164293 0.13502681 1 9
5.142396 -0.18406965 -1.0002209 2 2
2.550601 -0.091743305 0.22329316 47 10
5.8215852 -0.21041562 -0.92265046 2 3
6.6872945 -0.24404328 -0.82164276 2 4
16.735996 -0.61368108 2.6525033 5 12
7.8546977 -0.28801867 -0.68765903 1 5
16.562555 -0.61021596 3.2216198 5 13
2.6285899 -0.097304799 -0.13785288 1 6
16.321108 -0.60702521 3.7706296 25 14
2.6057842 -0.097371437 -0.045515735 16 7
17.708397 -0.66481215 4.7482944 14 15
4.1638765 -0.16141564 -1.1165454 5 0
2.6096246 -0.10162009 0.045585629 1 8
4.6286159 -0.18104973 -1.0694171 4 1
2.5744777 -0.10115153 0.13502681 1 9
5.1299515 -0.20155637 -0.99793112 2 2
2.548275 -0.10056745 0.22311857 45 10
5.8326573 -0.23120488 -0.92452765 2 3
16.419582 -0.6537379 2.0176682 2 11
6.6864014 -0.26738477 -0.82164347 2 4
16.469267 -0.66147405 2.610579 41 12
7.8377185 -0.31479532 -0.68626457 1 5
2.656173 -0.1076116 -0.13931829 1 6
16.359779 -0.66565651 3.7800775 25 14
2.621413 -0.10711993 -0.045794975 36 7
16.478344 -0.67624241 4.4190764 6 15
4.1748681 -0.17643872 -1.1196512 5 0
2.60326 -0.11047441 0.045480914 4 8
4.6084862 -0.19637588 -1.064918 4 1
2.5861013 -0.11019842 0.13565485 2 9
5.1331401 -0.21962984 -0.99869442 2 2
2.5479085 -0.10946197 0.22311857 45 10
5.8318152 -0.25156328 -0.92452765 2 3
16.087986 -0.69679028 1.977208 2 11
6.6973777 -0.29007158 -0.82310522 2 4
16.480795 -0.71668518 2.6127689 44 12
7.812686 -0.34110922 -0.68417281 1 5
16.402943 -0.71903628 3.1914701 44 13
2.6717436 -0.11758526 -0.14015566 1 6
16.406153 -0.7220459 3.7913249 19 14
2.6450162 -0.11687149 -0.046213832 52 7
16.973942 -0.75297135 4.5526276 13 15
4.1781201 -0.19045804 -1.1206864 5 0
4.6194892 -0.21219356 -1.0676174 4 1
2.6016824 -0.11950677 0.13649221 2 9
5.1284614 -0.23646986 -0.99793118 2 2
2.5574827 -0.11837112 0.22399013 39 10
5.8191099 -0.27035087 -0.92265046 2 3
15.788149 -0.73626524 1.9406474 18 11
6.6963787 -0.31227925 -0.82310593 2 4
15.752185 -0.73734343 2.4976332 34 12
7.8632569 -0.36944637 -0.68870491 1 5
15.657223 -0.7383759 3.0468373 50 13
2.653384 -0.12559457 -0.13921361 4 6
16.425076 -0.77746022 3.7962732 22 14
2.622642 -0.12459819 -0.045829874 42 7
16.550684 -0.78919578 4.4397817 6 15
4.185183 -0.20468961 -1.1227568 3 0
2.5984757 -0.12754129 0.045411106 43 8
4.6187606 -0.22751115 -1.0676175 4 1
2.5832963 -0.12770015 0.13555019 15 9
5.1276488 -0.25347522 -0.99793118 2 2
15.861832 -0.7868734 1.389436 35 10
5.8221269 -0.28984261 -0.92327619 2 3
15.821307 -0.79039943 1.9450345 61 11
6.7031789 -0.33604968 -0.82408094 2 4
15.749516 -0.79232448 2.4976332 49 12
7.8659687 -0.39572001 -0.68905354 1 5
15.66645 -0.79088676 3.0491285 55 13
2.6210377 -0.13277607 -0.13753887 19 6
16.36388 -0.83182162 3.7827768 43 14
2.6321766 -0.13426149 -0.046004403 41 7
16.29702 -0.83412659 4.3724895 15 15
4.1805854 -0.21909522 -1.1217217 5 0
2.6219778 -0.13787091 0.045829959 41 8
4.6140466 -0.24342695 -1.0667177 4 1
5.1228118 -0.27116492 -0.99716794 2 2
15.856998 -0.84213114 1.3892617 42 10
5.82897 -0.31058428 -0.92452765 2 3
15.792683 -0.84424382 1.941866 42 11
6.6900711 -0.35880822 -0.82261842 2 4
15.750598 -0.84750789 2.4982588 55 12
7.8327069 -0.42146215 -0.68626457 1 5
15.671436 -0.84599149 3.0506551 55 13
2.6763995 -0.1449486 -0.14046967 30 6
16.378389 -0.8898887 3.7868259 65 14
2.6296954 -0.14333986 -0.045969497 41 7
4.1643634 -0.23282404 -1.1175804 5 0
2.6234772 -0.14713447 0.045864869 45 8
4.6170592 -0.25975043 -1.0676174 4 1
2.5903182 -0.14618184 0.13596888 38 9
5.1296749 -0.28948775 -0.99869448 2 2
15.842027 -0.89680171 1.3882159 42 10
5.8475723 -0.33204922 -0.92765629 2 3
15.80351 -0.90015548 1.943572 52 11
6.680851 -0.38170579 -0.82164276 2 4
15.753461 -0.90282178 2.4991975 57 12
7.8391433 -0.44925678 -0.68696171 1 5
15.686029 -0.90170389 3.0540879 50 13
15.606712 -0.90261048 3.6091142 48 14
2.6371641 -0.15298156 -0.046109118 46 7
15.65822 -0.91107345 4.2027044 14 15
4.1596689 -0.24712989 -1.1165453 5 0
2.6169591 -0.15593438 0.045760155 42 8
4.6161246 -0.27586538 -1.0676174 4 1
2.6077354 -0.15629826 0.13691092 40 9
5.1364717 -0.30786163 -1.0002209 2 2
15.858687 -0.95329064 1.389959 43 10
5.8384905 -0.35198349 -0.92640477 2 3
15.818106 -0.95639288 1.9457657 47 11
6.6874032 -0.40550464 -0.82261842 4 4
15.762048 -0.9585256 2.5010753 52 12
7.8375282 -0.47661772 -0.68696177 1 5
15.678867 -0.95621389 3.0533247 52 13
9.4872265 -0.58026367 -0.49813345 2 6
15.615138 -0.95779836 3.611814 83 14
2.6406064 -0.16243161 -0.04617893 46 7
15.323298 -0.94526649 4.1136708 22 15
4.1703496 -0.2623761 -1.1196512 5 0
2.616399 -0.16506833 0.045760155 15 8
4.6151338 -0.29197696 -1.0676175 4 1
2.6011939 -0.16502064 0.1365969 42 9
5.1314473 -0.32554081 -0.99945766 2 2
15.879125 -1.0101599 1.3920507 52 10
5.8332834 -0.37210998 -0.9257791 2 3
15.800804 -1.0107155 1.9440596 45 11
6.7136812 -0.43062434 -0.82603002 4 4
15.77043 -1.0142999 2.5029519 49 12
7.8119574 -0.50243831 -0.68487006 1 5
15.689149 -1.0118219 3.0559962 50 13
9.4612274 -0.61183006 -0.49687743 2 6
15.62726 -1.0133083 3.6154137 83 14
2.6440141 -0.17190754 -0.046248738 46 7
15.121346 -0.98580432 4.0603538 13 15
4.1539874 -0.27590758 -1.1155101 5 0
4.6063089 -0.30756569 -1.065818 4 1
2.6045873 -0.17436634 0.13680623 41 9
5.1263623 -0.3431887 -0.99869448 2 2
15.887428 -1.0663828 1.3930964 48 10
5.8240652 -0.39193916 -0.92452765 2 3
15.815004 -1.067067 1.9462532 49 11
6.704215 -0.45352092 -0.82505506 4 4
15.774675 -1.0698777 2.5042033 47 12
7.8578639 -0.53293985 -0.68905354 1 5
15.705107 -1.0679129 3.0598121 55 13
9.4430923 -0.64376545 -0.49604002 2 6
15.619737 -1.0675855 3.6145136 83 14
2.6573627 -0.18209276 -0.046493065 46 7
14.855699 -1.0205748 3.9899552 15 15
4.1703439 -0.29161879 -1.1201689 5 0
2.6850007 -0.18822445 0.046981819 1 8
4.6090956 -0.32391614 -1.0667177 4 1
2.6019707 -0.18331662 0.13670157 43 9
5.1172986 -0.36052901 -0.99716794 2 2
15.895535 -1.1226761 1.3941424 48 10
5.8187213 -0.41198745 -0.92390192 2 3
15.825045 -1.1232492 1.9479593 47 11
6.6986313 -0.47663856 -0.82456762 4 4
15.778727 -1.1254972 2.505455 47 12
7.8559556 -0.56036568 -0.68905354 1 5
15.718909 -1.1239878 3.0632467 52 13
9.4527397 -0.67758083 -0.49666807 2 6
15.637296 -1.1236385 3.6194623 80 14
2.6547167 -0.19122392 -0.046458162 46 7
14.692118 -1.0608767 3.9469912 15 15
4.1635203 -0.30574977 -1.118616 5 0
2.6803391 -0.19730212 0.046912014 1 8
4.6118226 -0.34028968 -1.0676174 4 1
2.613266 -0.19328201 0.13732959 43 9
5.1199255 -0.37867919 -0.99793118 2 2
15.89152 -1.1781547 1.3941424 48 10
5.8290677 -0.43317452 -0.92577916 2 3
15.830926 -1.1792191 1.9491781 45 11
6.6890087 -0.49942699 -0.82359272 4 4
15.782581 -1.1811579 2.5067062 52 12
7.7943463 -0.58332378 -0.68382418 1 5
15.722721 -1.1794378 3.0647731 62 13
9.4742174 -0.71237004 -0.49792412 2 6
15.644939 -1.1790949 3.6221619 80 14
2.6560268 -0.20064005 -0.046493068 45 7
14.617049 -1.1067587 3.9278381 10 15
4.1566482 -0.31983668 -1.1170628 5 0
2.6836209 -0.20696454 0.046981815 1 8
4.6028357 -0.35578516 -1.065818 4 1
2.6245229 -0.20332842 0.13795762 36 9
5.1342306 -0.39776182 -1.0009841 4 2
15.899227 -1.2345448 1.3951881 52 10
5.8196416 -0.45290595 -0.92452765 2 3
15.850458 -1.2363244 1.9521025 49 11
6.7070136 -0.52432007 -0.82603079 4 4
15.778362 -1.2362424 2.5067062 44 12
7.8041811 -0.61146146 -0.68487006 3 5
15.700892 -1.2329297 3.0613387 40 13
9.4398155 -0.7429297 -0.49624941 2 6
15.646555 -1.2341583 3.6235113 54 14
2.671258 -0.21117082 -0.046772305 37 7
14.618876 -1.1582326 3.9293914 12 15
4.1632094 -0.33496392 -1.1191335 5 0
2.6828821 -0.21633089 0.046981815 1 8
4.5976806 -0.3715359 -1.064918 7 1
2.6297698 -0.21297218 0.13827166 6 9
5.1249847 -0.41504741 -0.99945778 4 2
15.910707 -1.2913254 1.3965827 43 10
5.8259006 -0.47385818 -0.9257791 2 3
15.842092 -1.2913231 1.9516153 49 11
6.7011867 -0.54740548 -0.82554257 4 4
15.807423 -1.2940515 2.5120254 49 12
7.7861128 -0.63739872 -0.68347549 3 5
15.723886 -1.289976 3.0666814 55 13
9.4729939 -0.77882195 -0.49813345 2 6
15.657689 -1.2900475 3.6271107 74 14
4.1581645 -0.3491708 -1.1180981 5 0
2.6980524 -0.227036 0.047261059 1 8
4.6002393 -0.38791001 -1.0658178 7 1
15.354362 -1.2947394 0.80754417 24 9
5.1274166 -0.43326497 -1.0002209 4 2
15.921987 -1.3482012 1.3979772 43 10
5.8084641 -0.49285534 -0.92327601 2 3
15.849357 -1.3476236 1.9530779 49 11
6.687367 -0.56978244 -0.82408088 4 4
15.818788 -1.3478053 2.514528 55 12
7.8036919 -0.66626859 -0.68521863 1 5
15.73885 -1.3465283 3.0704975 57 13
9.4463387 -0.80983692 -0.49687743 2 6
15.649208 -1.3443614 3.6262109 80 14
12.005946 -1.0313835 -0.21033578 1 7
14.610654 -1.2577126 3.9293914 10 15
4.1607699 -0.36402017 -1.1191336 5 0
2.6933007 -0.23563327 0.047191255 1 8
4.5989275 -0.40316278 -1.0658178 7 1
15.371634 -1.3502506 0.80869544 28 9
5.1219621 -0.45081607 -0.99945766 4 2
5.8264756 -0.51384962 -0.92640477 2 3
18.733763 -1.6554664 2.3091803 10 11
6.6735764 -0.59090501 -0.82261842 4 4
7.8211646 -0.69526857 -0.68696177 3 5
17.019089 -1.5129253 3.3212204 51 13
9.4595165 -0.84257525 -0.49771482 2 6
16.933504 -1.5112748 3.9249458 73 14
11.990323 -1.072217 -0.21012634 1 7
4.151844 -0.37711677 -1.117063 5 0
2.6844959 -0.24430822 0.047051631 8 8
4.5974927 -0.41921368 -1.065818 4 1
15.386962 -1.4030311 0.80974221 25 9
5.1165295 -0.4674415 -0.9986946 4 2
17.908438 -1.6392505 1.5733364 23 10
5.8128438 -0.53310221 -0.92452765 2 3
18.741705 -1.7221209 2.3108861 13 11
6.6912403 -0.61601627 -0.82505584 4 4
17.099638 -1.5742455 2.71977 57 12
7.8029437 -0.71973664 -0.68556726 3 5
17.035208 -1.5743109 3.325418 54 13
9.4048109 -0.87080234 -0.49499339 2 6
16.945587 -1.5719948 3.9289949 52 14
11.990682 -1.1123421 -0.21019612 1 7
14.576749 -1.3548101 3.9226623 10 15
4.1543484 -0.39197004 -1.1180981 5 0
4.6115975 -0.43592432 -1.0694171 7 1
18.040411 -1.7084978 0.94968855 12 9
5.1344099 -0.48715293 -1.0025105 4 2
17.914509 -1.7028842 1.5743804 23 10
5.8189101 -0.55312324 -0.9257791 2 3
18.751703 -1.7857668 2.3128362 13 11
6.6931138 -0.63857913 -0.82554257 4 4
17.123537 -1.6367444 2.7244635 54 12
7.8083181 -0.74772936 -0.68626457 3 5
17.033802 -1.6311674 3.3261812 54 13
9.4376564 -0.90541816 -0.4968774 2 6
16.9655 -1.6306036 3.9348438 14 14
11.974783 -1.1530404 -0.20998669 1 7
14.56616 -1.4051275 3.9211092 10 15
4.1644921 -0.40759817 -1.1212041 5 0
2.6807344 -0.26284832 0.047016725 40 8
4.6060901 -0.45244271 -1.0685172 7 1
15.988727 -1.5733433 0.84198111 3 9
5.1131415 -0.50314993 -0.9986946 2 2
17.918369 -1.7663839 1.5752518 23 10
5.8089805 -0.57367027 -0.92452765 2 3
18.750957 -1.8550696 2.3135674 16 11
6.6946783 -0.66349775 -0.82603079 4 4
17.078106 -1.6955911 2.7182057 36 12
7.8096251 -0.77537465 -0.68661314 3 5
16.982777 -1.6891195 3.317404 40 13
9.3985023 -0.93643862 -0.49499339 2 6
16.914814 -1.6883229 3.9244967 45 14
11.982416 -1.1981164 -0.21019614 1 7
16.929102 -1.6957175 4.5588393 64 15
4.1495886 -0.42076814 -1.1175804 5 0
2.6857688 -0.2728104 0.047121435 45 8
4.5928502 -0.4673346 -1.0658178 7 1
16.342781 -1.6658027 0.86092693 10 9
5.1191654 -0.52179128 -1.0002209 2 2
17.920023 -1.8297297 1.5759492 29 10
5.8187332 -0.59514976 -0.92640477 2 3
18.75819 -1.9219273 2.3152735 13 11
6.6765242 -0.68524104 -0.82408088 4 4
17.131035 -1.7612553 2.727592 60 12
7.8147993 -0.80344564 -0.6873104 3 5
17.045128 -1.7554294 3.3307607 66 13
9.4428568 -0.97415853 -0.49750549 2 6
16.959213 -1.7525643 3.9361937 73 14
11.974183 -1.2395238 -0.21012633 1 7
16.93269 -1.7557971 4.5614276 77 15
4.157702 -0.43625841 -1.1201688 5 0
2.6987216 -0.28364706 0.047365773 36 8
4.602819 -0.48458803 -1.0685172 7 1
18.025171 -1.9008837 0.94989789 37 9
5.1055984 -0.53842205 -0.99793118 4 2
17.941265 -1.8952011 1.5783895 35 10
5.8166203 -0.61545742 -0.92640477 2 3
18.771107 -1.9894861 2.3177109 16 11
6.6701441 -0.70812339 -0.82359272 4 4
17.126747 -1.8212515 2.7279048 51 12
7.8119473 -0.83071941 -0.68731046 3 5
17.064278 -1.8176208 3.335722 57 13
9.4195385 -1.0049956 -0.49645874 2 6
16.972368 -1.8138229 3.9406922 70 14
11.96183 -1.2804624 -0.2099867 1 7
16.924536 -1.8146864 4.5609102 84 15
4.154233 -0.45056054 -1.1196512 5 0
4.5933504 -0.49980873 -1.0667176 7 1
18.036295 -1.9657388 0.95083982 41 9
5.1036878 -0.5562405 -0.99793118 4 2
17.934542 -1.9578166 1.5783896 35 10
5.8144364 -0.63575745 -0.92640477 2 3
18.793648 -2.0582392 2.321367 16 11
6.6794705 -0.73270077 -0.82505584 2 4
17.132067 -1.8823185 2.7297821 51 12
7.7773118 -0.85450161 -0.68452144 3 5
17.069532 -1.8784631 3.3380132 60 13
9.427886 -1.0391827 -0.49708682 2 6
11.957288 -1.3222092 -0.20998672 1 7
16.927698 -1.8748163 4.563498 60 15
4.1468749 -0.46441364 -1.1180981 5 0
15.88793 -1.7821169 0.27906361 12 8
4.6109433 -0.51801503 -1.0712167 7 1
18.039248 -2.0298021 0.95136333 33 9
5.1173215 -0.57580847 -1.0009841 4 2
17.933538 -2.0210772 1.5789125 47 10
5.8043303 -0.65516347 -0.92515337 2 3
18.792269 -2.1244977 2.3220983 16 11
6.6571469 -0.7537787 -0.82261842 2 4
17.146982 -1.9445579 2.7332234 54 12
