# .PCD v0.7 - Point Cloud Data file format
VERSION 0.7
FIELDS x y z intensity ring
SIZE 4 4 4 4 2
TYPE F F F F U
COUNT 1 1 1 1 1
WIDTH 1299
HEIGHT 1
VIEWPOINT 0 0 0 1 0 0 0
POINTS 1299
DATA ascii
6.5781889 -4.1714253 0.40822062 1 9
3.2078702 -2.034991 -0.73843098 6 2
7.8980713 -5.0122676 0.81839192 2 10
3.2123101 -2.0385938 -0.60258555 1 3
14.48801 -9.1979179 2.1071208 2 11
3.2039337 -2.0348473 -0.46602821 16 4
4.946928 -3.1442616 -0.51282459 1 5
14.628734 -9.298008 3.3693044 11 13
4.9854341 -3.1699588 -0.30961943 2 6
17.468847 -11.111746 4.7797604 39 14
10.470627 -6.6653867 3.3258255 8 15
3.2584295 -2.0798483 -1.0357938 26 0
3.1685522 -2.023258 0.065620966 10 8
3.2270613 -2.0614121 -0.88405752 28 1
6.5205574 -4.1652613 0.40549913 2 9
3.2093756 -2.0509031 -0.74033898 16 2
10.308778 -6.5902038 1.0704461 2 10
3.1419358 -2.0093517 -0.59069651 30 3
14.412339 -9.2206202 2.1007836 2 11
3.1667156 -2.026757 -0.46164131 35 4
3.1813576 -2.036911 -0.3304947 2 5
14.566428 -9.3299541 3.3624351 51 13
4.9877915 -3.1959617 -0.31045678 2 6
14.529333 -9.3133488 3.9843323 25 14
3.1835346 -2.0406559 -0.066004798 10 7
10.432203 -6.6896439 3.3206489 8 15
3.2511497 -2.0912097 -1.0357938 22 0
3.1349161 -2.0164456 0.065062486 30 8
3.2070975 -2.0636659 -0.8804583 26 1
6.4858251 -4.1750245 0.40424305 2 9
3.2121017 -2.0684714 -0.74262881 26 2
10.205315 -6.5743556 1.0620792 2 10
3.1252916 -2.0133412 -0.58881927 34 3
14.31494 -9.2253485 2.0910339 5 11
3.1516354 -2.0318689 -0.46042219 39 4
3.1943181 -2.0609655 -0.33258644 28 5
14.47272 -9.3377609 3.3479335 34 13
5.0845628 -3.2818034 -0.31715581 2 6
14.43616 -9.32131 3.9672365 28 14
3.1276796 -2.0202906 -0.064992562 10 7
10.392563 -6.7155337 3.3154724 8 15
3.2587888 -2.1114337 -1.0404526 8 0
3.1412828 -2.036078 0.065341733 43 8
3.1982396 -2.0737877 -0.88000834 16 1
6.4444027 -4.1802478 0.40256831 2 9
3.1805177 -2.0630853 -0.73690444 21 2
10.270367 -6.6645579 1.0711434 2 10
3.0950489 -2.0091798 -0.58443916 36 3
14.219385 -9.2341776 2.0817719 2 11
3.1045721 -2.0169029 -0.45457247 45 4
3.1587081 -2.0536413 -0.32962319 31 5
14.379137 -9.348629 3.3338137 37 13
3.1962054 -2.0788143 -0.19981864 16 6
14.352898 -9.3386984 3.9532895 49 14
3.105525 -2.0213785 -0.064678423 19 7
10.360965 -6.7464991 3.3128843 8 15
3.6424458 -2.3790126 -1.1657211 5 0
3.1174138 -2.0360954 0.064992681 37 8
3.2105572 -2.0977304 -0.88540715 6 1
6.3779449 -4.1688423 0.39932346 4 9
3.1680052 -2.0715058 -0.73575962 26 2
10.312565 -6.7457829 1.0781159 2 10
3.1091521 -2.0345719 -0.58850646 37 3
14.153844 -9.2620153 2.0768971 2 11
3.0975122 -2.0277274 -0.45457286 54 4
3.1465204 -2.061379 -0.32910022 34 5
14.28402 -9.3614483 3.3196957 34 13
3.2035973 -2.1003704 -0.20076066 54 6
3.0733681 -2.0157554 -0.064154848 24 7
10.338966 -6.7836847 3.3134019 11 15
3.6470289 -2.4002085 -1.169862 5 0
3.116611 -2.0519061 0.065132298 43 8
3.238652 -2.1330652 -0.89530516 2 1
3.1460009 -2.0728302 -0.73232508 34 2
10.202452 -6.7247219 1.0690517 2 10
3.1036801 -2.0465 -0.58881932 42 3
14.056833 -9.272294 2.0676348 2 11
3.0801187 -2.0325069 -0.45311004 52 4
3.1143637 -2.0558848 -0.32648551 45 5
14.211937 -9.3852882 3.3105369 48 13
3.1712492 -2.0950267 -0.19919059 35 6
14.170274 -9.3648796 3.9213464 28 14
3.0576189 -2.0214922 -0.063980326 25 7
10.278585 -6.798089 3.3020144 9 15
3.6354086 -2.4107893 -1.1688268 5 0
3.0994318 -2.0561399 0.064922877 45 8
4.0625262 -2.6960711 -1.1256548 7 1
6.3795662 -4.235364 0.40131226 2 9
3.1436529 -2.0870562 -0.73346984 35 2
10.178916 -6.7602944 1.0690517 5 10
3.1014535 -2.0606005 -0.58975792 46 3
13.981399 -9.292737 2.0612977 2 11
3.0812702 -2.0487416 -0.45432913 58 4
3.0922379 -2.0568128 -0.32491672 46 5
14.102271 -9.3837242 3.2925992 35 13
3.1123767 -2.0717754 -0.19594577 28 6
14.093706 -9.3851261 3.9091997 43 14
3.0538726 -2.0343707 -0.064050138 27 7
10.254792 -6.8339257 3.3020141 11 15
3.6382151 -2.4309781 -1.1724503 5 0
3.0972228 -2.0702801 0.065027587 45 8
4.0368915 -2.699403 -1.1211559 7 1
6.4377856 -4.306468 0.40591779 1 9
3.1461394 -2.1045666 -0.73575962 24 2
9.7876596 -6.5497947 1.0303546 9 10
3.0893173 -2.0681176 -0.58881932 45 3
9.7346897 -6.5192666 1.4385456 6 11
3.0757492 -2.0605896 -0.45457286 61 4
3.0933149 -2.0731401 -0.32578826 50 5
14.022142 -9.4011898 3.2815325 38 13
3.08688 -2.0703893 -0.19479437 22 6
13.999366 -9.3930035 3.892103 10 14
3.0550544 -2.0505903 -0.06422466 24 7
10.210025 -6.8556805 3.2952847 11 15
3.618489 -2.4361103 -1.1688267 5 0
3.0949533 -2.08443 0.065132298 42 8
4.0436053 -2.7243664 -1.1256553 7 1
6.4359636 -4.3378444 0.40675518 1 9
3.1566815 -2.1276057 -0.73995739 4 2
3.095181 -2.0877256 -0.5913223 46 3
9.6822538 -6.5332212 1.4341583 18 11
3.0586658 -2.0646501 -0.45311004 60 4
9.7029915 -6.5521455 1.8543746 29 12
3.0811059 -2.0805805 -0.32526535 49 5
9.6585789 -6.5246077 2.2656667 9 13
3.0481923 -2.0599043 -0.1928056 12 6
13.738857 -9.2879219 3.8286669 26 14
3.0660987 -2.0735643 -0.064608611 16 7
10.182831 -6.8891115 3.2942493 11 15
3.4165158 -2.3175058 -1.1061926 33 0
3.0909679 -2.0974665 0.06520211 49 8
4.0437446 -2.7450318 -1.1283542 5 1
6.4406099 -4.3737483 0.40801123 1 9
4.5054045 -3.0595715 -1.0586084 3 2
3.1461508 -2.1373191 0.33276042 1 10
3.0878739 -2.0985169 -0.59132218 45 3
9.6577473 -6.5658631 1.4339144 37 11
3.0530818 -2.0764306 -0.45335379 63 4
9.6424961 -6.5604167 1.8471786 34 12
3.0721776 -2.0902019 -0.32509106 46 5
9.6065302 -6.5383992 2.2587976 33 13
3.0294273 -2.0626636 -0.19207291 14 6
9.5493498 -6.5043597 2.6674697 22 14
3.0604944 -2.0853808 -0.064643517 13 7
9.8266973 -6.6982918 3.1865807 12 15
3.3812912 -2.3108866 -1.0973927 12 0
3.098484 -2.1184006 0.065516248 49 8
4.030921 -2.7569306 -1.1274544 5 1
6.435194 -4.4029708 0.40863928 2 9
4.4914565 -3.0730624 -1.0578452 3 2
3.115653 -2.1325336 0.33032009 4 10
3.0903099 -2.1159792 -0.59319949 34 3
9.5840006 -6.5647593 1.4263587 33 11
3.0490901 -2.089319 -0.45384127 58 4
9.5755472 -6.5638804 1.8387312 34 12
3.0599325 -2.0975335 -0.32456809 48 5
9.5464077 -6.5463552 2.2500203 37 13
3.0255024 -2.0754857 -0.19228226 19 6
9.512126 -6.5277295 2.6634204 45 14
3.0944114 -2.1243451 -0.065516129 46 7
3.3334258 -2.2952857 -1.0844518 8 0
3.0927176 -2.1303377 0.065551154 45 8
3.3328745 -2.2966216 -0.93444639 8 1
6.4362302 -4.4367418 0.409686 1 9
4.5000997 -3.1020925 -1.0624247 3 2
3.0967083 -2.1354785 0.32909989 7 10
3.0910347 -2.1323619 -0.59476382 31 3
9.5234499 -6.5722404 1.4207528 34 11
3.0483129 -2.1044607 -0.45481619 48 4
9.5249434 -6.5781817 1.8334124 40 12
3.0591495 -2.1127307 -0.32526532 49 5
9.4847326 -6.5528564 2.2408602 37 13
3.018239 -2.0860331 -0.19228223 21 6
9.4732533 -6.5498114 2.6589215 49 14
3.1001346 -2.1442342 -0.065795377 52 7
9.4619637 -6.5468893 3.0830526 41 15
3.3190441 -2.3025029 -1.0823812 19 0
3.0869052 -2.1422603 0.065586053 39 8
3.2960236 -2.2882376 -0.92634821 14 1
3.1726215 -2.2033873 0.20243555 3 9
4.5053687 -3.1289811 -1.0662408 1 2
3.0745091 -2.136044 0.3275311 12 10
3.0933051 -2.1499028 -0.59664106 25 3
9.4564447 -6.5748477 1.4141718 33 11
3.0507262 -2.1218898 -0.45627865 52 4
9.4581432 -6.5809269 1.8249646 35 12
3.0517564 -2.1233964 -0.32526535 49 5
9.4215174 -6.5578842 2.2313211 39 13
3.0043828 -2.0919907 -0.19186355 24 6
9.4231491 -6.5639048 2.6512733 57 14
3.0909901 -2.153899 -0.065760463 49 7
9.4057722 -6.5566778 3.0721824 46 15
3.3197136 -2.3184493 -1.0849694 32 0
3.0916345 -2.1599648 0.065830395 31 8
3.2872217 -2.2974648 -0.92589837 21 1
3.1427679 -2.1973217 0.20097014 21 9
3.254986 -2.2757807 -0.77201331 6 2
3.0612528 -2.1411242 0.32683384 18 10
3.1237617 -2.185657 -0.60383701 30 3
9.4015903 -6.5806174 1.4090533 36 11
3.0521758 -2.1371565 -0.45749733 60 4
9.4115353 -6.5924759 1.819959 37 12
3.0450702 -2.1329732 -0.32526532 49 5
9.3735361 -6.5682983 2.2248323 36 13
3.0108798 -2.1105907 -0.19270092 24 6
9.3546143 -6.5599093 2.6377761 56 14
3.0891192 -2.1670444 -0.065865181 49 7
9.3440151 -6.5573416 3.0587239 41 15
3.3084407 -2.3278003 -1.0839342 22 0
3.0889823 -2.1741962 0.065935113 30 8
3.279182 -2.3089254 -0.92589837 23 1
3.1138513 -2.1933262 0.1996094 29 9
3.2293668 -2.2746928 -0.76781553 14 2
3.0553889 -2.1529443 0.32700813 22 10
3.1839254 -2.244348 -0.61697751 33 3
9.3461151 -6.5905166 1.4041784 33 11
3.0544295 -2.1546633 -0.45895976 61 4
9.3400469 -6.5911193 1.810573 37 12
3.0441179 -2.1481845 -0.3259626 49 5
9.3200788 -6.5794654 2.2175815 40 13
2.9969683 -2.1164794 -0.19228224 21 6
9.2934608 -6.5655365 2.6269784 59 14
3.0750039 -2.1731977 -0.065725565 52 7
9.2926741 -6.5698442 3.0494065 43 15
3.4515977 -2.4465818 -1.1336274 5 0
3.0944235 -2.1942189 0.066214345 36 8
3.2695124 -2.3192298 -0.92544836 27 1
3.1159492 -2.2111177 0.20023745 29 9
3.2150016 -2.2814064 -0.76628894 17 2
3.0316086 -2.1520638 0.32526505 25 10
3.1374171 -2.2279985 -0.60946858 27 3
9.2842131 -6.5955081 1.3983287 34 11
3.043654 -2.1630118 -0.45847231 52 4
9.2847824 -6.6007915 1.8043154 40 12
3.0264819 -2.1523991 -0.32491672 49 5
9.2618561 -6.5869265 2.2091861 40 13
2.9960713 -2.1315591 -0.19270092 22 6
9.2403212 -6.5764675 2.6184304 61 14
3.0641415 -2.1815989 -0.065655753 51 7
9.2209053 -6.5675001 3.0333598 42 15
3.5825121 -2.5591564 -1.1796972 5 0
3.0867455 -2.2050071 0.066214345 39 8
3.2598116 -2.3294959 -0.92499852 23 1
3.0952144 -2.2126887 0.19940008 24 9
3.2050219 -2.292033 -0.76590741 17 2
3.0269418 -2.1654792 0.32561368 28 10
3.119592 -2.2325854 -0.60759145 39 3
9.2304621 -6.605926 1.3936976 30 11
3.0409269 -2.1770897 -0.45920348 50 4
9.2199297 -6.6032567 1.7961811 37 12
3.0173306 -2.1617904 -0.32474241 46 5
9.1881857 -6.5853734 2.1973557 40 13
3.0077169 -2.1564918 -0.193957 24 6
9.1828985 -6.5864377 2.6089821 57 14
3.0711317 -2.2027705 -0.065969892 51 7
3.565717 -2.5660038 -1.1771089 5 0
3.0851347 -2.2209792 0.066353969 49 8
3.2449262 -2.3368726 -0.92319894 17 1
3.0874712 -2.2234797 0.19940007 30 9
3.19063 -2.2986164 -0.76438099 22 2
3.033911 -2.1865163 0.32718247 30 10
3.1053705 -2.2388399 -0.60633993 45 3
9.1675482 -6.6118441 1.3878479 33 11
3.0393662 -2.1928666 -0.46017888 45 4
9.1743956 -6.6192174 1.7918007 37 12
3.0178444 -2.1781397 -0.32561401 44 5
9.1412668 -6.6001678 2.1916316 39 13
2.9953134 -2.1634691 -0.19364299 24 6
9.125103 -6.5933447 2.5990846 59 14
3.0553195 -2.2076216 -0.065795369 49 7
3.5755079 -2.592042 -1.1833206 5 0
3.0890861 -2.2394135 0.066598304 42 8
3.2466247 -2.3544853 -0.92589837 8 1
3.0732245 -2.229552 0.19898139 26 9
3.1873534 -2.3131986 -0.76552576 22 2
3.0327098 -2.2017756 0.32787973 30 10
3.0979295 -2.2491255 -0.60633999 45 3
9.1118422 -6.6177115 1.3827294 34 11
3.0368958 -2.206434 -0.46090969 56 4
9.1128855 -6.6233287 1.784292 37 12
3.0166683 -2.193347 -0.3263112 44 5
9.0859842 -6.6062007 2.1836178 40 13
2.9881229 -2.1733897 -0.19364299 28 6
9.0622177 -6.5937581 2.5873871 57 14
3.0702295 -2.2347484 -0.066284031 49 7
7.9475465 -5.7869558 2.6342607 2 15
3.5700133 -2.6061628 -1.184356 5 0
3.08448 -2.2525415 0.066668108 49 8
3.0767109 -2.2485149 0.19971408 13 9
3.170155 -2.3168054 -0.76323611 14 2
3.0350416 -2.2188749 0.328926 21 10
3.0916538 -2.2610919 -0.6066528 46 3
9.0518398 -6.6225195 1.3771235 33 11
3.0307775 -2.2181938 -0.46115342 50 4
9.0546455 -6.6294255 1.777409 40 12
3.0234601 -2.2144594 -0.32788002 42 5
9.0296059 -6.6135135 2.1756048 40 13
3.0014627 -2.1991527 -0.19500373 24 6
9.0029974 -6.5988536 2.5770392 61 14
3.0656354 -2.247817 -0.066353843 52 7
7.9428763 -5.8260894 2.6394372 4 15
3.555769 -2.6157959 -1.182803 5 0
3.0846519 -2.2692192 0.066842631 49 8
3.9583738 -2.9130359 -1.1346529 7 1
3.0913608 -2.2758183 0.20117947 9 9
3.1648037 -2.3307378 -0.7639994 4 2
3.0252848 -2.2288029 0.32875171 13 10
3.0865262 -2.2747517 -0.60727853 46 3
8.9951086 -6.6293426 1.3720049 33 11
3.0310049 -2.2346492 -0.46237209 54 4
9.0012445 -6.6387153 1.7714643 39 12
3.0076954 -2.2190852 -0.32700846 44 5
8.9752941 -6.6244149 2.1683543 40 13
3.0062361 -2.2196295 -0.19584109 24 6
8.95994 -6.6179147 2.5716405 61 14
3.0609879 -2.2608809 -0.066423662 54 7
7.9255972 -5.8560753 2.6404722 4 15
3.5512724 -2.6316426 -1.184356 5 0
3.0779209 -2.2817008 0.066877544 43 8
3.9648883 -2.9402931 -1.1396023 7 1
6.4700046 -4.7980442 0.42214206 3 9
4.4117398 -3.2728646 -1.0677674 3 2
3.0382857 -2.2547846 0.33101729 4 10
3.0627065 -2.273737 -0.60414988 45 3
8.9532204 -6.6492481 1.3693238 33 11
3.0275748 -2.2492955 -0.46310335 48 4
8.9463005 -6.6465335 1.7652068 37 12
3.0127239 -2.2390783 -0.32840294 44 5
8.9095755 -6.6240759 2.1580491 42 13
3.0064828 -2.2360692 -0.19636445 20 6
8.8961334 -6.6189055 2.5599432 61 14
3.0498686 -2.2691646 -0.06635385 51 7
7.9035573 -5.8825507 2.6399546 4 15
3.537421 -2.6405556 -1.182803 5 0
3.0703375 -2.2918949 0.066877544 43 8
3.9395018 -2.9417651 -1.1351027 7 1
6.4772172 -4.8385286 0.42371207 2 9
4.3971438 -3.2858942 -1.0670042 3 2
3.070291 -2.2951999 0.3353751 10 10
3.0567317 -2.2850633 -0.60446274 42 3
8.8929682 -6.6503696 1.3634741 36 11
3.0248675 -2.2628899 -0.46383455 41 4
8.8914165 -6.654048 1.7589495 32 12
3.0112693 -2.2543571 -0.32910019 45 5
8.859272 -6.6324067 2.1511815 39 13
3.0070448 -2.2520134 -0.19688784 22 6
8.8476219 -6.6285067 2.5522947 55 14
3.0483296 -2.2845933 -0.066493466 49 7
7.876792 -5.9054689 2.6378839 3 15
3.5456312 -2.6650393 -1.1884971 5 0
3.0639167 -2.3038003 0.066912442 45 8
3.9354384 -2.9601846 -1.1369023 7 1
6.4858222 -4.8803215 0.42538676 2 9
4.4113226 -3.3193438 -1.07311 3 2
8.8457489 -6.6584902 0.96864837 19 10
3.0487368 -2.2957199 -0.6044628 42 3
8.8348179 -6.6550956 1.358112 37 11
3.0232916 -2.2782135 -0.46480948 41 4
8.8350096 -6.6600752 1.7523793 35 12
3.0149145 -2.2727261 -0.33032039 27 5
8.8047161 -6.6396494 2.1435478 39 13
3.0167038 -2.275727 -0.19803919 26 6
8.7855425 -6.6300025 2.5410469 56 14
3.0467203 -2.3000395 -0.066633083 49 7
7.8515072 -5.9294357 2.6363313 2 15
3.5255258 -2.6692374 -1.1848736 5 0
3.0702031 -2.3253472 0.067226581 45 8
3.9312944 -2.9786108 -1.1387019 7 1
6.4878478 -4.9174094 0.42664289 2 9
4.3934507 -3.3299787 -1.0715835 3 2
8.8065758 -6.677289 0.96690524 30 10
3.0438521 -2.3087354 -0.60508847 42 3
8.7751608 -6.6582956 1.3525058 36 11
3.0216453 -2.2935538 -0.46578446 39 4
8.7818155 -6.6681771 1.7464347 40 12
3.0355246 -2.3049238 -0.33345798 27 5
8.7517824 -6.6477799 2.136297 42 13
3.0325954 -2.3043687 -0.19960926 26 6
8.7282152 -6.6346855 2.5311494 58 14
3.030714 -2.3046086 -0.066458561 42 7
7.8276877 -5.9544673 2.6352963 1 15
3.5254035 -2.6885562 -1.1879795 5 0
3.0668371 -2.339689 0.067331299 46 8
3.9239714 -2.9946802 -1.1396023 7 1
6.4937334 -4.9558601 0.42810827 2 9
4.3786783 -3.3429115 -1.0708202 3 2
8.7325439 -6.669292 0.96132725 38 10
3.038914 -2.3217449 -0.60571426 37 3
8.7218981 -6.6659832 1.3478748 31 11
3.023083 -2.3113213 -0.46724686 42 4
8.7188559 -6.6660671 1.7383001 39 12
3.0401213 -2.3251894 -0.33485249 24 5
8.6988983 -6.6556225 2.1290462 42 13
3.0483234 -2.3331494 -0.20117934 30 6
8.6802483 -6.6461577 2.5239513 56 14
3.0421083 -2.3292344 -0.066877417 48 7
7.8171 -5.9874406 2.638402 1 15
3.5129328 -2.6984913 -1.186944 5 0
3.0511322 -2.343755 0.067156777 54 8
3.9140191 -3.0076759 -1.1396023 7 1
6.4858966 -4.9858007 0.42873633 2 9
4.3669825 -3.3581755 -1.0708202 3 2
8.6792059 -6.676652 0.95801532 35 10
8.6745739 -6.675498 1.3439749 33 11
3.0264127 -2.3298101 -0.46895304 40 4
8.6673613 -6.6747665 1.7326686 39 12
3.0414565 -2.3430824 -0.33589837 24 5
8.6394529 -6.6556768 2.1198874 42 13
3.0642998 -2.3615324 -0.20274945 36 6
8.6272926 -6.6511083 2.5149527 58 14
3.0482104 -2.3508301 -0.067191556 40 7
7.7961526 -6.0146904 2.638402 1 15
3.5085499 -2.7136717 -1.1884971 5 0
3.0445137 -2.3556149 0.067191675 55 8
3.9004149 -3.018935 -1.138702 7 1
6.5158286 -5.0450935 0.43187651 2 9
4.3682423 -3.3822546 -1.0738733 3 2
8.6491413 -6.699295 0.95714378 40 10
4.8671575 -3.7712741 -0.97521245 1 3
8.616703 -6.6789846 1.3386128 36 11
3.0229678 -2.3440096 -0.4696843 36 4
8.612793 -6.6807666 1.7264112 37 12
3.0667298 -2.3787994 -0.3395589 15 5
8.5789433 -6.656908 2.1107287 39 13
8.5763187 -6.6596694 2.5068548 56 14
3.0447233 -2.3651359 -0.067296274 19 7
7.6927361 -5.9778571 2.6104493 1 15
3.5142953 -2.7377748 -1.1936733 5 0
3.0457363 -2.3736033 0.067401111 52 8
3.8960004 -3.037324 -1.1405016 7 1
6.491879 -5.0628939 0.43145779 2 9
4.3626013 -3.4023106 -1.0753996 3 2
8.6508389 -6.7490549 0.9599328 40 10
4.7916732 -3.7396262 -0.96269763 1 3
8.60429 -6.7175717 1.3403189 40 11
3.0304124 -2.3667657 -0.47212213 22 4
8.5785236 -6.7022772 1.7242211 45 12
5.6301074 -4.3987217 -0.62508118 37 5
8.5339975 -6.6698875 2.1053858 42 13
7.0002007 -5.4730926 -0.46568525 2 6
8.5161791 -6.6607518 2.4960568 56 14
3.015975 -2.3597307 -0.066842511 15 7
7.6718225 -6.004674 2.6104493 1 15
3.5107973 -2.754796 -1.1957439 5 0
3.0358593 -2.3829856 0.067366205 46 8
3.8869073 -3.0521085 -1.1409515 7 1
6.505578 -5.110198 0.43355119 3 9
4.347611 -3.4150929 -1.0746365 3 2
8.6648264 -6.8087559 0.96411639 40 10
8.607316 -6.7684255 1.3444625 36 11
8.5674953 -6.7419543 1.7267243 45 12
5.6241126 -4.4257407 -0.626127 54 5
8.5230045 -6.7093515 2.108439 43 13
6.9685006 -5.4876084 -0.46484786 2 6
8.476038 -6.6771727 2.4911079 58 14
2.9967256 -2.3615797 -0.066598177 22 7
3.4981282 -2.7646384 -1.1947087 5 0
3.0337975 -2.3985288 0.067505822 42 8
3.883872 -3.0717022 -1.143201 7 1
6.4845681 -5.1303978 0.43334186 13 9
4.3325844 -3.4278121 -1.0738733 3 2
8.662878 -6.8562713 0.96655667 40 10
8.6163149 -6.8243113 1.349581 39 11
8.5748701 -6.7963576 1.7329814 45 12
5.5930157 -4.4329691 -0.62438393 54 5
8.5303011 -6.7634568 2.1160715 42 13
6.9461727 -5.5094175 -0.4646385 2 6
8.4755783 -6.7248893 2.4978566 56 14
2.9806323 -2.3658097 -0.066423655 28 7
3.483922 -2.7732227 -1.1931556 5 0
3.0207138 -2.4053676 0.067401111 28 8
3.8685534 -3.0815988 -1.1418513 7 1
6.4338183 -5.1268635 0.43114376 11 9
4.3328753 -3.4527025 -1.0769261 3 2
8.6638193 -6.9063387 0.96934557 38 10
8.6234779 -6.8791046 1.3544557 39 11
8.5850573 -6.8533607 1.7398645 47 12
5.5751739 -4.4521961 -0.62420964 51 5
8.5250463 -6.8078918 2.1206517 43 13
6.911294 -5.5211649 -0.46359175 2 6
8.4824991 -6.7787647 2.5068548 58 14
2.9582984 -2.3649621 -0.066109516 24 7
8.4322872 -6.7434635 2.8930798 41 15
3.4797623 -2.790808 -1.1952263 5 0
3.0325785 -2.4321616 0.067854874 12 8
3.8577733 -3.0950832 -1.1418513 7 1
8.721179 -6.9994855 0.58605826 40 9
4.3263154 -3.4734764 -1.0784526 3 2
8.6679621 -6.961751 0.9726575 35 10
4.461143 -3.5842874 -0.90638119 1 3
8.6210785 -6.9265704 1.3578682 34 11
8.5934114 -6.9092798 1.7464347 47 12
5.5689144 -4.4791226 -0.62525553 51 5
8.5321598 -6.8649373 2.1286659 46 13
6.8505592 -5.5138988 -0.46087033 2 6
8.492507 -6.8379178 2.5172024 60 14
2.9562554 -2.3802903 -0.066249132 16 7
8.4402914 -6.7983046 2.90395 50 15
3.4760108 -2.8077936 -1.1972969 5 0
8.6276503 -6.9715862 0.19361676 16 8
3.8524647 -3.1141019 -1.1436514 7 1
8.720314 -7.0514965 0.58773303 42 9
4.3233242 -3.4959641 -1.0807425 3 2
8.6776876 -7.0195322 0.97649235 38 10
8.6280355 -6.9843516 1.3629867 36 11
8.5956593 -6.9631114 1.7520664 43 12
5.5470529 -4.4935174 -0.62455827 31 5
8.5401764 -6.9206362 2.1366787 43 13
8.4852362 -6.8810234 2.5221512 58 14
2.9552765 -2.3974087 -0.066423662 12 7
8.4528198 -6.8596263 2.9168909 45 15
3.4661889 -2.8199093 -1.1972969 5 0
8.6327305 -7.0256424 0.19427995 11 8
3.8415716 -3.1275306 -1.1436509 7 1
8.7297182 -7.1096406 0.59003586 62 9
4.2989163 -3.5011156 -1.0776894 3 2
8.6979275 -7.0862761 0.98154747 38 10
8.6389894 -7.0432768 1.3685927 36 11
8.5927296 -7.0105572 1.7564467 39 12
5.5390525 -4.5191507 -0.62542981 22 5
8.5539913 -6.9814382 2.146219 40 13
8.4883337 -6.9327888 2.5302496 58 14
8.1686001 -6.674026 -0.18412235 10 7
8.4602356 -6.9147644 2.9277613 48 15
3.453336 -2.8295434 -1.1962616 5 0
8.7767286 -7.1939077 0.19808456 7 8
3.8426864 -3.150806 -1.1472501 7 1
8.7094784 -7.1438694 0.59034979 22 9
4.2988119 -3.5260606 -1.0807422 3 2
8.6900806 -7.1304946 0.98346478 45 10
8.6435003 -7.0973248 1.3732238 36 11
4.3226643 -3.5506761 -0.68685532 2 4
8.6048346 -7.0706067 1.7639555 43 12
5.5155468 -4.5321341 -0.62455827 10 5
8.5614204 -7.0374365 2.1542332 42 13
8.5062218 -6.9970398 2.5428467 56 14
8.1653271 -6.7190175 -0.18457611 24 7
8.4628935 -6.9663539 2.9370787 48 15
3.4523773 -2.8489578 -1.1993674 3 0
6.8408704 -5.6472039 0.15483756 1 8
3.8286593 -3.1617188 -1.1463504 7 1
8.6690922 -7.1615086 0.58930314 20 9
4.2985864 -3.551048 -1.0837952 3 2
8.6636019 -7.1595168 0.98329049 47 10
8.6462078 -7.1502247 1.3776109 49 11
8.6151037 -7.1295667 1.7711514 50 12
5.5027633 -4.5538993 -0.62490684 6 5
8.5519238 -7.0797968 2.1580491 45 13
6.7144508 -5.5606003 -0.45689273 2 6
8.51476 -7.054039 2.5527446 58 14
8.1602983 -6.7627892 -0.18499494 5 7
8.4608335 -7.0143471 2.9448435 47 15
3.4339957 -2.8529835 -1.1962615 3 0
6.8005767 -5.6519651 0.15434891 1 8
3.8241477 -3.1793809 -1.14815 7 1
8.6652565 -7.2068181 0.59066379 16 9
4.2837682 -3.5627723 -1.083032 3 2
8.6765709 -7.2187901 0.98747396 19 10
8.6300774 -7.1852069 1.3788297 33 11
8.6005201 -7.1656833 1.7730286 47 12
5.5014086 -4.583601 -0.62647575 4 5
8.5570536 -7.1319976 2.1653011 49 13
6.6591587 -5.5521398 -0.45438063 2 6
8.5197554 -7.1059527 2.5612926 64 14
6.751327 -5.6329827 -0.15347601 3 7
8.4746056 -7.0733132 2.9577844 45 15
3.4329057 -2.8723907 -1.1993674 5 0
6.7317352 -5.6345963 0.15323193 1 8
3.8160143 -3.1952124 -1.1490496 7 1
9.0917244 -7.6153522 0.62154198 12 9
4.2863564 -3.5903106 -1.0868483 3 2
8.8788671 -7.4396954 1.0134465 19 10
8.8102932 -7.3874755 1.4117343 13 11
8.6087456 -7.2235951 1.7799119 42 12
5.4975839 -4.6130204 -0.62787008 3 5
8.5411291 -7.1693983 2.1675897 40 13
6.5938525 -5.5368228 -0.45124057 9 6
8.4934063 -7.1343966 2.5608428 66 14
6.7744894 -5.6925349 -0.15445332 5 7
8.4794397 -7.1277146 2.9681373 57 15
3.4228582 -2.8843567 -1.1993674 5 0
8.9152231 -7.515296 0.20352973 5 8
3.8048377 -3.2085133 -1.1490496 7 1
8.8467808 -7.4628849 0.606574 14 9
4.2707968 -3.6027191 -1.0860851 3 2
8.9304991 -7.5361743 1.0223376 19 10
4.2219381 -3.5640268 -0.87509435 1 3
8.9497681 -7.5577879 1.4383019 30 11
8.9908495 -7.597857 1.8643864 32 12
5.508841 -4.6553316 -0.63100779 3 5
8.7484436 -7.3956256 2.2267418 27 13
6.5409336 -5.5314322 -0.44893774 7 6
8.5101089 -7.1992407 2.5734401 61 14
6.7744212 -5.7329412 -0.15490708 37 7
8.4618797 -7.1635103 2.9707255 47 15
3.4186609 -2.9012876 -1.2014381 6 0
8.8965559 -7.5528402 0.20370424 9 8
3.7936149 -3.2217751 -1.1490496 7 1
8.7719679 -7.4523392 0.60322446 25 9
4.2462254 -3.6074355 -1.083032 2 2
8.9572754 -7.612462 1.0284371 35 10
4.2094717 -3.5787423 -0.87509435 1 3
9.0518675 -7.6982951 1.4590195 34 11
9.0094032 -7.667603 1.8737724 38 12
6.7397628 -5.7359872 -0.77429187 3 5
8.9617538 -7.6297483 2.2877994 34 13
6.5246263 -5.5568199 -0.44914708 7 6
8.882472 -7.5675993 2.6940136 54 14
8.85921 -7.5504508 -0.2031803 8 7
8.4721041 -7.2230844 2.9831486 41 15
3.4055753 -2.9106925 -1.2004027 6 0
8.7455063 -7.4772906 0.20084205 13 8
3.7941933 -3.245131 -1.1526489 7 1
8.7428665 -7.4803181 0.60301518 34 9
4.2246561 -3.614578 -1.0807424 1 2
9.0986662 -7.787488 1.0477859 30 10
9.0686617 -7.7672944 1.4660881 32 11
9.0125809 -7.7247157 1.8800299 33 12
6.7302885 -5.7685552 -0.7755121 3 5
8.9574223 -7.6801519 2.2935236 30 13
6.4869976 -5.5639582 -0.447891 4 6
8.904809 -7.6404352 2.7088606 60 14
8.8358355 -7.5839329 -0.20325011 14 7
8.8557711 -7.6037278 3.1275699 46 15
3.4027159 -2.928864 -1.202991 6 0
8.7026834 -7.4934201 0.20045809 20 8
3.7828426 -3.2583554 -1.1526489 5 1
8.8105106 -7.5916224 0.60950482 10 9
4.1227746 -3.5524106 -1.0578452 1 2
9.1167002 -7.8582234 1.053015 30 10
9.065546 -7.8196487 1.4699881 32 11
9.0274315 -7.7922692 1.8887902 36 12
6.7040782 -5.7868047 -0.77481478 3 5
8.964736 -7.7408834 2.3023021 34 13
6.4312601 -5.5552335 -0.44537881 5 6
8.9164209 -7.7045984 2.7205579 60 14
8.6897936 -7.5114217 -0.20049264 21 7
8.8613243 -7.662394 3.138958 46 15
3.3895516 -2.9381931 -1.2019557 6 0
8.7384157 -7.577466 0.20188919 9 8
3.7655575 -3.2664325 -1.1508493 7 1
9.109663 -7.9021769 0.63200927 27 9
4.1073842 -3.5642059 -1.0570819 1 2
9.1253252 -7.9213452 1.0571985 27 10
4.1717649 -3.6226263 -0.87509429 1 3
9.0726633 -7.8811879 1.475594 34 11
4.1115971 -3.5728965 -0.66881925 2 4
9.0373268 -7.8532591 1.896299 38 12
6.6507573 -5.781415 -0.77098006 1 5
8.9776611 -7.8069124 2.3126044 36 13
6.4133377 -5.5789609 -0.44548357 5 6
8.914465 -7.7574239 2.7282066 56 14
8.6648388 -7.5401974 -0.20049265 21 7
8.8664637 -7.7183747 3.1498284 45 15
3.3850958 -2.9550889 -1.2040262 6 0
9.0160341 -7.8707323 0.20890506 10 8
3.7635121 -3.2865922 -1.1535494 5 1
9.097064 -7.9470658 0.63305593 20 9
4.1067448 -3.5888577 -1.060135 1 2
9.1366186 -7.987246 1.0617307 30 10
9.08533 -7.9452043 1.4819311 34 11
9.0425634 -7.9133782 1.9031823 36 12
6.4956164 -5.6864829 -0.755292 1 5
8.9797888 -7.8612113 2.3198552 31 13
6.3737659 -5.5817752 -0.44401813 5 6
8.9224043 -7.8164763 2.738554 60 14
8.8625469 -7.7667737 -0.20569344 26 7
8.8830471 -7.7874818 3.1653571 45 15
3.3709247 -2.9624722 -1.2024733 6 0
9.0185413 -7.9285626 0.20960315 12 8
3.7637236 -3.3100047 -1.1571486 5 1
9.1906443 -8.0827074 0.64142972 27 9
4.0623922 -3.5739267 -1.0517393 1 2
9.1340132 -8.038559 1.0645196 32 10
9.0873346 -8.0031109 1.4868059 29 11
4.0484552 -3.5666823 -0.66248143 2 4
9.0414686 -7.965519 1.9085009 33 12
6.4139442 -5.6526632 -0.74797088 3 5
8.9832191 -7.9197717 2.3278704 31 13
6.3242831 -5.5775676 -0.44192463 5 6
8.9242916 -7.8733592 2.7475519 60 14
8.9986916 -7.9389977 -0.20946313 32 7
8.8789024 -7.836072 3.1731222 44 15
3.3750291 -2.9870241 -1.2076496 6 0
9.2078333 -8.1492682 0.21462943 8 8
3.7527263 -3.3224673 -1.1571486 5 1
4.0410757 -3.5802748 -1.0494497 1 2
9.1446648 -8.1047525 1.0690517 28 10
4.0343542 -3.5755758 -0.85381919 1 3
9.1082773 -8.0753412 1.4946055 34 11
4.0781898 -3.6169696 -0.66930622 2 4
9.0490723 -8.0284948 1.9160098 35 12
6.3703313 -5.6538568 -0.74518192 3 5
8.9906788 -7.9794917 2.3366477 34 13
6.2743893 -5.5706639 -0.43972659 25 6
8.9374723 -7.9378495 2.7596993 58 14
8.9260769 -7.9305158 -0.20841599 4 7
8.8962584 -7.9068003 3.1891687 52 15
3.3651056 -2.9981999 -1.2076497 6 0
9.1300688 -8.137454 0.21347758 4 8
3.7440152 -3.3381407 -1.1580478 5 1
9.1965971 -8.2025108 0.64582604 27 9
4.0409021 -3.6041098 -1.0525026 1 2
9.1549053 -8.1681938 1.0734094 34 10
9.1081676 -8.1322069 1.4992366 32 11
9.0666561 -8.1008339 1.9257087 36 12
6.4307742 -5.7477565 -0.75459468 28 5
9.0081482 -8.0513849 2.3484781 36 13
6.2519279 -5.5898685 -0.4395172 7 6
8.9474773 -8.0027781 2.7713971 56 14
8.5198145 -7.6229458 -0.1995502 1 7
8.9045897 -7.970016 3.2021096 51 15
3.3512187 -3.0079324 -1.2066144 6 0
3.7294397 -3.3485854 -1.1571486 5 1
3.9838545 -3.5795312 -1.041054 1 2
9.1649132 -8.2376547 1.0781159 26 10
4.0086651 -3.6043539 -0.85381925 1 3
9.1107244 -8.191823 1.5043551 34 11
9.0779734 -8.168108 1.9341563 35 12
6.249258 -5.6248822 -0.73559481 13 5
9.016511 -8.1185036 2.3583987 36 13
6.2477221 -5.627449 -0.44066861 5 6
8.9470406 -8.0616074 2.7803953 56 14
8.344594 -7.5187821 -0.19605973 1 7
8.9054155 -8.0269184 3.2124624 48 15
3.3421316 -3.0209076 -1.207132 6 0
8.2854776 -7.4917588 0.19497804 1 8
3.7200325 -3.3648465 -1.1580478 5 1
3.9684234 -3.5907812 -1.0402907 1 2
9.1774635 -8.3070335 1.0829967 26 10
3.9726303 -3.5971103 -0.84881335 1 3
9.1174202 -8.2584772 1.5104486 29 11
3.9276526 -3.5588803 -0.65078199 2 4
9.0713921 -8.2225523 1.9391621 33 12
6.2089176 -5.6279287 -0.73315436 19 5
9.0230227 -8.1815767 2.3675575 36 13
6.3818927 -5.7887764 -0.45155451 7 6
8.9534817 -8.124218 2.7911928 56 14
8.3169804 -7.5493169 -0.19605973 1 7
8.9088316 -8.0893745 3.2243686 48 15
2.6058226 -2.3719471 -0.94417191 1 0
8.2740622 -7.5340977 0.19532709 1 8
3.7226706 -3.3909342 -1.1625475 5 1
3.973279 -3.6204796 -1.0448701 1 2
9.1690235 -8.3578081 1.0854369 31 10
3.9658887 -3.6162801 -0.85006487 1 3
9.1252031 -8.3236971 1.5165421 30 11
3.9152057 -3.5725687 -0.65078199 4 4
9.0776501 -8.286129 1.946671 33 12
6.1495042 -5.6133008 -0.72844797 24 5
9.0263042 -8.2421474 2.375953 34 13
6.3660698 -5.8150592 -0.4518685 9 6
8.9595947 -8.1869707 2.8019905 56 14
8.9119024 -8.1491032 3.2357562 49 15
2.6032233 -2.3862505 -0.94624245 21 0
2.6021633 -2.386951 -0.81522286 7 1
9.1838274 -8.4301834 1.0906663 30 10
3.9532411 -3.630101 -0.85006481 1 3
9.1399498 -8.3957872 1.5238541 30 11
3.972872 -3.6506841 -0.66248202 2 4
9.0966625 -8.3618813 1.9569958 33 12
6.1137376 -5.6199007 -0.72653061 49 5
9.0263824 -8.3001833 2.3835855 39 13
6.3413229 -5.8331885 -0.45155445 7 6
8.9768496 -8.2604218 2.8163874 58 14
8.1905117 -7.5394788 -0.19431449 1 7
8.918932 -8.2128773 3.2486973 48 15
2.5948775 -2.3953228 -0.94624239 21 0
2.5837951 -2.3867636 -0.81207353 31 1
2.5737815 -2.3783462 -0.68118823 7 2
9.1923838 -8.4973526 1.0951984 27 10
2.6091435 -2.4127121 -0.56285125 1 3
9.1455603 -8.4599915 1.5297039 30 11
9.0949612 -8.4190798 1.9629402 37 12
6.0970073 -5.6439147 -0.7268793 46 5
9.0290442 -8.3609867 2.3919811 39 13
6.2916193 -5.8281426 -0.44946101 4 6
8.9779787 -8.3195229 2.8258355 56 14
8.155344 -7.5598669 -0.19410507 3 7
8.9312887 -8.2820539 3.2637086 48 15
2.5808411 -2.3991051 -0.94417191 22 0
2.5611794 -2.3824949 -0.80757451 19 1
2.565464 -2.3873158 -0.68118823 21 2
9.2034998 -8.567399 1.1000791 27 10
2.5732379 -2.3962266 -0.55690664 30 3
9.140667 -8.5148649 1.5338473 29 11
2.5501986 -2.376435 -0.42800495 3 4
9.1059771 -8.4884882 1.9717005 33 12
6.0860133 -5.6733136 -0.72792506 7 5
9.0371361 -8.4272652 2.4019032 39 13
6.3384175 -5.9127383 -0.45427594 4 6
8.9816532 -8.3813896 2.8361831 58 14
8.9362125 -8.3448229 3.2761321 50 15
2.5780919 -2.4133799 -0.94624239 11 0
2.5556922 -2.3940856 -0.80847394 21 1
8.0097065 -7.5058465 0.57527703 1 9
2.5427895 -2.3828323 -0.6773721 21 2
9.2142372 -8.6376257 1.1049613 27 10
2.5461261 -2.3876288 -0.5528394 19 3
9.152874 -8.5861063 1.5409158 33 11
2.5360975 -2.379889 -0.42703 27 4
9.1036549 -8.5459099 1.9776449 33 12
2.5246665 -2.3699903 -0.30295345 5 5
9.0477343 -8.4963894 2.4125881 32 13
8.9892635 -8.4473858 2.8478804 60 14
8.9450254 -8.4116974 3.290108 52 15
2.5529897 -2.4083405 -0.81027395 8 1
7.9340692 -7.4871531 0.57171816 1 9
2.5230334 -2.3809142 -0.67431909 21 2
9.2115593 -8.6957235 1.1082718 27 10
2.5521381 -2.4100642 -0.55596811 25 3
9.1719093 -8.6643515 1.5492028 36 11
2.520561 -2.3819096 -0.42581132 27 4
9.1110907 -8.6129189 1.9857796 35 12
2.5323048 -2.3938446 -0.30487087 26 5
9.0636683 -8.571085 2.4247999 34 13
2.5071869 -2.3717577 -0.18087302 11 6
9.0007696 -8.5175571 2.8609276 58 14
2.5224862 -2.3878999 -0.060629472 1 7
8.9282331 -8.4548254 3.2947669 26 15
3.2715304 -3.1056516 -1.2086849 6 0
3.6621425 -3.4788892 -1.1661466 5 1
7.9194684 -7.5258098 0.5725556 1 9
2.5303614 -2.4045835 -0.67851692 7 2
9.215806 -8.7607698 1.1124552 24 10
2.5265326 -2.4026227 -0.55221361 21 3
9.1732512 -8.7264147 1.5545651 33 11
2.503603 -2.382483 -0.42434886 24 4
9.1281862 -8.6896172 1.9961045 33 12
2.5037303 -2.3834372 -0.30243054 22 5
9.0564432 -8.6243334 2.4309072 32 13
2.5205843 -2.401159 -0.1824431 27 6
9.0020199 -8.5784998 2.8708255 54 14
2.504004 -2.387032 -0.060385145 27 7
3.2676516 -3.1237268 -1.2112731 6 0
2.4756825 -2.3674667 0.059791867 11 8
3.6471601 -3.4889574 -1.1652461 7 1
7.8412023 -7.5036969 0.5687874 1 9
9.2297859 -8.8355961 1.1178589 28 10
9.1771393 -8.7913408 1.5604149 29 11
2.5038707 -2.3994486 -0.42581135 14 4
9.1391506 -8.7610693 2.0051775 31 12
2.4925184 -2.3894045 -0.30208188 20 5
9.0645428 -8.6925831 2.4412096 32 13
2.4833615 -2.3822899 -0.18034965 22 6
9.009984 -8.6463022 2.8829727 58 14
2.4812307 -2.3819098 -0.0600361 27 7
7.9186926 -7.6043715 2.9417379 1 15
3.2678621 -3.1458328 -1.2154143 6 0
2.460201 -2.3691587 0.059617344 24 8
3.6433802 -3.5097792 -1.1679462 5 1
7.8322201 -7.5476522 0.57004344 3 9
4.0742092 -3.9261813 -1.0998232 1 2
9.2433538 -8.9106264 1.1232625 28 10
3.9785457 -3.8366725 -0.87540722 1 3
9.1806841 -8.8563986 1.5662647 29 11
9.1426239 -8.8258448 2.0126865 33 12
2.4784296 -2.3925555 -0.30138469 10 5
9.0821609 -8.7705412 2.4541845 32 13
2.4707212 -2.3867815 -0.18003565 26 6
9.01478 -8.7115545 2.8942201 56 14
2.4685879 -2.3863866 -0.059931379 22 7
7.8671026 -7.6077938 2.9324203 1 15
3.2540872 -3.1545308 -1.214379 6 0
2.459094 -2.3846927 0.059791867 24 8
3.6339042 -3.5251889 -1.1688454 7 1
8.4508171 -8.2008591 0.61714584 2 9
4.0717511 -3.9513171 -1.1028762 1 2
9.2522221 -8.9816952 1.1281433 11 10
4.0359855 -3.9193461 -0.8910507 1 3
9.1895809 -8.9271183 1.5730892 33 11
9.1429214 -8.8879976 2.0195696 33 12
2.5157783 -2.4456332 -0.30696267 5 5
9.0838633 -8.8336716 2.4629622 34 13
2.4738276 -2.4065323 -0.18087302 9 6
9.0206289 -8.778306 2.9059179 54 14
2.4530785 -2.388015 -0.05975686 20 7
7.8155861 -7.6109476 2.9231029 1 15
3.2347615 -3.1577735 -1.2112731 6 0
2.4478931 -2.3904679 0.059722058 26 8
3.6243646 -3.5405757 -1.1697458 7 1
2.4569335 -2.4009721 0.18003577 4 9
4.0579338 -3.9655063 -1.1028762 3 2
4.0364022 -3.947221 -0.89417928 1 3
4.026495 -3.9402826 -0.69173014 2 4
9.1428947 -8.9502592 2.0264525 26 12
2.5456669 -2.4920313 -0.31166905 2 5
9.092247 -8.9037857 2.4736471 35 13
2.5053611 -2.4542875 -0.18380384 21 6
9.028903 -8.84793 2.9185147 55 14
2.4718592 -2.4231603 -0.060420044 11 7
7.7889709 -7.6381831 2.9231029 1 15
3.2319853 -3.1771717 -1.214379 6 0
2.4495146 -2.4088125 0.059966393 11 8
3.6119833 -3.5532057 -1.1697458 7 1
4.0608582 -3.9961708 -1.1074555 3 2
2.4407287 -2.4026875 0.29964128 6 10
2.4479232 -2.4114532 0.42191163 1 11
3.9759536 -3.9180863 -0.68539351 2 4
2.6178291 -2.5806289 -0.32160482 13 5
9.0946617 -8.9685545 2.482806 33 13
2.5053096 -2.4714334 -0.18443185 26 6
9.0354137 -8.9163513 2.9306624 61 14
2.4833097 -2.4514415 -0.060908712 22 7
7.7622614 -7.6653252 2.9231029 1 15
3.2208748 -3.1884341 -1.214379 6 0
2.4666677 -2.4426756 0.060594678 24 8
3.5940208 -3.5603063 -1.1679462 7 1
2.4613919 -2.4391537 0.18160585 19 9
4.0496736 -4.0130854 -1.1082188 3 2
4.0368009 -4.0031228 -0.9004367 1 3
2.4225788 -2.4032071 0.41898674 20 11
3.9622531 -3.9319413 -0.68539292 2 4
2.4295146 -2.4117701 0.542202 5 12
2.6130469 -2.593962 -0.32212773 22 5
9.105092 -9.0417471 2.4942546 31 13
2.5080032 -2.4914246 -0.18526924 22 6
9.0526161 -8.9959135 2.946409 59 14
2.5031011 -2.4882913 -0.061606809 27 7
7.7354565 -7.6923742 2.9231029 1 15
3.222039 -3.2119327 -1.2190377 6 0
2.4793658 -2.4724514 0.061118249 22 8
3.5815711 -3.5728302 -1.1679462 7 1
2.4547038 -2.4487131 0.18171053 24 9
4.0439792 -4.0355182 -1.1105086 3 2
2.449276 -2.4450049 0.30277887 26 10
4.0898957 -4.0841894 -0.91545445 1 3
2.4408596 -2.4383044 0.42361778 20 11
4.0130954 -4.0102944 -0.69660485 2 4
2.438271 -2.4365692 0.54595643 35 12
2.6025674 -2.6016588 -0.32195345 13 5
9.1206751 -9.1206751 2.5072296 36 13
2.5134118 -2.5142884 -0.18631594 24 6
9.0514622 -9.0577841 2.9563067 53 14
2.5117977 -2.513552 -0.062025659 25 7
7.7699795 -7.77812 2.945879 1 15
3.2203515 -3.2327404 -1.2226611 6 0
2.4880886 -2.4976606 0.061537113 25 8
3.5862043 -3.6012576 -1.173345 7 1
2.4602318 -2.4714212 0.18275723 24 9
4.0160189 -4.0356927 -1.1066923 3 2
2.4491577 -2.4620149 0.30382475 28 10
2.4383595 -2.4520156 0.42459276 24 11
3.9997747 -4.0235806 -0.69660485 2 4
2.426966 -2.4422631 0.5453307 16 12
2.6018949 -2.6192083 -0.3229993 8 5
9.1263542 -9.1870832 2.5171518 31 13
2.5191333 -2.5367818 -0.18736267 24 6
9.058445 -9.1250906 2.9684541 57 14
2.5072341 -2.5265625 -0.062130377 24 7
7.7699919 -7.8326254 2.9562316 1 15
3.2014606 -3.2351625 -1.2195553 6 0
2.4920118 -2.5191245 0.061851248 25 8
3.5708714 -3.6109824 -1.1724446 7 1
2.4684396 -2.4970386 0.18401329 24 9
4.019177 -4.065743 -1.1112717 3 2
2.4409795 -2.4701231 0.30382517 28 10
2.4465232 -2.4774621 0.42751762 25 11
2.4406264 -2.4732165 0.5503366 28 12
2.5847981 -2.6193135 -0.32195342 4 5
9.1342134 -9.2594147 2.5282185 31 13
2.524287 -2.5597806 -0.18840937 24 6
9.0716839 -9.2024536 2.9833009 53 14
2.5026102 -2.539572 -0.062235091 24 7
9.0183496 -9.1547394 3.4433289 11 15
3.1874402 -3.2435627 -1.21852 6 0
2.4916115 -2.5363674 0.06206068 24 8
3.5637062 -3.6289871 -1.1742448 7 1
2.4723003 -2.5184674 0.18495533 23 9
4.0132117 -4.0881534 -1.1135614 3 2
2.4546704 -2.5013812 0.30661371 27 10
2.44203 -2.4902384 0.42824879 22 11
2.4430389 -2.4930077 0.55283952 28 12
2.5867953 -2.6397045 -0.32334793 4 5
9.1361818 -9.3263054 2.5377591 35 13
2.5376947 -2.5914085 -0.19008414 22 6
9.0694952 -9.264699 2.9931986 46 14
2.5175066 -2.5725889 -0.062828466 24 7
3.130224 -3.2076602 -1.2009203 4 0
2.5050843 -2.5679517 0.06261915 24 8
3.5482962 -3.6386144 -1.1733451 7 1
2.4816184 -2.5456741 0.18631607 24 9
4.0043993 -4.1077609 -1.1150879 3 2
2.4653914 -2.5299113 0.30905411 26 10
2.443017 -2.5087028 0.42995501 21 11
2.4536095 -2.5213401 0.55721974 30 12
2.5845132 -2.6558573 -0.3242195 4 5
9.1432724 -9.3989487 2.548826 35 13
2.5425575 -2.6145692 -0.19113085 22 6
9.0887194 -9.3493986 3.0102952 48 14
2.5266283 -2.6000042 -0.063282229 21 7
2.7116554 -2.7982111 -1.044076 4 0
2.5169756 -2.5982249 0.063142724 22 8
3.5355737 -3.6509778 -1.1733451 5 1
2.4810522 -2.5629313 0.18694411 27 9
3.998229 -4.1301775 -1.1173776 3 2
2.4676292 -2.5499556 0.310449 23 10
2.4563248 -2.5400472 0.43385482 23 11
4.0535836 -4.1932125 -0.71610391 2 4
2.4585199 -2.5440943 0.56034839 24 12
2.5683036 -2.6576991 -0.32334793 4 5
9.15133 -9.4731674 2.5602746 31 13
2.5417402 -2.6320488 -0.1917589 21 6
9.0898647 -9.4161186 3.0215428 55 14
2.5342004 -2.6260755 -0.063701086 21 7
2.7112479 -2.8174036 -1.0476995 6 0
2.5175953 -2.6170826 0.063387059 24 8
3.539017 -3.6801529 -1.178744 7 1
2.4914687 -2.5917337 0.18840951 25 9
3.9837875 -4.1441083 -1.1173775 3 2
2.4780405 -2.5786657 0.31288892 22 10
2.4598181 -2.5614922 0.43604848 22 11
4.0114269 -4.1786952 -0.7112298 2 4
2.4509923 -2.5540857 0.56066126 13 12
2.5866013 -2.6953988 -0.32683414 5 5
9.1589775 -9.5475578 2.5717227 33 13
2.5463607 -2.6553204 -0.1928056 21 6
9.0933514 -9.4857731 3.0336897 51 14
2.5291698 -2.6392365 -0.063805804 19 7
2.7094052 -2.8352304 -1.0508053 8 0
2.5277829 -2.6460979 0.063875727 24 8
3.5234575 -3.6896651 -1.1778435 7 1
2.4975772 -2.6163063 0.18956089 25 9
3.9584529 -4.1466289 -1.1143247 3 2
2.4772775 -2.5959482 0.3139348 23 10
2.4700408 -2.5901754 0.43946081 20 11
2.458415 -2.5797863 0.56441575 19 12
2.5813005 -2.7087386 -0.32735711 8 5
9.1716356 -9.6278019 2.584698 33 13
2.549473 -2.6772101 -0.19374765 22 6
9.1004953 -9.5598011 3.0471871 54 14
2.5309696 -2.6596377 -0.064085037 19 7
2.703481 -2.8488746 -1.0523583 6 0
2.5240359 -2.6607089 0.064015351 21 8
3.5186021 -3.7104263 -1.1805435 5 1
2.5108764 -2.6477621 0.19123565 25 9
3.9466555 -4.1632705 -1.1150879 3 2
2.4819052 -2.6190417 0.31567791 23 10
4.5401363 -4.7926745 -1.0456079 2 3
2.4759991 -2.6146367 0.44214195 21 11
2.470217 -2.6094429 0.56910878 24 12
2.5882626 -2.7350976 -0.32944879 8 5
9.1757488 -9.6996908 2.5953832 33 13
2.5648136 -2.7122142 -0.19563177 22 6
9.1099072 -9.6368256 3.0615838 45 14
2.5441155 -2.691267 -0.064643517 19 7
4.9558263 -5.2443051 1.9333786 0 15
2.7213426 -2.8878188 -1.0632285 6 0
2.5330269 -2.687983 0.064469106 22 8
3.5036061 -3.7192373 -1.179643 7 1
2.5166807 -2.6725047 0.19238704 24 9
3.9455557 -4.1913166 -1.1189041 3 2
2.4904983 -2.6465516 0.31794396 27 10
4.5242186 -4.8077035 -1.0456079 3 3
2.4754758 -2.6315081 0.44360435 21 11
2.477329 -2.6353209 0.57286316 19 12
2.5923436 -2.758635 -0.33119193 8 5
9.1825237 -9.7715559 2.6064503 33 13
2.5749502 -2.7410841 -0.19709717 20 6
9.1245918 -9.7167034 3.0773308 45 14
2.5607092 -2.7278321 -0.065306701 22 7
2.7355158 -2.9222133 -1.072546 6 0
2.5372927 -2.71141 0.064818159 22 8
3.4919333 -3.7328672 -1.1800931 7 1
2.5141573 -2.6885674 0.1929104 22 9
3.9369991 -4.2101135 -1.1204306 3 2
2.5048382 -2.6795394 0.32090726 25 10
4.5235934 -4.8407869 -1.0493624 3 3
2.4784708 -2.6531887 0.44579801 22 11
5.2595 -5.6322351 -0.94619316 2 4
2.4815946 -2.6583922 0.57599187 9 12
2.6030884 -2.7895174 -0.3338066 8 5
9.196579 -9.8552217 2.6201885 39 13
2.5762653 -2.7617393 -0.19793454 22 6
9.0972624 -9.755619 3.0795798 45 14
2.5757153 -2.7630835 -0.065934993 22 7
5.0033836 -5.3692279 1.9665074 0 15
2.741883 -2.9506173 -1.0792755 6 0
2.54687 -2.7407579 0.06530682 19 8
3.482861 -3.7493169 -1.1814426 7 1
2.5169885 -2.7104988 0.19385244 22 9
3.9188702 -4.2216368 -1.1196673 3 2
2.5099082 -2.704767 0.32282469 22 10
4.5085068 -4.86023 -1.049988 3 3
2.4921446 -2.6865647 0.44994155 21 11
5.2425079 -5.653471 -0.94668067 4 4
2.4830434 -2.678628 0.57849479 4 12
2.6122944 -2.819047 -0.33624703 6 5
9.2030869 -9.9349518 2.6324003 33 13
2.5919087 -2.7990069 -0.19992329 24 6
9.1329308 -9.8661213 3.1038747 22 14
2.5728467 -2.7793941 -0.066109508 21 7
4.976738 -5.3781524 1.9634013 0 15
2.7577686 -2.9885654 -1.0896282 5 0
2.5530772 -2.7677124 0.065725677 18 8
3.4717376 -3.7649226 -1.1823431 7 1
2.5278211 -2.7412932 0.19542253 22 9
3.90411 -4.2352905 -1.1196673 3 2
2.5099025 -2.723768 0.32404488 24 10
4.4995441 -4.8846564 -1.0518653 3 3
2.501107 -2.7161255 0.45335394 21 11
5.244256 -5.6951008 -0.95058048 4 4
2.4937456 -2.7090797 0.58318782 1 12
2.6105325 -2.8369448 -0.33729285 6 5
9.2095537 -10.011808 2.6442318 33 13
2.59429 -2.8212688 -0.20086536 24 6
2.5739555 -2.8001363 -0.066388749 18 7
7.6414671 -8.3158569 3.0261126 12 15
3.0781066 -3.3579869 -1.2205906 6 0
2.5573955 -2.7909074 0.066074729 19 8
3.4684477 -3.786473 -1.1854918 7 1
2.5295093 -2.7614424 0.1962599 22 9
3.900651 -4.259798 -1.1227204 2 2
2.5075824 -2.7394242 0.32491639 24 10
4.491323 -4.9082937 -1.0537424 3 3
2.5081646 -2.741981 0.4562788 21 11
5.2440996 -5.7329659 -0.95399278 4 4
2.5060766 -2.7406588 0.58819371 1 12
2.6239629 -2.8705862 -0.34025615 6 5
9.2120609 -10.081426 2.6545341 35 13
2.6037776 -2.8505018 -0.20233075 20 6
7.7503762 -8.4847698 2.6530728 1 14
2.5875783 -2.83376 -0.066982128 16 7
7.6138482 -8.3411512 3.0261126 2 15
3.0955687 -3.3996012 -1.2319788 4 0
2.5669711 -2.8200755 0.06656339 19 8
3.4493151 -3.7907474 -1.1832423 7 1
2.5480771 -2.8012824 0.19845803 24 9
3.8944299 -4.2814236 -1.1250101 3 2
2.5185905 -2.7698362 0.3275311 21 10
4.4750214 -4.9231596 -1.0537424 3 3
2.5070674 -2.7590981 0.4577412 21 11
5.2267246 -5.7541752 -0.95448118 4 4
2.5071182 -2.7610898 0.59069669 2 12
2.6500821 -2.9195604 -0.34496257 6 5
9.2326784 -10.171521 2.6701806 36 13
2.5983377 -2.8635573 -0.20264477 18 6
7.7259483 -8.5175467 2.6548724 1 14
2.5884171 -2.8546264 -0.067261368 15 7
7.6508551 -8.4406776 3.0525124 1 15
3.0830877 -3.4109235 -1.2319787 6 0
2.5745435 -2.848304 0.067017153 21 8
3.4386752 -3.8056562 -1.1841427 7 1
2.5436382 -2.8160882 0.19887671 24 9
3.8787107 -4.2956676 -1.1250099 3 2
2.5271113 -2.7997549 0.32997143 21 10
4.4675341 -4.9512625 -1.0562454 3 3
2.5093894 -2.7810972 0.45993483 20 11
5.2039485 -5.7694373 -0.95399278 4 4
2.5292118 -2.8050337 0.59820551 1 12
2.6732237 -2.9657905 -0.34932029 6 5
9.2347622 -10.249045 2.6816304 8 13
2.6038647 -2.8908694 -0.2039008 18 6
7.6399102 -8.4849806 2.6359763 1 14
2.5985076 -2.8859355 -0.067784943 18 7
2.751142 -3.0651217 -1.1036044 3 0
2.5854542 -2.8815358 0.067575634 21 8
3.4273055 -3.8211358 -1.1850419 7 1
2.5492997 -2.8432364 0.20013276 24 9
3.8663142 -4.3121042 -1.1257732 3 2
2.5412595 -2.8352647 0.33310905 24 10
4.4607687 -4.9785962 -1.0587484 3 3
2.5203702 -2.8139346 0.46383467 18 11
5.1986575 -5.8062191 -0.9569177 4 4
9.3194551 -10.412266 2.2132354 8 12
2.6875763 -3.0037801 -0.35263219 5 5
9.2748566 -10.36608 2.7037628 48 13
2.6203878 -2.9297149 -0.20599425 20 6
9.1884089 -10.276676 3.1826074 7 14
2.599906 -2.9088581 -0.068099074 16 7
2.7129016 -3.0448945 -1.092734 5 0
2.5900128 -2.9069669 0.067959592 21 8
3.4243155 -3.8447173 -1.1886411 7 1
2.5632651 -2.8789685 0.20201686 26 9
3.8504832 -4.3262463 -1.1257732 3 2
2.5414453 -2.8564682 0.33450353 24 10
4.4503684 -5.003768 -1.0606256 3 3
2.5263634 -2.8405144 0.4667595 18 11
5.1889091 -5.8361979 -0.95886844 4 4
9.3158598 -10.481647 2.2210572 17 12
2.6810455 -3.017612 -0.35315517 4 5
9.2589645 -10.424957 2.7102504 32 13
2.628197 -2.9602094 -0.20745967 18 6
2.6030107 -2.9328721 -0.068448134 16 7
2.6920159 -3.0427704 -1.088593 5 0
2.591264 -2.9299212 0.068273731 18 8
3.4205265 -3.8689227 -1.1922404 7 1
2.5703979 -2.9073508 0.2033776 24 9
3.8379588 -4.3426027 -1.1265365 3 2
2.5486083 -2.8847325 0.33676961 24 10
4.4171829 -5.0015054 -1.0568712 3 3
2.5382702 -2.8750534 0.4709031 19 11
5.1674843 -5.8551774 -0.95886755 4 4
9.3393431 -10.582231 2.2354491 27 12
2.7100394 -3.0717738 -0.35838455 1 5
9.2640734 -10.504333 2.7224619 36 13
2.6429429 -2.9978302 -0.20944843 21 6
9.1958094 -10.43427 3.2109516 42 14
2.6192 -2.9719448 -0.069146223 15 7
2.6877534 -3.0594056 -1.0911812 1 0
2.5947313 -2.9535208 0.068622775 18 8
3.3999627 -3.8714585 -1.1895416 7 1
2.5813165 -2.9403203 0.20505236 24 9
3.8175979 -4.350071 -1.1250101 3 2
2.5542903 -2.9115844 0.33886135 24 10
4.4162064 -5.0339456 -1.0606257 3 3
2.537884 -2.8939023 0.47260928 16 11
5.1558905 -5.881237 -0.9603309 4 4
9.3531227 -10.672705 2.2476509 31 12
5.9894004 -6.8368206 -0.79520929 6 5
9.2718801 -10.583727 2.7350554 36 13
2.6369348 -3.0110855 -0.20976242 19 6
9.2060833 -10.516026 3.2266979 45 14
2.6351485 -3.0111656 -0.069844306 17 7
7.545403 -8.6251173 3.0706298 12 15
2.7106187 -3.1061456 -1.1046398 1 0
2.6106973 -2.992698 0.069320872 19 8
3.3889894 -3.8862407 -1.1904407 7 1
2.5794282 -2.9578962 0.2056804 22 9
3.8160517 -4.3775053 -1.1288261 3 2
2.5668731 -2.9455738 0.34182462 21 10
4.3986077 -5.0493298 -1.0606256 3 3
2.5460179 -2.9237025 0.47602162 18 11
5.1535773 -5.9201598 -0.96374321 4 4
9.3617764 -10.754319 2.2582884 27 12
5.9536176 -6.8416147 -0.79346621 3 5
9.2851315 -10.673795 2.7499402 34 13
2.6460671 -3.0428789 -0.21133253 17 6
9.2115107 -10.59663 3.2415447 35 14
2.6343312 -3.0304518 -0.07008864 16 7
2.6997595 -3.1155889 -1.1046398 1 0
2.6151636 -3.0179629 0.069704823 16 8
3.386291 -3.9092412 -1.1940399 7 1
2.5834689 -2.9834902 0.20683178 21 9
3.813597 -4.405643 -1.1326424 3 2
2.5696125 -2.9695821 0.34356773 21 10
4.3947649 -5.078826 -1.0637543 3 3
2.5531914 -2.9516463 0.4791902 19 11
5.1183367 -5.919198 -0.96081841 2 4
9.3551836 -10.8228 2.2657974 9 12
5.9570551 -6.8940139 -0.79712683 4 5
9.2958946 -10.758005 2.7636783 31 13
2.659462 -3.0788431 -0.21321662 17 6
9.2208977 -10.678743 3.2572916 35 14
2.6368036 -3.0547667 -0.070437685 16 7
7.4751616 -8.6631145 3.0659711 55 15
2.6510677 -3.0810626 -1.0891106 1 0
2.624948 -3.051784 0.070263296 17 8
3.3719404 -3.9216261 -1.1940399 2 1
2.5959501 -3.0202026 0.20871587 21 9
3.7930758 -4.4129729 -1.1311159 3 2
2.5709169 -2.9921343 0.34513652 19 10
4.3786945 -5.0978961 -1.0643799 3 3
2.5643401 -2.9865878 0.4833338 18 11
5.1198797 -5.9650335 -0.96520483 4 4
9.3257446 -10.869009 2.2683003 9 12
6.1755657 -7.197525 -0.82972294 1 5
9.2947464 -10.836709 2.7751269 4 13
2.6663597 -3.1097965 -0.21468198 17 6
9.2298861 -10.768693 3.2743876 47 14
2.6412034 -3.0826333 -0.070856556 13 7
7.3842936 -8.6214914 3.0416417 16 15
2.1759858 -2.5468516 -0.8975845 1 0
2.6285655 -3.0776548 0.070647255 17 8
3.3000247 -3.8651981 -1.1733451 2 1
2.6035438 -3.050514 0.21018124 21 9
3.7827473 -4.4321594 -1.1326424 3 2
2.5772681 -3.0207944 0.34740257 17 10
4.3660007 -5.1191621 -1.0656315 3 3
2.5745056 -3.0196908 0.48723361 18 11
5.1170535 -6.0040193 -0.96861708 4 4
9.2646875 -10.874429 2.2626686 15 12
6.1607404 -7.2311702 -0.83111739 1 5
2.6697304 -3.1358137 -0.2158334 17 6
9.2440233 -10.86169 3.2928333 22 14
2.651159 -3.1162028 -0.071415022 13 7
7.3516507 -8.6442719 3.0406065 28 15
2.0870976 -2.4601507 -0.86445564 21 0
2.6320338 -3.1035881 0.071031213 16 8
2.8605764 -3.3742697 -1.0212775 2 1
2.6135406 -3.0839627 0.21185601 21 9
3.7697914 -4.4483318 -1.1334056 3 2
2.589889 -3.0571356 0.35054016 21 10
4.345552 -5.1313567 -1.0650058 3 3
2.5767751 -3.0438097 0.48967096 17 11
5.098629 -6.0248752 -0.96910459 4 4
9.2075357 -10.884082 2.2579756 9 12
6.014502 -7.1096478 -0.81473213 3 5
9.3291588 -11.031756 2.8083277 31 13
2.67682 -3.1664672 -0.21729879 17 6
9.2463036 -10.941523 3.3072302 37 14
2.6622028 -3.1514068 -0.072008401 9 7
7.2852864 -8.627079 3.0255952 32 15
2.0859652 -2.4762859 -0.86756152 48 0
2.6405048 -3.1357 0.071554773 13 8
2.0807395 -2.4718328 -0.74593794 3 1
2.618191 -3.1114054 0.21311209 19 9
3.7769942 -4.4885039 -1.1402748 2 2
2.5945921 -3.0844538 0.35263234 19 10
