# .PCD v0.7 - Point Cloud Data file format
VERSION 0.7
FIELDS x y z intensity ring
SIZE 4 4 4 4 2
TYPE F F F F U
COUNT 1 1 1 1 1
WIDTH 1216
HEIGHT 1
VIEWPOINT 0 0 0 1 0 0 0
POINTS 1216
DATA ascii
-4.1338243 -1.4274266 -0.076336585 47 7
-4.256784 -1.4690534 1.2066146 41 15
-4.1457658 -1.4234558 0.076511249 47 8
-4.1466303 -1.4229437 0.22975492 46 9
-4.1709409 -1.4296588 0.38575107 52 10
-4.1824551 -1.4319742 0.54280597 38 11
-4.0963082 -1.4016811 -0.53159386 4 4
-4.2239099 -1.4453439 0.70708388 45 12
-4.0984149 -1.401603 -0.37895325 41 5
-4.218925 -1.4419934 0.86665416 40 13
-4.1051421 -1.4023033 -0.22734731 51 6
-4.2343402 -1.4456117 1.0329752 37 14
-4.1406741 -1.4136339 -0.076371491 50 7
-4.2710276 -1.4573035 1.2092025 44 15
-4.146677 -1.4084148 0.076441452 47 8
-4.1477895 -1.4071771 0.22954559 48 9
-4.1796799 -1.4163696 0.3860997 48 10
-4.192821 -1.420007 0.5435372 40 11
-4.100934 -1.3880893 -0.53159386 4 4
-4.2233157 -1.4286919 0.70614535 46 12
-4.0995078 -1.3860121 -0.37860465 41 5
-4.2255435 -1.4286238 0.86703587 37 13
-4.1135545 -1.389961 -0.22755668 55 6
-4.2354174 -1.4303148 1.0320753 37 14
-4.1342149 -1.3953347 -0.076162063 48 7
-4.2632742 -1.4380646 1.2055792 41 15
-4.1534638 -1.394567 0.07647635 48 8
-4.1526756 -1.3926908 0.22954556 46 9
-4.165463 -1.3961695 0.38435656 45 10
-4.197752 -1.4053636 0.5435372 41 11
-4.1057544 -1.3737658 -0.53159386 2 4
-4.2207837 -1.4114351 0.70489383 46 12
-4.0965238 -1.3698825 -0.3779074 41 5
-4.2267804 -1.4126213 0.86627257 40 13
-4.118381 -1.3755935 -0.22755668 55 6
-4.244082 -1.4167559 1.0329752 38 14
-4.1295762 -1.3777307 -0.07598754 47 7
-4.2664361 -1.4225632 1.2050617 44 15
-4.145021 -1.375651 0.076232009 48 8
-4.1575122 -1.3781857 0.22954559 46 9
-4.170311 -1.3816206 0.38435656 48 10
-4.2064013 -1.3919482 0.54402471 41 11
-4.1256027 -1.3644122 -0.53354377 4 4
-4.2256846 -1.3966941 0.70489383 46 12
-4.0974965 -1.3543248 -0.37755877 41 5
-4.2223649 -1.3947783 0.86436498 42 13
-4.1269512 -1.3624614 -0.22776602 51 6
-4.249001 -1.4019336 1.0329752 36 14
-4.1381583 -1.3645598 -0.076057345 47 7
-4.2640367 -1.4052433 1.2029911 45 15
-4.1573977 -1.3636676 0.07637164 45 8
-4.1698899 -1.366152 0.22996427 48 9
-4.175108 -1.367056 0.38435656 43 10
-4.1961398 -1.3723199 0.54207468 41 11
-4.1152449 -1.3450699 -0.53159386 2 4
-4.2324123 -1.3825475 0.70520675 43 12
-4.1135626 -1.3437244 -0.37860459 39 5
-4.229074 -1.3806401 0.86474657 40 13
-4.1202884 -1.3443311 -0.22713797 53 6
-4.2464581 -1.3846755 1.0311755 36 14
-4.1486001 -1.3519652 -0.076162063 48 7
-4.2725892 -1.3915478 1.2040263 45 15
-4.1583281 -1.347914 0.076301821 45 8
-4.1632314 -1.3478978 0.22933622 48 9
-4.1836457 -1.3537006 0.38470519 50 10
-4.1876826 -1.3533922 0.54036862 37 11
-4.1274705 -1.333137 -0.53256875 2 4
-4.2447319 -1.3701923 0.70645821 45 12
-4.1087484 -1.326297 -0.37773311 39 5
-4.2376041 -1.367076 0.86550927 40 13
-4.1230555 -1.3293275 -0.2270333 55 6
-4.2512655 -1.369844 1.0311755 37 14
-4.1551981 -1.3380897 -0.076196969 47 7
-4.2847762 -1.3789911 1.2060968 46 15
-4.1668162 -1.3346102 0.076371625 45 8
-4.1603022 -1.3309228 0.22891752 46 9
-4.1864481 -1.3384818 0.3845309 48 10
-4.2037272 -1.3423892 0.54183096 38 11
-4.1207519 -1.3150989 -0.53110677 2 4
-4.2381968 -1.3517665 0.70458096 45 12
-4.1133528 -1.3119476 -0.37773311 42 5
-4.2386093 -1.3510829 0.86474657 40 13
-4.1257682 -1.31432 -0.22692864 53 6
-4.2504511 -1.3532236 1.029826 39 14
-4.1465044 -1.319333 -0.075952642 48 7
-4.2785187 -1.3605137 1.2029911 45 15
-4.1752629 -1.3212637 0.076441444 45 8
-4.1687312 -1.3175963 0.22912689 48 9
-4.1815958 -1.3208597 0.38365936 48 10
-4.2064943 -1.3271099 0.54158723 37 11
-4.1328907 -1.3030956 -0.53208131 2 4
-4.237237 -1.3351829 0.70364237 46 12
-4.1103058 -1.2951859 -0.37703586 42 5
-4.2451725 -1.336869 0.86512768 40 13
-4.1360455 -1.3017099 -0.22724263 57 6
-4.2532897 -1.3377936 1.029376 36 14
-4.1491771 -1.30425 -0.075917728 50 7
-4.2758684 -1.3432554 1.2009205 46 15
-4.1645808 -1.301908 0.076162204 45 8
-4.173305 -1.3030366 0.22912689 46 9
-4.1804748 -1.3044744 0.38313639 48 10
-4.2092061 -1.3118277 0.54134351 37 11
-4.1184616 -1.282758 -0.52964449 2 4
-4.2456446 -1.3215582 0.70426816 48 12
-4.1109972 -1.279646 -0.37668723 42 5
-4.2423148 -1.3197095 0.86360127 42 13
-4.140564 -1.2872643 -0.22724263 57 6
-4.2616553 -1.3240949 1.0302758 38 14
-4.1517949 -1.2891668 -0.075882837 50 7
-4.2768412 -1.3271763 1.1998851 46 15
-4.1614571 -1.2850027 0.07602258 47 8
-4.1778283 -1.2884609 0.22912689 46 9
-4.1869063 -1.2904603 0.38331115 48 10
-4.206171 -1.2947906 0.54036862 37 11
-4.1418877 -1.2742108 -0.53208131 2 4
-4.2483435 -1.3061495 0.70395523 45 12
-4.1211514 -1.2670444 -0.37721011 44 5
-4.2393894 -1.3025868 0.86207491 40 13
-4.1316681 -1.2686993 -0.22650996 55 6
-4.2662511 -1.3092107 1.0302758 37 14
-4.1620045 -1.2764251 -0.07598754 50 7
-4.2832952 -1.3128054 1.2004029 48 15
-4.1659169 -1.2704697 0.07602258 45 8
-4.1706152 -1.2711059 0.22849885 50 9
-4.1951981 -1.2769991 0.38365936 48 10
-4.2030673 -1.2777905 0.5393936 38 11
-4.0893288 -1.242434 -0.52476972 2 4
-4.2488708 -1.2909065 0.70332944 45 12
-4.1083918 -1.2474415 -0.37564135 41 5
-4.2457895 -1.2883505 0.8624565 39 13
-4.1284266 -1.2519519 -0.2260913 53 6
-4.2633352 -1.2920496 1.0284761 37 14
-4.1662145 -1.2626163 -0.075987548 50 7
-4.2913227 -1.2997141 1.2014382 48 15
-4.1720219 -1.2572249 0.076057494 48 8
-4.1597266 -1.251935 0.22766146 52 9
-4.1919975 -1.260053 0.38296208 48 10
-4.1637702 -1.2515682 -0.6886245 1 3
-4.2110848 -1.2649878 0.53988111 38 11
-4.1276488 -1.2391399 -0.52915692 2 4
-4.2438917 -1.273228 0.70176524 46 12
-4.0363836 -1.210205 -0.36866894 23 5
-4.2500377 -1.2742636 0.86245638 42 13
-4.0426335 -1.211311 -0.22117171 36 6
-4.2694635 -1.278464 1.0289261 33 14
-4.0920506 -1.2245605 -0.07455644 34 7
-4.2976851 -1.2852813 1.2019559 45 15
-4.1150527 -1.2244049 0.074940547 30 8
-4.1544986 -1.2345635 0.22713813 34 9
-4.1827836 -1.2421744 0.38174191 48 10
-4.2192807 -1.2514105 0.54036862 38 11
-0.87739694 -0.2600635 -0.11236349 4 4
-4.2502041 -1.2589673 0.70207798 45 12
-4.0441952 -1.1979448 -0.36901754 5 5
-4.2563424 -1.2599787 0.86283797 42 13
-4.0544977 -1.1994584 -0.22159038 70 6
-4.2682939 -1.2618952 1.0275763 36 14
-4.0541101 -1.1978048 -0.073788546 63 7
-4.287322 -1.2658937 1.1978145 53 15
-4.0790091 -1.1981974 0.074207522 56 8
-4.0897894 -1.1998135 0.22336994 63 9
-4.1067939 -1.2040226 0.37442082 56 10
-4.147419 -1.2143623 0.53061903 42 11
-0.87448907 -0.25588405 -0.11187602 4 4
-4.2166524 -1.2330359 0.69582063 31 12
-4.0846848 -1.1944458 -0.37232941 1 5
-4.2211413 -1.2335489 0.85482407 25 13
-4.0644112 -1.1869767 -0.22190435 74 6
-4.2726722 -1.2469894 1.0275763 28 14
-4.0697837 -1.1870052 -0.073997967 69 7
-4.2898607 -1.25038 1.197297 48 15
-4.0831671 -1.1839516 0.074207529 69 8
-4.0977898 -1.1866412 0.2235793 73 9
-4.1071434 -1.188573 0.37407219 66 10
-4.1306548 -1.1938146 0.52793789 56 11
-0.87919122 -0.25393179 -0.11236349 4 4
-4.1753817 -1.2051624 0.68831176 60 12
-4.1537399 -1.1981294 0.84032249 51 13
-4.0282288 -1.1611648 -0.21970628 29 6
-4.1814976 -1.2045562 1.0046315 42 14
-4.0739036 -1.1727909 -0.073997974 68 7
-4.2087979 -1.2108287 1.1734856 72 15
-4.0911202 -1.1707919 0.074277341 76 8
-4.0884643 -1.1684879 0.22284657 79 9
-4.1055202 -1.1725875 0.37354925 71 10
-4.1290708 -1.1777554 0.52720678 68 11
-0.88770843 -0.25303796 -0.11333845 3 4
-4.170064 -1.1878741 0.68674737 61 12
-4.1692266 -1.186848 0.84261227 55 13
-4.1838021 -1.1894196 1.0041815 52 14
-4.0779719 -1.1585629 -0.073997967 68 7
-4.2129984 -1.1961308 1.1734856 92 15
-4.0913334 -1.155417 0.074207529 78 8
-4.0886731 -1.1531249 0.22263722 79 9
-4.1134238 -1.1593304 0.37389788 69 10
-4.1216908 -1.1601076 0.5257442 61 11
-0.87329882 -0.24563769 -0.11138865 4 4
-4.1646771 -1.1706369 0.68518311 69 12
-4.1827941 -1.1749429 0.84452039 61 13
-4.1785469 -1.1721753 1.0019319 59 14
-4.0762148 -1.1427025 -0.073893249 69 7
-4.2022667 -1.1772482 1.1693447 88 15
-4.0953412 -1.1411294 0.074207529 78 8
-4.0965223 -1.1399167 0.2228466 79 9
-4.109767 -1.1428305 0.37320065 74 10
-4.1314535 -1.1473066 0.52647549 60 11
-0.87032533 -0.24152635 -0.11090107 4 4
-4.1706414 -1.1566211 0.68549603 72 12
-4.184978 -1.1598105 0.84413916 60 13
-4.1844912 -1.158103 1.0023818 61 14
-4.0801787 -1.1284668 -0.073893249 71 7
-4.1989026 -1.1605127 1.1672741 86 15
-4.0915875 -1.124707 0.07406792 78 8
-4.1002798 -1.1263256 0.22284657 76 9
-4.1098886 -1.1274226 0.37285206 74 10
-4.1392622 -1.1339279 0.52696294 57 11
-0.89409608 -0.24493267 -0.11382592 3 4
-4.1763587 -1.1433058 0.68580878 69 12
-4.1757445 -1.1415709 0.8414678 61 13
-4.1883087 -1.1442202 1.0023818 61 14
-4.083899 -1.1149302 -0.073893264 69 7
-4.2027278 -1.1465832 1.1672741 86 15
-4.087575 -1.1090379 0.073928304 76 8
-4.1117029 -1.1148129 0.22326526 82 9
-4.1212969 -1.1158711 0.37354925 76 10
-4.1276698 -1.1160502 0.52501309 57 11
-0.86807543 -0.23471253 -0.11041358 4 4
-4.1667781 -1.1258441 0.68361872 24 12
-4.1814032 -1.128229 0.84184909 16 13
-4.2033691 -1.1333688 1.0050813 61 14
-4.0856423 -1.1008607 -0.073858351 68 7
-4.2065067 -1.13264 1.1672741 86 15
-4.1008878 -1.0980626 0.074102812 66 8
-4.1001329 -1.0963271 0.22242789 74 9
-4.1211252 -1.1011695 0.37320065 79 10
-4.127512 -1.1013315 0.52452558 56 11
-0.88039792 -0.23474954 -0.11187602 4 4
-4.186583 -1.1131809 1.0001323 32 14
-4.204833 -1.1164632 1.1657212 59 15
-4.128087 -1.0891474 0.074521676 11 8
-4.1234374 -1.0863802 0.22347461 30 9
-4.1424747 -1.0906218 0.37476951 52 10
-4.1334405 -1.0867016 0.52476931 46 11
-0.88125247 -0.23152095 -0.11187602 4 4
-1.6469637 -0.43238029 0.26969308 6 12
-1.6635939 -0.43612516 0.3342973 10 13
-4.1340404 -1.0822314 -0.074591354 6 7
-4.1688247 -1.083567 0.075184874 13 8
-4.1929307 -1.0890504 0.22703345 6 9
-0.87821186 -0.22744817 -0.11138865 4 4
-1.6660783 -0.43025693 0.39726359 2 14
-4.1898279 -1.0742061 0.075499013 56 8
-4.1808701 -1.0695769 0.37755889 32 10
-0.87511462 -0.22355199 -0.11090107 4 4
-4.1761928 -1.0629451 -0.075219639 52 7
-4.1720414 -1.0549138 0.075115055 39 8
-4.1983099 -1.0599968 0.22692879 47 9
-4.2133727 -1.0630177 0.38017315 32 10
-2.0038702 -0.50482488 0.25373194 2 11
-0.88743985 -0.22340353 -0.11236349 4 4
-1.6666545 -0.4192532 0.27219605 73 12
-1.635555 -0.41112649 0.32780975 75 13
-4.1663008 -1.0449567 -0.074975304 50 7
-4.1815195 -1.0417954 0.075219773 52 8
-4.1864796 -1.0414783 0.22609144 45 9
-4.2054567 -1.0454198 0.37912726 29 10
-2.0017672 -0.49687049 0.25324446 8 11
-0.88821423 -0.22030437 -0.11236349 8 4
-1.6757772 -0.41533375 0.27344754 82 12
-1.6541311 -0.40966246 0.33124432 96 13
-1.6533947 -0.40886763 0.39321446 30 14
-4.181571 -1.0332854 -0.07518474 42 7
-1.6617134 -0.41030931 0.4586274 32 15
-4.1928983 -1.0290992 0.075359382 52 8
-4.1881485 -1.0263826 0.2259867 50 9
-4.2284312 -1.0354735 0.38087034 29 10
-2.0131304 -0.49223733 0.25446314 12 11
-0.88126433 -0.21531817 -0.11138854 9 4
-1.6580266 -0.40479645 0.27031884 89 12
-1.6383852 -0.39969814 0.32780996 86 13
-1.6567053 -0.40355486 0.39366436 15 14
-4.1715517 -1.0153722 -0.074940398 40 7
-1.6706442 -0.40633252 0.46069798 26 15
-4.1925783 -1.0135163 0.075289585 48 8
-4.1917057 -1.0117579 0.2259867 50 9
-4.2068415 -1.0146332 0.37860429 26 10
-2.0109766 -0.48427817 0.25397569 22 11
-0.87429059 -0.21038274 -0.11041358 9 4
-1.6555884 -0.39808273 0.26969311 86 12
-1.6435882 -0.3948943 0.3285732 96 13
-1.7850672 -0.42822713 0.42380777 7 14
-4.1809039 -1.0022036 -0.075045109 35 7
-1.7735026 -0.42479825 0.48865044 8 15
-4.1922002 -0.997949 0.07521978 50 8
-4.1990986 -0.99804354 0.22619608 50 9
-4.2045422 -0.9985612 0.37808135 30 10
-2.0049288 -0.47542301 0.25300074 25 11
-0.88660926 -0.21007569 -0.11187602 8 4
-1.6608121 -0.39321178 0.27031884 89 12
-1.6296725 -0.38553846 0.32552025 96 13
-4.3127565 -1.0186986 1.0230774 9 14
-4.1804848 -0.98668367 -0.074975304 32 7
-4.3396626 -1.0234535 1.1947089 9 15
-4.1917644 -0.98239774 0.075149968 52 8
-4.2025571 -0.98337883 0.22619608 52 9
-4.2099423 -0.98433304 0.3782557 47 10
-1.9872454 -0.46390894 0.25056338 33 11
-0.89893639 -0.20968537 -0.11333845 7 4
-1.6660222 -0.38830882 0.27094457 86 12
-1.6329206 -0.38029274 0.32590187 78 13
-4.2821212 -0.99569249 1.0149791 23 14
-4.1819563 -0.9716326 -0.074940406 35 7
-4.3413262 -1.007863 1.1941912 41 15
-4.1951675 -0.96775961 0.075149968 52 8
-4.2020712 -0.96780753 0.22598673 50 9
-4.2211185 -0.97141868 0.3789534 47 10
-1.9869173 -0.45652506 0.25031957 35 11
-0.86870658 -0.19943921 -0.10943872 10 4
-1.6654423 -0.38204882 0.2706317 66 12
-1.6418926 -0.37634534 0.32742834 72 13
-4.1814222 -0.95613796 -0.074870579 45 7
-4.3372846 -0.99098146 1.1921206 20 15
-4.2024202 -0.95399511 0.07521978 52 8
-4.1976318 -0.95136756 0.22556803 52 9
-4.2205977 -0.95579815 0.37860429 47 10
-1.9904355 -0.45002446 0.25056335 36 11
-0.86939758 -0.19640563 -0.10943863 10 4
-1.8825781 -0.42494798 0.30567303 15 12
-1.654687 -0.37320343 0.32971805 57 13
-2.0684385 -0.46576363 0.48949355 2 14
-4.1808324 -0.94065833 -0.074800774 45 7
-4.3388329 -0.97541076 1.1916031 2 15
-4.2096281 -0.94019175 0.075289585 50 8
-4.2048259 -0.9375785 0.22577737 52 9
-4.2161298 -0.93932658 0.37790704 48 10
-1.9939314 -0.4435046 0.25080705 36 11
-0.86620212 -0.1925083 -0.10895125 10 4
-2.0363939 -0.45220351 0.33038968 28 12
-1.671313 -0.37082729 0.33277082 33 13
-2.0567334 -0.45559034 0.48634419 7 14
-4.1840906 -0.92605865 -0.074800774 47 7
-2.0617018 -0.45593598 0.56577861 6 15
-4.1972594 -0.92205906 0.075010352 52 8
-4.2080736 -0.92289615 0.2257774 52 9
-4.2193832 -0.92460376 0.3779071 48 10
-1.9993461 -0.43739027 0.25129455 30 11
-0.87850475 -0.19202691 -0.11041358 9 4
-2.0321705 -0.44382796 0.32945111 32 12
-4.2908254 -0.93633574 0.85367918 28 13
-4.2879891 -0.93414903 1.0131795 15 14
-4.191206 -0.91229737 -0.074870586 45 7
-4.3379865 -0.9434551 1.1895325 15 15
-4.2043614 -0.90824664 0.075080156 52 8
-4.2112699 -0.90820056 0.2257774 52 9
-4.2225847 -0.90986955 0.37790704 48 10
-1.9989203 -0.42999113 0.25105083 21 11
-0.88693285 -0.19062768 -0.11138854 9 4
-2.0414326 -0.43839106 0.33070257 10 12
-4.2863889 -0.91970456 0.85215318 36 13
-4.2836018 -0.91754162 1.0113798 23 14
-4.1924095 -0.89724422 -0.074835688 50 7
-4.350698 -0.93032646 1.1921206 41 15
-4.2114191 -0.89439696 0.075149976 53 8
-4.2065992 -0.89183789 0.22535871 52 9
-4.2257347 -0.89512533 0.37790704 48 10
-4.2668915 -0.90228635 0.53549385 16 11
-0.87982386 -0.18588932 -0.11041358 9 4
-4.3062372 -0.90903628 0.69707209 48 12
-4.3010998 -0.90716773 0.85444248 40 13
-4.3058476 -0.90659946 1.0158789 37 14
-4.199429 -0.88342762 -0.074905492 48 7
-4.3614817 -0.91672456 1.1941913 48 15
-4.2164726 -0.88009936 0.075184874 53 8
-4.2096863 -0.87714958 0.22535871 52 9
-4.2288337 -0.88036919 0.37790704 48 10
-4.2913938 -0.89183044 0.53817493 51 11
-0.89601648 -0.18604554 -0.11236349 4 4
-4.2977791 -0.89159149 0.69519484 42 12
-4.3061628 -0.89254802 0.85482413 40 13
-4.3128023 -0.89235324 1.0167786 39 14
-4.1926961 -0.86674023 -0.07473097 52 7
-4.3419523 -0.89680427 1.1879797 56 15
-4.215601 -0.86457109 0.075115062 53 8
-4.2205491 -0.86405188 0.2257774 52 9
-4.2221212 -0.86360496 0.3770355 50 10
-4.2614169 -0.87009412 0.53403145 35 11
-0.91222078 -0.18609075 -0.1143134 3 4
-4.2892518 -0.87421805 0.69331771 45 12
-4.3034801 -0.8763358 0.85367918 36 13
-4.3158913 -0.87729323 1.0167787 38 14
-4.189817 -0.8509056 -0.07462626 48 7
-4.3450561 -0.88164234 1.1879796 54 15
-4.2185926 -0.84985137 0.075115055 53 8
-4.2196236 -0.8485266 0.22556804 52 9
-4.2290173 -0.84964764 0.37738416 48 10
-4.2702661 -0.85638338 0.53476256 41 11
-0.90897197 -0.1821256 -0.11382592 3 4
-4.2980881 -0.86040354 0.69425631 46 12
-4.2988119 -0.85976714 0.85215318 42 13
-4.3170161 -0.86184204 1.0163288 39 14
-4.1947231 -0.83666533 -0.074661158 50 7
-4.3462114 -0.86609209 1.1874617 60 15
-4.2117257 -0.83318025 0.07494054 52 8
-4.2264781 -0.83456576 0.22577737 52 9
-4.2378206 -0.8360371 0.37790704 48 10
-4.2615442 -0.83917207 0.53330022 41 11
-0.92518419 -0.1820171 -0.11577583 3 4
-4.3030028 -0.84577584 0.69456905 43 12
-4.3017874 -0.84475607 0.85215318 36 13
-4.2274952 -0.82940191 -0.22577725 2 6
-4.3276482 -0.84826583 1.0181285 39 14
-4.1995802 -0.82240206 -0.074696064 48 7
-4.3511052 -0.85128772 1.1879796 60 15
-4.2204976 -0.81961703 0.07504525 53 8
-4.2195625 -0.81790721 0.22525404 53 9
-4.2407136 -0.82123911 0.37790704 48 10
-4.2663965 -0.82466787 0.53354388 42 11
-0.91411942 -0.17652813 -0.1143134 7 4
-4.3136883 -0.83224624 0.69582069 45 12
-4.3085647 -0.83047897 0.85291636 42 13
-4.1950617 -0.80784184 -0.22389315 8 6
-4.322928 -0.83168155 1.0163288 39 14
-4.2161722 -0.81038088 -0.074940398 50 7
-4.3578444 -0.83682281 1.1890148 58 15
-4.2272611 -0.80562931 0.075115062 53 8
-4.2204289 -0.80279976 0.22514933 52 9
-4.2396393 -0.80568826 0.37755841 48 10
-4.2711992 -0.81014013 0.53378767 41 11
-0.91082931 -0.1725972 -0.11382592 7 4
-4.3010402 -0.81424505 0.69331771 45 12
-4.3172255 -0.81652874 0.85406077 40 13
-4.1880441 -0.79133826 -0.22336981 21 6
-4.3181448 -0.81514162 1.0145292 38 14
-4.2052193 -0.79306448 -0.074696071 48 7
-4.3607392 -0.82160485 1.1890148 58 15
-4.2280817 -0.79049987 0.075080156 53 8
-4.2250314 -0.78916645 0.22525403 53 9
-4.2365499 -0.78978765 0.3770355 50 10
-4.2759523 -0.79558998 0.53403139 42 11
-0.89581293 -0.16651429 -0.11187602 8 4
-4.301774 -0.79961658 0.69300485 46 12
-4.3123279 -0.80002123 0.85253429 40 13
-4.1966729 -0.7778073 -0.22368385 31 6
-4.328629 -0.80148262 1.0163289 38 14
-4.2058597 -0.77875084 -0.074661158 47 7
-4.3520412 -0.80503207 1.1859089 60 15
-4.2228131 -0.77503169 0.07494054 53 8
-4.2316895 -0.77513415 0.22546338 56 9
-4.2432013 -0.77571106 0.3773841 53 10
-4.2746615 -0.78069252 0.53354388 41 11
-0.90417165 -0.16496792 -0.11285097 4 4
-4.310369 -0.78565824 0.69394344 45 12
-4.3110948 -0.78501314 0.85177112 42 13
-4.1972632 -0.76352865 -0.22357912 36 6
-4.3312626 -0.78712374 1.0163288 38 14
-4.2046175 -0.76335037 -0.074591354 47 7
-4.3510242 -0.78914624 1.1848738 60 15
-4.2235246 -0.75993133 0.074905634 53 8
-4.2422328 -0.76176995 0.22588207 55 9
-4.2496724 -0.76233929 0.37773275 53 10
-4.26759 -0.76401716 0.53232515 42 11
-0.90083385 -0.16111179 -0.11236349 4 4
-4.3169746 -0.77130216 0.69456917 45 12
-4.3099422 -0.7692706 0.8510083 40 13
-4.1940041 -0.74782091 -0.22326511 36 6
-4.337821 -0.77268332 1.0172286 38 14
-4.2151318 -0.75007021 -0.074730977 52 7
-4.3632612 -0.77564377 1.1874617 65 15
-4.237967 -0.74726814 0.075115062 53 8
-4.2369976 -0.74557251 0.22546338 55 9
-4.2485137 -0.74607009 0.37738416 53 10
-4.2682767 -0.74877179 0.53208148 42 11
-0.90921193 -0.15933692 -0.11333845 3 4
-4.3274231 -0.75759184 0.69582063 48 12
-4.3204689 -0.75481921 0.85253477 42 13
-4.1927814 -0.73175824 -0.22305578 36 6
-4.3291059 -0.75477105 1.0145293 39 14
-4.2216644 -0.73603886 -0.074800782 47 7
-4.365942 -0.76040828 1.1874617 62 15
-4.234766 -0.73071009 0.075010352 53 8
-4.2318287 -0.72868228 0.22504467 53 9
-4.2550187 -0.73191082 0.37773275 53 10
-4.2788181 -0.73446697 0.53305644 41 11
-0.93326825 -0.16002955 -0.11626332 3 4
-4.3145957 -0.73905689 0.69331771 43 12
-4.3250122 -0.74006534 0.85291636 42 13
-4.1953106 -0.71711713 -0.22305578 36 6
-4.3317137 -0.73965484 1.0145292 39 14
-4.2065926 -0.7175355 -0.074486643 50 7
-4.3725095 -0.74505025 1.1884973 62 15
-4.2451782 -0.71725506 0.075149968 53 8
-4.2402554 -0.7149021 0.22535871 53 9
-4.2496886 -0.71572876 0.3770355 52 10
-4.2891865 -0.72084254 0.53403139 42 11
-0.90641338 -0.15216936 -0.11285097 4 4
-4.3113046 -0.72301245 0.69237918 46 12
-4.3314419 -0.72561234 0.8536796 45 13
-4.2017283 -0.70312756 -0.22326514 38 6
-4.3419571 -0.72581595 1.0163288 40 14
-4.2090716 -0.7028473 -0.074486643 50 7
-4.3636498 -0.72787553 1.1853912 62 15
-4.2358189 -0.70047563 0.074940547 53 8
-4.2445731 -0.70116234 0.22546338 55 9
-4.2560925 -0.70153922 0.3773841 52 10
-4.2877588 -0.70522064 0.53354388 41 11
-0.94611567 -0.15544114 -0.11772574 2 4
-4.3214746 -0.70999235 0.69363046 46 12
-4.2998357 -0.7056666 -0.38121936 2 5
-4.31845 -0.70794648 0.85062629 36 13
-4.2080984 -0.68910289 -0.22347446 40 6
-4.3444648 -0.71065521 1.0163289 38 14
-4.2172995 -0.68985391 -0.074591354 47 7
-4.362227 -0.71277803 1.1843561 62 15
-4.2361431 -0.68610525 0.074905626 53 8
-4.2509384 -0.68697894 0.22567274 53 9
-4.2624497 -0.68731266 0.37773275 53 10
-4.2783146 -0.6891048 0.53208143 41 11
-0.96622479 -0.15545608 -0.12016313 2 4
-4.3239269 -0.69490325 0.69363052 48 12
-4.2983375 -0.69002128 -0.3808707 2 5
-4.3246498 -0.69424522 0.85138988 40 13
-4.2044444 -0.67419577 -0.22316045 38 6
-4.3506451 -0.69686061 1.0172286 40 14
-4.2216563 -0.67544335 -0.07462626 48 7
-4.3665962 -0.69785237 1.1848737 60 15
-4.2404885 -0.67162704 0.074940547 53 8
-4.245419 -0.67089003 0.22525403 55 9
-4.2607698 -0.6725527 0.37738416 52 10
-4.2846165 -0.67478406 0.53256893 42 11
-4.2808123 -0.67341936 -0.53208131 2 4
-4.3321805 -0.68072546 0.69456917 45 12
-4.308475 -0.67700052 -0.38156793 4 5
-4.3231688 -0.67853636 0.85062635 40 13
-4.2087455 -0.65982455 -0.22326511 42 6
-4.3453507 -0.68046379 1.0154291 39 14
-4.223989 -0.66070378 -0.074626267 48 7
-4.3747311 -0.68350035 1.1864265 65 15
-4.2408304 -0.65651476 0.074905634 53 8
-4.2437868 -0.65545577 0.22504467 55 9
-4.2749057 -0.65949821 0.37842998 52 10
-4.2889071 -0.66012567 0.53281265 42 11
-0.97513479 -0.14991334 -0.1211381 2 4
-4.3189106 -0.66320151 0.69206625 45 12
-4.2950583 -0.65953887 -0.3801735 4 5
-4.3410354 -0.66582245 0.85367918 42 13
-4.2110224 -0.64512908 -0.22326508 42 6
-4.3361406 -0.66352278 1.0127295 39 14
-4.2183619 -0.6447466 -0.074486628 48 7
-4.3847299 -0.66939169 1.1884973 62 15
-4.2549591 -0.64350241 0.075115055 53 8
-4.249999 -0.64123404 0.22525403 55 9
-4.2574797 -0.64160383 0.37668687 53 10
-4.2911854 -0.64515042 0.53281265 42 11
-0.95602119 -0.14356089 -0.1187007 2 4
-4.3309665 -0.64958555 0.69363052 46 12
-4.285624 -0.64201999 -0.37912759 4 5
-4.3415041 -0.64961767 0.85329801 37 13
-4.2153349 -0.62998581 -0.22336981 44 6
-4.3499951 -0.65011096 1.0154291 39 14
-4.2245426 -0.63060826 -0.07455644 50 7
-4.3717537 -0.65180397 1.1843561 65 15
-4.2394853 -0.62527591 0.074800916 53 8
-4.2523208 -0.62565368 0.22525403 55 9
-4.2637458 -0.62657338 0.3770355 53 10
-4.3013778 -0.63056982 0.53378767 42 11
-4.3230939 -0.63298267 -0.53646868 2 4
-4.3255005 -0.63256502 0.69237918 46 12
-4.2899199 -0.62659597 -0.37930191 4 5
-4.3283157 -0.63143265 0.8502447 39 13
-4.2176151 -0.61453259 -0.22336981 44 6
-4.3562055 -0.63472605 1.0163289 39 14
-4.2327614 -0.61598402 -0.074661151 50 7
-4.3779368 -0.63633084 1.1853913 62 15
-4.2437277 -0.61001873 0.074835822 53 8
-4.2505255 -0.61023766 0.2250447 55 9
-4.2660131 -0.61094266 0.3770355 53 10
-4.2859735 -0.61227465 0.53159398 42 11
-4.3413701 -0.61941522 0.69456905 43 12
-4.2999716 -0.61274177 -0.37999919 4 5
-4.3304925 -0.61632103 0.85024458 40 13
-4.2138023 -0.59896225 -0.22305578 46 6
-4.3622527 -0.62006336 1.0172286 39 14
-4.2289467 -0.600362 -0.07455644 48 7
-4.3801312 -0.62104601 1.1853913 65 15
-4.2496872 -0.59649831 0.074905626 53 8
-4.2446132 -0.59503078 0.22462599 55 9
-4.2759089 -0.59789622 0.37773275 53 10
-4.295845 -0.59915513 0.53256893 43 11
-4.311574 -0.601349 -0.53451878 82 4
-4.3355751 -0.60392511 0.69331771 45 12
-4.2901387 -0.59683168 -0.37895325 4 5
-4.3344579 -0.60222727 0.85062635 40 13
-4.2157655 -0.58498633 -0.22305578 48 6
-4.3488431 -0.60345238 1.0136294 39 14
-4.2427993 -0.58798176 -0.074765876 48 7
-4.3898206 -0.60757685 1.1874619 62 15
-4.253624 -0.58267391 0.07494054 53 8
-4.2544785 -0.58203453 0.22504467 55 9
-4.2778683 -0.58371335 0.37773275 53 10
-4.2978077 -0.5849061 0.53256887 43 11
-4.3395114 -0.58981037 0.69363052 46 12
-4.3157859 -0.58581865 -0.38104504 4 5
-4.3481026 -0.58943242 0.85291636 40 13
-4.2176824 -0.57100296 -0.22305578 55 6
-4.3546824 -0.5895505 1.0145292 39 14
-4.2328353 -0.57230115 -0.074556433 48 7
-4.3918114 -0.59301502 1.1874617 65 15
-4.2614789 -0.56935942 0.07504525 53 8
-4.2563848 -0.56792283 0.22504467 56 9
-4.26793 -0.56794709 0.37668687 53 10
-4.3075953 -0.57169545 0.53354388 46 11
-4.3336101 -0.57437837 0.69237906 46 12
-4.3157291 -0.57124209 -0.3808707 2 5
-4.3461409 -0.57449567 0.85215318 40 13
-4.2195525 -0.55701333 -0.22305578 59 6
-4.3604779 -0.5756166 1.0154291 39 14
-4.2307453 -0.55773956 -0.074486643 50 7
-4.3860927 -0.57743931 1.1853913 62 15
-4.2556047 -0.55270725 0.074905634 55 8
-4.2624965 -0.55208844 0.22525403 56 9
-4.2660308 -0.55179036 0.37633824 52 10
-4.3096619 -0.55590338 0.53354388 43 11
-4.3377438 -0.55798644 0.69269198 45 12
-4.3384814 -0.55731171 0.85024458 40 13
-4.2215657 -0.54154307 -0.22305578 55 6
-4.3665223 -0.55936456 1.0163289 39 14
-4.2288885 -0.54098314 -0.074416839 50 7
-4.3844461 -0.56010413 1.1843562 65 15
-4.2535405 -0.53734666 0.074835822 55 8
-4.2683601 -0.53770638 0.22546338 56 9
-4.2758384 -0.5378893 0.3770355 53 10
-4.299758 -0.53937489 0.53208148 42 11
-4.3396645 -0.54284132 0.69269192 48 12
-4.3423491 -0.54240853 0.85062635 42 13
-4.2234302 -0.52680457 -0.22305575 59 6
-4.3684483 -0.544119 1.0163289 38 14
-4.2426572 -0.52769798 -0.07462626 48 7
-4.3902078 -0.54527318 1.1853913 65 15
-4.2553902 -0.52249563 0.074835822 55 8
-4.258317 -0.52134734 0.22483535 56 9
-4.2776909 -0.52296054 0.37703556 53 10
-4.2976737 -0.52388108 0.53159398 43 11
-4.3474154 -0.52840567 0.69363052 48 12
-4.3481131 -0.52771938 0.85138947 40 13
-4.2371402 -0.51350057 -0.22368382 38 6
-4.3587132 -0.52746212 1.0136296 39 14
-4.2484436 -0.51336581 -0.074696064 48 7
-4.3959203 -0.53040797 1.1864266 65 15
-4.2611589 -0.50811285 0.074905634 56 8
-4.2640767 -0.50695026 0.22504467 58 9
-4.2913604 -0.50943547 0.37808135 53 10
-4.3113036 -0.51027602 0.53305638 42 11
-4.3413868 -0.51230109 0.69237918 46 12
-4.3518782 -0.51276803 0.85177159 39 13
-4.2289896 -0.49754012 -0.22316048 8 6
-4.3585916 -0.51201665 1.0131794 40 14
-4.2482243 -0.49829978 -0.074661158 37 7
-4.4054198 -0.51595885 1.1884972 65 15
-4.2708521 -0.49415472 0.075045243 55 8
-4.265821 -0.49206373 0.2250447 56 9
-4.2851963 -0.49354085 0.37738416 52 10
-4.3091149 -0.49477172 0.53256893 41 11
-4.3392234 -0.49669319 0.69175333 46 12
-4.3575435 -0.49801978 0.85253429 40 13
-4.3120599 -0.49206018 -0.22745201 2 6
-4.3700337 -0.4979021 1.015429 38 14
-4.253911 -0.48391959 -0.07473097 16 7
-4.3956766 -0.49927065 1.1853912 65 15
-4.2606282 -0.47790614 0.074835822 56 8
-4.2675123 -0.47717005 0.22504467 55 9
-4.2829318 -0.4781374 0.3770355 53 10
-4.3226528 -0.48104423 0.53403133 42 11
-4.3487844 -0.48241451 0.69300485 46 12
-4.3592548 -0.48280701 0.85253429 40 13
-4.3717456 -0.48264471 1.0154291 40 14
-4.2575622 -0.46928772 -0.074765876 13 7
-4.4012332 -0.48434532 1.1864265 65 15
-4.2662463 -0.46346265 0.074905634 55 8
-4.2810664 -0.46356076 0.22567274 55 9
-4.2924986 -0.46403971 0.37773275 53 10
-0.59508336 -0.064226449 -0.094799288 18 3
-4.3104901 -0.46446371 0.53232521 42 11
-4.352406 -0.46744338 0.69331771 45 12
-4.3570094 -0.46716866 0.85177159 39 13
-4.3811536 -0.4682107 1.0172286 39 14
-4.267128 -0.45527065 -0.074905492 9 7
-4.4067388 -0.46938825 1.1874617 62 15
-4.267838 -0.44856775 0.074905634 53 8
-4.2747126 -0.44778281 0.22525403 55 9
-4.2901292 -0.44863972 0.3773841 52 10
-0.52850413 -0.055175018 -0.084161751 21 3
-4.3061628 -0.448796 0.53159404 40 11
-4.3579407 -0.45265585 0.69394344 45 12
-4.3605661 -0.45215833 0.85215318 42 13
-4.3750076 -0.45211342 1.015429 39 14
-4.2686915 -0.44037274 -0.0749055 9 7
-4.4102726 -0.45420191 1.1879796 60 15
-4.2773361 -0.43447569 0.07504525 55 8
-4.268301 -0.43205285 0.22483535 55 9
-4.3035622 -0.43486333 0.37843046 53 10
-0.56014001 -0.056502014 -0.089167655 20 3
-4.3195534 -0.4349561 0.53305644 41 11
-0.5826661 -0.058568668 -0.071902886 16 4
-4.3496661 -0.43645474 0.69237906 46 12
-4.3679786 -0.43752229 0.85329801 40 13
-0.93604153 -0.093594402 -0.049300462 4 6
-4.3726816 -0.43645081 1.0145292 39 14
-4.2582631 -0.42428079 -0.074696064 9 7
-4.4118319 -0.43880433 1.1879797 60 15
-4.2828064 -0.41993353 0.075115062 55 8
-4.2817101 -0.41831616 0.22546338 55 9
-4.2931566 -0.41867808 0.37738416 53 10
-0.56426591 -0.05492904 -0.089793384 20 3
-4.3249965 -0.42025927 0.53354388 43 11
-0.59867352 -0.058067549 -0.0738528 15 4
-4.3570623 -0.42183995 0.69331771 45 12
-4.3733883 -0.42265019 0.85406089 40 13
-0.9125061 -0.088025101 -0.048044398 11 6
-4.3838763 -0.42211941 1.0167786 40 14
-4.2597184 -0.40941405 -0.074696071 8 7
-4.4037204 -0.42247885 1.1853912 62 15
-4.2723007 -0.4038519 0.074905626 52 8
-4.2831435 -0.40336746 0.22546336 55 9
-4.2906241 -0.40331754 0.3770355 50 10
-0.55658722 -0.052220929 -0.088541903 20 3
-4.3303909 -0.40552974 0.53403145 41 11
-0.58306074 -0.054499466 -0.071902886 16 4
-4.3624415 -0.40699524 0.69394344 45 12
-4.3631072 -0.40628928 0.85177159 40 13
-0.87502277 -0.081327423 -0.04605563 30 6
-4.3872643 -0.40699416 1.0172287 40 14
-4.2770505 -0.3960171 -0.074975297 8 7
-4.4013219 -0.40674883 1.1843561 65 15
-4.2736845 -0.38893515 0.074905626 53 8
-4.2964606 -0.38949695 0.22609141 53 9
-4.2959747 -0.38869599 0.3773841 52 10
-0.513484 -0.046369229 -0.081658795 22 3
-4.3159628 -0.38898674 0.53208148 42 11
-0.5872016 -0.052819539 -0.072390363 16 4
-4.3677707 -0.39211813 0.69456917 43 12
-4.3605881 -0.39070722 0.8510083 37 13
-0.89320517 -0.079873532 -0.046997678 33 6
-4.3964224 -0.39237007 1.0190283 39 14
-4.2843828 -0.38161716 -0.075080015 6 7
-4.4084873 -0.39189589 1.1859089 60 15
-4.2869692 -0.37506047 0.075115062 53 8
-4.2897696 -0.37455213 0.22567271 55 9
-4.3012748 -0.3740429 0.37773323 52 10
-0.5057708 -0.043893494 -0.080407314 22 3
-4.3172936 -0.37391767 0.53208143 41 11
-0.5715608 -0.049401965 -0.070440464 16 4
-4.3769193 -0.3783122 0.69582069 48 12
-4.3658376 -0.37581915 0.85177159 40 13
-0.88949859 -0.076413251 -0.046788331 33 6
-4.389998 -0.37635639 1.0172286 38 14
-4.2955866 -0.36826244 -0.075254537 6 7
-4.4270859 -0.37875658 1.1905677 65 15
-4.2921753 -0.36117753 0.075184874 53 8
-4.2791095 -0.35857502 0.2250447 55 9
-4.314467 -0.36002138 0.37877911 52 10
-0.54528433 -0.045501336 -0.086664699 20 3
-4.3303804 -0.36058828 0.53354394 41 11
-0.54006898 -0.044876195 -0.066540636 17 4
-4.3585267 -0.36140013 0.69269192 45 12
-4.374886 -0.36198786 0.85329801 40 13
-0.88775665 -0.073298775 -0.046683658 48 6
-4.3873386 -0.36147639 1.0163289 39 14
-4.2848887 -0.35228157 -0.075045116 6 7
-4.426456 -0.36314282 1.1900501 58 15
-4.3013821 -0.34683663 0.075324483 53 8
-4.3002443 -0.34523314 0.22609144 53 9
-4.2997499 -0.34443927 0.37738416 53 10
-0.55725437 -0.044541992 -0.088541903 20 3
-4.3355699 -0.34578466 0.53403139 41 11
-0.54813772 -0.043620747 -0.067515664 17 4
-4.3597612 -0.34618372 0.69269192 43 12
-4.3878665 -0.34764373 0.8555873 42 13
-0.88004297 -0.069570072 -0.046264976 58 6
-4.3924584 -0.34646586 1.0172287 39 14
-4.2980528 -0.3382636 -0.075254537 6 7
-4.4142151 -0.34663168 1.1864266 62 15
-4.2866168 -0.33058968 0.07504525 55 8
-4.2974396 -0.32991546 0.22588207 53 9
-4.3009262 -0.32942808 0.37738416 52 10
-0.52983159 -0.040489279 -0.084161751 21 3
-4.3367505 -0.3306495 0.53403139 41 11
-0.54036909 -0.041104835 -0.066540696 17 4
-4.3648829 -0.33126101 0.69331771 43 12
-4.3773069 -0.33143663 0.85329759 37 13
-0.88824672 -0.067099489 -0.046683658 75 6
-4.4014144 -0.33171585 1.0190283 39 14
-4.2992072 -0.32325944 -0.075254537 6 7
-4.4192505 -0.33150989 1.1874617 62 15
-4.295722 -0.31621167 0.075184874 55 8
-4.3105168 -0.31578806 0.22651009 55 9
-4.3099976 -0.3149938 0.37808135 52 10
-0.54179054 -0.039501406 -0.086038955 21 3
-4.3339186 -0.31522128 0.53354388 43 11
-0.55634838 -0.040367588 -0.068490542 17 4
-4.3738933 -0.31659406 0.69456917 45 12
-4.3745208 -0.31587204 0.85253429 40 13
-0.86855459 -0.062563553 -0.045636941 93 6
-4.3986583 -0.31607163 1.0181285 39 14
-4.3003092 -0.30825028 -0.075254537 6 7
-4.4203806 -0.31608063 1.1874617 56 15
-4.2967997 -0.30121577 0.075184874 55 8
-4.2956538 -0.29962772 0.22567274 55 9
-4.3190212 -0.30050126 0.37877864 50 10
-0.53404266 -0.037062898 -0.084787488 21 3
-4.3310318 -0.29981685 0.53305644 42 11
-0.5525251 -0.038151816 -0.068003066 17 4
-4.3808842 -0.30173147 0.69550776 48 12
-4.3795142 -0.3008692 0.85329759 40 13
-0.86278987 -0.059121709 -0.045322925 100 6
-4.3958454 -0.30044958 1.0172286 39 14
-4.3073449 -0.2936455 -0.075359263 6 7
-4.425313 -0.30091077 1.1884973 53 15
-4.3058052 -0.28674564 0.075324476 53 8
-4.2966733 -0.28463221 0.22567274 56 9
-4.3240204 -0.28568479 0.37912726 52 10
-0.54993755 -0.036237571 -0.087290436 20 3
-4.3399754 -0.28521854 0.53403139 42 11
-0.57246345 -0.03752121 -0.070440464 16 4
-4.3740263 -0.28592199 0.69425631 48 12
-4.3883734 -0.28609177 0.85482448 40 13
-0.86897022 -0.056498375 -0.045636941 85 6
-4.3968682 -0.28510332 1.0172287 39 14
-4.3103395 -0.27873614 -0.075394168 6 7
-4.424408 -0.28533831 1.1879796 48 15
-4.3067803 -0.27171373 0.075324483 53 8
-4.305614 -0.27013135 0.22609141 55 9
-4.3170371 -0.27009162 0.37842998 52 10
-0.52640218 -0.032841787 -0.083535999 21 3
-4.3449073 -0.27031285 0.5345189 42 11
-0.58844113 -0.03650602 -0.072390363 16 4
-4.3769693 -0.27077493 0.69456923 43 12
-4.3893461 -0.27077061 0.85482407 37 13
-0.88112313 -0.054200485 -0.046264976 87 6
-4.4056168 -0.27023178 1.0190283 39 14
-4.313282 -0.26381153 -0.075429067 6 7
-4.41188 -0.26906919 1.1843562 45 15
-4.3037095 -0.25644159 0.075254671 53 8
-4.3145065 -0.25557262 0.22651012 55 9
-4.3179526 -0.25502157 0.37843046 53 10
-0.54228932 -0.031933047 -0.086038955 21 3
-4.3577132 -0.25584251 0.53598118 43 11
-0.57271141 -0.033523884 -0.070440456 16 4
-4.3857756 -0.255954 0.69582069 45 12
-0.85328335 -0.049797639 -0.07477966 39 5
-4.3785038 -0.25476289 0.85253477 39 13
-0.88130689 -0.051124651 -0.046264976 79 6
-4.4143152 -0.25530055 1.0208279 40 14
-4.3061905 -0.24829319 -0.075289451 6 7
-4.4089336 -0.25344637 1.1833206 45 15
-4.3045788 -0.24141715 0.075254671 53 8
-4.3153715 -0.24051149 0.22651009 55 9
-4.3267746 -0.24038959 0.37912726 50 10
-0.51478457 -0.028510472 -0.081658803 22 3
-4.3447061 -0.23986466 0.53427511 42 11
-0.60850269 -0.033487994 -0.07482776 15 4
-4.3826971 -0.24042667 0.69519484 45 12
-0.82361102 -0.045181777 -0.072164983 100 5
-4.3891692 -0.24001446 0.85444248 36 13
-0.86951423 -0.04739574 -0.045636941 100 6
-4.4190712 -0.2401015 1.0217277 38 14
-4.3170142 -0.23380081 -0.075463958 6 7
-4.4155793 -0.23836602 1.1848737 38 15
-4.3053951 -0.2263898 0.075254671 53 8
-4.3082066 -0.22502974 0.22609141 55 9
-4.335546 -0.22569905 0.37982449 52 10
-0.55828077 -0.028965181 -0.088541903 20 3
-4.3435345 -0.22459473 0.53403139 41 11
-0.54121202 -0.027890064 -0.066540696 17 4
-4.393374 -0.22563428 0.69675922 46 12
-4.3919411 -0.22479215 0.85482407 40 13
-0.8736636 -0.044563536 -0.045846283 76 6
-4.4043121 -0.223883 1.0181284 39 14
-4.3217993 -0.21893349 -0.075533777 8 7
-4.4183135 -0.2230486 1.1853913 35 15
-4.310154 -0.21155573 0.075324483 53 8
-4.3089662 -0.2099898 0.22609141 53 9
-4.3402872 -0.21075693 0.38017309 48 10
-0.57416308 -0.027779935 -0.091044858 19 3
-4.3561888 -0.210005 0.53549385 41 11
-4.3803229 -0.209636 0.69456917 45 12
-4.3946595 -0.20955342 0.85520566 40 13
-0.87580889 -0.041608363 -0.045950957 75 6
-4.4011736 -0.20832437 1.0172286 38 14
-4.3285294 -0.2041277 -0.075638495 8 7
-4.4248538 -0.20789629 1.1869441 35 15
-4.3228521 -0.19705544 0.075533919 53 8
-4.3176537 -0.19530831 0.22651009 55 9
-4.3290548 -0.19506699 0.37912726 52 10
-4.3568954 -0.19479662 0.53549385 42 11
-4.3830009 -0.19443196 0.69488198 48 12
-4.3992872 -0.1943841 0.85596889 40 13
-0.89390665 -0.039341491 -0.046893001 54 6
-4.4096618 -0.19330139 1.0190283 39 14
-4.3092384 -0.18814471 -0.075289458 9 7
-4.4062529 -0.19161105 1.1817679 35 15
-4.3195176 -0.18179636 0.075464107 53 8
-4.3183088 -0.18023558 0.22651009 55 9
-4.3297095 -0.17995445 0.37912726 52 10
-4.373415 -0.18024185 0.53744364 41 11
-4.3954959 -0.17961611 0.69675922 46 12
-4.3940539 -0.17878801 0.85482407 39 13
-0.89802986 -0.036382616 -0.047102347 39 6
-4.4142046 -0.17806356 1.0199281 40 14
-4.3338451 -0.17406543 -0.0757083 9 7
-4.4068952 -0.17622909 1.1817681 35 15
-4.3121333 -0.16640979 0.075324483 53 8
-4.3308573 -0.16637439 0.2271381 53 9
-4.3303103 -0.16484074 0.37912723 50 10
-4.3502145 -0.16407679 0.5345189 42 11
-4.4039626 -0.16533537 0.69801062 48 12
-4.3946514 -0.16344868 0.85482407 37 13
-0.90014744 -0.033321545 -0.047207024 25 6
-4.4303784 -0.16322894 1.0235274 39 14
-4.3264055 -0.15939826 -0.075568691 11 7
-4.4113164 -0.16175574 1.1828032 35 15
-4.316658 -0.15225014 0.075394303 53 8
-4.315443 -0.15069811 0.22630072 55 9
-4.3428073 -0.15013707 0.38017315 52 10
-4.3586702 -0.14992285 0.53549385 41 11
-4.4064875 -0.15002772 0.69832361 45 12
-4.3951693 -0.14887443 0.85482407 39 13
-0.89426452 -0.030134538 -0.046893008 27 6
-4.4231043 -0.14827505 1.0217277 39 14
-4.3329315 -0.14449514 -0.075673401 11 7
-4.4195771 -0.14661245 1.1848737 35 15
-4.3251581 -0.1374352 0.075533919 53 8
-4.3199358 -0.13575989 0.22651009 55 9
-4.3432808 -0.1357348 0.38017309 48 10
-4.3651195 -0.13489115 0.53622502 38 11
-4.3911891 -0.13416259 0.69582069 45 12
-4.4074364 -0.13388908 0.85711384 39 13
-0.88438255 -0.026711492 -0.046369649 28 6
-4.4196992 -0.13271751 1.0208279 39 14
-4.3134212 -0.12877266 -0.075324349 11 7
-4.4104071 -0.13089769 1.1822857 34 15
-4.3336072 -0.12256274 0.075673543 52 8
-4.3243761 -0.12079107 0.22671942 53 9
-4.3397446 -0.1204624 0.37982446 52 10
-4.3635788 -0.11959974 0.53598124 41 11
-4.4015036 -0.1191007 0.69738501 48 12
-4.4157267 -0.11871541 0.85864019 39 13
-0.90044278 -0.02405064 -0.04720702 19 6
-4.420136 -0.11728896 1.020828 39 14
-4.307847 -0.11355804 -0.075219639 11 7
-4.4011807 -0.1152487 1.1796973 35 15
-4.3200154 -0.10708789 0.075429209 52 8
-4.3287654 -0.10579295 0.2269288 55 9
-4.3401389 -0.10531196 0.37982446 52 10
-4.3798466 -0.10474686 0.5379312 41 11
-4.4097919 -0.10392294 0.69863647 48 12
-4.3925614 -0.10274985 0.85406077 40 13
-0.90850806 -0.021092769 -0.047625709 12 6
-4.4322081 -0.10212938 1.0235274 39 14
-4.3282094 -0.098976195 -0.075568691 13 7
-4.3976941 -0.099797249 1.1786621 35 15
-4.3203626 -0.092007436 0.075429201 52 8
-4.3370953 -0.09084823 0.22734746 53 9
-4.3524323 -0.090410598 0.38087037 50 10
-4.3643069 -0.089132249 0.53598118 41 11
-4.406178 -0.088449836 0.69801068 46 12
-4.4027081 -0.087610461 0.85596889 36 13
-0.88860738 -0.017527664 -0.046578985 14 6
-4.440331 -0.08680971 1.025327 40 14
-4.3365254 -0.084022135 -0.0757083 14 7
-4.3941526 -0.08437258 1.1776268 35 15
-4.3246565 -0.076997072 0.075499021 50 8
-4.3293986 -0.075569883 0.2269288 55 9
-4.3527207 -0.075217098 0.38087034 50 10
-4.3685622 -0.073965579 0.5364688 41 11
-4.4143596 -0.073198691 0.69926214 46 12
-4.4167271 -0.072467975 0.85864067 40 13
-0.90463918 -0.014685053 -0.047416367 6 6
-4.4328122 -0.071183182 1.0235273 39 14
-4.328795 -0.068758205 -0.075568691 14 7
-4.3944206 -0.069033489 1.1776268 35 15
-4.3328962 -0.062016118 0.075638629 50 8
-4.3296361 -0.060456883 0.2269288 55 9
-4.3609252 -0.060132567 0.38156757 50 10
-4.3767323 -0.058822569 0.53744364 41 11
-4.4106388 -0.057738479 0.69863647 48 12
-4.4169536 -0.057050154 0.85864067 37 13
-0.88471395 -0.011272696 -0.046369646 7 6
-4.4330344 -0.055710286 1.0235274 40 14
-4.3250093 -0.053597793 -0.075498879 19 7
-4.4023609 -0.053786904 1.1796973 48 15
-4.3290877 -0.046847712 0.075568825 50 8
-4.3338141 -0.045384958 0.2271381 55 9
-4.3491554 -0.044787552 0.38052174 45 10
-4.3888226 -0.043662943 0.53890622 40 11
-4.4048872 -0.042285118 0.69769782 45 12
-4.4269423 -0.041724164 0.86054838 40 13
-0.86877048 -0.0080365743 -0.045532268 7 6
-4.4409962 -0.040306386 1.025327 40 14
-4.3231697 -0.038482442 -0.075463958 26 7
-4.3774085 -0.038201235 1.1729679 43 15
-4.3332233 -0.03176425 0.075638622 48 8
-4.3379407 -0.030285655 0.22734746 55 9
-4.3532696 -0.029631857 0.38087034 52 10
-4.3909326 -0.028356567 0.53914988 40 11
-4.4168601 -0.02698121 0.69957507 43 12
-4.4172444 -0.026213676 0.85864019 37 13
-4.4598055 -0.025686823 -0.23373231 2 6
-4.4411101 -0.024804046 1.025327 39 14
-4.3252778 -0.023402233 -0.075498879 27 7
-4.3755841 -0.022910759 1.1724504 45 15
-4.3293085 -0.01662281 0.075568818 48 8
-4.3539982 -0.015197847 0.22818485 55 9
-4.3653011 -0.014475447 0.3819167 48 10
-4.3850493 -0.013010341 0.53841871 41 11
-4.4268041 -0.011590117 0.70113939 46 12
-4.4173083 -0.010793278 0.85864067 39 13
-4.3320436 -0.0098288972 -0.2270333 6 6
-4.4548097 -0.0093310345 1.0284761 41 14
-4.3393312 -0.0083308052 -0.075743206 34 7
-4.3717737 -0.007630114 1.1714151 48 15
-4.32934 -0.0015115123 0.075568818 48 8
-4.346036 6.5623317e-07 0.22776617 52 9
-4.3653255 0.0007614654 0.3819162 48 10
-4.3870535 0.00229758 0.53866243 40 11
-4.4268184 0.003863564 0.70113945 48 12
-4.4251728 0.0046344204 0.86016667 39 13
-4.3000956 0.0052528675 -0.22535858 19 6
-4.4489694 0.006212234 1.0271264 40 14
-4.3433332 0.0068227416 -0.07581301 39 7
-4.3756375 0.0076360926 1.1724504 48 15
-4.3373179 0.013625964 0.075708434 50 8
-4.3440118 0.015163264 0.22766146 53 9
-4.3732653 0.01602862 0.38261345 48 10
-4.3890038 0.017618285 0.53890616 41 11
-4.4188762 0.019281665 0.69988799 46 12
-4.432982 0.02011583 0.86169356 37 13
-4.3320069 0.020413676 -0.22703333 53 6
-4.4547672 0.021770693 1.0284761 41 14
-4.3312845 0.021922119 -0.075603582 50 7
-4.3813787 0.022941377 1.1740031 51 15
-4.3512416 0.028858906 0.075952776 47 8
-4.3539186 0.030396443 0.22818485 52 9
-4.3652134 0.031237163 0.3819162 48 10
-4.3928857 0.032968577 0.53939366 41 11
-4.4148312 0.034674339 0.6992622 48 12
-4.4309216 0.035574067 0.86131197 42 13
-4.3159323 0.035405163 -0.22619596 48 6
-4.4566126 0.037335988 1.0289261 41 14
-4.3251829 0.036989812 -0.075498879 47 7
-4.3677502 0.038117222 1.1703798 54 15
-4.341116 0.043946303 0.075778246 48 8
-4.3577795 0.045636214 0.22839415 53 9
-4.361093 0.046432104 0.38156757 48 10
-4.390759 0.048280708 0.53914994 40 11
-9.2201796 0.10299426 -1.1321658 2 4
-4.4265342 0.050219346 0.70113939 46 12
-32.067436 0.36380732 -2.8057187 10 5
-4.4248815 0.050972939 0.86016667 39 13
-4.3197761 0.050516158 -0.22640526 55 6
-4.4642487 0.052984867 1.0307256 40 14
-4.3310256 0.052160684 -0.075603582 48 7
-4.3637271 0.053316202 1.1693447 48 15
-4.3409362 0.059099481 0.075778246 48 8
-4.3655829 0.060959101 0.22881289 49 9
-4.3728571 0.061823994 0.38261393 48 10
-4.3865933 0.063549623 0.53866237 40 11
-9.1800661 0.13459629 -1.1272911 2 4
-4.4362078 0.06581717 0.70270377 48 12
-32.05402 0.47556496 -2.804673 10 5
-4.42664 0.066447943 0.86054838 42 13
-4.3135829 0.065503836 -0.2260913 48 6
-4.4659858 0.068597749 1.0311756 41 14
-4.3348169 0.067340724 -0.075673401 50 7
-4.3557882 0.068425834 1.1672741 41 15
-4.3447027 0.074320346 0.075848065 48 8
-4.3533616 0.075988434 0.22818485 53 9
-4.3805833 0.077228345 0.38331068 47 10
-4.3863444 0.078861423 0.53866237 40 11
-9.1279364 0.16570334 -1.1209538 2 4
-4.4458265 0.081483148 0.70426816 48 12
-32.05217 0.58745241 -2.8046732 10 5
-4.4381585 0.082117423 0.86283797 42 13
-4.3133283 0.080560766 -0.2260913 53 6
-4.461823 0.084114261 1.0302758 39 14
-4.3525496 0.082813092 -0.075987548 50 7
-4.3651795 0.083815493 1.169862 46 15
-4.3524141 0.089649543 0.075987689 48 8
-4.3570628 0.091267809 0.22839418 53 9
-4.3802867 0.092518024 0.38331115 47 10
-4.3999352 0.094470561 0.54036862 40 11
-31.966398 0.69192106 -3.9258978 13 4
-4.4376154 0.096829236 0.70301658 46 12
-32.033978 0.69898474 -2.803278 10 5
-4.4378448 0.09760911 0.86283797 40 13
-4.3250003 0.095881276 -0.22671928 55 6
-4.455657 0.099556871 1.0289261 40 14
-4.3422379 0.097780846 -0.07581301 48 7
-4.3687243 0.099141158 1.1708976 46 15
-4.3600707 0.10503451 0.076127298 48 8
-4.3567181 0.10647533 0.22839418 52 9
-4.3759542 0.10770962 0.38296208 48 10
-4.3995786 0.10982768 0.54036856 40 11
-31.963789 0.80350894 -3.9258978 13 4
-4.435276 0.11226895 0.70270383 48 12
-32.021389 0.8105489 -2.8024068 10 5
-4.4472895 0.11334865 0.86474657 42 13
-4.3286333 0.11108141 -0.22692867 51 6
-4.4650226 0.1153612 1.0311756 41 14
-4.3398705 0.11288457 -0.075778112 52 7
-4.3567638 0.11408589 1.1677917 44 15
-4.3536801 0.1200891 0.076022573 47 8
-4.3603134 0.12179413 0.22860354 53 9
-4.3675857 0.12276115 0.38226485 48 10
-4.40909 0.12546687 0.54158723 38 11
-4.4269271 0.12674873 -0.54378074 2 4
-4.4368315 0.1278062 0.70301658 48 12
-31.974556 0.92105073 -2.7985721 10 5
-4.4468675 0.12887204 0.86474609 42 13
-4.3302145 0.12624879 -0.2270333 55 6
-4.4665403 0.13100357 1.0316255 40 14
-4.3414488 0.12809297 -0.075813003 50 7
-4.3524771 0.12917863 1.1667564 46 15
-4.349237 0.1351604 0.075952768 48 8
-4.3718381 0.13739127 0.22923155 49 9
-4.3750954 0.13825689 0.38296255 47 10
-4.4006891 0.14060432 0.54061234 38 11
-4.4066167 0.14156249 -0.54134339 2 4
-4.4442554 0.14354809 0.70426816 48 12
-31.975124 1.0327866 -2.7989204 10 5
-4.444428 0.14433117 0.8643645 42 13
-4.3277516 0.14129823 -0.22692864 53 6
-4.4699512 0.14672084 1.0325253 40 14
-4.3489699 0.14351062 -0.075952634 48 7
-4.3577914 0.14456308 1.1683092 51 15
-4.3627291 0.15082502 0.07619711 50 8
-4.3673406 0.1525107 0.22902222 48 9
-4.3865333 0.1539474 0.38400796 48 10
-4.4438095 0.15673403 -0.70426786 1 3
-4.4001713 0.15596485 0.54061234 38 11
-4.4555717 0.15948568 0.70614529 49 12
-31.995214 1.1452579 -2.801012 10 5
-4.4399724 0.1597032 0.86360168 42 13
-4.3272319 0.15640314 -0.22692864 55 6
-4.4635696 0.162112 1.0311756 40 14
-4.3564363 0.15898234 -0.076092258 50 7
-4.3630524 0.1599852 1.1698622 46 15
-4.3621764 0.166053 0.07619711 50 8
-4.3688064 0.16706896 0.22912689 49 9
-4.3899512 0.16941211 0.38435659 48 10
-4.4156017 0.17117481 -0.69988781 1 3
-4.4115009 0.17178586 0.54207468 37 11
-8.2675428 0.32338694 -1.0159035 9 4
-4.4412017 0.17371868 0.70395523 48 12
-31.971115 1.2561538 -2.799269 10 5
-4.4531202 0.17574163 0.86627305 43 13
-4.3326464 0.17174448 -0.22724263 55 6
-4.4707656 0.17800201 1.0329752 40 14
-4.3558855 0.17342812 -0.076092266 50 7
-4.3663592 0.17460729 1.1708975 45 15
-4.3695927 0.18084848 0.076336719 50 8
-4.3701925 0.18240134 0.22923157 48 9
-4.3813705 0.18439882 0.38365933 47 10
-4.4150095 0.18581459 -0.69988781 1 3
-4.4089246 0.18633038 0.54183102 37 11
-4.3771591 0.18575318 -0.53793103 2 4
-4.4504361 0.189642 0.70551962 49 12
-31.942648 1.3667175 -2.7971773 10 5
-4.4623213 0.19092758 0.86818069 40 13
-4.3340487 0.18619701 -0.22734731 53 6
-4.4798851 0.19324671 1.0352248 41 14
-4.3472614 0.18828486 -0.075952634 50 7
-4.3483524 0.18909243 1.1662388 41 15
-4.3629417 0.19583018 0.076232001 45 8
-4.3755155 0.19792596 0.22954561 49 9
-4.384716 0.1991079 0.38400799 48 10
-4.4143343 0.20122589 -0.69988781 1 3
-4.4141965 0.2019916 0.54256225 41 11
-4.3645854 0.20048372 -0.53646863 2 4
-4.4536939 0.20535679 0.70614535 48 12
-31.906099 1.4711686 -2.7943885 10 5
-4.4498606 0.20595832 0.86589098 42 13
-4.3373628 0.20151003 -0.22755668 48 6
-4.4772367 0.20879152 1.0347748 39 14
-4.3625579 0.20420663 -0.076231875 50 7
-4.3476658 0.204271 1.1662388 41 15
-4.3662271 0.21125194 0.076301821 48 8
-4.3827767 0.21358606 0.22996427 49 9
-4.3879738 0.21460803 0.38435659 47 10
-4.3938746 0.21566528 -0.69675905 1 3
-4.4094982 0.21720356 0.54207468 41 11
-4.3916168 0.21709105 -0.53988147 2 4
-4.4608417 0.22129346 0.70739681 49 12
-31.884848 1.5817438 -2.7929938 10 5
-4.4510751 0.2215877 0.86627257 39 13
-4.3366327 0.21664914 -0.22755668 44 6
-4.4901052 0.22510187 1.0379242 40 14
-4.3598218 0.21933322 -0.076196969 52 7
-4.348855 0.2195424 1.1667563 42 15
-4.3714538 0.2268036 0.076406531 52 8
-4.3720322 0.22836275 0.22944093 49 9
-4.3911772 0.23013225 0.38470519 48 10
-4.393095 0.23100157 -0.69675905 1 3
-4.4166427 0.23301165 0.54304963 40 11
-4.4304786 0.23451807 -0.54475623 2 4
-4.4639869 0.237073 0.70802259 49 12
-31.895046 1.6938791 -2.7943883 10 5
-4.4581165 0.23754147 0.86779904 40 13
-4.3358502 0.23178561 -0.22755668 48 6
-4.4815073 0.24035653 1.0361245 41 14
-4.3750033 0.23541015 -0.076476201 52 7
-4.3442049 0.2345133 1.1657212 44 15
-4.3866086 0.24294519 0.076685771 48 8
-4.3791847 0.24406832 0.22985961 49 9
-4.4062605 0.24634875 0.38610014 52 10
-4.4159293 0.24766135 -0.70051348 1 3
-4.4197669 0.24865143 0.5435372 40 11
