# .PCD v0.7 - Point Cloud Data file format
VERSION 0.7
FIELDS x y z intensity ring
SIZE 4 4 4 4 2
TYPE F F F F U
COUNT 1 1 1 1 1
WIDTH 1183
HEIGHT 1
VIEWPOINT 0 0 0 1 0 0 0
POINTS 1183
DATA ascii
1.7874831 0.90880424 -0.10509057 1 6
1.7478404 0.88098365 -0.10257845 4 6
1.7475842 0.86636752 -0.170651 1 5
1.7449991 0.86432832 -0.1020551 35 6
1.7200514 0.84562445 -0.16768771 4 5
1.7639898 0.8664614 -0.10299713 55 6
1.7417153 0.84836292 -0.10153174 26 6
1.7365308 0.83909863 -0.16873357 37 5
1.7485805 0.83702922 -0.16960514 63 5
1.7331822 0.82928652 -0.10069435 1 6
1.7352904 0.82323492 -0.16803634 55 5
1.7398195 0.82463974 -0.1009037 1 6
1.7291384 0.81293368 -0.16716477 48 5
1.7354566 0.81516457 -0.10048501 1 6
1.750387 0.8218047 -0.033752851 1 7
1.7193233 0.80100358 -0.16594459 46 5
1.7671192 0.82289553 -0.10215975 1 6
1.7731885 0.82496881 -0.034136802 4 7
1.7407532 0.80434173 -0.23545149 1 4
1.7237791 0.79613262 -0.1661189 50 5
1.7482187 0.80668092 -0.1009037 1 6
1.7399404 0.7966072 -0.23496422 1 4
1.7247356 0.7892819 -0.16594459 42 5
1.7655554 0.80721688 -0.10174107 1 6
1.775267 0.81090796 -0.034066994 66 7
1.7372874 0.78806823 -0.23423302 20 4
1.7401822 0.78901631 -0.16716477 29 5
1.7538083 0.79445553 -0.1009037 1 6
1.7562252 0.79481173 -0.033648137 61 7
1.7192992 0.77232325 -0.16489872 49 5
1.7638592 0.79160029 -0.10132238 1 6
1.7498657 0.78458542 -0.033473611 77 7
1.7354931 0.77269089 -0.23325785 66 4
1.7165236 0.76388735 -0.1643758 50 5
1.7520117 0.77894664 -0.10048501 1 6
1.7562484 0.78009719 -0.033543423 71 7
1.7200162 0.75861865 -0.23082045 70 4
1.7191799 0.7578904 -0.1643758 48 5
1.7510639 0.77121741 -0.10027567 1 6
1.7516396 0.77074003 -0.033403806 71 7
1.7099206 0.74704647 -0.22911428 56 4
1.725467 0.75347894 -0.16472442 48 5
1.7537454 0.76509994 -0.10027567 1 6
1.761518 0.76812381 -0.033543423 71 7
1.7810647 0.7733202 0.033892531 1 8
1.7014587 0.7366395 -0.22765185 59 4
1.7244287 0.74587071 -0.1643758 48 5
1.7526066 0.75769448 -0.10006632 2 6
1.7476659 0.75483549 -0.03322928 75 7
1.7819163 0.76630884 0.033857629 5 8
1.7076683 0.73226082 -0.22813933 59 4
1.7232304 0.73857784 -0.16402717 48 5
1.751569 0.74999928 -0.09985698 2 6
1.7466131 0.74715698 -0.033159468 75 7
1.7109891 0.72874069 0.032461435 15 8
1.7102139 0.72629583 -0.22813933 59 4
1.7202961 0.73022223 -0.16350424 52 5
1.7468209 0.74076194 -0.099438287 2 6
1.7492105 0.74105597 -0.033159468 75 7
1.718671 0.72352207 -0.29534826 2 3
1.7090791 0.71878207 -0.22765185 59 4
1.724671 0.72498524 -0.16367854 48 5
1.7420303 0.73156697 -0.099019602 3 6
1.7516583 0.73525077 -0.033159468 75 7
1.7583468 0.73481089 0.033264246 44 8
1.7059563 0.71081954 -0.22692063 43 4
1.7253522 0.71819454 -0.16350424 52 5
1.7241625 0.71734631 -0.097868212 19 6
1.7579076 0.73066646 -0.03322928 75 7
1.7553576 0.7263751 0.033159532 41 8
1.7102619 0.70561779 -0.22716436 9 4
1.7221982 0.71019071 -0.16298129 50 5
1.754356 0.72273546 -0.099438287 25 6
1.7438043 0.71767664 -0.032915138 78 7
1.7223734 0.70429116 -0.29472256 58 3
1.7154438 0.70040953 -0.16210973 55 5
1.7407433 0.7093218 -0.032810424 82 7
1.7640917 0.71560699 0.03322934 1 8
1.7156661 0.69456786 -0.29315817 62 3
1.7298683 0.69961572 -0.22911449 1 4
1.7215728 0.69591016 -0.16245836 52 5
1.7445431 0.7044881 -0.098600917 1 6
1.7413543 0.70249259 -0.032775521 78 7
1.7758573 0.71317041 0.033403866 1 8
1.7144132 0.68710452 -0.29253244 63 3
1.7249287 0.69062126 -0.22813933 1 4
1.7184424 0.68767536 -0.16193543 50 5
1.7395737 0.69542825 -0.098182231 1 6
1.7493669 0.6986351 -0.032880232 82 7
1.7597536 0.69957936 0.033054817 1 8
1.7801281 0.70695966 0.10038041 1 9
1.7168009 0.68111718 -0.29253244 63 3
1.7014928 0.67435575 -0.22472718 2 4
1.7189795 0.68094009 -0.16176111 52 5
1.7345624 0.68641162 -0.097763553 1 6
1.742497 0.68884814 -0.032705709 85 7
1.7696278 0.69636166 0.033194434 1 8
1.7658554 0.69416648 0.099438354 8 9
1.7577163 0.6909669 -0.3671166 1 2
1.7210068 0.67584181 -0.29284531 52 3
1.7223163 0.67566228 -0.22716436 2 4
1.7287658 0.67784441 -0.16245836 55 5
1.7592635 0.68909413 -0.099019594 1 6
1.7393042 0.68057507 -0.032600995 90 7
1.7869548 0.69598573 0.03347367 1 8
1.6722947 0.65065658 -0.3487989 1 2
1.721514 0.66911501 -0.29253244 63 3
1.7320666 0.67251974 -0.22813934 1 4
1.7162617 0.66603953 -0.16106386 52 5
1.7467608 0.67717314 -0.098182231 1 6
1.7323452 0.67088997 -0.032426473 81 7
1.774446 0.68399131 0.033194438 1 8
1.7594758 0.67751455 0.098810323 42 9
1.707534 0.6575135 -0.35566801 4 2
1.7127773 0.65884602 -0.29065523 48 3
1.7381092 0.66789401 -0.2286268 1 4
1.7222964 0.6614728 -0.16141251 55 5
1.7565727 0.67393363 -0.098600917 2 6
1.7402782 0.66698527 -0.032531183 90 7
1.7506658 0.66781467 0.032705769 1 8
1.7561144 0.66954106 0.09849631 39 9
1.6657889 0.63477141 -0.34650919 18 2
1.7132207 0.65216023 -0.29034236 12 3
1.7255863 0.65617865 -0.22667691 1 4
1.7134204 0.65120935 -0.16036662 46 5
1.7327733 0.65787345 -0.097135507 1 6
1.7462201 0.66262919 -0.032600995 64 7
1.7603536 0.6648311 0.032845385 1 8
1.7472284 0.65917736 0.097868271 19 9
1.7283131 0.65135211 -0.29253244 37 3
1.7203217 0.64765465 -0.22570194 2 4
1.7194128 0.64662737 -0.16071524 31 5
1.746163 0.65633959 -0.097763546 1 6
1.7485223 0.65653002 -0.032600995 31 7
1.7776492 0.6642825 0.033124629 1 8
1.7551323 0.6551702 0.098182298 22 9
1.6811069 0.62753743 -0.3487989 88 2
1.7342778 0.64669585 -0.29315817 62 3
1.7151309 0.63887358 -0.22472718 2 4
1.7215476 0.64092249 -0.16071525 49 5
1.7484435 0.65023988 -0.097763538 1 6
1.7358071 0.64485186 -0.032321759 79 7
1.7649522 0.65252537 0.032845385 1 8
1.7499139 0.6462723 0.097763605 42 9
1.6740786 0.61826503 -0.34689084 78 2
1.7161386 0.63311696 -0.2897166 67 3
1.7248011 0.6356287 -0.22570214 2 4
1.7219049 0.63422012 -0.16054094 57 5
1.7469536 0.64275378 -0.097554199 1 6
1.7324167 0.63671875 -0.032217044 100 7
1.7709751 0.6477347 0.032915197 1 8
1.7540352 0.64084488 0.097868271 55 9
1.6928231 0.61848068 -0.35032538 98 2
1.70906 0.62373686 -0.28815228 66 3
1.7158191 0.62552518 -0.22423951 2 4
1.7203641 0.6268419 -0.16019231 59 5
1.7416792 0.63391984 -0.097135507 2 6
1.7346287 0.63066804 -0.032217044 87 7
1.7732253 0.64154929 0.032915197 1 8
1.7600186 0.63607544 0.098077618 64 9
1.6894329 0.6105656 -0.34918055 100 2
1.7895679 0.64640254 0.16646737 1 10
1.7130847 0.61843753 -0.28846514 58 3
1.7217268 0.62087911 -0.22472697 2 4
1.718793 0.61948127 -0.15984368 59 5
1.7438811 0.6278367 -0.097135507 2 6
1.7424649 0.62663895 -0.032321759 90 7
1.760392 0.62996519 0.032635961 1 8
1.7415401 0.62253326 0.096926227 60 9
1.6915535 0.60466498 -0.34918052 100 2
1.7636697 0.63009667 0.16385269 16 10
1.7115122 0.61112583 -0.28783941 58 3
1.708926 0.60952985 -0.22277707 2 4
1.7246987 0.61481535 -0.16019231 59 5
1.7234838 0.6137054 -0.095879443 2 6
1.7465255 0.62122321 -0.032356661 94 7
1.7550395 0.62114793 0.032496341 2 8
1.7140985 0.60632145 -0.41975862 1 1
1.7418196 0.61578417 0.096821561 64 9
1.6788462 0.59352124 -0.3461276 100 2
1.7154977 0.60580599 -0.28815228 60 3
1.6998111 0.59959829 -0.22131486 2 4
1.7249546 0.6081301 -0.160018 58 5
1.7218482 0.60635829 -0.095670111 2 6
1.7392516 0.61180466 -0.032182142 97 7
1.753315 0.61400312 0.032426532 2 8
1.6995459 0.59483951 -0.4157095 4 1
1.7456306 0.61096919 0.096926227 60 9
1.6733925 0.58535814 -0.34460112 100 2
1.7174972 0.60011339 -0.28815228 60 3
1.7167835 0.59919256 -0.22326475 2 4
1.7062687 0.59518772 -0.15810058 56 5
1.7502536 0.60984647 -0.097135499 2 6
1.7336112 0.60370743 -0.032042522 97 7
1.757231 0.60883969 0.032461435 7 8
1.7477528 0.60487157 0.096926227 60 9
1.6791362 0.58079714 -0.34536436 100 2
1.7587663 0.60799682 0.16280684 81 10
1.706409 0.5898971 -0.28596216 66 3
1.7243903 0.59543949 -0.22399576 4 4
1.7158699 0.59182626 -0.15879782 60 5
1.7598194 0.60664219 -0.097554192 5 6
1.7394894 0.59895396 -0.03211233 97 7
1.6851186 0.57694507 -0.41121045 53 1
1.7460737 0.59747505 0.096716888 60 9
1.6773379 0.57395488 -0.34460112 100 2
1.7588878 0.60151595 0.16263252 96 10
1.7047197 0.58265895 -0.28533649 66 3
1.703915 0.58171976 -0.2210709 22 4
1.7141534 0.58454818 -0.15844919 62 5
1.7278979 0.58889759 -0.095670104 25 6
1.7415692 0.59287953 -0.03211233 97 7
1.761439 0.59655714 0.032461438 70 8
1.6981975 0.57480842 -0.41390988 83 1
1.742473 0.58945596 0.096402869 66 9
1.6868701 0.57031727 -0.3461276 100 2
1.7686305 0.59761685 0.16332977 88 10
1.7068436 0.57640725 -0.28533646 68 3
1.7322673 0.58465523 -0.22448325 31 4
1.7161835 0.57856059 -0.15844919 62 5
1.7395086 0.58574784 -0.096193463 40 6
1.7398379 0.58552068 -0.032042522 97 7
1.7484426 0.58502048 0.032182198 42 8
1.679963 0.56178248 -0.40896094 82 1
1.740833 0.58179975 0.096193522 64 9
1.6758158 0.56007051 -0.34345627 98 2
1.763147 0.58891428 0.16263252 93 10
1.7088449 0.57044607 -0.28533643 68 3
1.7181928 0.57256603 -0.15844919 62 5
1.7377526 0.57841033 -0.095984116 6 6
1.7362797 0.5772469 -0.031937808 100 7
1.7409813 0.57577473 0.032007676 8 8
1.687465 0.55774915 -0.41031069 88 1
1.74475 0.57634568 0.096298203 60 9
1.7500565 0.57775974 0.16123804 40 10
1.7108259 0.56447715 -0.28533643 68 3
1.836224 0.60549623 0.23740144 1 11
1.7194381 0.56665325 -0.2222898 2 4
1.716396 0.56531864 -0.15810058 64 5
1.7378638 0.57171708 -0.09587945 2 6
1.7268852 0.56743747 -0.031728376 100 7
1.6838443 0.55003965 -0.40896094 74 1
1.7523475 0.57241666 0.096612215 66 9
1.7015177 0.55482703 -0.28345925 66 3
1.8156775 0.5917024 0.23447658 2 11
1.7063056 0.55572933 -0.22033988 2 4
1.7069918 0.55562341 -0.15705471 69 5
1.7284527 0.56194168 -0.095251411 1 6
1.7420704 0.56603289 -0.03197271 100 7
1.7524713 0.56637073 0.032147296 1 8
1.6856589 0.54445308 -0.40896094 74 1
1.7505333 0.56506968 0.096402869 66 9
1.711484 0.55213481 -0.34956214 1 2
1.7578394 0.56675059 0.16158664 3 10
1.7033482 0.54918194 -0.28345925 66 3
1.7081389 0.55006838 -0.22033988 1 4
1.7165074 0.55210209 -0.15775195 60 5
1.7341094 0.55742961 -0.095460758 2 6
1.7383236 0.55811495 -0.031868 100 7
1.7582473 0.56146693 0.0322171 1 8
1.6838361 0.53738111 -0.40806115 78 1
1.7391752 0.55470771 0.095670164 60 9
1.6908605 0.5392977 -0.34498274 4 2
1.7673026 0.56333822 0.1622839 3 10
1.7052548 0.5432331 -0.28345925 66 3
1.7062656 0.54289836 -0.21985242 2 4
1.7183287 0.54640728 -0.15775195 66 5
1.7170093 0.54532695 -0.09441404 2 6
1.7440734 0.55325252 -0.031937808 99 7
1.6948577 0.53503793 -0.47622707 1 0
1.7563826 0.55412239 0.032147296 1 8
1.6838433 0.53091365 -0.40761125 68 1
1.7391958 0.5480336 0.09556549 72 9
1.6777525 0.52867234 -0.34192979 2 2
1.757856 0.5535754 0.16123804 1 10
1.7052561 0.5366838 -0.28314635 63 3
1.7819079 0.560467 0.22935808 67 11
1.7195128 0.54051113 -0.22131465 2 4
1.7240274 0.54159963 -0.15810058 60 5
1.7455813 0.54770142 -0.095879443 2 6
1.726912 0.54118162 -0.031588759 100 7
1.6838055 0.52509218 -0.47260362 11 0
1.7697612 0.55155754 0.032356724 1 8
1.6801044 0.52329463 -0.40626174 27 1
1.7391915 0.54136527 0.095460825 59 9
1.7058316 0.53098118 -0.34727246 1 2
1.7711924 0.55098641 0.1622839 1 10
1.7090055 0.53131497 -0.28345925 66 3
1.7838534 0.55424309 0.22935806 51 11
1.7138057 0.53215039 -0.22033988 2 4
1.7106843 0.53085482 -0.15670608 67 5
1.716959 0.53214407 -0.094204694 2 6
1.7287904 0.53515071 -0.031588759 100 7
1.6893207 0.52034831 -0.47363889 42 0
1.7525634 0.53949457 0.032007676 1 8
1.746798 0.53705144 0.095774844 15 9
1.6926621 0.52040744 -0.34421948 4 2
1.7616777 0.54129064 0.16123804 1 10
1.6976314 0.52128673 -0.28126916 52 3
1.7838796 0.54742998 0.22911434 6 11
1.7042656 0.52267385 -0.21887726 2 4
1.712527 0.52487969 -0.15670608 63 5
1.7340839 0.5308255 -0.095042065 2 6
1.7229989 0.52677369 -0.031449139 69 7
1.6929747 0.51501089 -0.4741565 63 0
1.7467829 0.53104651 0.031868055 1 8
1.6874461 0.51268476 -0.40716153 3 1
1.6907111 0.51335537 -0.34345624 2 2
1.7673694 0.5362944 0.16158664 1 10
1.689989 0.51249099 -0.27970481 12 3
1.7762809 0.5383215 0.22789565 2 11
1.7326779 0.52477705 -0.22228959 2 4
1.716256 0.5194754 -0.15688039 32 5
1.7321029 0.52361298 -0.094832733 2 6
1.679961 0.50465149 -0.47001541 71 0
1.7562867 0.52724618 0.032007672 1 8
1.689225 0.50679249 -0.4071615 3 1
1.7428523 0.52254891 0.095356151 2 9
1.692493 0.50744998 -0.34345627 4 2
1.7654138 0.52897769 0.16123804 1 10
1.7069061 0.51112306 -0.28220776 27 3
1.772444 0.53041005 0.22716443 2 11
1.696462 0.50734967 -0.21741483 2 4
1.7104229 0.51120049 -0.15618315 33 5
1.7262648 0.51527804 -0.09441404 2 6
1.7381326 0.51815987 -0.031658567 8 7
1.6872684 0.50043339 -0.47156835 82 0
1.7542824 0.51997536 0.031937867 1 8
1.7134058 0.50753415 -0.41256016 5 1
1.7619013 0.52156562 0.096298203 3 9
1.6791936 0.49708211 -0.34040332 4 2
1.7710705 0.52394277 0.16158666 1 10
1.725729 0.51020175 -0.2850236 69 3
1.7895143 0.5287208 0.22911434 3 11
1.705838 0.50367373 -0.21838978 2 4
1.8529351 0.54675472 0.30598587 1 12
1.7313062 0.51086503 -0.15792628 62 5
1.7088948 0.50360376 -0.093367316 2 6
1.7169107 0.50531381 -0.031239711 45 7
1.6797351 0.49182597 -0.46898016 88 0
1.7599251 0.51497126 0.032007672 1 8
1.6871107 0.49334624 -0.40581161 27 1
1.6658431 0.48681161 -0.33735037 4 2
1.7537636 0.51217169 0.15984353 1 10
1.7066401 0.49808732 -0.28158203 67 3
1.8008773 0.5252496 0.23033303 12 11
1.7190205 0.50104856 -0.21985221 2 4
1.8282806 0.53254974 0.30160573 2 12
1.7139499 0.49924698 -0.15618315 68 5
1.7451621 0.50767702 -0.095251411 2 6
1.6777296 0.48488629 -0.46794483 92 0
1.7309734 0.49994808 0.031449202 1 8
1.6788505 0.48425806 -0.33964008 4 2
1.747883 0.50383973 0.15914629 3 10
1.7064705 0.49157974 -0.28126916 63 3
1.7169434 0.49394771 -0.21936473 1 4
1.8053576 0.51938361 0.2975384 13 12
1.706108 0.49050808 -0.15531158 63 5
1.7277266 0.49607065 -0.094204694 2 6
1.7587531 0.50464684 -0.031937808 100 7
1.6831275 0.48008722 -0.46898013 92 0
1.7480055 0.49859267 0.031728435 2 8
1.6979262 0.48398784 -0.40761125 83 1
1.7460495 0.49737486 0.095146798 55 9
1.6956364 0.48269525 -0.342693 4 2
1.7534636 0.49882612 0.15949492 3 10
1.7042913 0.48483756 -0.28064343 66 3
1.7795887 0.5059216 0.22716443 52 11
1.7071147 0.48499671 -0.2179025 2 4
1.7116435 0.48563686 -0.15566021 67 5
1.7332052 0.49142858 -0.09441404 2 6
1.7354913 0.49142149 -0.031484045 100 7
1.6847105 0.47450262 -0.46898013 92 0
1.7381861 0.48923668 0.031519007 2 8
1.6752179 0.47119886 -0.40176252 87 1
1.7420068 0.48965606 0.094832785 73 9
1.7010078 0.47813174 -0.34345627 4 2
1.7627809 0.49516338 0.16019216 4 10
1.7021695 0.47781718 -0.28001767 70 3
1.771787 0.49702612 0.22594573 72 11
1.6973292 0.47581944 -0.21643987 2 4
1.8260589 0.51156306 0.30035424 61 12
1.7170814 0.48103353 -0.15600884 67 5
1.7156761 0.47999403 -0.093367323 2 6
1.7526035 0.48966569 -0.031763282 100 7
1.6863564 0.46861935 -0.46898013 88 0
1.7514437 0.48637712 0.031728435 3 8
1.6862415 0.46795344 -0.40401223 96 1
1.734082 0.48090386 0.094309419 72 9
1.6913153 0.46904358 -0.34116653 4 2
1.7587385 0.48741111 0.15966922 14 10
1.7038269 0.47187307 -0.28001767 74 3
1.7754245 0.49136823 0.22618948 76 11
1.6951528 0.46883371 -0.21595259 2 4
1.8106974 0.50045019 0.29753843 66 12
1.7149092 0.47397563 -0.15566021 72 5
1.7327434 0.47825283 -0.094204694 2 6
1.7330964 0.4777002 -0.031379335 100 7
1.6693507 0.45762306 -0.46380377 85 0
1.6878648 0.462064 -0.40401223 97 1
1.7318971 0.47379419 0.09410008 72 9
1.6740054 0.45795682 -0.33735037 9 2
1.7092751 0.46696344 -0.28064343 74 3
1.7732987 0.48412263 0.225702 67 11
1.7121001 0.46709308 -0.2179023 2 4
1.8105276 0.49360642 0.29722553 81 12
1.70502 0.46484175 -0.15461434 72 5
1.7536733 0.47744861 -0.095251411 3 6
1.7347531 0.47164813 -0.031379331 100 7
1.6634785 0.4497757 -0.46173322 90 0
1.6932299 0.4571858 -0.40491182 97 1
1.7451103 0.47086713 0.094728105 74 9
1.7032652 0.45893866 -0.27939197 74 3
1.7807283 0.47947764 0.22643322 73 11
1.71372 0.4611142 -0.2179025 2 4
1.8007939 0.48420635 0.29534835 72 12
1.7027841 0.45785296 -0.15426572 67 5
1.7244664 0.46303675 -0.09357667 15 6
1.728663 0.46351767 -0.031239711 100 7
1.6725053 0.4459568 -0.4638038 90 0
1.737118 0.46286136 0.031379387 59 8
1.6835171 0.4482637 -0.40221244 100 1
1.7428833 0.46374518 0.094518766 69 9
1.7579695 0.46743166 0.15914629 100 10
1.7029479 0.45248273 -0.27907911 79 3
1.7612866 0.46765459 0.2237521 69 11
1.7172378 0.45563889 -0.21814604 13 4
1.8062921 0.47892952 0.29597408 74 12
1.7120754 0.45394844 -0.15496297 74 5
1.8522233 0.49076205 0.37245908 1 13
1.7341372 0.45850247 -0.031309523 100 7
1.6777879 0.4410986 -0.46483901 90 0
1.7406573 0.45730251 0.031414293 64 8
1.685071 0.44238544 -0.40221259 97 1
1.736764 0.45563161 0.094100088 74 9
1.6844066 0.44189593 -0.33849525 100 2
1.7538086 0.45977613 0.15862335 100 10
1.700695 0.44553465 -0.27845335 76 3
1.7629082 0.46150407 0.2237521 65 11
1.807953 0.47262096 0.29597408 74 12
1.7059393 0.44595334 -0.15426573 72 5
1.8311307 0.47833946 0.36787987 1 13
1.7315218 0.45199621 -0.093786009 75 6
1.7434673 0.4544645 -0.031449143 100 7
1.6793176 0.4352389 -0.46483901 90 0
1.7422429 0.45122406 0.031414293 59 8
1.682832 0.43552384 -0.40131283 97 1
1.7344766 0.44856581 0.093890741 74 9
1.6745344 0.43306366 -0.33620551 100 2
1.7592609 0.45464882 0.15897198 100 10
1.7098901 0.4415715 -0.27970481 76 3
1.7645086 0.45534718 0.2237521 65 11
1.796201 0.46285796 0.29378399 76 12
1.7113439 0.44099134 -0.15461434 69 5
1.8251846 0.46998599 0.36635318 4 13
1.725352 0.44395798 -0.093367316 46 6
1.7334223 0.44538957 -0.031239711 100 7
1.6714678 0.42698482 -0.46225086 96 0
1.7476828 0.44612849 0.031484105 56 8
1.6843423 0.42964658 -0.40131283 100 1
1.7379669 0.44300312 0.093995407 67 9
1.6741333 0.42673215 -0.33582389 100 2
1.7453914 0.44457039 0.15757748 100 10
1.7114211 0.43559977 -0.27970481 76 3
1.7737821 0.45114347 0.22472703 69 11
1.7161435 0.4361639 -0.21741483 2 4
1.7939768 0.45561221 0.29315826 77 12
1.7051486 0.43305272 -0.1539171 69 5
1.7152752 0.43498731 -0.092739284 5 6
1.727212 0.43737373 -0.031100092 100 7
1.6598341 0.41784596 -0.45862734 88 0
1.737594 0.43709779 0.031274676 25 8
1.6896116 0.42471501 -0.40221244 100 1
1.7375658 0.43644682 0.093890741 76 9
1.6679962 0.41897213 -0.33429742 13 2
1.748865 0.43895963 0.15775201 85 10
1.7033513 0.42722067 -0.27814049 83 3
1.7753463 0.44494855 0.22472703 67 11
1.6983993 0.42534775 -0.21497743 2 4
1.7936399 0.4488681 0.2928454 37 12
1.7027842 0.42613098 -0.15356848 74 5
1.7206587 0.42996517 -0.09294863 2 6
1.7326088 0.43230972 -0.031169903 100 7
1.6744082 0.41530454 -0.46225086 96 0
1.6835175 0.41694018 -0.4004128 100 1
1.7352011 0.42941886 0.093681388 69 9
1.6770718 0.41503328 -0.33582389 4 2
1.7542547 0.43381009 0.15810043 28 10
1.6990789 0.41985014 -0.27720186 79 3
1.7576168 0.43398964 0.22228967 67 11
1.7037281 0.42036894 -0.21546493 2 4
1.7081305 0.42113799 -0.1539171 78 5
1.8033184 0.4442727 0.36101052 57 13
1.7221488 0.4239575 -0.09294863 2 6
1.7341074 0.42625865 -0.031169903 100 7
1.6702176 0.40808204 -0.46069792 93 0
1.7425454 0.42543152 0.031309579 1 8
1.6811761 0.41013774 -0.39951301 100 1
1.7307945 0.42224261 0.093367383 67 9
1.6823251 0.41010696 -0.33658713 4 2
1.7005342 0.41391626 -0.27720186 76 3
1.7610497 0.42832127 0.2225334 54 11
1.6935397 0.41190153 -0.21400249 2 4
1.8043317 0.4385148 0.29409689 2 12
1.7134622 0.41611287 -0.15426572 69 5
1.7953188 0.43566072 0.35910246 31 13
1.7003262 0.41229519 -0.091692574 3 6
1.7355114 0.42050534 -0.031169903 100 7
1.6753178 0.40344608 -0.46173319 90 0
1.755612 0.42245725 0.031519007 1 8
1.6825269 0.40456086 -0.39951304 91 1
1.7341272 0.41696805 0.093472056 46 9
1.6798579 0.40360895 -0.33582389 2 2
1.7552297 0.42139328 0.15792611 1 10
1.6999764 0.40781519 -0.276889 82 3
1.7026176 0.40813452 -0.21497743 2 4
1.8134602 0.43436906 0.29534835 2 12
1.7128949 0.40996593 -0.15409142 65 5
1.7327652 0.41408142 -0.093367316 2 6
1.7252263 0.41196159 -0.030960474 100 7
1.6653687 0.39521146 -0.45862737 85 0
1.74922 0.41478792 0.031379387 1 8
1.6838593 0.39897868 -0.39951304 78 1
1.7433461 0.41275239 0.093890741 11 9
1.6888287 0.39984494 -0.33735037 2 2
1.748862 0.41373602 0.15722908 3 10
1.7070869 0.40353847 -0.27782762 76 3
1.7001681 0.40127641 -0.21448997 2 4
1.8034292 0.42531601 0.29347113 2 12
1.704549 0.40199634 -0.15321985 69 5
1.8191888 0.42869756 0.36330023 2 13
1.7107995 0.40284017 -0.092111252 2 6
1.7208139 0.40456429 -0.03085576 100 7
1.6648569 0.38895583 -0.45810971 87 0
1.7584467 0.41049823 0.031519007 1 8
1.6681614 0.38911471 -0.39546388 21 1
1.6940383 0.39483818 -0.33811358 2 2
1.7697001 0.41214833 0.15897198 3 10
1.700789 0.39578661 -0.27657613 85 3
1.7942979 0.41721588 0.22618946 2 11
1.7092927 0.39713666 -0.21546492 2 4
1.8126 0.42080468 0.29472262 2 12
1.7059418 0.39604342 -0.15321983 67 5
1.8015492 0.41790783 0.35948402 2 13
1.7433262 0.40408203 -0.093786016 2 6
1.7163709 0.39720201 -0.030751046 34 7
1.6737353 0.38487417 -0.46018025 45 0
1.7481754 0.40167037 0.031309579 1 8
1.7422917 0.39967832 0.093681388 2 9
1.695474 0.38862696 -0.33811358 2 2
1.7439396 0.39973599 0.15653162 3 10
1.6867563 0.38631883 -0.27407318 73 3
1.7957432 0.41095045 0.22618946 2 11
1.7184093 0.39293721 -0.21643987 2 4
1.8102063 0.41359532 0.29409689 2 12
1.7151519 0.3915624 -0.1539171 37 5
1.7992408 0.41042927 0.35872081 2 13
1.7331115 0.39502615 -0.093157969 2 6
1.8620107 0.42440599 0.44090408 0 14
1.7535368 0.39614195 0.031379387 2 8
1.6899124 0.38145772 -0.3999629 3 1
1.7476416 0.39416906 0.093890741 2 9
1.696887 0.3824105 -0.33811361 4 2
1.7648295 0.39772204 0.15827474 1 10
1.6862336 0.37969962 -0.27376029 25 3
1.7817442 0.40087962 0.22423957 2 11
1.7082173 0.3840242 -0.21497743 2 4
1.8194194 0.40868914 0.29534835 2 12
1.7301836 0.38832718 -0.15513727 5 5
1.8160584 0.40726921 0.36177376 2 13
1.7189565 0.3851772 -0.092320599 2 6
1.8160141 0.4069255 0.42965651 4 14
1.7347804 0.38840508 -0.031030284 4 7
1.7393597 0.38624468 0.03110015 2 8
1.6874943 0.37441748 -0.39906311 3 1
1.749007 0.38806581 0.093890741 2 9
1.6982116 0.37648448 -0.33811358 2 2
1.7546039 0.38866594 0.15722908 3 10
1.704972 0.37735894 -0.2765761 33 3
1.7715719 0.39177507 0.22277713 2 11
1.7095474 0.37805864 -0.21497743 2 4
1.8015462 0.3980749 0.29221964 2 12
1.7237462 0.38056761 -0.15444003 16 5
1.8136345 0.40008113 0.36101052 2 13
1.7202904 0.37917492 -0.092320599 2 6
1.7660408 0.38925889 0.41750914 14 14
1.7322199 0.38148737 -0.030960474 6 7
1.7523525 0.38303629 0.031309579 2 8
1.6963419 0.37048307 -0.40086272 4 1
1.7385764 0.37970713 0.093262702 3 9
1.6725973 0.36499053 -0.33277094 4 2
1.7480966 0.38114709 0.15653163 3 10
1.7042842 0.37128291 -0.27626327 66 3
1.7767407 0.38674212 0.2232646 2 11
1.7069126 0.37154263 -0.21448997 2 4
1.7912749 0.38957924 0.29034242 2 12
1.8034401 0.39156491 0.35872102 3 13
1.7254419 0.37431538 -0.092529945 2 6
1.7673216 0.38340071 0.41750914 25 14
1.7276123 0.3744705 -0.03085576 20 7
1.741883 0.37470025 0.031100148 2 8
1.6880349 0.36280778 -0.39861336 13 1
1.7477024 0.37531298 0.093681388 4 9
1.7045102 0.36603764 -0.33887684 4 2
1.7298702 0.37116861 0.15478851 3 10
1.7074375 0.36604279 -0.27657613 85 3
1.7818955 0.38167998 0.2237521 3 11
1.7081989 0.36558327 -0.21448997 2 4
1.7926241 0.38332367 0.29034245 3 12
1.728181 0.36954355 -0.15461436 77 5
1.7989688 0.38435209 0.35757595 4 13
1.7227672 0.36775795 -0.092320599 2 6
1.7838964 0.3804808 0.42110837 30 14
1.7510062 0.37027207 0.031239768 2 8
1.69041 0.35684189 -0.33582389 4 2
1.7545493 0.3700617 0.15688024 5 10
1.6971076 0.35763612 -0.27469891 88 3
1.7696193 0.3725951 0.22204593 6 11
1.72112 0.36206982 -0.21595238 2 4
1.819082 0.38234553 0.29440972 7 12
1.7099625 0.35941014 -0.15287124 83 5
1.7201313 0.36092141 -0.09211126 2 6
1.8081012 0.37904912 0.4265072 52 14
1.7380135 0.36404023 -0.030995382 100 7
1.7562039 0.36497179 0.031309582 2 8
1.6981589 0.35259977 -0.4004128 100 1
1.6916455 0.35093859 -0.33582389 4 2
1.7304684 0.35867846 0.1546142 18 10
1.7060825 0.35331342 -0.2759504 88 3
1.753414 0.36279532 0.21985228 31 11
1.7107095 0.3536481 -0.21449016 2 4
1.8029294 0.37271237 0.29159388 45 12
1.7112062 0.35344025 -0.15287122 76 5
1.7096438 0.35249454 -0.091483228 3 6
1.7960523 0.36998436 0.42335787 45 14
1.7411696 0.35867858 -0.031030284 100 7
1.7613227 0.35994714 0.031379387 6 8
1.6744971 0.34189802 -0.39456424 94 1
1.7319049 0.35330459 0.09263467 74 9
1.6659282 0.33954352 -0.33048126 4 2
1.7091807 0.34804758 -0.27626327 92 3
1.760443 0.35816637 0.22058347 46 11
1.7002012 0.34560099 -0.21302754 2 4
1.7085245 0.34667203 -0.15252261 72 5
1.8143755 0.36814994 0.3598657 63 13
1.7147182 0.34761715 -0.091692567 3 6
1.7991794 0.36441272 0.42380777 55 14
1.7424111 0.3525981 -0.031030284 100 7
1.6871448 0.33834952 -0.39726368 100 1
1.7292109 0.34647265 0.092425331 77 9
1.674745 0.33555958 -0.33200771 4 2
1.7328697 0.34689122 0.1546142 78 10
1.7084479 0.3416914 -0.27595037 88 3
1.7714157 0.35396439 0.22180219 52 11
1.6897167 0.33733264 -0.21156529 2 4
1.7938645 0.3577981 0.28971672 83 12
1.7018492 0.33944508 -0.15182535 74 5
1.7944702 0.35759419 0.35566786 68 13
1.7315918 0.3447499 -0.092529953 4 6
1.8004405 0.35812971 0.42380777 55 14
1.7240179 0.34261638 -0.030681239 100 7
1.7245539 0.3399072 0.030681292 49 8
1.6864035 0.33208206 -0.39681357 81 1
1.7304097 0.34043398 0.092425331 72 9
1.6643482 0.32743731 -0.32971802 7 2
1.751665 0.34429815 0.156183 100 10
1.6941236 0.332681 -0.27344745 88 3
1.7706926 0.34739617 0.22155844 74 11
1.7025723 0.33372298 -0.21302754 2 4
1.7970409 0.35191417 0.29002956 93 12
1.7030237 0.3335028 -0.15182535 69 5
1.8014878 0.35245854 0.35681275 79 13
1.7269042 0.33755347 -0.092215933 16 6
1.8035923 0.35221672 0.4242577 57 14
1.7330542 0.33812761 -0.030820858 100 7
1.7296563 0.33464536 0.030751102 69 8
1.6645925 0.32175574 -0.39141476 24 1
1.7315878 0.33439118 0.092425331 69 9
1.692525 0.32654214 -0.33506069 22 2
1.7489434 0.33742711 0.15583438 100 10
1.7010934 0.32788736 -0.27438605 97 3
1.7524017 0.33745903 0.21912105 82 11
1.7368656 0.33415371 -0.21717107 3 4
1.7982583 0.34563956 0.29002956 85 12
1.7042348 0.32725823 -0.15182537 72 5
1.7931267 0.34400433 0.35490486 68 13
1.8162942 0.34812021 0.4269571 59 14
1.7263678 0.33057129 -0.030681238 100 7
1.8481097 0.35354942 0.50417954 4 15
1.7308712 0.32830399 0.030751102 75 8
1.7210271 0.32581365 0.091797292 72 9
1.7423378 0.32953393 0.15513714 100 10
1.7042249 0.32201666 -0.27469891 100 3
1.7555772 0.33140248 0.21936479 77 11
1.6912616 0.31895587 -0.21132155 20 4
1.8014543 0.33941156 0.29034242 80 12
1.7015067 0.32027298 -0.15147674 67 5
1.7943757 0.3374294 0.35490486 65 13
1.731295 0.32525435 -0.092320599 81 6
1.8098971 0.3400211 0.42515749 60 14
1.7354294 0.32571754 -0.030820858 100 7
1.7340289 0.32232282 0.030786006 66 8
1.7201902 0.31943986 0.091692626 67 9
1.6600726 0.30797637 -0.32819155 100 2
1.7454928 0.32350832 0.15531144 100 10
1.7034513 0.31540892 -0.27438605 92 3
1.7587321 0.32532722 0.21960855 81 11
1.7870883 0.33024994 0.2878395 82 12
1.7065327 0.31505543 -0.15182535 72 5
1.7974732 0.33152023 0.35528645 60 13
1.7186705 0.31667596 -0.091587901 100 6
1.799574 0.33158296 0.42245808 60 14
1.7286893 0.31820923 -0.030681239 100 7
1.7350883 0.31657031 0.030786006 66 8
1.7310644 0.31552485 0.092215985 72 9
1.6746054 0.3049311 -0.33086288 100 2
1.7328346 0.31522173 0.15409127 100 10
1.7044878 0.30975869 -0.27438605 97 3
1.7617545 0.31984735 0.21985228 69 11
1.6894873 0.30672726 -0.21083389 21 4
1.7901174 0.32467395 0.28815237 73 12
1.6958053 0.3072637 -0.1507795 74 5
1.8043585 0.32660633 0.35643113 70 13
1.7236419 0.31168523 -0.09179724 90 6
1.8006636 0.32561305 0.42245805 61 14
1.7218634 0.31105414 -0.030541619 100 7
1.8250951 0.32937312 0.49693269 60 15
1.7282549 0.30940557 0.030646386 64 8
1.7281693 0.30907896 0.092006646 72 9
1.6717418 0.29868597 -0.33009961 73 2
1.7417159 0.3108744 0.15478852 100 10
1.6938374 0.30202368 -0.27250883 97 3
1.7686682 0.3150481 0.22058347 73 11
1.7892392 0.31839019 0.2878395 80 12
1.6968149 0.30163801 -0.15077949 69 5
1.7938334 0.31856179 0.35414141 49 13
1.7187666 0.30492061 -0.091483228 52 6
1.8094088 0.3210012 0.4242577 58 14
1.7268233 0.3060399 -0.030611426 100 7
1.8071544 0.31995153 0.49175623 21 15
1.7253324 0.30298135 0.030576577 64 8
1.7291847 0.30334684 0.092006646 74 9
1.6688558 0.29246241 -0.3293364 100 2
1.7388122 0.30440933 0.15443988 100 10
1.6909381 0.29572481 -0.2718831 92 3
1.7579708 0.30713099 0.21912107 70 11
1.7129948 0.29927337 -0.213515 2 4
1.7941772 0.31313387 0.28846523 82 12
1.6978059 0.29600987 -0.1507795 72 5
1.7929459 0.31227413 0.3537598 10 13
1.8104633 0.31499955 0.4242577 58 14
1.7278285 0.30031228 -0.030611426 100 7
1.7343665 0.297708 0.030716198 41 8
1.7204942 0.29501686 0.091483288 67 9
1.6777066 0.28737855 -0.33086285 100 2
1.7438958 0.29840386 0.15478852 100 10
1.6959553 0.28989515 -0.27250883 92 3
1.7610936 0.30071312 0.21936479 13 11
1.6907007 0.28838876 -0.21059017 2 4
1.791472 0.3055777 0.2878395 71 12
1.7067863 0.29082686 -0.15147674 76 5
1.7902608 0.30472896 0.35299656 2 13
1.7130283 0.29127443 -0.091064535 3 6
1.8001857 0.30577177 0.42155826 60 14
1.7368549 0.29501471 -0.030751046 100 7
1.7293923 0.2903316 0.091901973 33 9
1.6632098 0.27892321 -0.32780993 100 2
1.7547517 0.29396015 0.15566027 65 10
1.7047002 0.28557536 -0.27376032 92 3
1.7073107 0.28540009 -0.21254005 2 4
1.7808368 0.29737154 0.28596225 27 12
1.7077911 0.28486687 -0.15147674 69 5
1.7970712 0.29975915 0.35414141 2 13
1.7061044 0.28428027 -0.090645857 3 6
1.7935007 0.29852104 0.41975868 63 14
1.7260386 0.28698182 -0.030541617 100 7
1.7442453 0.28719428 0.030855816 2 8
1.6718745 0.27467975 -0.32933637 100 2
1.7056866 0.27962264 -0.27376029 92 3
1.7905257 0.2932108 0.22277713 2 11
1.7043785 0.27879739 -0.21205258 2 4
1.6969765 0.2769793 -0.15043087 67 5
1.8097318 0.2953831 0.35643134 1 13
1.7346835 0.28282213 -0.092111252 2 6
1.7945318 0.29225829 0.41975868 61 14
1.7191347 0.27967188 -0.030401999 100 7
1.7472116 0.28142157 0.03089072 1 8
1.7451805 0.28047034 0.09263467 2 9
1.6786855 0.26948246 -0.33048123 100 2
1.7567613 0.28170252 0.15566006 3 10
1.698898 0.27211982 -0.27250883 97 3
1.783698 0.28570262 0.22180219 2 11
1.6935805 0.27096412 -0.21059017 2 4
1.7945734 0.28680214 0.2878395 2 12
1.6999007 0.2713677 -0.15060517 65 5
1.8030475 0.28751019 0.35490486 2 13
1.7199292 0.27394938 -0.091273874 3 6
1.7994397 0.28629175 0.42065844 63 14
1.7141757 0.27272624 -0.030297283 46 7
1.7521821 0.27563769 0.030960532 1 8
1.7461489 0.2743763 0.09263467 2 9
1.6893137 0.26514441 -0.33238935 30 2
1.7439555 0.27340794 0.15443988 3 10
1.6939827 0.26527062 -0.27157021 88 3
1.7729656 0.27732283 0.22033975 2 11
1.6984383 0.26566547 -0.21107763 2 4
1.8111771 0.28297508 0.29034242 2 12
1.7067432 0.26635343 -0.15112811 63 5
1.8001603 0.2806111 0.35414159 2 13
1.7248223 0.26855814 -0.091483228 3 6
1.8003794 0.28032252 0.42065844 61 14
1.7491335 0.26921767 0.03089072 2 8
1.7470491 0.26858476 0.09263467 2 9
1.75273 0.26883188 0.15513712 3 10
1.6968058 0.25995117 -0.2718831 92 3
1.769951 0.27084091 0.21985228 2 11
1.7032342 0.2606318 -0.21156529 2 4
1.8042949 0.27577406 0.28909099 2 12
1.7095869 0.26099241 -0.15130243 31 5
1.8127259 0.2764152 0.35643134 1 13
1.7138562 0.26103294 -0.090855196 3 6
1.7897398 0.27259058 0.41795903 59 14
1.7179695 0.26135179 -0.030332187 4 7
1.746062 0.26282012 0.030820914 1 8
1.7321752 0.2601124 0.0917973 2 9
1.7457303 0.26183552 0.15444008 3 10
1.6937511 0.25373796 -0.27125734 82 3
1.7865453 0.26732048 0.22180219 2 11
1.7041337 0.25468439 -0.21156529 2 4
1.7974316 0.26830801 0.2878395 2 12
1.809749 0.26982293 0.35566807 2 13
1.7107614 0.25475928 -0.09064585 3 6
1.7945355 0.26691526 0.41885883 60 14
1.7188715 0.25535375 -0.030332191 4 7
1.7588394 0.25846839 0.03103034 2 8
1.737025 0.25464332 0.092006646 2 9
1.7506213 0.25601238 0.15478852 3 10
1.6829422 0.24581492 -0.26938015 41 3
1.7953246 0.26222977 0.22277713 2 11
1.7128696 0.24988092 -0.21254005 2 4
1.7827194 0.2597532 0.28533655 4 12
1.6975659 0.24704322 -0.15008225 3 5
1.8107258 0.26318848 0.35566807 2 13
1.7195898 0.24963547 -0.091064535 3 6
1.7993592 0.26089501 0.41975871 59 14
1.7276683 0.25050032 -0.030471809 4 7
1.7360208 0.24861789 0.030611482 2 8
1.7260404 0.24688201 0.091378614 2 9
1.7475594 0.2493367 0.15443988 5 10
1.703346 0.24272598 -0.27250883 77 3
1.7844818 0.25396919 0.2213147 2 11
1.7137738 0.24360082 -0.21254024 2 4
1.8149066 0.25797611 0.29034242 7 12
1.6984177 0.24111643 -0.15008225 6 5
1.7999706 0.25521216 0.35337839 2 13
1.728361 0.24475114 -0.091483228 3 6
1.7983291 0.25433996 0.41930875 54 14
1.716652 0.2427883 -0.030262379 6 7
1.7368356 0.24286084 0.030611482 2 8
1.7427164 0.24306218 0.092215985 3 9
1.7563126 0.24433354 0.15513712 7 10
1.6924025 0.23544253 -0.27063164 92 3
1.7499224 0.24313328 0.21692739 2 11
1.7027749 0.23627971 -0.21107762 2 4
1.7805759 0.24675879 0.28471079 28 12
1.7891389 0.2476272 0.35108846 2 13
1.7212493 0.23792475 -0.091064543 3 6
1.8068846 0.2494406 0.42110839 52 14
1.7234321 0.2376135 -0.030367095 8 7
1.7337101 0.23625618 0.030541673 2 8
1.7277218 0.23482595 0.091378614 3 9
1.6932142 0.22953305 -0.27063164 82 3
1.7586292 0.23808907 0.21790236 3 11
1.7114581 0.23139873 -0.21205258 2 4
1.7931722 0.24212742 0.28658801 78 12
1.7118665 0.23114893 -0.15112811 48 5
1.786101 0.24085522 0.35032544 3 13
1.7181104 0.23138225 -0.090855196 3 6
1.7942249 0.24131308 0.41795906 28 14
1.7543473 0.23283342 0.030890718 5 8
1.7285311 0.22879319 0.091378614 5 9
1.6979215 0.22413945 -0.27125734 78 3
1.7673219 0.23298621 0.21887733 3 11
1.7122555 0.22542277 -0.21205258 2 4
1.7940061 0.2358678 0.28658798 76 12
1.7245151 0.22673142 -0.15217397 77 5
1.7986103 0.23615296 0.35261494 4 13
1.7189077 0.22538306 -0.090855196 3 6
1.7468789 0.22471049 0.15409127 100 10
1.6849787 0.21644898 -0.26906726 38 3
1.7937211 0.23009872 0.22204594 13 11
1.7012179 0.21793146 -0.21059017 2 4
1.7869413 0.22891293 0.28533655 94 12
1.7015808 0.21767612 -0.15008225 83 5
1.7276088 0.22039293 -0.091273881 4 6
1.7257874 0.21985447 -0.030367095 100 7
1.698354 0.21364927 0.029878484 39 8
1.7161762 0.21528198 0.090645909 47 9
1.7298597 0.21638519 0.15252246 100 10
1.7531083 0.21898261 0.21692739 32 11
1.6901121 0.21081492 -0.20912771 2 4
1.7779282 0.22145264 0.2837722 94 12
1.6904674 0.21025921 -0.14903638 76 5
1.7865382 0.22220844 0.34994361 49 13
1.7362581 0.2156478 -0.091692567 6 6
1.7404361 0.21554902 -0.030611426 100 7
1.7129838 0.20941781 0.030122817 49 8
1.7347605 0.21146554 0.091587961 76 9
1.7325456 0.21088868 0.15269677 100 10
1.7617446 0.21381883 0.21790236 76 11
1.6947792 0.20539126 -0.2096152 2 4
1.7884959 0.21643128 0.28533655 90 12
1.7030231 0.20608796 -0.15008225 72 5
1.8028954 0.21785544 0.35299677 70 13
1.7072572 0.20599656 -0.090122491 25 6
1.7292657 0.20803972 -0.030401999 100 7
1.7335618 0.20579477 0.030471865 74 8
1.7216041 0.20376506 0.090855248 81 9
1.7332711 0.20484005 0.15269677 100 10
1.7624803 0.20766741 0.21790235 58 11
1.709286 0.20109808 -0.21132155 3 4
1.7892404 0.21018814 0.28533655 90 12
1.7076895 0.2006081 -0.15043087 67 5
1.7821964 0.2090445 0.34879875 68 13
1.7339537 0.20246556 -0.030471809 100 7
1.7263236 0.19882661 0.030332247 75 8
1.7123837 0.1966155 0.09033189 72 9
1.7399138 0.19946887 0.15321991 100 10
1.7474163 0.19971104 0.21595244 62 11
1.6941994 0.19332939 -0.20937145 22 4
1.7860378 0.20349357 0.28471082 90 12
1.7044202 0.19419441 -0.15008225 74 5
1.7887672 0.20348831 0.34994361 79 13
1.7225451 0.19565046 -0.090855189 88 6
1.7267019 0.19551212 -0.030332187 100 7
1.7329689 0.1934645 0.030436957 69 8
1.7209996 0.19152096 0.090750575 72 9
1.7267382 0.19185366 0.15199952 100 10
1.7500758 0.1938291 0.21619619 82 11
1.7808468 0.19660795 0.2837722 97 12
1.6932056 0.18693224 -0.14903638 72 5
1.7992238 0.19831894 0.3518517 74 13
1.7093208 0.18810667 -0.090122491 100 6
1.7233982 0.18904789 -0.030262379 100 7
1.721705 0.18612495 0.030227531 69 8
1.7216576 0.18551192 0.090750568 74 9
1.7273973 0.18582539 0.15199952 100 10
1.7625846 0.18898839 0.21765864 85 11
1.7112982 0.18318723 -0.21132135 87 4
1.7854506 0.19080977 0.2843979 93 12
1.6938478 0.18102024 -0.14903638 72 5
1.7881922 0.19078711 0.34956199 70 13
1.7198972 0.18319696 -0.09064585 100 6
1.7300133 0.1836638 -0.030367095 100 7
1.7203554 0.17990634 0.030192627 72 8
1.7262678 0.17991553 0.090959921 69 9
1.731999 0.18020727 0.15234816 100 10
1.7474376 0.18119708 0.21570873 56 11
1.6941563 0.17537336 -0.2091279 100 4
1.7861058 0.18457574 0.2843979 93 12
1.6944695 0.17510605 -0.14903638 74 5
1.7888471 0.18454437 0.34956199 70 13
1.7105923 0.17616959 -0.090122491 82 6
1.7306437 0.17762421 -0.030367095 100 7
1.724952 0.17430252 0.030262435 72 8
1.7129749 0.17248747 0.090227216 67 9
1.7306349 0.17396148 0.15217385 100 10
1.6908077 0.16906394 -0.20864043 100 4
1.7906704 0.17873272 0.28502366 97 12
1.6990353 0.16958632 -0.14938499 69 5
1.7894806 0.17829853 0.34956199 70 13
1.7052346 0.16960397 -0.089808479 84 6
1.7352332 0.17197601 -0.030436903 100 7
1.7275401 0.16847388 0.030297339 69 8
1.7235061 0.16747318 0.090750583 43 9
1.7332149 0.16811125 0.15234816 100 10
1.6874357 0.16277923 -0.20815276 60 4
1.7794857 0.1713454 0.28314644 97 12
1.7075498 0.16441876 -0.15008225 69 5
1.797909 0.1728027 0.35108846 65 13
1.7097925 0.16403237 -0.090017825 52 6
1.7218887 0.16458634 -0.030192573 100 7
1.7320998 0.16281645 0.030367151 66 8
1.7300459 0.16201422 0.091064602 6 9
1.7298235 0.16168886 0.15199952 100 10
1.7472626 0.16270374 0.21546498 2 11
1.6899706 0.15707125 -0.20839652 12 4
1.780073 0.16513318 0.28314647 93 12
1.6922425 0.15698533 -0.14868775 74 5
1.7945914 0.16616327 0.35032523 49 13
1.7124963 0.15765773 -0.030018048 100 7
1.7286742 0.15640928 0.030297339 43 8
1.7385576 0.15669174 0.09148328 2 9
1.7244244 0.15511455 0.15147661 100 10
1.7715461 0.15872905 0.21838985 2 11
1.7806386 0.15891807 0.28314644 97 12
1.6927801 0.1510769 -0.14868775 76 5
1.7932051 0.15972331 0.34994364 20 13
1.7347687 0.15421399 -0.091273874 3 6
1.7130363 0.15167859 -0.030018048 100 7
1.7152122 0.1497605 0.030053006 6 8
1.7489902 0.1520938 0.092006646 2 9
1.7368126 0.15073027 0.15252247 80 10
1.772036 0.15316311 0.21838985 2 11
1.7811289 0.15332361 0.28314644 97 12
1.6972164 0.14610022 -0.14903638 72 5
1.7034054 0.14603321 -0.089599133 3 6
1.7456155 0.14627665 0.030576579 2 8
1.7216455 0.14366376 0.090541244 2 9
1.7725598 0.14697786 0.21838985 2 11
1.7855909 0.14742999 0.2837722 97 12
1.7016873 0.14050238 -0.14938499 69 5
1.7277914 0.1420505 -0.090855196 3 6
1.7321622 0.13906179 0.030332243 2 8
1.7261182 0.13797103 0.090750575 2 9
1.7398087 0.13875891 0.15269677 4 10
1.7770197 0.14110337 0.21887733 2 11
1.7742792 0.14026256 0.28189498 97 12
1.7021675 0.13456188 -0.14938501 72 5
1.7282767 0.13601807 -0.090855196 3 6
1.7244517 0.13511226 -0.030192571 4 7
1.7485876 0.13424028 0.030611482 2 8
1.7265893 0.13194443 0.090750575 2 9
1.7422689 0.13283767 0.15287107 4 10
1.7735428 0.13459863 0.21838985 2 11
1.774758 0.13406785 0.28189498 97 12
1.6907064 0.12771845 -0.14833912 69 5
1.7327242 0.13028513 -0.091064535 3 6
1.7129481 0.12819606 -0.029983144 4 7
1.7251135 0.12638202 0.030192627 2 8
1.7230337 0.12592734 0.090541244 2 9
1.7307993 0.12588754 0.15182522 6 10
1.7779616 0.12869398 0.21887735 2 11
1.7830737 0.1287512 0.28314644 93 12
1.6971036 0.12224498 -0.14886205 67 5
1.7212155 0.12337876 -0.090436511 3 6
1.7253317 0.12337031 -0.030192573 4 7
1.7295128 0.12093914 0.030262435 2 8
1.743387 0.12129868 0.091587953 2 9
1.7511044 0.12122149 0.15356833 8 10
1.7466922 0.12060976 0.21497749 2 11
1.7835122 0.1225267 0.28314644 97 12
1.69752 0.11632141 -0.14886206 67 5
1.7176299 0.11739744 -0.090227157 3 6
1.7257518 0.1173474 -0.030192573 4 7
1.7259339 0.11463659 0.030192629 2 8
1.739814 0.11494858 0.091378614 2 9
1.6998067 0.11200739 0.14903623 29 10
1.7669114 0.11580979 0.21741492 2 11
1.7878715 0.11655687 0.2837722 97 12
1.7098254 0.11146881 -0.14990793 59 5
1.7100569 0.1108845 -0.089808472 3 6
1.7261506 0.11132304 -0.030192571 4 7
1.754264 0.11036952 0.030681295 3 8
1.720271 0.10762803 0.090331897 2 9
1.7712674 0.10988761 0.21790238 2 11
1.7724947 0.10934186 0.28126928 97 12
1.7082156 0.10537659 -0.14973362 20 5
1.7223947 0.10564782 -0.090436511 3 6
1.7145526 0.10456694 -0.029983141 6 7
1.7486498 0.10388905 0.030576576 7 8
1.7286112 0.10209307 0.090750575 2 9
1.7224258 0.10142609 0.15095367 89 10
1.7835301 0.10439959 0.21936479 3 11
1.7728654 0.1031544 0.28126925 93 12
1.722753 0.099635266 -0.090436511 3 6
1.7169037 0.098695703 -0.030018045 9 7
1.6671422 0.093208179 0.029145479 25 8
1.7289573 0.096058823 0.090750583 3 9
1.7366946 0.096184686 0.15217404 100 10
1.7719913 0.09751831 0.21790236 3 11
1.7791319 0.097288407 0.28220785 90 12
1.7151129 0.093188055 -0.09001781 3 6
1.6974118 0.0889576 0.029669054 43 8
1.7332711 0.090230256 0.090959921 4 9
1.7330405 0.08991497 0.15182522 100 10
1.7524964 0.090311058 0.21546499 3 11
1.7853789 0.091381639 0.28314644 52 12
1.7114384 0.086997367 -0.089808472 6 6
1.711693 0.083716124 0.029913386 49 8
1.7293637 0.083672784 0.15147661 100 10
1.7607321 0.084573664 0.21643993 10 11
1.7975259 0.085712992 0.28502366 9 12
1.7097367 0.080928735 -0.089703798 25 6
1.729828 0.081273794 -0.030227473 100 7
1.7279561 0.078465946 0.030192627 74 8
1.6919588 0.076240338 0.088761814 36 9
1.7336259 0.077813886 0.15182522 100 10
1.7241079 0.074975625 -0.030122763 91 7
1.7222257 0.072182082 0.030087911 72 8
1.7161613 0.071328692 0.090017885 47 9
1.7219429 0.071267135 0.15077935 100 10
1.7731802 0.072768584 0.21790238 58 11
1.7242297 0.069553249 -0.090436511 88 6
1.7163665 0.068636835 -0.029983141 100 7
1.7224671 0.066171139 0.030087911 69 8
1.7303703 0.065869905 0.090750583 76 9
1.718199 0.065106295 0.15043072 100 10
1.7516028 0.065758921 0.21522126 72 11
1.7104903 0.06302058 -0.089703798 100 6
1.7225908 0.062863514 -0.030087855 100 7
1.7166921 0.059948381 0.029983198 72 8
1.7265977 0.059690915 0.090541244 77 9
1.728372 0.059450254 0.15130228 100 10
1.7458696 0.05944201 0.21449001 78 11
1.7007194 0.056716178 -0.089180447 89 6
1.7247986 0.056916475 -0.030122763 100 7
1.7208883 0.05408163 0.030053006 74 8
1.7188009 0.05371578 0.090122551 69 9
1.7305604 0.053478654 0.15147661 100 10
1.7460665 0.053346969 0.21449003 92 11
1.7128851 0.051137164 -0.089808479 46 6
1.7289753 0.05131552 -0.030192571 100 7
1.723057 0.048431195 0.030087911 69 8
1.7169813 0.047659833 0.09001787 60 9
1.7287449 0.047382496 0.15130228 100 10
1.7541713 0.047773022 0.21546499 88 11
1.7211478 0.045070104 -0.030052952 100 7
1.733211 0.042661879 0.030262435 72 8
1.725124 0.04186032 0.090436563 29 9
1.7249088 0.041553885 0.15095386 100 10
1.7523429 0.041602787 0.21522126 85 11
1.7152972 0.038926162 -0.029948238 100 7
1.7173554 0.036274116 0.029983196 72 8
1.7230515 0.035491906 0.15077935 100 10
1.7564467 0.035565622 0.21570872 85 11
1.7174218 0.032976352 -0.029983141 100 7
1.7174715 0.030278759 0.029983196 72 8
1.7273712 0.029850174 0.090541244 2 9
1.7251569 0.029510738 0.15095386 100 10
1.7486211 0.029301595 0.21473378 81 11
1.7215254 0.027043592 -0.030052952 100 7
1.7215657 0.024339559 0.030053006 72 8
1.7194767 0.023709731 0.090122551 2 9
1.7292337 0.023542427 0.15130228 100 10
1.7467277 0.023170797 0.21449003 77 11
1.7336067 0.021181127 -0.030262379 100 7
1.7236397 0.018351674 0.030087909 58 8
1.7275375 0.01779012 0.090541244 2 9
1.7293055 0.017506493 0.15130228 100 10
1.7467979 0.017073806 0.21449003 46 11
1.7096746 0.01491972 -0.029843524 100 7
1.7296923 0.012377406 0.030192627 15 8
1.7355779 0.011814527 0.090959929 2 9
1.7233793 0.011429883 0.15077935 100 10
1.7607423 0.011063918 0.21619621 8 11
1.7177148 0.0089948121 -0.029983141 100 7
1.7297273 -0.0057360139 0.030192629 2 8
1.7396009 -0.0063759992 0.091169268 2 9
1.7253966 -0.0066250795 0.15095365 100 10
1.7256973 -0.011746629 0.030122817 2 8
1.7355735 -0.012419718 0.090959921 2 9
1.7253629 -0.012647797 0.15095386 100 10
1.7336439 -0.017852729 0.030262433 3 8
1.7355198 -0.018477926 0.090959921 2 9
1.7213241 -0.018627245 0.15060505 100 10
1.7195748 -0.023711173 0.030018102 13 8
1.7314504 -0.024479434 0.090750575 2 9
1.7172641 -0.024578646 0.15025643 100 10
1.6614989 -0.028711492 0.029005863 28 8
1.7433361 -0.030734411 0.091378607 2 9
1.7251358 -0.03071473 0.15095386 100 10
1.6973753 -0.035258561 0.029634148 45 8
1.7352312 -0.036650896 0.090959921 2 9
1.7290024 -0.036821239 0.15130229 100 10
1.7132348 -0.041571356 0.029913386 49 8
1.7031463 -0.041921426 0.08928518 3 9
1.7288629 -0.042856354 0.15130228 100 10
1.7210749 -0.047773357 0.030053006 54 8
1.7289432 -0.04859576 0.090645902 3 9
1.718745 -0.048609324 0.15043072 100 10
1.7149014 -0.053593352 0.02994829 42 8
1.6948361 -0.053262375 0.08886648 13 9
1.7285216 -0.05492495 0.15130228 57 10
1.7227083 -0.059556242 0.030087909 6 8
1.7044021 -0.065476522 0.089389846 47 9
1.7141408 -0.071843773 0.089913212 76 9
1.7098889 -0.077645607 0.089703858 69 9
1.7215767 -0.084199145 0.09033189 69 9
1.7232668 -0.0903126 0.090436563 67 9
1.7109762 -0.095658422 0.089808539 67 9
1.702657 -0.10115647 0.089389846 63 9
1.7162468 -0.10797708 0.090122551 43 9
