# .PCD v0.7 - Point Cloud Data file format
VERSION 0.7
FIELDS x y z intensity ring
SIZE 4 4 4 4 2
TYPE F F F F U
COUNT 1 1 1 1 1
WIDTH 1232
HEIGHT 1
VIEWPOINT 0 0 0 1 0 0 0
POINTS 1232
DATA ascii
-0.17730223 1.7546445 -0.092425272 13 6
-0.21572366 2.138608 0.49624202 4 14
-0.17884029 1.8012887 -0.4850269 32 0
-0.17665769 1.7888312 0.094204754 1 9
-0.17577241 1.7798668 -0.3476541 1 2
-0.17337458 1.7587246 0.1546142 7 10
-0.17507108 1.7791231 -0.28314635 4 3
-0.17911397 1.8234644 0.22497079 1 11
-0.17298441 1.7642273 -0.21765856 18 4
-0.17856522 1.8244321 0.29034245 2 12
-0.17331041 1.7707428 -0.15566021 28 5
-0.19624367 2.008662 0.39230323 1 13
-0.17175822 1.7612162 -0.092739284 4 6
-0.17386647 1.7892988 -0.031379331 3 7
-0.19340339 1.993973 0.53679085 21 15
-0.1685185 1.7695544 0.093158029 13 9
-0.16769673 1.7609253 -0.34383789 2 2
-0.16968496 1.785104 0.15688024 1 10
-0.17035277 1.7954557 -0.28564933 4 3
-0.17050143 1.8003637 0.22204593 2 11
-0.1658905 1.7549388 -0.21643987 12 4
-0.17442273 1.8486438 0.29409686 1 12
-0.16750298 1.775304 -0.15600882 3 5
-0.16579583 1.7637936 -0.092843957 1 6
-0.18749933 1.9984257 0.4633992 13 14
-0.16687329 1.7819309 -0.031239711 15 7
-0.17978922 1.9234675 0.51763821 20 15
-0.16370757 1.7782083 0.031169958 12 8
-0.16511796 1.7969633 -0.41660929 1 1
-0.16069932 1.7522317 0.092215993 22 9
-0.16047351 1.7497696 -0.34154817 2 2
-0.16381636 1.7896537 0.15722908 3 10
-0.16372538 1.7921051 -0.2850236 3 3
-0.16385493 1.796994 0.22155842 2 11
-0.15922421 1.7495762 -0.21570885 3 4
-0.19084145 2.101053 0.33414406 4 12
-0.16472971 1.8135781 -0.15932074 1 5
-0.18735513 2.0666852 0.40337011 17 13
-0.15801865 1.7464594 -0.091901921 6 6
-0.17438853 1.9311385 0.44765258 18 14
-0.16065171 1.7825028 -0.031239713 7 7
-0.1659783 1.8451957 0.49641499 20 15
-0.1647303 1.8530657 -0.49848551 1 0
-0.15233116 1.7169935 0.030087911 28 8
-0.15984511 1.8052655 -0.4184089 1 1
-0.15647045 1.7706605 0.093158036 30 9
-0.15455464 1.7524781 0.15391697 7 10
-0.15812752 1.7965735 -0.2856493 1 3
-0.18186727 2.0704198 0.2551944 3 11
-0.15966192 1.821285 -0.22448345 1 4
-0.15385212 1.7585398 -0.15444003 3 5
-0.17162217 1.9655926 0.383526 17 13
-0.15690701 1.800696 -0.094728053 2 6
-0.16241184 1.8676395 0.43280581 15 14
-0.15369038 1.7745242 0.47726241 17 15
-0.15234411 1.7843348 -0.4798505 1 0
-0.14956269 1.7553717 0.030751102 39 8
-0.15024097 1.766978 -0.40941086 4 1
-0.15011941 1.7692057 0.093053363 19 9
-0.1492234 1.758646 -0.34307462 2 2
-0.15902737 1.8780798 0.16489857 1 10
-0.16017205 1.8955327 -0.30129278 1 3
-0.14897606 1.7704008 -0.21814604 2 4
-0.16942792 2.0176604 0.32069075 19 12
-0.15138094 1.8027451 -0.15827489 1 5
-0.15836574 1.8898801 0.36864287 18 13
-0.14989613 1.7963417 0.41615945 16 14
-0.14868166 1.7855477 -0.031274617 22 7
-0.14221644 1.7115177 0.46018034 17 15
-0.14863615 1.8156625 -0.48813275 1 0
-0.14408599 1.7638552 0.030890718 29 8
-0.1450216 1.7791455 -0.41211027 1 1
-0.14499311 1.782638 -0.34765407 1 2
-0.16665444 2.0533791 0.18023796 13 10
-0.14781359 1.8251988 -0.29002947 1 3
-0.16229105 2.0083225 0.24739479 17 11
-0.14694394 1.8223553 -0.22448325 1 4
-0.15699701 1.9512929 0.31005317 19 12
-0.1438085 1.7873747 -0.15688039 9 5
-0.14626855 1.8219278 0.35528645 20 13
-0.14178109 1.7698935 -0.093053304 31 6
-0.13803463 1.7269223 0.39996299 14 14
-0.14228855 1.7840623 -0.031239711 9 7
-0.13133754 1.6503793 0.44361591 13 15
-0.138978 1.7737993 -0.47674471 1 0
-0.139642 1.7862772 0.031274673 7 8
-0.16271383 2.0908003 0.10990556 12 9
-0.13937935 1.7909626 -0.34918055 1 2
-0.15886828 2.0460029 0.17954075 20 10
-0.14693482 1.8966048 -0.30129278 1 3
-0.14961962 1.9356462 0.23837639 21 11
-0.13676536 1.7733768 -0.21838999 3 4
-0.14336546 1.8631989 0.29597408 21 12
-0.13665177 1.7759467 -0.15583453 27 5
-0.13524972 1.761745 0.34345609 20 13
-0.12665969 1.6574428 0.38376647 13 14
-0.13590851 1.7825544 -0.031204809 45 7
-0.12279135 1.6142281 0.43378076 11 15
-0.13768691 1.8397734 -0.49434438 1 0
-0.15633544 2.0938518 0.036650002 5 8
-0.1514775 2.0335677 0.10687006 12 9
-0.13545428 1.8227637 -0.35528642 1 2
-0.14421321 1.9452108 0.17065084 15 10
-0.13594279 1.8380061 -0.29190671 1 3
-0.13818714 1.8728062 0.23057677 19 11
-0.12999089 1.7659246 -0.21741483 20 4
-0.13210998 1.7947125 0.28502366 23 12
-0.13059801 1.7783998 -0.15600884 21 5
-0.12465206 1.7015083 0.33162597 21 13
-0.12956616 1.7728322 -0.093157969 23 6
-0.11704847 1.6053981 0.37161914 10 14
-0.13275973 1.8208886 -0.031867996 5 7
-0.11267249 1.5491166 0.41618109 12 15
-0.14668828 2.0564613 0.035986818 11 8
-0.13015163 1.8291398 -0.42335799 1 1
-0.13914548 1.960371 0.10299721 16 9
-0.13047865 1.8428087 -0.35910258 1 2
-0.13292995 1.8821045 0.16507289 21 10
-0.12678473 1.7950965 -0.28502357 2 3
-0.12639591 1.7940468 0.22082722 20 11
-0.12552699 1.7861477 -0.21985242 10 4
-0.12197696 1.7399877 0.27626336 25 12
-0.12327711 1.7629447 -0.15461434 16 5
-0.11407912 1.6314073 0.31788772 17 13
-0.12549442 1.7991536 -0.094518714 5 6
-0.10834223 1.5571765 0.36037159 8 14
-0.1441236 2.0766878 -0.036335796 11 7
-0.10459572 1.5109559 0.40582836 12 15
-0.13450184 1.9831415 0.034695342 16 8
-0.12166106 1.7984744 -0.41615939 1 1
-0.12792532 1.891077 0.099333681 17 9
-0.11855125 1.7570444 -0.34231144 2 2
-0.12187228 1.8109708 0.15879767 29 10
-0.12501532 1.8625405 -0.29566115 1 3
-0.11602262 1.7330766 0.21327133 22 11
-0.11849745 1.7746912 -0.21838978 11 4
-0.1123901 1.6832238 0.26719013 27 12
-0.11848893 1.7792478 -0.15600884 4 5
-0.10513125 1.5828218 0.30834743 16 13
-0.1383557 2.0885501 -0.10969614 6 6
-0.10046464 1.5205997 0.35182345 9 14
-0.13552193 2.0512154 -0.035882045 17 7
-0.096283078 1.4611748 0.39236975 14 15
-0.12354854 1.915728 0.03350858 17 8
-0.11469618 1.7833103 -0.41256019 1 1
-0.1163388 1.8137784 0.095251478 20 9
-0.11617658 1.8162251 -0.35375994 1 2
-0.11187127 1.7537229 0.15374263 38 10
-0.11732954 1.8392881 -0.29190671 2 3
-0.10573819 1.6621326 0.20449674 22 11
-0.1126112 1.7750744 -0.21838978 3 4
-0.10289645 1.6264343 0.25811693 17 12
-0.13084547 2.0739391 -0.18180697 4 5
-0.097038999 1.5380967 0.29957005 19 13
-0.1304252 2.0730507 -0.10885876 17 6
-0.091517165 1.4586872 0.3374266 11 14
-0.1247413 1.9937975 -0.034869801 18 7
-0.088535212 1.4190838 0.38098171 12 15
-0.11498842 1.8800424 -0.5046972 1 0
-0.11272223 1.848284 0.032321814 18 8
-0.1087075 1.7875898 -0.41345993 2 1
-0.10517091 1.7344297 0.091064602 16 9
-0.1127677 1.8597126 -0.36215556 1 2
-0.10220683 1.6904441 0.14816467 40 10
-0.10972016 1.8199685 -0.28877801 2 3
-0.097672045 1.6248426 0.1998657 13 11
-0.12601016 2.1024098 -0.25860688 4 4
-0.093447946 1.5636842 0.24810514 20 12
-0.12598728 2.1081717 -0.18477024 19 5
-0.089216746 1.4972707 0.29155609 21 13
-0.11809424 1.9877628 -0.10435789 16 6
-0.083659537 1.4123096 0.32662892 10 14
-0.11164963 1.8904173 -0.033054754 23 7
-0.081082441 1.3769571 0.36959368 12 15
-0.10620141 1.841859 -0.49434435 1 0
-0.10236829 1.7807885 0.031135054 18 8
-0.10090556 1.760721 -0.40716136 3 1
-0.096496016 1.688924 0.088657141 19 9
-0.10246824 1.793453 -0.34918055 1 2
-0.091661252 1.6092349 0.14101793 39 10
-0.12162039 2.1418092 -0.33977565 3 3
-0.088634185 1.5657164 0.19255355 18 11
-0.11811284 2.0929275 -0.25738797 18 4
-0.085436672 1.5186388 0.24090913 23 12
-0.11269571 2.0031691 -0.17553173 17 5
-0.080911219 1.4426883 0.2808708 22 13
-0.10725411 1.9183675 -0.10069436 17 6
-0.076559946 1.3736789 0.31763092 10 14
-0.10138901 1.8249073 -0.031902902 27 7
-0.073712498 1.3309381 0.35717034 14 15
-0.097681545 1.803638 -0.48399159 1 0
-0.092378326 1.7112473 0.029913386 19 8
-0.098319262 1.8272239 -0.42245799 1 1
-0.086855754 1.6194469 0.084993623 20 9
-0.10461833 1.9506346 -0.37970996 1 2
-0.083596766 1.5637856 0.13700876 31 10
-0.11214679 2.1047413 -0.33383113 16 3
-0.080746517 1.5204233 0.18694757 19 11
-0.10660868 2.0140343 -0.24763864 18 4
-0.077741779 1.4735572 0.23371316 22 12
-0.10106395 1.9219931 -0.16838495 18 5
-0.072988547 1.3880666 0.27018565 19 13
-0.097107135 1.8529109 -0.09724018 20 6
-0.069528438 1.3311238 0.30773306 10 14
-0.09210781 1.7693343 -0.030925568 36 7
-0.067063943 1.2926023 0.34681764 12 15
-0.093213469 1.8464308 -0.49537969 1 0
-0.08307761 1.6456534 0.028761528 16 8
-0.10369048 2.0611093 -0.47644621 1 1
-0.07890182 1.573861 0.082586169 11 9
-0.1053053 2.1078694 -0.41023937 9 2
-0.075685561 1.520303 0.1331739 34 10
-0.10188652 2.0538416 -0.32569653 18 3
-0.07288111 1.4691467 0.18061034 19 11
-0.096539855 1.9529313 -0.2400825 19 4
-0.070071109 1.4225222 0.22557858 21 12
-0.091521241 1.8646243 -0.16332991 18 5
-0.066174552 1.3530282 0.26331648 21 13
-0.086717717 1.7794433 -0.093367316 22 6
-0.063136563 1.3002264 0.30053461 10 14
-0.082633086 1.7017355 -0.02973881 38 7
-0.061431449 1.2696732 0.34060591 14 15
-0.087855153 1.8699017 -0.50159138 1 0
-0.074800991 1.5980067 0.027923817 13 8
-0.098767519 2.117928 -0.48949346 7 1
-0.07035242 1.5142863 0.079446018 13 9
-0.096306242 2.0729241 -0.40337035 16 2
-0.068074904 1.4708011 0.12881628 30 10
-0.090713687 1.9673606 -0.31193033 17 3
-0.064945802 1.4138802 0.17378569 19 11
-0.085025236 1.8580871 -0.22838305 19 4
-0.063147344 1.385276 0.21963403 23 12
-0.081746109 1.793281 -0.15705472 22 5
-0.059758719 1.3159877 0.25606561 22 13
-0.077257022 1.7079073 -0.089599133 22 6
-0.056843389 1.2615038 0.29153657 10 14
-0.073347084 1.6341057 -0.02855205 35 7
-0.055310234 1.2370811 0.33180603 13 15
-0.09173511 2.1095202 -0.56577843 2 0
-0.067232624 1.5523081 0.027121004 11 8
-0.089106843 2.0656927 -0.47734612 9 1
-0.063094057 1.468628 0.077038556 16 9
-0.085024476 1.9790982 -0.38505265 14 2
-0.061237346 1.4312186 0.12533006 28 10
-0.080566332 1.8906952 -0.29972842 18 3
-0.058158033 1.3704655 0.16842343 20 11
-0.075940765 1.7968898 -0.22082716 21 4
-0.05656673 1.3440418 0.21306379 20 12
-0.073139593 1.7378178 -0.15217398 21 5
-0.053931158 1.2867652 0.25034133 20 13
-0.069129698 1.6562831 -0.086877666 24 6
-0.050820738 1.2227533 0.28253853 11 14
-0.064995967 1.5704165 -0.027435102 24 7
-0.049639583 1.2044531 0.32300624 12 15
-0.08437039 2.1098275 -0.56577843 11 0
-0.059824392 1.5025804 0.026248384 12 8
-0.077187672 1.947211 -0.44990206 4 1
-0.056392301 1.4289252 0.074945115 16 9
-0.07463216 1.8911052 -0.36787981 17 2
-0.054128744 1.3776705 0.12062348 26 10
-0.071495786 1.8278013 -0.28971663 21 3
-0.052524485 1.3488406 0.16574229 16 11
-0.06736064 1.7376357 -0.21351519 23 4
-0.049818367 1.2909355 0.20461632 18 12
-0.064230643 1.6643987 -0.14572445 19 5
-0.048007518 1.2496713 0.2430906 18 13
-0.061057668 1.5966403 -0.083737515 20 6
-0.045662951 1.1995554 0.27713972 12 14
-0.057545453 1.5186788 -0.026527576 26 7
-0.044269647 1.1737313 0.31472403 14 15
-0.073482975 2.013581 -0.53989661 3 0
-0.052837469 1.4548193 0.025410675 13 8
-0.067855611 1.8773597 -0.43370554 7 1
-0.049608883 1.3792142 0.072328322 15 9
-0.066054046 1.8364187 -0.35719454 25 2
-0.047823042 1.3360378 0.11696294 24 10
-0.062934779 1.7668418 -0.28001767 22 3
-0.046549771 1.3133066 0.161355 18 11
-0.059405871 1.6842959 -0.20693424 23 4
-0.044549994 1.2693858 0.20117478 22 12
-0.056743618 1.616825 -0.14154099 18 5
-0.042274408 1.2105901 0.23545824 20 13
-0.053681072 1.5449463 -0.081016049 16 6
-0.040263738 1.1646509 0.26904148 13 14
-0.050731201 1.4749029 -0.025759671 28 7
-0.039048746 1.1410565 0.30592418 16 15
-0.063013658 1.909562 -0.51194412 2 0
-0.046052825 1.4030305 0.024503147 13 8
-0.060347624 1.8483695 -0.42695722 20 1
-0.043757945 1.3474396 0.070653573 15 9
-0.057732917 1.7777714 -0.34574598 33 2
-0.042258274 1.3083177 0.11452258 16 10
-0.054610007 1.6999226 -0.26938012 25 3
-0.040444665 1.265843 0.15550527 18 11
-0.051571362 1.6229864 -0.19937836 21 4
-0.039244909 1.2418921 0.19679461 16 12
-0.049399957 1.5632454 -0.13683456 13 5
-0.036815874 1.1714846 0.22782589 20 13
-0.046415854 1.4852356 -0.077875882 17 6
-0.035410885 1.1394629 0.26319274 11 14
-0.044657044 1.4450899 -0.0252361 26 7
-0.033938393 1.1044979 0.29608902 16 15
-0.054182142 1.8363918 -0.49227384 2 0
-0.039982188 1.3632063 0.023805054 11 8
-0.051737543 1.7745484 -0.40986076 27 1
-0.037549581 1.2956773 0.067932099 13 9
-0.049763463 1.7171267 -0.33391583 35 2
-0.036486052 1.2666343 0.11086204 17 10
-0.04714977 1.6467897 -0.26093271 22 3
-0.034896135 1.2262907 0.15063049 14 11
-0.04394117 1.553706 -0.19084732 15 4
-0.033910908 1.206479 0.19116299 17 12
-0.042375844 1.5076436 -0.13195385 13 5
-0.032068282 1.1480563 0.2232465 20 13
-0.039789878 1.4334798 -0.075154409 18 6
-0.030519988 1.1064637 0.25554439 12 14
-0.038078006 1.3892667 -0.02425877 24 7
-0.029398777 1.0795047 0.28935969 16 15
-0.046365462 1.7824962 -0.47777998 3 0
-0.034501322 1.335351 0.023316385 11 8
-0.044342622 1.7279638 -0.39906311 27 1
-0.032212038 1.2638545 0.066257343 12 9
-0.042268164 1.6584113 -0.32246724 38 2
-0.031561151 1.2468365 0.10911892 18 10
-0.039911438 1.5877016 -0.25154662 16 3
-0.029772885 1.192669 0.14648695 14 11
-0.037141107 1.4982846 -0.18402265 14 4
-0.028921265 1.1749934 0.18615705 15 12
-0.036181036 1.4699383 -0.12864192 13 5
-0.027388785 1.1206837 0.21790382 17 13
-0.033866301 1.3956733 -0.073165648 15 6
-0.025577798 1.0617554 0.24519664 13 14
-0.032319564 1.3514076 -0.023595579 24 7
-0.025264356 1.0641506 0.28521866 16 15
-0.038489953 1.7092555 -0.45810974 4 0
-0.028990785 1.2974787 0.022653196 13 8
-0.037016045 1.6696602 -0.38556603 22 1
-0.027185572 1.2360042 0.064791933 14 9
-0.035141032 1.5977027 -0.31063712 31 2
-0.026208688 1.2011249 0.10510977 18 10
-0.03355794 1.5503076 -0.24560209 16 3
-0.025055805 1.1669654 0.14331833 14 11
-0.031234246 1.4666508 -0.18012282 13 4
-0.024068449 1.1395383 0.18052541 15 12
-0.029955503 1.4182652 -0.12410983 16 5
-0.022860207 1.0913302 0.21217956 17 13
-0.028081372 1.3518528 -0.070862859 16 6
-0.021710623 1.054045 0.24339706 14 14
-0.026704062 1.3075283 -0.022827677 21 7
-0.020806259 1.0275345 0.2753835 18 15
-0.031163136 1.6379138 -0.43895712 4 0
-0.023821076 1.2635829 0.022059813 13 8
-0.030059049 1.6093787 -0.37161908 18 1
-0.022353349 1.2081348 0.063326523 13 9
-0.028364854 1.5330395 -0.29804373 24 2
-0.021541433 1.1753125 0.10284372 19 10
-0.027070111 1.491164 -0.23621605 19 3
-0.020553673 1.1432284 0.14039347 14 11
-0.025337363 1.4230858 -0.17476074 15 4
-0.019603869 1.1119643 0.17614524 15 12
-0.018502112 1.0599959 0.20607376 17 13
-0.022775983 1.3179942 -0.069083437 15 6
-0.017798595 1.0404751 0.24024773 15 14
-0.021699343 1.2816211 -0.022373917 18 7
-0.017057262 1.017943 0.27279535 30 15
-0.024906544 1.6032435 -0.42963964 7 0
-0.018795632 1.2236693 0.02136172 15 8
-0.023523394 1.5490701 -0.35767215 19 1
-0.017657215 1.176253 0.061651777 13 9
-0.022454534 1.4958311 -0.29079294 30 2
-0.017083703 1.1514745 0.10075198 19 10
-0.021140428 1.4418702 -0.22839431 17 3
-0.015844289 1.0936712 0.13430001 13 11
-0.019687511 1.3755281 -0.16891083 15 4
-0.015526496 1.0981997 0.17395517 16 12
-0.014473212 1.0364975 0.20149426 18 13
-0.01767916 1.2821184 -0.067199357 15 6
-0.014007102 1.0288396 0.23754832 20 14
-0.016768945 1.2476975 -0.021780537 19 7
-0.013401589 1.0102696 0.27072477 70 15
-0.019100221 1.5859352 -0.42498088 22 0
-0.014096616 1.1877353 0.020733431 11 8
-0.017592194 1.5043247 -0.34732437 20 1
-0.01311378 1.1383622 0.059663016 13 9
-0.016644586 1.4448594 -0.28087088 32 2
-0.012657061 1.1156664 0.097614378 20 10
-0.015688296 1.4044051 -0.22244978 16 3
-0.011852178 1.07784 0.13235009 15 11
-0.014520377 1.3418438 -0.16476744 15 4
-0.011567013 1.0863955 0.17207792 16 12
-0.010670257 1.0188732 0.19805969 22 13
-0.012791963 1.2422292 -0.065105908 15 6
-0.010159459 1.0035497 0.2316996 43 14
-0.012234782 1.2297521 -0.021466395 19 7
-0.0099502644 1.0180374 0.27279538 81 15
-0.013382749 1.5647426 -0.41928685 22 0
-0.012020907 1.4654036 -0.33832633 23 1
-0.0089794239 1.1184289 0.058616292 13 9
-0.01123808 1.3997551 -0.27209368 35 2
-0.0085437456 1.0878112 0.095174022 21 10
-0.010512486 1.3688956 -0.21681815 17 3
-0.0079553789 1.0600097 0.13015646 15 11
-0.0095019834 1.2962306 -0.1591613 15 4
-0.0075199911 1.0508736 0.16644631 16 12
-0.0070448588 1.0090882 0.1961517 51 13
-0.0082656313 1.2143054 -0.063640505 16 6
-0.0066302386 0.99968171 0.23079978 59 14
-0.007605996 1.1777962 -0.020558873 20 7
-0.0063968035 1.0180659 0.27279535 77 15
-0.0075291554 1.4875067 -0.39858136 16 0
-0.0066947103 1.4206159 -0.32797858 20 1
-0.0050542764 1.0725162 0.056208838 12 9
-0.0061651561 1.3585579 -0.26407969 32 2
-0.0045989607 1.0539641 0.092210725 16 10
-0.0056268028 1.3432446 -0.21275087 19 3
-0.0041916762 1.0441502 0.12820654 14 11
-0.0048098131 1.2525839 -0.15379919 14 4
-0.0039822403 1.0370653 0.16425623 33 12
-0.0034746798 0.99536395 0.19348027 74 13
-0.0039277668 1.1843683 -0.062070429 11 6
-0.0031526352 1.0035962 0.2316996 72 14
-0.0036245345 1.1538186 -0.020140015 21 7
-0.0030094786 1.0142175 0.27176002 77 15
-0.0022635246 1.4411595 -0.38615802 17 0
-0.0019350378 1.3855531 -0.31988037 21 1
-0.0013004208 1.0645384 0.055790152 12 9
-0.0013752249 1.3134165 -0.25530249 24 2
-0.0008975215 1.0280728 0.089944683 22 10
-0.0011278428 1.2918961 -0.20461629 19 3
-0.00072052371 1.0322479 0.12674412 16 11
-0.00064636965 1.2347275 -0.15160541 14 4
-0.00036447198 1.0429989 0.16519484 100 12
-0.0001743242 0.99929661 0.19424352 78 13
-5.0897633e-08 1.1644021 -0.061023712 14 6
0.00017395029 0.99970371 0.23079978 69 14
0.00039221751 1.1238288 -0.019616446 21 7
0.00052894646 1.0103585 0.27072477 73 15
0.0024409138 1.3986585 -0.37476999 18 0
0.0027833087 1.3290379 -0.30683318 23 1
0.0023517308 1.036575 0.054324746 14 9
0.0029219061 1.2878916 -0.25034148 20 2
0.002536197 1.0380318 0.09081623 22 10
0.0032733195 1.2504094 -0.19804603 18 3
0.0028934432 1.036214 0.12723157 80 11
0.0035807781 1.2069309 -0.14819306 14 4
0.003239197 1.0311415 0.16331762 87 12
0.003287504 0.99143821 0.19271708 81 13
0.0038829739 1.1124666 -0.058302242 12 6
0.0036924006 1.0074919 0.23259939 71 14
0.0041925507 1.0918257 -0.01905797 22 7
0.0040865568 1.0180777 0.27279535 73 15
0.0071306606 1.3619368 -0.36493486 19 0
0.0072051752 1.290046 -0.29783514 24 1
0.0058778003 1.0205827 0.053487375 14 9
0.0072136777 1.2525357 -0.24347234 21 2
0.0059943418 1.0101238 0.088375881 56 10
0.0074332375 1.2168095 -0.19272725 16 3
0.0062857768 1.0004666 0.12284427 68 11
0.0075248508 1.165225 -0.14307456 12 4
0.0068519101 1.0330994 0.1636305 74 12
0.006868301 1.0090894 0.1961517 76 13
0.0076131024 1.090477 -0.057150852 12 6
0.0071955053 1.0055243 0.23214951 75 14
0.0079150125 1.0798064 -0.01884854 22 7
0.0076550548 1.0199889 0.27331293 70 15
0.011615294 1.3309951 -0.35665265 19 0
0.011495731 1.266629 -0.2924363 21 1
0.0093666343 1.012567 0.053068679 35 9
0.01127741 1.2191288 -0.23698483 22 2
0.0096515231 1.0240428 0.089596055 82 10
0.011490778 1.1970233 -0.18959858 16 3
0.0097976886 1.0024239 0.12308803 71 11
0.011276529 1.1334318 -0.13917473 12 4
0.010297872 1.017267 0.16112754 74 12
0.010451556 1.0149488 0.19729647 78 13
0.011127006 1.0624837 -0.055685446 12 6
0.010642945 0.99964714 0.23079981 73 14
0.011489739 1.0617762 -0.018534398 23 7
0.01125819 1.0238196 0.27434823 80 15
0.015670963 1.2826538 -0.3437117 17 0
0.015354129 1.2217637 -0.28208858 15 1
0.012849995 1.0085342 0.052859347 57 9
0.014982368 1.1758939 -0.22858922 23 2
0.012917051 1.0000961 0.087504312 73 10
0.015333276 1.1712983 -0.18553129 15 3
0.013375519 1.0083382 0.12381924 68 11
0.01485863 1.1055965 -0.13576239 13 4
0.01390279 1.0211753 0.16175328 77 12
0.013994593 1.014906 0.19729646 78 13
0.014751311 1.0564471 -0.05537143 12 6
0.014077469 0.99570686 0.22990002 73 14
0.014910061 1.0417347 -0.018185351 28 7
0.014719281 1.0160475 0.27227768 84 15
0.01945059 1.2381641 -0.331806 18 0
0.015974639 1.00572 0.017557098 58 8
0.019273773 1.2002693 -0.27713981 19 1
0.016065869 1.0004979 0.052440651 61 9
0.018864172 1.1620936 -0.22591791 23 2
0.016408224 1.0000449 0.087504312 67 10
0.018765964 1.1317354 -0.1792739 20 3
0.016828945 1.0043156 0.12333176 68 11
0.018281216 1.0797354 -0.13259391 13 4
0.017221967 1.0171734 0.16112755 77 12
0.017367376 1.0050364 0.19538836 83 13
0.018369479 1.0523953 -0.055162087 15 6
0.017758457 1.0073422 0.23259941 71 14
0.017976074 1.0196865 -0.017801402 76 7
0.018054428 1.0140615 0.27176005 73 15
0.023327759 1.2149109 -0.3255944 16 0
0.019425085 1.0116595 0.017661814 52 8
0.022574732 1.1651282 -0.26904145 16 1
0.019753618 1.01042 0.052964002 59 9
0.022262625 1.1286516 -0.21943037 24 2
0.02005728 1.0079496 0.08820156 61 10
0.021929635 1.1020421 -0.17458086 18 3
0.019999724 0.99631572 0.12235681 68 11
0.021580637 1.0657762 -0.13088776 11 4
0.020973915 1.0269817 0.16269188 70 12
0.020780757 1.0088987 0.1961517 83 13
0.02119587 1.0203794 -0.053487334 29 6
0.021099107 1.0072778 0.23259941 71 14
0.021620058 1.0236158 -0.017871208 70 7
0.021635458 1.0159239 0.27227771 70 15
0.026747297 1.1877879 -0.31834748 16 0
0.022910258 1.0095865 0.01762691 63 8
0.026018236 1.1377671 -0.26274282 17 1
0.023004737 0.99836463 0.052335981 59 9
0.025371863 1.1010936 -0.21408777 25 2
0.023306962 1.003894 0.08785294 61 10
0.025222307 1.078261 -0.17082645 16 3
0.023477659 0.99623978 0.12235681 71 11
0.024828892 1.0458491 -0.12845038 15 4
0.024606127 1.0288773 0.16300477 77 12
0.024113486 1.0009693 0.19462523 83 13
0.024514589 1.0103158 -0.052963976 48 6
0.024472464 1.0013535 0.2312497 77 14
0.025144076 1.021535 -0.017836304 88 7
0.025324482 1.0216359 0.27383062 77 15
0.03019006 1.1529204 -0.30902997 17 0
0.026643885 1.0174963 0.017766528 58 8
0.029373163 1.1142924 -0.25734395 17 1
0.026489332 0.99827838 0.052335985 61 9
0.02851603 1.0676297 -0.20760024 26 2
0.027094087 1.007785 0.08820156 56 10
0.028746461 1.0623639 -0.16832347 16 3
0.027223302 1.0060735 0.12357549 71 11
0.028101422 1.0318655 -0.12674408 26 4
0.027764725 1.012988 0.16050181 74 12
0.027945261 1.0067617 0.19576998 81 13
0.02844123 1.0182053 -0.053382672 55 6
0.028087474 0.99930918 0.23079981 71 14
0.028709533 1.0214411 -0.017836306 88 7
0.028999992 1.025403 0.27486584 73 15
0.033182494 1.1180497 -0.29971245 18 0
0.030492133 1.0213895 0.01783634 57 8
0.032872416 1.0946987 -0.25284493 18 1
0.030213866 1.006165 0.052754663 59 9
0.031412587 1.0400506 -0.20225757 26 2
0.030369073 0.99971849 0.087504327 67 10
0.031911988 1.0444871 -0.16550767 25 3
0.030910339 1.005967 0.12357549 71 11
0.032680061 1.0575495 -0.12991267 67 4
0.031482887 1.0188081 0.1614404 81 12
0.031500645 1.0136369 -0.088724583 50 5
0.031704918 1.0145073 0.19729647 87 13
0.031932302 1.0161034 -0.053277995 55 6
0.031822015 1.006996 0.23259941 71 14
0.032148927 1.0173373 -0.017766496 88 7
0.032395352 1.0195032 0.27331296 80 15
0.036444809 1.0986193 -0.29453611 15 0
0.033481497 1.0092912 0.01762691 58 8
0.035917744 1.0770547 -0.24879582 14 1
0.033725649 1.0060536 0.05275467 61 9
0.034977008 1.0379726 -0.20187598 26 2
0.033858936 0.99960625 0.087504312 67 10
0.035709608 1.0542467 -0.167072 91 3
0.034449119 1.0118108 0.12430671 68 11
0.034897164 1.0197408 -0.12528166 54 4
0.035242986 1.0246147 0.16237901 74 12
0.03503849 1.0135208 -0.088724583 60 5
0.034661777 1.002624 0.19500674 78 13
0.035578858 1.0239761 -0.053696677 50 6
0.035432998 1.0146753 0.23439901 71 14
0.035980228 1.0252125 -0.017906113 88 7
0.035681419 1.0116613 0.27124241 84 15
0.038889844 1.0656729 -0.28573623 15 0
0.036931369 1.0071697 0.017592005 64 8
0.03845707 1.0438166 -0.24114747 18 1
0.037384778 1.0099217 0.052964017 61 9
0.038055524 1.0280412 -0.19996788 54 2
0.037469931 1.0074526 0.08820156 67 10
0.038061444 1.0185835 -0.16144034 68 3
0.037533626 0.9997822 0.12284428 71 11
0.038606413 1.02358 -0.12576924 57 4
0.038893923 1.0264593 0.16269188 77 12
0.03824817 1.0094171 -0.088375956 56 5
0.038012289 0.99857342 0.19424352 85 13
0.038924295 1.0178583 -0.053382665 52 6
0.039049249 1.0164926 0.2348489 75 14
0.039404593 1.0210843 -0.017836304 88 7
0.039661828 1.023113 0.27434823 84 15
0.041992374 1.0500879 -0.28159511 15 0
0.040366359 1.0050366 0.017557101 54 8
0.041315254 1.0242044 -0.23664846 56 1
0.040586699 1.0018023 0.05254532 63 9
0.041326206 1.0200555 -0.1984414 81 2
0.040986154 1.0073156 0.08820156 61 10
0.04202028 1.0283133 -0.16300473 74 3
0.040942281 0.99766171 0.12260055 71 11
0.042015556 1.019472 -0.12528175 59 4
0.042722158 1.0322385 0.1636305 77 12
0.041771844 1.0092773 -0.088375941 56 5
0.042149853 1.0141269 0.19729646 81 13
0.041893817 1.0037476 -0.052649964 52 6
0.041863058 0.9988268 0.23079978 71 14
0.043136563 1.0249364 -0.017906113 88 7
0.04339572 1.0268285 0.2753835 80 15
0.045321546 1.0422148 -0.27952453 21 0
0.044310253 1.0148784 0.017731622 60 8
0.044719245 1.0201603 -0.23574869 89 1
0.043907553 0.99766392 0.052335981 61 9
0.044800077 1.0179437 -0.19805978 81 2
0.044414535 1.0051761 0.088027254 56 10
0.04560978 1.0281603 -0.16300473 70 3
0.04468926 1.003462 0.12333176 71 11
0.045574073 1.0193192 -0.12528175 49 4
0.045882471 1.022216 0.16206615 81 12
0.045562923 1.0150967 -0.08889889 56 5
0.045689344 1.0139736 0.19729646 81 13
0.045487937 1.0055904 -0.052754633 52 6
0.045614954 1.0045149 0.23214951 75 14
0.046349671 1.0167893 -0.017766496 82 7
0.046803538 1.0228112 0.27434823 84 15
0.048234358 1.0266126 -0.27538347 65 0
0.048134949 1.0207101 0.017836338 57 8
0.048464544 1.0238911 -0.23664846 71 1
0.047958732 1.0094746 0.052964009 61 9
0.047794357 1.0060147 -0.19577007 89 2
0.048206851 1.0109851 0.08855018 73 10
0.049575951 1.0358872 -0.16425619 70 3
0.048382353 1.0072654 0.12381922 68 11
0.049322359 1.0231196 -0.12576924 59 4
0.049545527 1.0240228 0.16237904 87 12
0.04843165 1.0010009 -0.087678708 56 5
0.049323983 1.0157689 0.19767818 83 13
0.049580794 1.0173949 -0.053382665 52 6
0.049025673 1.002403 0.2316996 73 14
0.049898792 1.0166214 -0.017766496 82 7
0.049802929 1.0110645 0.27124241 84 15
0.051135458 1.0129321 -0.27175999 68 0
0.051495541 1.0165417 0.017766528 58 8
0.052434299 1.0315006 -0.2384481 71 1
0.051103499 1.0053207 0.05275467 63 9
0.051405519 1.0078026 -0.1961517 82 2
0.05092109 0.99489254 0.087155692 61 10
0.052685376 1.0258439 -0.16269183 72 3
0.052204352 1.013038 0.12455046 71 11
0.052996188 1.0249236 -0.12601285 59 4
0.053348847 1.0317439 0.1636305 84 12
0.052441936 1.0107745 -0.08855027 58 5
0.052358847 1.0057875 0.19576998 85 13
0.054069269 1.0351665 -0.054324713 53 6
0.052830543 1.0080642 0.23304933 75 14
0.052956183 1.0104592 -0.017661782 78 7
0.053155381 1.0108937 0.27124238 70 15
0.054879487 1.0166056 -0.27279529 74 0
0.054111954 1.0023876 0.017522193 63 8
0.055011295 1.0157539 -0.23484886 65 1
0.05461172 1.0051363 0.05275467 59 9
0.055564493 1.0193791 -0.1984414 81 2
0.054829028 1.0026665 0.08785294 67 10
0.056302421 1.0296084 -0.16331756 72 3
0.054910924 1.0009665 0.12308802 71 11
0.056394953 1.0247421 -0.12601285 57 4
0.056950256 1.0315514 0.1636305 74 12
0.055969182 1.0105853 -0.08855027 56 5
0.055910684 1.009529 0.19653322 87 13
0.056172576 1.0110511 -0.053068642 55 6
0.056498233 1.0137205 0.23439901 69 14
0.056593835 1.0122648 -0.017696686 90 7
0.057116587 1.0184174 0.27331296 84 15
0.058581762 1.0222042 -0.2743482 78 0
0.058184694 1.0121747 0.017696718 58 8
0.058668565 1.0175011 -0.23529877 85 1
0.057658967 0.9969638 0.052335985 63 9
0.05905772 1.0211493 -0.19882303 87 2
0.058153968 1.0024792 0.087852955 73 10
0.060125355 1.0333498 -0.16394332 72 3
0.058173466 0.99680555 0.12260056 73 11
0.059739903 1.0205758 -0.12552539 61 4
0.060318932 1.0274023 0.16300477 87 12
0.059086837 1.0064162 -0.088201657 56 5
0.059434645 1.0093277 0.19653322 87 13
0.05946612 1.0068616 -0.05285931 52 6
0.059344824 1.0018452 0.23169962 73 14
0.060957499 1.0260342 -0.017941017 76 7
0.060556669 1.0162834 0.27279535 73 15
0.061914816 1.0181367 -0.2733129 71 0
0.062081989 1.0179535 0.017801436 60 8
0.062458161 1.0211804 -0.23619856 69 1
0.061138451 0.99675637 0.052335981 61 9
0.061780367 1.0072198 -0.19615167 82 2
0.062630825 1.0181789 0.089247428 60 10
0.063853823 1.0351051 -0.16425616 70 3
0.062388297 1.0084841 0.12406299 73 11
0.062932558 1.0144171 -0.12479416 52 4
0.063782483 1.0252138 0.16269191 77 12
0.06371323 1.0241007 -0.089770459 60 5
0.063446634 1.0169518 0.19805969 85 13
0.063977353 1.0225946 -0.053696677 56 6
0.062719807 0.99968708 0.23124972 75 14
0.063534431 1.0098493 -0.017661782 78 7
0.064711273 1.0257058 0.2753835 80 15
0.065468796 1.0179145 -0.27331293 78 0
0.065377809 1.0137395 0.017731624 64 8
0.066147536 1.0229008 -0.23664846 67 1
0.064876139 1.000523 0.05254532 59 9
0.065550067 1.0109164 -0.19691493 81 2
0.064892143 0.99807221 0.087504312 61 10
0.067594424 1.0368472 -0.16456905 72 3
0.065778472 1.0062791 0.12381922 76 11
0.06751208 1.030038 -0.12674409 57 4
0.067101464 1.0210428 0.16206618 81 12
0.066242151 1.0079671 -0.088375956 56 5
0.067512207 1.0245602 0.19958617 85 13
0.067546874 1.022365 -0.053696677 53 6
0.066724487 1.0072398 0.23304932 75 14
0.066793703 1.005631 -0.017591976 78 7
0.067778066 1.0177634 0.27331296 80 15
0.069152474 1.0196074 -0.27383059 81 0
0.068373285 1.0055248 0.017592007 64 8
0.070115633 1.0284965 -0.2379982 71 1
0.068913385 1.0082608 0.052964009 64 9
0.069346443 1.0145986 -0.19767815 81 2
0.068647891 1.0018153 0.087852955 73 10
0.070672132 1.0287219 -0.16331756 72 3
0.069700122 1.0119848 0.12455046 71 11
0.071107075 1.0297961 -0.12674409 59 4
0.071074329 1.0267143 0.16300477 87 12
0.070035189 1.0117052 -0.088724583 60 5
0.07000117 1.0086499 0.19653322 92 13
0.070976339 1.0201304 -0.053592 50 6
0.070646226 1.0128329 0.23439902 73 14
0.071001448 1.0153657 -0.017766496 82 7
0.071330085 1.0175204 0.27331293 80 15
0.07298544 1.0232134 -0.27486581 74 0
0.0727387 1.0172477 0.017801436 64 8
0.073148265 1.0204703 -0.23619866 69 1
0.073004819 1.0159827 0.053382698 61 9
0.073168837 1.0182669 -0.1984414 81 2
0.072287872 1.0035568 0.088027261 73 10
0.074547425 1.0324095 -0.16394332 72 3
0.072658829 1.0038155 0.12357549 73 11
0.074414268 1.0255818 -0.1262566 59 4
0.074801229 1.02843 0.16331762 77 12
0.074289314 1.0213902 -0.089596137 56 5
0.073521264 1.0083995 0.19653322 87 13
0.074245945 1.0158927 -0.053382665 52 6
0.074608542 1.0184108 0.23574872 77 14
0.075277232 1.0250833 -0.01794102 76 7
0.07488174 1.0172654 0.27331296 80 15
0.076124422 1.0171731 -0.2733129 78 0
0.075990319 1.0129991 0.017731622 63 8
0.076417498 1.0163224 -0.2352988 73 1
0.075349703 0.99978888 0.052545328 63 9
0.076427616 1.0140898 -0.19767815 81 2
0.076240994 1.0092584 0.088550188 61 10
0.07829956 1.0341128 -0.16425619 74 3
0.075861707 0.99959701 0.12308802 73 11
0.077241182 1.0154189 -0.12503789 64 4
0.078991137 1.0360413 0.16456909 77 12
0.076642111 1.0052316 -0.088201642 55 5
0.07704068 1.0081365 0.19653332 87 13
0.077639379 1.0136361 -0.053277999 61 6
0.077267908 1.0064858 0.23304932 69 14
0.078394637 1.0188328 -0.017836304 82 7
0.07932362 1.0285544 0.27641875 84 15
0.080579735 1.0284568 -0.27641872 78 0
0.080151737 1.020702 0.017871242 64 8
0.080270603 1.0199348 -0.23619856 73 1
0.078978382 1.0035156 0.05275467 61 9
0.080275528 1.0177312 -0.19844139 94 2
0.079763398 1.008986 0.08855018 78 10
0.082065091 1.0358024 -0.16456905 74 3
0.079979286 1.0072416 0.12406298 73 11
0.08078485 1.015143 -0.12503789 59 4
0.082426757 1.0357736 0.16456909 81 12
0.081259631 1.0188605 -0.089421816 56 5
0.081028707 1.0137327 0.19767809 83 13
0.081814855 1.0213223 -0.053696677 56 6
0.080468982 1.0023251 0.23214951 71 14
0.082413048 1.0265404 -0.017975925 88 7
0.083043784 1.0321372 0.27745405 84 15
0.08353892 1.0204679 -0.27434823 78 0
0.083862185 1.0244167 0.017941052 64 8
0.083970971 1.0235475 -0.23709838 67 1
0.083135329 1.0111958 0.053173345 63 9
0.083021708 1.0076618 -0.19653331 89 2
0.082956828 1.0047302 0.08820156 78 10
0.084849209 1.0276498 -0.16331756 72 3
0.084137119 1.0168626 0.12528168 76 11
0.084150538 1.0148696 -0.12503789 59 4
0.084732823 1.0197309 0.16206615 77 12
0.083658203 1.0046721 -0.088201642 58 5
0.08455275 1.0154148 0.19805969 87 13
0.085865363 1.0290067 -0.054115362 53 6
0.084929019 1.0156466 0.23529884 75 14
0.084994212 1.0142901 -0.017766494 82 7
0.085514337 1.0183656 0.27383062 77 15
0.086922839 1.0201851 -0.2743482 78 0
0.086417153 1.012163 0.017731624 64 8
0.088041328 1.0290731 -0.2384481 67 1
0.086323634 1.0069197 0.052964009 61 9
0.087033957 1.0152053 -0.19805978 87 2
0.085947298 1.0004797 0.087852955 78 10
0.088435531 1.0273473 -0.16331756 74 3
0.087345317 1.0126072 0.12479419 78 11
0.088376634 1.0224807 -0.12601286 61 4
0.08897341 1.0273011 0.16331764 81 12
0.08681725 1.0024042 -0.088027336 56 5
0.087927207 1.0131575 0.19767818 83 13
0.088764764 1.0207417 -0.053696677 53 6
0.088304251 1.0134025 0.2348489 73 14
0.088360205 1.0119952 -0.017731592 84 7
0.088731989 1.014212 0.27279538 73 15
0.090824544 1.0237242 -0.2753835 84 0
0.090303659 1.015839 0.017801436 63 8
0.09094175 1.0209953 -0.23664846 67 1
0.090547882 1.0145696 0.053382698 63 9
0.091449551 1.0246726 -0.19996788 81 2
0.089793786 1.0041423 0.08820156 73 10
0.092197791 1.029 -0.16363046 70 3
0.090169109 1.0043875 0.12381924 78 11
0.092656478 1.0300742 -0.12698793 59 4
0.093091153 1.0328863 0.16425622 74 12
0.09138909 1.0140011 -0.089073204 60 5
0.091109909 1.0089339 0.19691484 83 13
0.092147082 1.0184364 -0.053592 50 6
0.093073018 1.0266736 0.23799825 75 14
0.092616022 1.0196465 -0.017871208 76 7
0.093322009 1.0254393 0.27590117 77 15
0.094397239 1.0234009 -0.2753835 78 0
0.094033323 1.0175086 0.01783634 58 8
0.095223956 1.0284333 -0.2384481 67 1
0.093350545 1.0062925 0.052964002 64 9
0.094481394 1.0184827 -0.19882303 87 2
0.093667507 1.0077904 0.088550188 67 10
0.095972538 1.0306387 -0.16394332 72 3
0.093674436 1.0040667 0.12381924 71 11
0.095512725 1.0218387 -0.12601285 61 4
0.096696317 1.0325551 0.16425623 87 12
0.0956714 1.0216106 -0.089770451 60 5
0.09518104 1.0144738 0.19805969 85 13
0.09476722 1.0081662 -0.053068645 52 6
0.094829328 1.0069408 0.23349923 75 14
0.096925341 1.0272806 -0.018010829 82 7
0.096537657 1.0212605 0.27486584 77 15
0.098705873 1.0307572 -0.27745402 75 0
0.097774789 1.0191648 0.017871242 70 8
0.098067299 1.0203356 -0.23664846 67 1
0.097245842 1.0099366 0.053173352 61 9
0.098789044 1.0259634 -0.20034949 87 2
0.097184099 1.0074574 0.088550188 73 10
0.10070944 1.0420947 -0.16582052 76 3
0.098326772 1.0155888 0.12528168 78 11
0.099079423 1.021499 -0.12601285 57 4
0.10010864 1.0302453 0.16394338 81 12
0.10000734 1.0292028 -0.090467699 60 5
0.099102445 1.0180433 0.19882292 81 13
0.099836946 1.0237319 -0.053906024 50 6
0.09872251 1.0104827 0.23439901 77 14
0.099147275 1.0130048 -0.017766496 88 7
0.10085617 1.0286081 0.27693641 77 15
0.10115801 1.018872 -0.2743482 78 0
0.10192587 1.0247868 0.017975956 58 8
0.10259478 1.0296825 -0.23889796 67 1
0.099802583 1.0016589 0.05275467 61 9
0.10100446 1.0119375 -0.19767815 81 2
0.10169157 1.0170243 0.089421846 82 10
0.1041498 1.0397712 -0.16550766 74 3
0.1016727 1.0132642 0.12503792 71 11
0.10365463 1.033016 -0.12747529 64 4
0.10293159 1.0240111 0.16300476 84 12
0.10180307 1.0110062 -0.08889889 55 5
0.10265514 1.0176911 0.19882292 87 13
0.10340913 1.0233772 -0.053906024 53 6
0.10226844 1.0120887 0.2348489 73 14
0.10290902 1.0166494 -0.017836306 88 7
0.10407149 1.0263457 0.27641875 84 15
0.10414148 1.0146875 -0.27331293 78 0
0.1038922 1.0105188 0.017731622 60 8
0.10620809 1.0312753 -0.23934789 67 1
0.10394177 1.0092695 0.053173352 61 9
0.10476235 1.0155029 -0.1984414 81 2
0.10465416 1.012718 0.089073114 71 10
0.10698684 1.0335255 -0.16456905 72 3
0.10585103 1.0208197 0.12601291 71 11
0.10707946 1.0326666 -0.12747529 57 4
0.10775575 1.0374178 0.16519484 77 12
0.10494875 1.0086814 -0.088724591 56 5
0.10602928 1.0173452 0.19882292 85 13
0.1068026 1.0230286 -0.053906024 53 6
0.10582684 1.0136821 0.23529884 77 14
0.10627959 1.0163026 -0.017836306 88 7
0.10707133 1.0221525 0.2753835 80 15
0.10852394 1.023942 -0.27590114 81 0
0.108087 1.0181229 0.017871244 72 8
0.10818527 1.0173527 -0.23619856 69 1
0.10788702 1.0128726 0.053382698 64 9
0.10875353 1.0210065 -0.19958627 87 2
0.10843442 1.0163276 0.089421734 71 10
0.1099939 1.0292368 -0.16394334 74 3
0.10860213 1.0145413 0.12528166 76 11
0.11026049 1.0283388 -0.12698793 57 4
0.11095464 1.0331072 0.16456911 77 12
0.10893174 1.0142707 -0.08924751 58 5
0.10877254 1.011132 0.19767818 83 13
0.1093383 1.0147259 -0.053487342 58 6
0.11041031 1.022994 0.23754835 73 14
0.11047117 1.0218896 -0.017941017 76 7
0.11105472 1.0256137 0.27641875 70 15
0.11251841 1.0273978 -0.27693638 74 0
0.1116399 1.0177393 0.017871242 64 8
0.11258633 1.0247172 -0.2379982 67 1
0.11054844 1.0045487 0.052964009 63 9
0.11274662 1.0245235 -0.20034949 87 2
0.11176351 1.0139625 0.089247428 60 10
0.11445228 1.0367004 -0.16519479 72 3
0.11236133 1.0161293 0.12552541 71 11
0.11363114 1.0259746 -0.12674408 59 4
0.11499506 1.0366404 0.16519485 81 12
0.11378887 1.0257658 -0.090293385 56 5
0.11251859 1.0126975 0.19805969 85 13
0.11310097 1.016323 -0.053592004 50 6
0.11182114 1.003235 0.23304933 68 14
0.11536901 1.0334219 -0.018150447 76 7
0.11527841 1.0309795 0.27797171 73 15
0.1163208 1.0289183 -0.27745402 75 0
0.11609213 1.0252914 0.01801086 63 8
0.11682174 1.030127 -0.23934792 71 1
0.11405396 1.0041567 0.052964009 63 9
0.11565715 1.0182716 -0.19920462 94 2
0.11552709 1.0155458 0.089421734 71 10
0.11807076 1.0362946 -0.16519481 72 3
0.11568231 1.0137584 0.12528166 78 11
0.11653534 1.019655 -0.12601285 61 4
0.11771471 1.0283822 0.16394337 81 12
0.11714233 1.0233828 -0.090119064 55 5
0.11627674 1.0142488 0.19844142 83 13
0.11664768 1.0159218 -0.053592 50 6
0.11621318 1.0105823 0.2348489 71 14
0.11760298 1.0210935 -0.01794102 76 7
0.11843365 1.0267326 0.27693638 77 15
0.1183456 1.0150741 -0.27383056 74 0
0.11920666 1.0209074 0.01794105 64 8
0.12154824 1.0393907 -0.24159743 63 1
0.11755834 1.0037525 0.052964009 63 9
0.11898241 1.0159117 -0.19882302 87 2
0.11930382 1.0171154 0.089596063 60 10
0.1221481 1.0397999 -0.16582054 72 3
0.11922009 1.0133486 0.12528168 71 11
0.12032647 1.0212135 -0.1262566 54 4
0.1222295 1.0358124 0.16519485 81 12
0.11954636 1.0130745 -0.089247517 58 5
0.12096769 1.0235853 0.20034939 85 13
0.12254088 1.0353427 -0.054638725 56 6
0.12019874 1.0140408 0.23574869 73 14
0.1209307 1.0186908 -0.017906113 82 7
0.12201704 1.0263128 0.27693638 73 15
0.12281006 1.0223269 -0.27590114 81 0
0.12181397 1.0125438 0.017801436 70 8
0.12494281 1.0370252 -0.24114747 78 1
0.12273639 1.0172161 0.053696711 66 9
0.12299852 1.0193886 -0.19958627 87 2
0.1216582 1.0068027 0.088724509 73 10
0.124116 1.0256397 -0.16363046 70 3
0.12418982 1.0247501 0.12674411 78 11
0.12532523 1.032611 -0.12771903 57 4
0.12608288 1.03734 0.1655077 87 12
0.12277743 1.0086739 -0.08889889 58 5
0.12311701 1.0114636 0.19805969 81 13
0.12422056 1.0190481 -0.053801354 50 6
0.12373783 1.0136153 0.23574872 69 14
0.12472831 1.0202476 -0.017941017 82 7
0.12512919 1.0220457 0.27590117 77 15
0.12774323 1.0314561 -0.27848932 75 0
0.12583911 1.0160813 0.017871242 60 8
0.12664339 1.0211114 -0.23754828 71 1
0.12603989 1.0147995 0.053592041 61 9
0.12794521 1.0286722 -0.20149438 79 2
0.12608653 1.0122812 0.089247428 77 10
0.12860748 1.0310584 -0.16456906 72 3
0.12604584 1.0105215 0.12503792 73 11
0.12917525 1.0341369 -0.12796287 66 4
0.12994872 1.0388539 0.16582058 87 12
0.12803088 1.0220777 -0.090119064 60 5
0.12731224 1.0149016 0.19882295 87 13
0.12720829 1.0126408 -0.053487342 58 6
0.12842488 1.0208888 0.23754831 68 14
0.12928705 1.0277424 -0.018080639 70 7
0.12917919 1.0254359 0.27693638 73 15
0.13061029 1.0252546 -0.27693635 74 0
0.13057487 1.0235478 0.01801086 64 8
0.13038488 1.0206405 -0.23754828 71 1
0.12907565 1.010391 0.053382698 63 9
0.13103728 1.0243242 -0.20073108 79 2
0.12911275 1.0078826 0.088898808 73 10
0.13170347 1.0266845 -0.16394332 72 3
0.1294961 1.0080839 0.12479419 78 11
0.13278407 1.0336797 -0.12796287 59 4
0.13281791 1.0325162 0.16488197 84 12
0.13159809 1.0216244 -0.090119056 56 5
0.13085403 1.0144509 0.19882292 85 13
0.13023026 1.0082291 -0.053277999 55 6
0.13081118 1.0127267 0.23574874 71 14
0.13441296 1.0391837 -0.018290067 80 7
0.13399836 1.0345582 0.27952462 80 15
0.13476118 1.0305625 -0.27848929 75 0
0.13266988 1.0131953 0.017836338 58 8
0.13503589 1.0298634 -0.23979779 67 1
0.13190648 1.0059967 0.053173352 64 9
0.13264413 1.0102584 -0.19805978 87 2
0.13427198 1.0212767 0.090118989 71 10
0.13717023 1.0419099 -0.16644627 72 3
0.133357 1.0115851 0.12528166 78 11
0.13413538 1.0174896 -0.12601286 61 4
0.13624091 1.0320702 0.16488197 84 12
0.13576877 1.0271081 -0.090642005 58 5
0.13499038 1.0198504 0.19996779 83 13
0.13567223 1.0236311 -0.054115362 53 6
0.13365661 1.0084236 0.2348489 69 14
0.13680622 1.030803 -0.018150447 82 7
0.13742851 1.0341079 0.27952456 80 15
0.13715036 1.0224513 -0.27641875 78 0
0.13895763 1.0345505 0.018220289 67 8
0.13974886 1.0390667 -0.24204729 71 1
0.13648272 1.0134479 0.053592041 64 9
0.13573119 1.0078673 -0.19767818 81 2
0.1355281 1.0050297 0.088724509 73 10
0.14088868 1.0434068 -0.16675913 70 3
0.13724267 1.0150717 0.12576915 76 11
0.13928452 1.0288177 -0.1274754 64 4
0.1395776 1.0296308 0.16456911 81 12
0.13810326 1.018755 -0.089944758 58 5
0.13863505 1.0213425 0.20034939 85 13
0.13960409 1.0271338 -0.054324713 56 6
0.13927843 1.0233984 0.23844811 68 14
0.14013286 1.0283378 -0.018115543 88 7
0.14051494 1.0297937 0.27848932 84 15
0.1399281 1.0162247 -0.27486581 81 0
0.14038338 1.0182115 0.01794105 67 8
0.14337482 1.0385725 -0.24204732 71 1
0.13892597 1.0050514 0.053173352 63 9
0.14113048 1.0210006 -0.20034949 87 2
0.13930902 1.0065238 0.088898808 61 10
0.14371631 1.0370389 -0.16582054 76 3
0.14078538 1.0145867 0.12576917 78 11
0.14506069 1.044055 -0.1294252 56 4
0.14398716 1.0350068 0.1655077 87 12
0.14056019 1.0103731 -0.08924751 56 5
0.14138708 1.0150188 0.19920453 83 13
0.14429258 1.0345526 -0.054743402 53 6
0.14231065 1.0190461 0.23754832 69 14
0.14372185 1.0278424 -0.018115543 88 7
0.14357315 1.0254706 0.27745405 80 15
0.14482594 1.0252945 -0.27745402 75 0
0.14393604 1.0177153 0.01794105 64 8
0.14535999 1.0264889 -0.23934792 71 1
0.14467663 1.0203803 0.054010734 64 9
0.14552079 1.0263332 -0.20149434 79 2
0.14478107 1.0198399 0.090118989 71 10
0.14789163 1.0404422 -0.16644627 76 3
0.14376687 1.0101584 0.12528169 78 11
0.14758334 1.0356812 -0.12845036 54 4
0.14871547 1.0423201 0.16675918 91 12
0.14549357 1.0197383 -0.090119064 60 5
0.14465182 1.0125757 0.19882295 85 13
0.14563988 1.0182256 -0.053906024 50 6
0.14697225 1.0262593 0.23934793 66 14
0.14872834 1.0372316 -0.018290063 80 7
0.1487985 1.0364369 0.2805599 80 15
0.14868067 1.0266947 -0.27797168 71 0
0.14806183 1.0211648 0.01801086 63 8
0.14894164 1.0259753 -0.23934789 71 1
0.14708817 1.011963 0.053592041 63 9
0.14853744 1.0219332 -0.20073108 79 2
0.1477665 1.015385 0.089770377 71 10
0.15152283 1.0399196 -0.16644627 72 3
0.1478651 1.0135789 0.12576915 78 11
0.15005016 1.0273027 -0.1274754 64 4
0.15321061 1.0476584 0.16769777 84 12
0.1502056 1.02711 -0.090816326 60 5
0.1487541 1.0159497 0.19958617 81 13
0.14948322 1.0196869 -0.054010689 56 6
0.14942195 1.0180275 0.23754832 68 14
0.15263845 1.0386846 -0.018324969 74 7
0.15185325 1.0320884 0.27952456 84 15
0.15311448 1.031902 -0.27952453 75 0
0.15221295 1.0245979 0.018080672 67 8
0.1536691 1.0331591 -0.24114747 67 1
0.15062007 1.0114434 0.053592041 64 9
0.15239324 1.0233505 -0.20111275 86 2
0.15277889 1.0247161 0.090641931 77 10
0.15456802 1.0354769 -0.16582052 72 3
0.15228274 1.0189464 0.12650037 71 11
0.15363513 1.0267729 -0.12747529 59 4
0.15511003 1.035396 0.16582058 91 12
0.15378927 1.0265795 -0.090816326 60 5
0.15288231 1.0193071 0.20034939 87 13
0.15511812 1.0329849 -0.054743402 53 6
0.15239447 1.0136456 0.23664851 64 14
0.15507306 1.0302359 -0.018185353 86 7
0.15603104 1.0353727 0.2805599 80 15
0.15555403 1.0237218 -0.27745402 75 0
0.15699176 1.0319679 0.018220289 67 8
0.15698141 1.03069 -0.24069758 78 1
0.15565442 1.0207837 0.0541154 68 9
0.15596364 1.0228124 -0.20111275 86 2
0.15274696 1.0005416 0.088550188 67 10
0.15997258 1.0466472 -0.16769773 72 3
0.15523773 1.0144842 0.12601289 73 11
0.15721856 1.0262302 -0.12747529 61 4
0.15812472 1.030943 0.16519484 87 12
0.15676802 1.0220977 -0.090467699 60 5
0.15703517 1.0226483 0.20111275 85 13
0.15720533 1.0225669 -0.054220039 56 6
0.15711777 1.0208118 0.23844814 68 14
0.15805899 1.0257356 -0.018115543 88 7
0.15876025 1.029094 0.27900699 77 15
0.15942368 1.0250815 -0.27797168 71 0
0.15936264 1.0235101 0.018080672 64 8
0.1611782 1.0339868 -0.2415974 67 1
0.15890899 1.0182607 0.05401073 63 9
0.15983598 1.0242015 -0.20149435 92 2
0.15962197 1.0216558 0.090467609 71 10
0.16240369 1.0382762 -0.16644628 72 3
0.16031347 1.023742 0.12723158 76 11
0.16325974 1.0413642 -0.12942518 54 4
0.16264106 1.0362391 0.16613343 84 12
0.15940775 1.0156395 -0.089944765 58 5
0.1599942 1.0182151 0.20034939 78 13
0.16170518 1.0279307 -0.054534052 53 6
0.16007368 1.0164071 0.23754832 66 14
0.16257259 1.0311034 -0.018220255 80 7
0.16265294 1.0304415 0.27952456 88 15
0.16269752 1.0226108 -0.27745402 75 0
0.16230507 1.018998 0.01801086 63 8
0.16263872 1.0199467 -0.2384481 71 1
0.16183287 1.0137554 0.053801395 61 9
0.16402936 1.0275146 -0.20225757 79 2
0.16161489 1.0112554 0.089596055 66 10
0.16571523 1.0357519 -0.16613339 74 3
0.16168849 1.0094556 0.12552541 85 11
0.16563638 1.0329478 -0.12845036 58 4
0.16657062 1.0376157 0.16644631 91 12
0.1654788 1.0308143 -0.091339253 58 5
0.16292471 1.0137736 0.19958627 81 13
0.16402297 1.0194725 -0.054115362 56 6
0.16609986 1.0312337 0.24114752 71 14
0.16744445 1.0384264 -0.018359875 80 7
0.16778801 1.0394036 0.28211281 91 15
0.16706544 1.0258211 -0.27848929 68 0
0.16668214 1.0223436 0.018080672 64 8
0.16763148 1.027037 -0.24024768 71 1
0.16537032 1.0131842 0.05380138 63 9
0.16842727 1.0307819 -0.20302083 79 2
0.16660695 1.0185214 0.090293311 71 10
0.17014848 1.0390368 -0.16675915 74 3
0.16699272 1.0186509 0.12674412 73 11
0.16877837 1.028416 -0.12796277 61 4
0.17179127 1.0467745 0.16801068 81 12
0.16764055 1.0203707 -0.090467699 60 5
0.16759489 1.0189812 0.20073111 83 13
0.16970575 1.030689 -0.054743405 53 6
0.16797669 1.0190812 0.23844811 71 14
0.17139326 1.0398089 -0.018394781 74 7
0.17172959 1.0407175 0.28263044 88 15
0.17159656 1.0309486 -0.28004223 71 0
0.1713845 1.0296754 0.018220289 60 8
0.1710365 1.0264754 -0.24024771 71 1
0.16759183 1.0047206 0.053382698 63 9
0.17073083 1.0224419 -0.20149435 79 2
0.17048962 1.0198985 0.090467609 71 10
0.1739192 1.0404149 -0.167072 72 3
0.17102541 1.022007 0.12723158 76 11
0.17153126 1.0239351 -0.1274754 61 4
0.17348363 1.0344791 0.16613343 87 12
0.17285077 1.0296038 -0.091339253 56 5
0.17162345 1.0222924 0.20149426 90 13
0.17312236 1.0301206 -0.054743405 50 6
0.17135544 1.0185186 0.23844814 69 14
0.17236519 1.0234287 -0.018115543 76 7
0.17600386 1.0439217 0.28366572 84 15
0.17469111 1.0284691 -0.27952453 75 0
0.17531332 1.0310423 0.018255195 58 8
0.17527242 1.0297143 -0.24114747 71 1
0.17293334 1.0159731 0.054010734 63 9
0.17445047 1.0238053 -0.20187597 86 2
0.17219542 1.0095077 0.089596063 66 10
0.17887947 1.0475904 -0.16832347 72 3
0.17425717 1.0194471 0.12698784 73 11
0.17577431 1.0272433 -0.12796287 64 4
0.17757939 1.0377924 0.16675918 81 12
0.17592755 1.0270613 -0.091164954 60 5
0.17684951 1.0313621 0.20340234 80 13
0.1760412 1.0255729 -0.054534052 53 6
0.17490947 1.0179142 0.23844814 73 14
0.17609648 1.0248222 -0.018150447 82 7
0.17815459 1.0357167 0.28159514 84 15
0.17662962 1.0183359 -0.27693635 74 0
0.1777063 1.0245442 0.018150479 63 8
0.18001989 1.0368074 -0.24294709 67 1
0.17647848 1.0153633 0.054010734 61 9
0.17970605 1.0328609 -0.20378403 79 2
0.17571859 1.0089004 0.089596063 71 10
0.18099695 1.0392072 -0.16707201 72 3
0.17831841 1.0227751 0.12747534 73 11
0.18156905 1.0403436 -0.12966907 65 4
0.18188098 1.0410581 0.16738494 84 12
0.17882486 1.0225155 -0.090816312 60 5
0.17891559 1.0230343 0.20187587 85 13
0.17978585 1.0269507 -0.054638725 46 6
0.1803025 1.0288454 0.24114752 68 14
0.1814 1.0340496 -0.018324971 74 7
0.18110085 1.031283 0.28055987 84 15
0.1823605 1.0310613 -0.2805599 75 0
0.18093275 1.0219488 0.018115576 57 8
0.18329751 1.034254 -0.24249722 67 1
0.18211533 1.0265402 0.054638758 61 9
0.18244408 1.0283934 -0.20302081 79 2
0.18115318 1.0200824 0.090641931 60 10
0.18462324 1.0385689 -0.16707198 74 3
