# .PCD v0.7 - Point Cloud Data file format
VERSION 0.7
FIELDS x y z intensity ring
SIZE 4 4 4 4 2
TYPE F F F F U
COUNT 1 1 1 1 1
WIDTH 1221
HEIGHT 1
VIEWPOINT 0 0 0 1 0 0 0
POINTS 1221
DATA ascii
-4.16607 -1.8028196 0.71897304 42 12
-4.0483532 -1.751879 -0.38592574 41 5
-4.1606374 -1.7996067 0.88115567 28 13
-4.0570273 -1.7539517 -0.23163888 53 6
-4.1949005 -1.8126886 1.0550205 32 14
-4.0772758 -1.7610166 -0.077523351 43 7
-4.1840038 -1.806247 1.2211082 23 15
-4.0984068 -1.762509 0.077872522 48 8
-4.094028 -1.7589329 0.23352312 43 9
-4.1173053 -1.7680824 0.39202678 48 10
-4.133853 -1.7734798 0.55231172 40 11
-4.0465903 -1.7352066 -0.54061216 4 4
-4.1741538 -1.7890446 0.71928585 40 12
-4.0526133 -1.7369522 -0.38575149 39 5
-4.172307 -1.7873913 0.88230097 30 13
-4.0594535 -1.7382069 -0.23142952 48 6
-4.1797037 -1.7888334 1.0496216 34 14
-4.0833979 -1.7467734 -0.077523351 45 7
-4.1973882 -1.7946688 1.2231787 27 15
-4.1082139 -1.7497605 0.077942349 47 8
-4.096467 -1.7430671 0.23331375 43 9
-4.1271186 -1.7552601 0.39237487 43 10
-4.1400189 -1.7590392 0.55231178 41 11
-4.0562763 -1.7226235 -0.54109967 4 4
-4.1658258 -1.768288 0.71678281 45 12
-4.0623193 -1.7243521 -0.38610008 39 5
-4.1767144 -1.7720495 0.88191897 28 13
-4.0618181 -1.7224674 -0.2312202 55 6
-4.1823344 -1.7727118 1.0487218 34 14
-4.078423 -1.7278286 -0.077313922 42 7
-4.2160811 -1.7852786 1.2268026 30 15
-4.1069269 -1.7323009 0.07780274 47 8
-4.1043668 -1.7295337 0.23341845 46 9
-4.1185317 -1.7346553 0.39098039 45 10
-4.1443043 -1.7438083 0.55206805 38 11
-4.0622649 -1.7084531 -0.54109967 4 4
-4.1737943 -1.7545011 0.71709573 42 12
-4.04811 -1.7016683 -0.38418263 41 5
-4.1828742 -1.7574602 0.88191897 30 13
-4.0678062 -1.7082776 -0.2312202 48 6
-4.1956844 -1.7611188 1.0505215 33 14
-4.0807409 -1.7120352 -0.07724411 43 7
-4.2205052 -1.7698046 1.2262849 32 15
-4.0981874 -1.7117875 0.077523492 47 8
-4.1159086 -1.7175035 0.23373246 45 9
-4.1208839 -1.7187341 0.39063177 47 10
-4.1467009 -1.7278041 0.55158055 38 11
-4.0645385 -1.6927359 -0.54061264 4 4
-4.1798925 -1.7399222 0.71709573 42 12
-4.0448275 -1.6837 -0.38331103 38 5
-4.1690445 -1.7345518 0.87772107 31 13
-4.0774326 -1.6956013 -0.2314295 53 6
-4.2018056 -1.7464631 1.0505214 33 14
-4.0829992 -1.6962448 -0.077174298 45 7
-4.2213044 -1.7528387 1.2247318 35 15
-4.0967455 -1.6944151 0.077383861 45 8
-4.1144958 -1.7000738 0.23331375 45 9
-4.1268578 -1.7043409 0.39063177 47 10
-4.1490369 -1.7118036 0.55109304 38 11
-4.0740929 -1.6800524 -0.54109967 6 4
-4.1859407 -1.7253209 0.71709573 43 12
-4.0562067 -1.6718484 -0.38383403 39 5
-4.1750741 -1.7199883 0.87772107 30 13
-4.064858 -1.6737546 -0.2303828 53 6
-4.2042723 -1.7303019 1.0496216 34 14
-4.090745 -1.6827428 -0.077209212 47 7
-4.2166767 -1.7336853 1.2216259 35 15
-4.1063366 -1.6816202 0.07745368 45 8
-4.110868 -1.6826383 0.23279038 46 9
-4.132782 -1.6899241 0.39063177 45 10
-4.1457987 -1.6935577 0.54987442 37 11
-4.0578794 -1.6568164 -0.53817475 6 4
-4.1879816 -1.7099367 0.71647 43 12
-4.0638633 -1.6584312 -0.38400835 39 5
-4.1810522 -1.7054051 0.87772107 31 13
-4.0706758 -1.6595552 -0.2303828 51 6
-4.2012639 -1.7119379 1.0473721 36 14
-4.0981541 -1.6699226 -0.07724411 45 7
-4.2277703 -1.7218785 1.2231789 36 15
-4.1118908 -1.6679939 0.07745368 47 8
-4.1148658 -1.6675283 0.23268571 45 9
-4.131269 -1.6724972 0.38993457 48 10
-4.1550713 -1.6812891 0.55036181 40 11
-4.05967 -1.641862 -0.53768778 6 4
-4.1792736 -1.6893851 0.71396708 42 12
-4.0770164 -1.6472207 -0.38470554 39 5
-4.1885056 -1.6922653 0.87810278 33 13
-4.068749 -1.6430558 -0.22996412 51 6
-4.1978817 -1.6943504 1.0451225 34 14
-4.0965405 -1.6526145 -0.077104487 43 7
-4.2355466 -1.7078338 1.2236966 40 15
-4.1139765 -1.6521398 0.077383868 47 8
-4.1169543 -1.6516671 0.2324764 45 9
-4.1256967 -1.6543386 0.38888866 47 10
-4.1572304 -1.6652989 0.54987442 40 11
-4.0580049 -1.6247296 -0.53671235 6 4
-4.1796441 -1.6725835 0.71302849 40 12
-4.0586925 -1.6233613 -0.38243949 39 5
-4.194387 -1.6776352 0.87810278 33 13
-4.0855875 -1.6332915 -0.23059216 48 6
-4.2128196 -1.6833011 1.0473721 37 14
-4.0929985 -1.6345974 -0.076929964 47 7
-4.2325115 -1.6894575 1.2211083 43 15
-4.1122851 -1.6348152 0.077244252 47 8
-4.1301193 -1.6402347 0.23289508 45 9
-4.133585 -1.639941 0.38906303 48 10
-4.1630177 -1.6507772 0.54987442 40 11
-4.0691876 -1.6127498 -0.53744352 6 4
-4.1891289 -1.6594391 0.71365404 43 12
-4.0680394 -1.6106508 -0.38278815 39 5
-4.1932049 -1.6593597 0.87657666 33 13
-4.0841169 -1.6153675 -0.23017345 51 6
-4.2117114 -1.6649842 1.0455725 36 14
-4.1023989 -1.6217706 -0.076999776 45 7
-4.2365866 -1.6739621 1.2205908 48 15
-4.110806 -1.6168032 0.077104628 48 8
-4.1305261 -1.6228946 0.23258103 46 9
-4.1392837 -1.6255019 0.389063 48 10
-4.1505609 -1.6282582 0.54743701 40 11
-4.0880089 -1.6028962 -0.5391497 6 4
-4.191505 -1.6426339 0.71302849 40 12
-4.0699263 -1.5949878 -0.38243949 41 5
-4.1916599 -1.6418496 0.87504977 34 13
-4.0804315 -1.5974607 -0.22965011 55 6
-4.2138681 -1.6488521 1.0446726 37 14
-4.1008654 -1.60381 -0.076860152 45 7
-4.2462916 -1.6598303 1.2216259 54 15
-4.1201515 -1.6038958 0.07717444 48 8
-4.1212749 -1.6026757 0.23174369 46 9
-4.1393614 -1.6088786 0.38854006 47 10
-4.1525178 -1.6123229 0.54694951 40 11
-4.0639696 -1.5771257 -0.53525048 6 4
-4.2008963 -1.62942 0.7136541 43 12
-4.075469 -1.58077 -0.38243946 39 5
-4.201026 -1.6286271 0.87581348 33 13
-4.0766706 -1.5795993 -0.22912671 48 6
-4.2086945 -1.6299102 1.0419732 36 14
-4.1138992 -1.592373 -0.076999776 45 7
-4.2538614 -1.6456949 1.2221437 57 15
-4.1275911 -1.5902227 0.077209346 48 8
-4.1175241 -1.5846941 0.23122035 45 9
-4.1486716 -1.5958502 0.38888869 48 10
-4.1636791 -1.5999541 0.54768074 37 11
-4.0768619 -1.5657779 -0.5362249 4 4
-4.2028708 -1.6133305 0.71302849 43 12
-4.0809627 -1.5665344 -0.38243949 39 5
-4.210351 -1.6153589 0.87657666 33 13
-4.0821595 -1.5653604 -0.22912674 53 6
-4.2143583 -1.6152091 1.0419732 36 14
-4.1007586 -1.5708497 -0.076650731 47 7
-4.2433424 -1.6246192 1.2174848 51 15
-4.1312485 -1.5750926 0.07717444 47 8
-4.1323624 -1.5738655 0.23174366 46 9
-4.1430445 -1.5771048 0.38784277 48 10
-4.1710939 -1.5861168 0.54792446 41 11
-4.0711694 -1.5473047 -0.53476298 6 4
-4.1937037 -1.593038 0.71052551 45 12
-4.0752311 -1.5480344 -0.38139367 41 5
-4.2122936 -1.5992597 0.87581307 33 13
-4.0913339 -1.5525177 -0.22933607 55 6
-4.2090383 -1.5963418 1.0392737 38 14
-4.1024771 -1.5551091 -0.076580919 47 7
-4.2381492 -1.6056907 1.2143791 51 15
-4.1292377 -1.5578375 0.077034824 45 8
-4.1340938 -1.5580226 0.23153433 46 9
-4.1410666 -1.5598241 0.38714555 48 10
-4.1766052 -1.5715472 0.54792446 40 11
-4.0914092 -1.538674 -0.53671277 6 4
-4.2066345 -1.5811706 0.71177697 39 12
-4.076879 -1.5323987 -0.38104504 41 5
-4.2031484 -1.5790218 0.87276006 34 13
-4.092989 -1.5368226 -0.22912674 51 6
-4.2218819 -1.5843805 1.0410733 38 14
-4.1060085 -1.5400759 -0.076546021 43 7
-4.2383008 -1.5888524 1.2128261 46 15
-4.1252832 -1.5399187 0.076860301 47 8
-4.1357646 -1.5421858 0.23132502 46 9
-4.1464858 -1.5453603 0.38714555 45 10
-4.1616025 -1.5493391 0.54524338 38 11
-4.0874538 -1.5209228 -0.53549367 6 4
-4.2102766 -1.5657881 0.71146405 42 12
-4.0784688 -1.5167693 -0.38069645 41 5
-4.210475 -1.5650244 0.87314177 31 13
-4.0908394 -1.5197446 -0.22870806 48 6
-4.2273874 -1.5696326 1.0410733 36 14
-4.113234 -1.5264295 -0.076580919 47 7
-4.2492552 -1.5760647 1.2143791 48 15
-4.1306334 -1.5255092 0.076860301 45 8
-4.12988 -1.5235931 0.23069698 48 9
-4.1574631 -1.5329448 0.38766849 48 10
-4.1688471 -1.5354896 0.54548705 41 11
-4.0759716 -1.5004734 -0.53330046 6 4
-4.2175713 -1.5517632 0.71177697 40 12
-4.0912175 -1.5052742 -0.38139364 42 5
-4.2140689 -1.5496407 0.87276006 34 13
-4.0886207 -1.5026996 -0.22828937 48 6
-4.2236948 -1.5515059 1.038824 34 14
-4.1185369 -1.5120633 -0.076580919 47 7
-4.2420354 -1.556564 1.2107556 46 15
-4.1321764 -1.5097098 0.076790489 47 8
-4.1389251 -1.510537 0.23090631 48 9
-4.155302 -1.5156924 0.38697129 50 10
-4.172317 -1.5202487 0.54524338 38 11
-4.0923758 -1.490312 -0.53476298 4 4
-4.1988306 -1.5282494 0.70770967 42 12
-4.0852141 -1.4868964 -0.38034779 41 5
-4.2157626 -1.5335791 0.87199688 33 13
-4.099473 -1.490466 -0.22860341 55 6
-4.2235899 -1.5347574 1.0374742 37 14
-4.106874 -1.491534 -0.07626678 48 7
-4.2565231 -1.5450416 1.2133439 48 15
-4.1374211 -1.4952766 0.076790489 48 8
-4.1385369 -1.4940457 0.23059228 45 9
-4.1474476 -1.4964445 0.38575155 47 10
-4.1757307 -1.5050021 0.54499966 37 11
-4.0751419 -1.4679449 -0.53183764 4 4
-4.2078562 -1.5149214 0.70833528 43 12
-4.082881 -1.4699275 -0.37965056 41 5
-4.2229371 -1.5195184 0.87237895 31 13
-4.0990119 -1.4741191 -0.22828937 53 6
-4.2252536 -1.5186864 1.0365744 36 14
-4.115819 -1.4785411 -0.076336585 50 7
-4.2491622 -1.5256053 1.2097203 44 15
-4.1350842 -1.4781317 0.07665088 47 8
-4.1418457 -1.4789195 0.23048761 48 9
-4.1488934 -1.4806187 0.38540244 47 10
-4.1790891 -1.4897515 0.54475594 37 11
-4.0839806 -1.4550431 -0.53232551 2 4
-4.2075372 -1.4982363 0.70739681 45 12
-4.0879874 -1.4556667 -0.37965056 39 5
-4.2097201 -1.498186 0.86856228 31 13
-4.1022511 -1.4591326 -0.2281847 55 6
-4.2342019 -1.5052338 1.0374742 36 14
-4.119071 -1.4634957 -0.076301686 47 7
-4.2453594 -1.5075313 1.2071322 41 15
-4.1364474 -1.4623553 0.076581061 48 8
-4.1504936 -1.4665073 0.23069698 48 9
-4.154036 -1.4661269 0.38540292 48 10
-4.1805191 -1.4738331 0.54426837 37 11
-4.0965247 -1.4434173 -0.53329998 2 4
-4.218071 -1.4862444 0.70833534 46 12
-4.0930433 -1.441389 -0.37965056 41 5
-4.2167759 -1.4841337 0.86894387 34 13
-4.0978985 -1.4414901 -0.22766131 55 6
-4.2431068 -1.4917381 1.0383741 36 14
-4.1201277 -1.4485025 -0.076231867 47 7
-4.2521577 -1.4940851 1.2076498 46 15
-4.1337237 -1.445989 0.076441444 47 8
-4.1405044 -1.4467402 0.22985964 48 9
-4.1628909 -1.4529319 0.38575107 47 10
-4.1741381 -1.4560403 0.54280603 37 11
-4.093791 -1.4272107 -0.53232503 2 4
-4.2232327 -1.4715124 0.70833534 43 12
-4.0942874 -1.4257814 -0.37930197 41 5
-4.2272363 -1.472079 0.87008876 36 13
-4.0951114 -1.4252669 -0.22724263 55 6
-4.235146 -1.4731773 1.0352248 34 14
-4.1213818 -1.4327976 -0.07616207 47 7
-4.2609968 -1.4805012 1.2086849 45 15
-4.1500854 -1.4354739 0.07665088 45 8
-4.1398659 -1.4303203 0.22954559 43 9
-4.1695695 -1.4397696 0.38592541 48 10
-4.1810708 -1.4421066 0.54304963 41 11
-4.0762262 -1.4051493 -0.52940065 2 4
-4.21527 -1.4522574 0.70614529 43 12
-4.1011229 -1.4121294 -0.37947625 44 5
-4.2174997 -1.452201 0.86703593 36 13
-4.1076155 -1.4135641 -0.22766131 48 6
-4.236577 -1.4571172 1.0343249 34 14
-4.1244664 -1.4177521 -0.076127149 50 7
-4.266139 -1.4656196 1.208685 45 15
-4.1550708 -1.4209785 0.07665088 47 8
-4.1448331 -1.4158616 0.22954559 43 9
-4.1540771 -1.4173992 0.38400796 48 10
-4.1879587 -1.4281451 0.54329348 38 11
-4.0961385 -1.3960354 -0.53135014 4 4
-4.2165756 -1.4362599 0.70551968 45 12
-4.1003685 -1.3958796 -0.37895328 41 5
-4.2246513 -1.4373664 0.86741745 39 13
-4.1127696 -1.3984985 -0.22766134 51 6
-4.2400446 -1.4409525 1.033875 36 14
-4.1237102 -1.4014171 -0.076022446 50 7
-4.260253 -1.4469908 1.2055792 44 15
-4.137517 -1.3980579 0.076232009 47 8
-4.151886 -1.4012989 0.22965023 48 9
-4.158999 -1.4028909 0.38400796 48 10
-4.1950464 -1.4134197 0.54353726 40 11
-4.1012278 -1.3810127 -0.53135055 4 4
-4.2255549 -1.4220566 0.70614535 45 12
-4.101439 -1.3802869 -0.37860465 41 5
-4.214757 -1.4176028 0.8643645 39 13
-4.1138396 -1.3828619 -0.22745201 55 6
-4.2432008 -1.4255224 1.0334251 34 14
-4.1288195 -1.3862926 -0.076022446 47 7
-4.258203 -1.4289074 1.2035087 46 15
-4.1461654 -1.3848737 0.076301813 45 8
-4.1567526 -1.3867975 0.22965026 46 9
-4.1676512 -1.3896252 0.38435659 48 10
-4.1867709 -1.3943768 0.54183102 37 11
-4.1173239 -1.3704498 -0.53281301 2 4
-4.2267447 -1.4060508 0.70551962 43 12
-4.1081233 -1.3665907 -0.37877899 44 5
-4.2159529 -1.4016438 0.86360168 39 13
-4.1129551 -1.366604 -0.22713798 57 6
-4.2536993 -1.4125446 1.0347748 37 14
-4.1355314 -1.3725016 -0.076057352 50 7
-4.2704983 -1.4164681 1.2055792 45 15
-4.1509743 -1.3703923 0.076301813 47 8
-4.1539817 -1.3697774 0.22923157 46 9
-4.1724763 -1.3750689 0.38435659 48 10
-4.1878405 -1.3785119 0.54134345 38 11
-4.106998 -1.3511065 -0.53086263 2 4
-4.231627 -1.3912871 0.70551962 43 12
-4.1109753 -1.3516188 -0.37860459 41 5
-4.2320113 -1.3905962 0.86589098 40 13
-4.1139059 -1.3509924 -0.22692867 55 6
-4.2437925 -1.3928252 1.0311756 36 14
-4.1440969 -1.3593048 -0.076127157 48 7
-4.2717457 -1.4003491 1.2045439 46 15
-4.1595345 -1.357136 0.07637164 47 8
-4.1511416 -1.3527936 0.22881289 46 9
-4.1791449 -1.3611137 0.3845309 50 10
-4.1888533 -1.3626574 0.54085612 38 11
-4.107913 -1.3355356 -0.53037518 2 4
-4.2251849 -1.3728456 0.70364237 43 12
-4.1156678 -1.3372614 -0.37860459 41 5
-4.2293706 -1.3733896 0.8643645 37 13
-4.126195 -1.3390908 -0.22734731 55 6
-4.2523351 -1.3792063 1.0320754 36 14
-4.1335988 -1.339898 -0.075847924 48 7
-4.272933 -1.3842376 1.2035087 45 15
-4.1563993 -1.3408788 0.076232001 48 8
-4.1594071 -1.3402452 0.22902222 48 9
-4.1703596 -1.3429722 0.38331115 48 10
-4.199017 -1.3505821 0.54158723 37 11
-4.1198783 -1.3243356 -0.53135055 2 4
-4.2203107 -1.3558058 0.70207798 42 12
-4.1049047 -1.3187308 -0.37721017 41 5
-4.233901 -1.3593568 0.86436498 37 13
-4.1287107 -1.32479 -0.22724263 48 6
-4.2531743 -1.3639073 1.0311756 36 14
-4.139924 -1.3267933 -0.075882837 47 7
-4.2738194 -1.3688829 1.2024734 44 15
-4.1496229 -1.322718 0.076022573 47 8
-4.1678653 -1.3269306 0.22923155 46 9
-4.1712255 -1.3271987 0.38296208 45 10
-4.2037058 -1.3359175 0.54158723 40 11
-4.1206927 -1.3087447 -0.53086263 2 4
-4.2287836 -1.3422611 0.70270383 43 12
-4.1056852 -1.3031883 -0.37686151 41 5
-4.2273927 -1.3410087 0.86207479 37 13
-4.1352139 -1.3109725 -0.2273473 55 6
-4.2541938 -1.3478752 1.0302758 36 14
-4.1464362 -1.3129376 -0.075917728 48 7
-4.274888 -1.3527901 1.2014382 46 15
-4.1504002 -1.3070239 0.075952768 45 8
-4.1686621 -1.3111755 0.22902222 48 9
-4.1777334 -1.3132265 0.38313687 48 10
-4.18751 -1.3146949 0.53890616 37 11
-4.1214476 -1.2931631 -0.53037566 2 4
-4.2372127 -1.3286735 0.70332944 46 12
-4.1178141 -1.2912333 -0.37755877 42 5
-4.2226801 -1.3233082 0.86016709 36 13
-4.1283293 -1.2929482 -0.22671928 55 6
-4.258873 -1.333017 1.0302758 36 14
-4.1509938 -1.2984569 -0.075917736 50 7
-4.27774 -1.3372833 1.2009205 48 15
-4.1702127 -1.29728 0.076232001 47 8
-4.1579556 -1.2918754 0.22818488 50 9
-4.1899033 -1.3009999 0.38383365 50 10
-4.1958656 -1.3012456 0.53939366 38 11
-4.1335216 -1.2811192 -0.53135014 2 4
-4.2399378 -1.3132913 0.70301658 40 12
-4.1241994 -1.2774421 -0.37773311 44 5
-4.2366519 -1.3114622 0.86207479 39 13
-4.1309094 -1.2779394 -0.22661459 51 6
-4.256053 -1.3158411 1.0284761 37 14
-4.1555009 -1.2839581 -0.075917728 48 7
-4.2842283 -1.3229128 1.2014382 45 15
-4.1670709 -1.2803663 0.0760924 47 8
-4.1624393 -1.2773533 0.22818485 52 9
-4.1982288 -1.2875346 0.38418224 45 10
-4.2060771 -1.2883345 0.54012489 40 11
-4.1379681 -1.2666837 -0.53135014 2 4
-4.2407174 -1.2973272 0.70239073 45 12
-4.1248226 -1.2618724 -0.37738445 44 5
-4.2449589 -1.2978133 0.86283797 37 13
-4.1296153 -1.2617624 -0.22630063 57 6
-4.2568922 -1.2998383 1.0275763 37 14
-4.1580453 -1.2688612 -0.075882837 52 7
-4.2888193 -1.307951 1.2014382 44 15
-4.1791682 -1.268135 0.076232009 48 8
-4.1706948 -1.2639742 0.22839418 52 9
-4.1874423 -1.2682518 0.38278827 47 10
-4.2105484 -1.2736456 0.54012489 37 11
-4.0777583 -1.2327013 -0.52306294 2 4
-4.2376571 -1.2802304 0.70113939 45 12
-4.075799 -1.2313317 -0.37250376 34 5
-4.2475834 -1.2824212 0.86245638 42 13
-4.1339941 -1.2473394 -0.2263006 38 6
-4.2614036 -1.2849698 1.0275762 36 14
-4.147131 -1.249724 -0.075603582 45 7
-4.2841101 -1.2901868 1.1988499 48 15
-4.1586671 -1.2460786 0.075778261 42 8
-4.1729507 -1.2495637 0.22828951 53 9
-4.1842084 -1.2513446 0.38209051 48 10
-4.1600533 -1.2433287 -0.68768591 1 3
-4.2149687 -1.2589402 0.54012489 40 11
-0.91298968 -0.27269465 -0.11699454 2 4
-4.243772 -1.2667366 0.70145231 46 12
-4.0227947 -1.2000118 -0.36727443 19 5
-4.2369828 -1.2630996 0.85940349 36 13
-4.0521884 -1.2072388 -0.22159038 51 6
-4.2693772 -1.2719443 1.0284761 36 14
-4.0630913 -1.2097161 -0.073997967 39 7
-4.2772555 -1.2726672 1.195744 48 15
-4.0822434 -1.2084413 0.074312247 53 8
-4.1100378 -1.215889 0.22462596 47 9
-4.1711392 -1.2323816 0.38052177 39 10
-4.1981759 -1.2387756 0.53744364 32 11
-0.86819446 -0.25618222 -0.1111448 4 4
-4.2498441 -1.2532153 0.70176512 45 12
-4.2392645 -1.2484874 0.85902178 40 13
-4.0504208 -1.1921036 -0.22127636 78 6
-4.2773099 -1.2588807 1.0293759 37 14
-4.0670805 -1.1962357 -0.073997967 65 7
-4.2870126 -1.2601106 1.197297 46 15
-4.0900674 -1.1960198 0.074382059 68 8
-4.0931692 -1.1953752 0.22347461 63 9
-4.1025229 -1.197331 0.37389836 60 10
-4.12603 -1.2026278 0.52769417 52 11
-0.89576572 -0.26092222 -0.11455714 3 4
-4.1726365 -1.2146333 0.68831176 46 12
-4.18327 -1.2161438 0.84681052 33 13
-4.0430493 -1.1746143 -0.2206483 65 6
-4.2274089 -1.2281756 1.0163288 21 14
-4.0808334 -1.1848193 -0.074172497 68 7
-4.2821088 -1.2424467 1.1947089 31 15
-4.0848165 -1.1782488 0.074207529 76 8
-4.0860076 -1.1770487 0.22284657 78 9
-4.1183729 -1.1855927 0.37494379 65 10
-4.1342249 -1.1885947 0.52818161 68 11
-0.89671606 -0.25763729 -0.11455714 3 4
-4.1618714 -1.1949695 0.68580884 61 12
-4.1593914 -1.1926861 0.84108579 52 13
-4.0588474 -1.163089 -0.22127636 14 6
-4.1794281 -1.1976421 1.0037315 49 14
-4.0736136 -1.1665521 -0.073963068 66 7
-4.2272 -1.209735 1.1781445 79 15
-4.0968018 -1.1654589 0.074347168 78 8
-4.0920129 -1.1633247 0.22295126 76 9
-4.1092739 -1.1666818 0.3737236 71 10
-4.1328254 -1.1718086 0.52745044 60 11
-0.88233155 -0.2501736 -0.11260723 4 4
-4.1641159 -1.1798967 0.68549591 66 12
-4.1748643 -1.181367 0.8433755 60 13
-4.1835828 -1.1830468 1.0037315 50 14
-4.0699639 -1.1501491 -0.073823445 68 7
-4.2090874 -1.1886715 1.1719327 92 15
-4.0852418 -1.1475406 0.074067913 78 8
-4.0958481 -1.1497486 0.22295126 74 9
-4.1016092 -1.1498214 0.37267771 74 10
-4.1385999 -1.1586323 0.52769417 61 11
-0.84874755 -0.23761329 -0.10821994 5 4
-4.1718106 -1.1671458 0.6861217 69 12
-4.1749768 -1.1664594 0.84261227 61 13
-4.1893611 -1.1696912 1.0041816 61 14
-4.0737557 -1.1366463 -0.073823445 68 7
-4.1981192 -1.1705561 1.1677917 86 15
-4.0851707 -1.132918 0.073998101 78 8
-4.1036863 -1.1365116 0.22316061 79 9
-4.1092405 -1.1372765 0.37302634 68 10
-4.1271129 -1.140671 0.52574426 61 11
-0.87253314 -0.24099119 -0.1111449 4 4
-4.1777644 -1.153102 0.68643463 72 12
-4.1769295 -1.1520861 0.84223068 60 13
-4.1971745 -1.156095 1.0050812 64 14
-4.0854106 -1.1245419 -0.073963076 68 7
-4.2021794 -1.1558956 1.1677917 84 15
-4.0891004 -1.1186512 0.073998101 76 8
-4.0999217 -1.1200736 0.2227419 76 9
-4.1208735 -1.1250244 0.3737236 79 10
-4.1234083 -1.1241701 0.52476937 61 11
-0.88869137 -0.24211846 -0.11309471 4 4
-4.1836686 -1.1390303 0.68674731 58 12
-4.1885033 -1.1395614 0.84375709 49 13
-4.1842604 -1.1368375 1.0010321 59 14
-4.0893106 -1.110275 -0.073963068 68 7
-4.2061882 -1.14122 1.1677916 84 15
-4.1045637 -1.1074961 0.074207522 74 8
-4.0960922 -1.1036764 0.22232319 79 9
-4.1247749 -1.1106329 0.37372404 76 10
-4.1330571 -1.1113158 0.52550048 60 11
-0.85502344 -0.22974274 -0.10870741 5 4
-4.1919675 -1.1232345 1.0019319 59 14
-4.0777087 -1.0918562 -0.073683828 52 7
-4.2082806 -1.1260314 1.1672741 78 15
-4.1142025 -1.0947052 0.074312247 42 8
-4.1057105 -1.0909103 0.22263722 66 9
-4.1134119 -1.0914196 0.37232909 76 10
-4.1407504 -1.0978998 0.52598804 57 11
-0.88268447 -0.23387462 -0.11211976 4 4
-1.6228181 -0.42907006 0.32628331 2 13
-4.1935053 -1.1064062 1.1620975 24 15
-4.1461105 -1.0846181 0.37494379 22 10
-4.1428256 -1.082214 0.52574426 27 11
-0.89117801 -0.2327989 -0.11309481 4 4
-1.6590338 -0.43307358 0.2715703 10 12
-4.1761861 -1.0870366 -0.075324342 30 7
-4.1372333 -1.0699606 0.074591488 19 8
-4.186523 -1.0819293 0.22661476 22 9
-4.2345686 -1.0927682 0.38261348 8 10
-0.8957898 -0.23083308 -0.11358219 3 4
-1.6760401 -0.43064564 0.3995131 7 14
-4.1952624 -1.0771612 -0.075603582 58 7
-1.6803761 -0.43113458 0.4648391 6 15
-4.1543221 -1.0596948 0.074835815 32 8
-4.1864038 -1.066323 0.22640543 45 9
-4.1841059 -1.0649593 0.37773278 32 10
-0.88889402 -0.22575019 -0.11260723 4 4
-1.6542844 -0.41982761 0.27031884 52 12
-1.6651384 -0.42227286 0.33391565 71 13
-4.1834893 -1.0585852 -0.075324349 52 7
-1.6725063 -0.42289847 0.46225089 23 15
-4.1948433 -1.0544503 0.075499013 56 8
-4.1784768 -1.0487847 0.22577737 48 9
-4.2111721 -1.0554297 0.37982449 26 10
-2.0122759 -0.50395519 0.25470692 5 11
-0.8819738 -0.22071853 -0.11163228 4 4
-1.6538236 -0.41357127 0.27000597 79 12
-1.6457226 -0.41093516 0.32971787 72 13
-1.6412616 -0.40921229 0.39051503 30 14
-4.1696959 -1.0396215 -0.075010203 48 7
-1.6908433 -0.4212614 0.46690965 44 15
-4.1889744 -1.0366664 0.075324483 40 8
-4.1881099 -1.0349011 0.22609141 50 9
-4.195487 -1.0359473 0.37808135 26 10
-2.0102546 -0.49562654 0.25421944 8 11
-0.87892187 -0.2165345 -0.1111449 9 4
-1.6553283 -0.40750688 0.27000597 89 12
-1.656679 -0.40753278 0.33162597 92 13
-1.6559274 -0.40673494 0.39366436 26 14
-4.1734776 -1.0243326 -0.075010203 42 7
-1.6623559 -0.40769833 0.4586274 31 15
-4.1906247 -1.021564 0.075289585 50 8
-4.1955771 -1.0212201 0.22630075 50 9
-4.2128086 -1.0238568 0.37930161 26 10
-2.013901 -0.48907471 0.25446314 16 11
-0.87581408 -0.21252909 -0.11065742 9 4
-1.6586604 -0.40219167 0.27031884 82 12
-1.631448 -0.39498991 0.32628348 82 13
-1.6933967 -0.40936267 0.40221253 6 14
-4.1789722 -1.0102271 -0.075045109 37 7
-1.6656469 -0.40234673 0.45914507 13 15
-4.1904521 -1.0052648 0.07521978 53 8
-4.1992922 -1.0058355 0.22630075 50 9
-4.2144194 -1.0086812 0.37912726 27 10
-1.9983037 -0.4775376 0.25226951 26 11
-0.89589536 -0.21392816 -0.11309471 8 4
-1.6582018 -0.39565077 0.27000591 89 12
-1.6385459 -0.39065897 0.32742834 86 13
-1.8123527 -0.43142873 0.43010643 7 14
-4.1845918 -0.99536723 -0.075080007 34 7
-1.8306259 -0.43510395 0.50417954 11 15
-4.1939354 -0.99063218 0.07521978 52 8
-4.1891708 -0.98796201 0.22556804 48 9
-4.21033 -0.99140102 0.37842998 37 10
-1.994162 -0.46919543 0.25153834 28 11
-0.85798842 -0.20171359 -0.10821994 11 4
-1.6614959 -0.39031228 0.27031884 82 12
-1.6399666 -0.38465032 0.32742834 88 13
-4.2995257 -1.0068616 1.0194782 23 14
-4.1841469 -0.97984219 -0.075010203 32 7
-4.3564901 -1.0193985 1.1988498 34 15
-4.2012634 -0.97689128 0.075289592 53 8
-4.1904783 -0.97361261 0.22546338 52 9
-4.2213583 -0.9792344 0.37912726 47 10
-1.9861175 -0.45999247 0.25031957 35 11
-0.87029135 -0.20140257 -0.10968238 10 4
-1.6531585 -0.38257352 0.26875448 71 12
-1.6354946 -0.37788475 0.32628348 76 13
-4.2971439 -0.99128395 1.0181284 23 14
-4.1717849 -0.96236557 -0.07473097 39 7
-4.3410211 -1.0006078 1.1936735 43 15
-4.2083778 -0.96384758 0.075359389 52 8
-4.2016392 -0.96076095 0.22588208 50 9
-4.2092113 -0.96094543 0.37773275 48 10
-1.9876322 -0.45340368 0.2503196 35 11
-0.86708349 -0.19763315 -0.10919489 10 4
-1.6467797 -0.37504593 0.26750299 47 12
-1.6482247 -0.37507245 0.32857302 52 13
-4.1751189 -0.94779742 -0.07473097 48 7
-4.2000117 -0.94651288 0.075149961 52 8
-4.2069159 -0.94652689 0.22598673 48 9
-4.2123747 -0.94698179 0.37773275 48 10
-1.9969503 -0.44820163 0.25129455 36 11
-0.88326389 -0.1980803 -0.1111449 13 4
-2.0239565 -0.45352051 0.32851246 25 12
-1.6552713 -0.37060398 0.32971787 62 13
-2.074873 -0.46378893 0.49084321 4 14
-4.1862082 -0.93496108 -0.074870579 48 7
-4.3290467 -0.96606988 1.1884972 4 15
-4.2071953 -0.93271285 0.07521978 50 8
-4.2121444 -0.93226779 0.22609141 50 9
-4.2156549 -0.93227291 0.37773275 48 10
-1.9907489 -0.4395158 0.25031957 35 11
-0.87619597 -0.19328544 -0.11016984 9 4
-2.0390308 -0.44942963 0.33070257 32 12
-1.7044877 -0.3753795 0.33925831 13 13
-2.0593498 -0.45277774 0.48679411 6 14
-4.1914001 -0.92077184 -0.0749055 47 7
-2.0643022 -0.45311078 0.5662961 6 15
-4.2104254 -0.9180212 0.07521978 52 8
-4.2036638 -0.91500896 0.22546338 52 9
-4.2266707 -0.91924542 0.37842998 45 10
-1.9922712 -0.43256411 0.2503196 29 11
-0.86910546 -0.18854253 -0.10919489 10 4
-2.0386565 -0.44189081 0.33038968 29 12
-4.2980471 -0.93084061 0.85482407 37 13
-4.2004523 -0.90740204 -0.075010203 48 7
-4.33002 -0.93460208 1.1869441 21 15
-4.2096939 -0.90248013 0.075149968 52 8
-4.2068319 -0.90033078 0.22546338 52 9
-4.2220607 -0.90281945 0.37773275 48 10
-2.0054171 -0.42809415 0.25178206 16 11
-0.88140678 -0.18799207 -0.11065742 9 4
-4.2870975 -0.91359627 0.69425637 30 12
-4.30127 -0.91583282 0.85482448 39 13
-4.3079119 -0.91567427 1.0167787 37 14
-4.1918578 -0.89024264 -0.074800782 50 7
-4.354044 -0.92389274 1.1926383 41 15
-4.2167315 -0.88860559 0.07521978 50 8
-4.2138577 -0.88646293 0.22567271 50 9
-4.2251859 -0.88807708 0.37773275 47 10
-4.2527609 -0.892322 0.53354388 28 11
-0.88594341 -0.18572861 -0.1111449 9 4
-4.2902598 -0.89862686 0.69425637 42 12
-4.3063626 -0.90121508 0.85520566 40 13
-4.3091741 -0.90023375 1.0163289 38 14
-4.1949396 -0.87560481 -0.074800782 48 7
-4.3534608 -0.90789878 1.1916031 46 15
-4.2119751 -0.87225783 0.075080156 53 8
-4.2130146 -0.87094063 0.22546338 52 9
-4.2224064 -0.87211275 0.37720981 48 10
-4.261682 -0.87867409 0.53427511 40 11
-0.89825195 -0.18503825 -0.11260723 4 4
-4.2991743 -0.88483989 0.69519484 43 12
-4.2979436 -0.8838048 0.85291588 40 13
-4.3218341 -0.88714534 1.0185782 38 14
-4.2038474 -0.86216056 -0.0749055 50 7
-4.3338919 -0.88804412 1.1853912 53 15
-4.2208734 -0.85874593 0.075184874 53 8
-4.219944 -0.85702413 0.22567274 52 9
-4.2312832 -0.85855705 0.37773275 48 10
-4.2549958 -0.86182231 0.53305644 43 11
-0.92613155 -0.1874138 -0.11601957 3 4
-4.3022366 -0.86982745 0.69519484 48 12
-4.2952294 -0.86763048 0.85177159 36 13
-4.3249044 -0.8720538 1.0185782 36 14
-4.206831 -0.84748191 -0.074905492 50 7
-4.3445406 -0.87443519 1.1874617 54 15
-4.2179618 -0.84283143 0.075080156 53 8
-4.2150755 -0.84072477 0.22525404 52 9
-4.2303462 -0.84300297 0.3773841 48 10
-4.2638192 -0.84812599 0.53378767 42 11
-0.90731001 -0.1803105 -0.11358219 3 4
-4.3091216 -0.85557485 0.69582063 48 12
-4.302083 -0.85339594 0.85253477 40 13
-4.3202767 -0.8554377 1.0167787 37 14
-4.2097635 -0.83279204 -0.074905492 50 7
-4.3570437 -0.86113745 1.1900501 53 15
-4.2248025 -0.82887369 0.075149961 50 8
-4.2179847 -0.82600617 0.22525404 52 9
-4.2430396 -0.83014488 0.3782557 48 10
-4.2648053 -0.83285671 0.53354388 42 11
-0.91572714 -0.17866302 -0.11455714 3 4
-4.2985101 -0.83788139 0.69363052 45 12
-4.3069625 -0.83874875 0.85291636 39 13
-4.2150688 -0.82009065 -0.22504455 4 6
-4.3194094 -0.83960801 1.0158788 38 14
-4.2028298 -0.81618601 -0.07473097 48 7
-4.3562293 -0.8451882 1.1890147 53 15
-4.2374883 -0.81601191 0.075324483 53 8
-4.2247643 -0.8120324 0.22546338 52 9
-4.2361283 -0.81345004 0.3773841 48 10
-4.2657366 -0.81759197 0.53330016 42 11
-0.90464729 -0.17322522 -0.11309471 8 4
-4.299469 -0.82250047 0.69331777 46 12
-4.3137212 -0.82444757 0.8536796 43 13
-4.2002497 -0.80199993 -0.2241025 12 6
-4.3318858 -0.82635105 1.0181284 38 14
-4.2036891 -0.80113697 -0.074696071 47 7
-4.3496647 -0.82816923 1.1864266 60 15
-4.2265568 -0.79861528 0.075080156 53 8
-4.2274337 -0.79801792 0.22546338 52 9
-4.2389421 -0.79865712 0.3773841 48 10
-4.2724667 -0.80343038 0.53378767 42 11
-0.90719736 -0.17043285 -0.11333855 11 4
-4.3079972 -0.80933237 0.69425631 43 12
-4.3049946 -0.80721384 0.85138988 40 13
-4.1971335 -0.78622991 -0.22378846 29 6
-4.3347435 -0.81122583 1.0181284 39 14
-4.2122192 -0.78829604 -0.074800782 48 7
-4.3523865 -0.81374043 1.1864265 60 15
-4.2213178 -0.78313708 0.074940547 53 8
-4.2301936 -0.78325647 0.22546338 52 9
-4.247581 -0.78494257 0.37790751 48 10
-4.2692504 -0.78817654 0.53305638 43 11
-0.89409244 -0.16490316 -0.11163228 8 4
-4.3107953 -0.7942906 0.69425631 45 12
-4.3153715 -0.79435509 0.85291588 42 13
-4.1938252 -0.77122366 -0.22347446 36 6
-4.3354936 -0.7964946 1.0176786 38 14
-4.2129784 -0.77322674 -0.074765876 45 7
-4.357101 -0.79889101 1.1869441 62 15
-4.2358298 -0.77054429 0.075149968 53 8
-4.228972 -0.7677719 0.22525403 52 9
-4.2501612 -0.77085274 0.37790704 48 10
-4.2680697 -0.77256209 0.53256893 42 11
-0.90638304 -0.16390078 -0.11309471 4 4
-4.3213167 -0.78064275 0.69550771 43 12
-4.3161855 -0.77893794 0.85253477 40 13
-4.1905951 -0.7555176 -0.22316045 34 6
-4.3248229 -0.77893806 1.0145293 39 14
-4.2215562 -0.75957716 -0.074870586 50 7
-4.3598628 -0.783678 1.1869441 62 15
-4.2384934 -0.7557537 0.075149968 53 8
-4.2237606 -0.75160563 0.22483535 52 9
-4.2489028 -0.75531465 0.37755841 48 10
-4.2766037 -0.75869906 0.5333001 42 11
-0.90304041 -0.16004306 -0.11260723 4 4
-4.3084545 -0.76279861 0.69300479 45 12
-4.3324118 -0.76626039 0.85520566 40 13
-4.1971402 -0.74157995 -0.22336981 36 6
-4.3313532 -0.76451409 1.0154291 38 14
-4.2084274 -0.74205953 -0.074591354 48 7
-4.3625717 -0.76845431 1.1869441 62 15
-4.2391357 -0.74060965 0.075115055 53 8
-4.2361965 -0.73857254 0.22535871 53 9
-4.245625 -0.73945284 0.3770355 48 10
-4.2870493 -0.74512601 0.53427511 42 11
-0.96618009 -0.16775669 -0.12040686 2 4
-4.307199 -0.74707943 0.69237918 45 12
-4.3331261 -0.75079745 0.85482407 42 13
-4.2036395 -0.72760582 -0.22357912 36 6
-4.3339953 -0.74938899 1.015429 39 14
-4.2109919 -0.72736478 -0.074591354 48 7
-4.35571 -0.75157905 1.1843562 60 15
-4.2357817 -0.72479683 0.075010344 52 8
-4.2505612 -0.72579783 0.22598673 55 9
-4.2540722 -0.72563428 0.37755841 48 10
-4.2935376 -0.73082286 0.53476256 42 11
-0.91979164 -0.15639703 -0.11455714 3 4
-4.3156228 -0.73303223 0.69331771 46 12
-4.3163633 -0.73238295 0.8510083 42 13
-4.2061534 -0.71292889 -0.22357912 36 6
-4.3385062 -0.73458225 1.0158789 38 14
-4.21942 -0.71366149 -0.074696064 50 7
-4.3583069 -0.73636901 1.1843561 60 15
-4.2402587 -0.7103371 0.07504525 53 8
-4.2491288 -0.71029848 0.2257774 55 9
-4.2585444 -0.71110845 0.37773275 47 10
-4.27844 -0.71289575 0.53256893 41 11
-0.95949507 -0.15970367 -0.11943191 2 4
-4.3259492 -0.71925914 0.69456905 46 12
-4.3612413 -0.72512704 -0.38679731 1 5
-4.3227677 -0.71795595 0.85177112 40 13
-4.206646 -0.6979143 -0.22347446 38 6
-4.350657 -0.72102654 1.0181285 39 14
-4.2278047 -0.69990939 -0.074800782 48 7
-4.3665676 -0.72209752 1.1859088 62 15
-4.2367926 -0.69455993 0.07494054 52 8
-4.2436976 -0.69417208 0.22535869 55 9
-4.2590342 -0.69591653 0.37755841 48 10
-4.2789435 -0.69763732 0.53232521 42 11
-0.97180241 -0.15826797 -0.12089435 2 4
-4.3323331 -0.7047897 0.69519484 48 12
-4.304749 -0.70030224 -0.38156793 2 5
-4.3252468 -0.70286208 0.85177159 40 13
-4.2011704 -0.68194586 -0.22305575 38 6
-4.3416052 -0.70396501 1.0154291 39 14
-4.2262735 -0.68450671 -0.07473097 50 7
-4.3709688 -0.7071594 1.1864265 60 15
-4.2451138 -0.68071717 0.075045243 53 8
-4.2382069 -0.67809129 0.22494 56 9
-4.2614374 -0.68104637 0.37755841 48 10
-4.2852731 -0.68332076 0.53281265 42 11
-4.2775507 -0.68132496 -0.53183764 2 4
-4.3133078 -0.68624848 0.69175333 48 12
-4.3032327 -0.68464553 -0.38121936 2 5
-4.3354306 -0.68899137 0.85329759 40 13
-4.203526 -0.6672768 -0.22305578 38 6
-4.3401871 -0.68819523 1.0145293 39 14
-4.2187619 -0.66818589 -0.07455644 45 7
-4.3772268 -0.69250119 1.1874617 58 15
-4.2553673 -0.66713363 0.075184874 55 8
-4.2405481 -0.66329396 0.22494003 56 9
-4.2559152 -0.66493672 0.37686121 50 10
-4.2895937 -0.66866487 0.53305644 41 11
-4.272058 -0.66516775 -0.53086269 2 4
-4.3195815 -0.67179412 0.69237918 45 12
-4.2898459 -0.66716957 -0.37982482 4 5
-4.3358688 -0.67355216 0.85291588 39 13
-4.2078037 -0.65290695 -0.22316048 38 6
-4.350266 -0.67423368 1.0163289 39 14
-4.2151403 -0.6525377 -0.07445173 50 7
-4.3738899 -0.67633295 1.1859089 62 15
-4.2458091 -0.6504584 0.074975431 53 8
-4.2586322 -0.65090168 0.2257774 55 9
-4.2621489 -0.65067798 0.37720981 48 10
-4.3036766 -0.65548068 0.5345189 42 11
-0.96163124 -0.14629157 -0.11943201 2 4
-4.3218994 -0.65671164 0.69237906 45 12
-4.2882099 -0.65159249 -0.37947625 4 5
-4.3246069 -0.65635192 0.8502447 42 13
-4.2179551 -0.63941216 -0.22357912 40 6
-4.3564458 -0.65962756 1.0172286 38 14
-4.2213464 -0.63841903 -0.074521542 48 7
-4.376224 -0.6610598 1.1859088 62 15
-4.2401433 -0.63445103 0.074835815 55 8
-4.2687798 -0.63721162 0.22619608 55 9
-4.2683358 -0.6363849 0.37755841 48 10
-4.2921934 -0.63840944 0.53281265 42 11
-0.98962581 -0.14701757 -0.12284426 2 4
-4.328074 -0.64220226 0.69300485 48 12
-4.2904577 -0.63662076 -0.37947622 4 5
-4.3326964 -0.64211535 0.85138988 37 13
-4.2083077 -0.62292904 -0.22295111 42 6
-4.3645048 -0.64527261 1.0185782 38 14
-4.2294841 -0.62455618 -0.07462626 50 7
-4.3785057 -0.64577985 1.1859089 62 15
-4.2561831 -0.62166828 0.075080156 58 8
-4.2512136 -0.6194281 0.22514933 56 9
-4.2725029 -0.62176752 0.37773275 47 10
-4.2865381 -0.62228322 0.53183776 42 11
-4.3043275 -0.6240977 -0.53403121 8 4
-4.3400636 -0.62850589 0.69456905 46 12
-4.2985702 -0.62249696 -0.37999919 4 5
-4.3349113 -0.62698847 0.85138988 40 13
-4.2084794 -0.60795081 -0.22284643 44 6
-4.3570876 -0.62864232 1.0163289 38 14
-4.2435145 -0.61149895 -0.074835688 50 7
-4.3845568 -0.63104337 1.1869441 62 15
-4.2563481 -0.60652548 0.07504525 55 8
-4.2533503 -0.60458362 0.22514933 56 9
-4.272675 -0.60656983 0.37755844 48 10
-4.2926149 -0.60787213 0.53232521 42 11
-4.3265834 -0.61114198 0.69206613 46 12
-4.3125529 -0.60916013 -0.38104504 5 5
-4.3390179 -0.61212611 0.85177159 42 13
-4.2204642 -0.59464997 -0.22336981 46 6
-4.3592553 -0.61342919 1.0163288 39 14
-4.2278004 -0.59417862 -0.074521542 50 7
-4.3924727 -0.61654007 1.1884972 60 15
-4.2624002 -0.59221566 0.075115062 55 8
-4.2553315 -0.59047657 0.22514933 56 9
-4.266871 -0.5905599 0.37686118 48 10
-4.3025765 -0.59397024 0.53330016 42 11
-4.330543 -0.59706086 0.69237906 43 12
-4.292942 -0.59111321 -0.37912762 4 5
-4.3489089 -0.59804612 0.85329759 42 13
-4.2225146 -0.57991409 -0.22336981 48 6
-4.3575087 -0.59767914 1.0154291 38 14
-4.2257857 -0.5796119 -0.07445173 48 7
-4.383009 -0.60039747 1.1853912 68 15
-4.2504692 -0.57619715 0.074870713 55 8
-4.2652845 -0.57668841 0.22556804 55 9
-4.2689066 -0.57566196 0.37686118 48 10
-4.3064899 -0.5799638 0.53354388 43 11
-4.3384748 -0.58273065 0.69331771 48 12
-4.3068271 -0.57771355 -0.38017344 4 5
-4.3353019 -0.58153313 0.8502447 40 13
-4.2263937 -0.56617343 -0.22347446 51 6
-4.3613977 -0.58348507 1.0158789 40 14
-4.2337294 -0.56565195 -0.07455644 50 7
-4.3831635 -0.58483869 1.1848737 62 15
-4.2524548 -0.56135666 0.074870713 55 8
-4.2672715 -0.56179619 0.22556804 55 9
-4.2747431 -0.56202191 0.37720981 48 10
-4.3006153 -0.56389546 0.53256893 43 11
-4.3404827 -0.56758183 0.69331771 46 12
-4.3245234 -0.56549489 -0.38156793 1 5
-4.3450913 -0.56741321 0.85177159 42 13
-4.218442 -0.55012667 -0.22295111 57 6
-4.3653407 -0.56850791 1.0163288 39 14
-4.2455926 -0.55215943 -0.07473097 48 7
-4.3813472 -0.56903833 1.1838385 62 15
-4.2583561 -0.54701895 0.074940547 53 8
-4.2593002 -0.54562914 0.22504467 56 9
-4.2786555 -0.54734963 0.3773841 48 10
-4.3025575 -0.54888093 0.53256893 43 11
-4.3463564 -0.55292571 0.69394344 46 12
-4.3470454 -0.55224353 0.85177159 42 13
-4.2242994 -0.53590089 -0.22316045 57 6
-4.3634324 -0.55277663 1.0154291 38 14
-4.2455106 -0.53708613 -0.074696071 50 7
-4.3986392 -0.55567688 1.1879796 62 15
-4.2642069 -0.53264767 0.075010344 56 8
-4.2651434 -0.53125173 0.22525403 55 9
-4.2785625 -0.53216386 0.37720981 48 10
-4.3005071 -0.53337014 0.53208148 42 11
-4.3404179 -0.53678185 0.69269192 46 12
-4.3547916 -0.5377878 0.85291636 43 13
-4.2261448 -0.52115095 -0.22316048 55 6
-4.365335 -0.537543 1.0154291 39 14
-4.2414055 -0.52153099 -0.074591354 48 7
-4.4005527 -0.54031932 1.1879797 65 15
-4.2660403 -0.51775843 0.075010344 55 8
-4.2709365 -0.51684004 0.22546336 56 9
-4.2785063 -0.51624084 0.3770355 48 10
-4.3141675 -0.51977986 0.53354388 43 11
-4.3344207 -0.5206852 0.69144052 46 12
-4.3567333 -0.52182299 0.85291636 37 13
-4.2359586 -0.50660741 -0.22357912 27 6
-4.3672762 -0.5215385 1.0154291 39 14
-4.2392292 -0.50624716 -0.074521549 45 7
-4.3985744 -0.52449858 1.1869441 62 15
-4.2559943 -0.50071722 0.074800916 56 8
-4.2767701 -0.50164813 0.22567271 56 9
-4.2842402 -0.50176638 0.3773841 47 10
-4.3042135 -0.50258273 0.53208148 42 11
-4.342186 -0.50548041 0.69237918 45 12
-4.3468289 -0.505252 0.85062635 40 13
-4.3748765 -0.5069645 1.0167786 38 14
-4.252974 -0.49208617 -0.07473097 26 7
-4.3927917 -0.50748563 1.1848737 62 15
-4.2616887 -0.48631224 0.074870713 53 8
-4.2784953 -0.48671624 0.22567271 55 9
-4.2879448 -0.48703426 0.37755841 48 10
-4.3098865 -0.48800167 0.53256887 42 11
-4.3557014 -0.49164951 0.69425631 48 12
-4.3524675 -0.49051514 0.85138947 40 13
-4.384366 -0.49256039 1.0185783 41 14
-4.2665906 -0.4785749 -0.074940406 14 7
-4.4041343 -0.49322468 1.1874617 60 15
-4.2713108 -0.4723112 0.075010344 55 8
-4.2722273 -0.47090417 0.22525403 55 9
-4.2876387 -0.47184452 0.3773841 48 10
-0.58906817 -0.06472151 -0.093860671 18 3
-4.3115635 -0.47295532 0.53256887 42 11
-4.3593545 -0.47665676 0.69456905 46 12
-4.3600078 -0.47595933 0.85253429 40 13
-4.3763723 -0.47619897 1.0163288 40 14
-4.2622705 -0.46303076 -0.074835688 11 7
-4.4039087 -0.47763997 1.1869441 62 15
-4.2769108 -0.45782426 0.075080156 56 8
-4.2778172 -0.45641109 0.22546338 56 9
-4.2932224 -0.45729694 0.37773275 48 10
-0.53429008 -0.056816276 -0.085100345 21 3
-4.3171368 -0.45832026 0.53305644 41 11
-4.3472414 -0.4599829 0.69237918 43 12
-4.3616424 -0.46073595 0.85253477 40 13
-4.3741322 -0.46051255 1.0154291 39 14
-4.247951 -0.44647753 -0.074556455 11 7
-4.4074707 -0.462466 1.1874617 58 15
-4.2784829 -0.44289318 0.075080156 55 8
-4.2793069 -0.44222367 0.22546338 53 9
-4.29281 -0.44210476 0.37755841 48 10
-0.56199551 -0.05777926 -0.089480519 20 3
-4.3206854 -0.44345048 0.53330022 42 11
-0.63192135 -0.064745508 -0.077996351 14 4
-4.3526726 -0.4459669 0.69300485 45 12
-4.3768964 -0.44690403 0.85520566 40 13
-4.3757124 -0.44523999 1.015429 39 14
-4.2673125 -0.43421 -0.074870586 9 7
-4.4032145 -0.44726196 1.1859089 62 15
-4.2799277 -0.42870262 0.075080156 55 8
-4.2808247 -0.42728227 0.22546338 55 9
-4.2883797 -0.42652571 0.37703556 48 10
-0.55432129 -0.055133238 -0.088229038 20 3
-4.3280582 -0.4297083 0.53403145 41 11
-0.57682097 -0.057167761 -0.071171731 16 4
-4.3640318 -0.43174279 0.69456917 46 12
-4.3646774 -0.43103644 0.85253477 40 13
-0.91828257 -0.090523966 -0.048358414 5 6
-4.3810439 -0.4311097 1.0163288 39 14
-4.2648215 -0.41892055 -0.074800774 8 7
-4.4047489 -0.4318901 1.1859089 62 15
-4.2734375 -0.41299078 0.074940547 52 8
-4.2862659 -0.41272056 0.22567271 55 9
-4.2937365 -0.41268364 0.3773841 48 10
-0.5387795 -0.051688783 -0.085726082 21 3
-4.3236032 -0.41403118 0.53330016 42 11
-0.59677786 -0.057042744 -0.073609121 15 4
-4.3655124 -0.41650566 0.69456917 48 12
-4.3602924 -0.41524079 0.85138988 39 13
-0.88678026 -0.084293984 -0.046683662 20 6
-4.3864017 -0.41618133 1.0172286 38 14
-4.2801938 -0.40535164 -0.075045109 8 7
-4.4177694 -0.41760275 1.1890148 62 15
-4.2788339 -0.39844179 0.075010344 52 8
-4.2837029 -0.39738709 0.22546338 55 9
-4.3030863 -0.39842775 0.37808183 47 10
-0.51928663 -0.047989957 -0.08259739 22 3
-4.3190913 -0.39838928 0.53256887 41 11
-0.54557836 -0.050227653 -0.067271851 17 4
-4.3708735 -0.40162706 0.69519484 46 12
-4.3675809 -0.40055582 0.85253429 36 13
-0.87115747 -0.079741538 -0.045846283 30 6
-4.3839474 -0.40051383 1.0163289 39 14
-4.2815828 -0.39040843 -0.075045116 6 7
-4.4191999 -0.40217808 1.1890147 62 15
-4.2921486 -0.3845751 0.075219773 55 8
-4.2890429 -0.38278672 0.22567271 55 9
-4.304451 -0.38340467 0.37808135 47 10
-0.53519201 -0.047576308 -0.085100345 21 3
-4.3263884 -0.3838366 0.53330016 40 11
-0.55761445 -0.049373403 -0.068734348 17 4
-4.3643785 -0.38567179 0.69394344 46 12
-4.3748198 -0.38582501 0.85367918 40 13
-0.8853575 -0.077925704 -0.046578985 42 6
-4.3853183 -0.38520837 1.0163288 40 14
-4.2948713 -0.37650818 -0.075254537 6 7
-4.4205775 -0.38674966 1.1890148 62 15
-4.3014345 -0.37027523 0.075359389 52 8
-4.2943325 -0.36815494 0.22588207 55 9
-4.2978234 -0.3676976 0.37738416 48 10
-0.52748203 -0.045035664 -0.083848871 21 3
-4.3375921 -0.36957598 0.53451896 42 11
-0.53404802 -0.045408498 -0.065809429 18 4
-4.3637295 -0.37026778 0.69363052 45 12
-4.3741837 -0.37038487 0.85329759 42 13
-0.89358479 -0.075507618 -0.046997674 33 6
-4.3944035 -0.37055326 1.0181284 39 14
-4.2861962 -0.36067441 -0.075080007 6 7
-4.4199758 -0.37115592 1.1884973 60 15
-4.2947297 -0.35459989 0.07521978 53 8
-4.3075352 -0.35414347 0.22651009 55 9
-4.2990799 -0.35269299 0.3773841 48 10
-0.50794804 -0.041582517 -0.080720179 22 3
-4.3388553 -0.35443151 0.5345189 41 11
-0.55398852 -0.045156773 -0.068246812 17 4
-4.3748398 -0.35583487 0.69519484 46 12
-4.3715358 -0.35479715 0.85253429 42 13
-0.89185226 -0.072226726 -0.046893008 54 6
-4.4014974 -0.35568351 1.0194782 40 14
-4.2874289 -0.34571153 -0.075080007 6 7
-4.4135413 -0.35510513 1.1864265 60 15
-4.2959414 -0.33960721 0.07521978 56 8
-4.3147182 -0.33957517 0.22682409 52 9
-4.3161755 -0.33893299 0.37877864 48 10
-0.50415146 -0.039500583 -0.080094449 22 3
-4.3281908 -0.33835548 0.53305638 41 11
-0.54622644 -0.042605367 -0.067271851 17 4
-4.3721166 -0.34025398 0.69456917 46 12
-4.3747048 -0.33968732 0.85291588 39 13
-0.87417728 -0.067724891 -0.04595096 82 6
-4.404655 -0.34046623 1.019928 40 14
-4.2925982 -0.33105096 -0.075149834 6 7
-4.4147534 -0.33969674 1.1864265 58 15
-4.3010883 -0.32491064 0.075289585 53 8
-4.2978964 -0.32391414 0.22588207 55 9
-4.3113713 -0.32341734 0.37825617 48 10
-0.51610547 -0.038624931 -0.081971668 22 3
-4.3333058 -0.32354179 0.53354394 41 11
-0.53448731 -0.039906941 -0.065809436 18 4
-4.3850408 -0.32663497 0.69644648 49 12
-4.385654 -0.32514036 0.85482407 40 13
-0.87042469 -0.064378366 -0.045741614 85 6
-4.3979864 -0.32528397 1.0181285 40 14
-4.3096261 -0.31799138 -0.075429067 6 7
-4.4312696 -0.32618946 1.1905677 58 15
-4.3061309 -0.3109338 0.075359389 53 8
-4.2989464 -0.30966088 0.22588207 53 9
-4.3203692 -0.30968818 0.3789534 48 10
-0.5674597 -0.040576376 -0.090106256 19 3
-4.3462343 -0.31001741 0.53500628 41 11
-0.57025778 -0.040676557 -0.070196718 16 4
-4.3821583 -0.31181124 0.69582063 46 12
-4.3847499 -0.3104564 0.85444248 40 13
-0.87461793 -0.061772969 -0.045950957 90 6
-4.3990402 -0.3106977 1.0181284 40 14
-4.3006835 -0.30299559 -0.075254545 6 7
-4.4265451 -0.31108651 1.1890147 56 15
-4.3111291 -0.29692712 0.075429209 55 8
-4.30792 -0.29595074 0.22630075 53 9
-4.3074589 -0.29440847 0.37773275 47 10
-0.55182475 -0.037619658 -0.087603308 20 3
-4.3551607 -0.29614061 0.53598124 41 11
-0.53474021 -0.036361068 -0.065809436 18 4
-4.3792267 -0.29701024 0.69519484 48 12
-4.3916316 -0.29631063 0.8555873 42 13
-0.87681073 -0.059006363 -0.046055626 90 6
-4.407824 -0.29663146 1.019928 39 14
-4.317626 -0.2898035 -0.075533777 6 7
-4.4179149 -0.29576054 1.1864266 51 15
-4.3001175 -0.28184438 0.07521978 53 8
-4.3088775 -0.28166333 0.22630075 55 9
-4.3123875 -0.28038117 0.37808135 47 10
-0.54800391 -0.035533868 -0.086977564 20 3
-4.3521576 -0.28144041 0.53549385 42 11
-0.59428638 -0.038430642 -0.073121645 16 4
-4.376245 -0.2822322 0.69456917 46 12
-4.3827939 -0.28111732 0.85367918 40 13
-0.87500852 -0.055970907 -0.04595096 82 6
-4.4087839 -0.28201282 1.0199281 40 14
-4.3045936 -0.27459389 -0.075289451 6 7
-4.4169436 -0.28098571 1.1859089 53 15
-4.3051596 -0.26557729 0.075289585 53 8
-4.3218889 -0.26585215 0.22692879 53 9
-4.3193984 -0.26418564 0.37860429 50 10
-0.54419303 -0.033188928 -0.086351834 21 3
-4.3413167 -0.26400632 0.53403133 41 11
-0.63406497 -0.038447857 -0.077996351 14 4
-4.3812399 -0.26566562 0.69519484 46 12
-4.38972 -0.26464099 0.85482407 40 13
-0.87920421 -0.052850388 -0.046160299 73 6
-4.4118252 -0.26442921 1.0203779 41 14
-4.3155966 -0.2586616 -0.075463966 6 7
-4.4199181 -0.26413906 1.1864265 48 15
-4.3060164 -0.25129923 0.075289585 53 8
-4.3108263 -0.25007123 0.22630075 53 9
-4.3362069 -0.2500239 0.3799988 52 10
-0.56796521 -0.03274864 -0.090106256 19 3
-4.3421688 -0.24960838 0.53403139 41 11
-0.60247946 -0.03452773 -0.074096598 15 4
-4.3979187 -0.25127199 0.69769794 46 12
-0.85931945 -0.048946153 -0.075302586 53 5
-4.3944936 -0.25030687 0.8555873 40 13
-0.87139851 -0.049481597 -0.045741614 93 6
-4.4068413 -0.24946705 1.0190283 39 14
-4.3224635 -0.24393371 -0.075568691 6 7
-4.416955 -0.24849294 1.1853912 40 15
-4.3188477 -0.23692399 0.075499013 52 8
-4.3116732 -0.23502198 0.22630075 53 9
-4.340991 -0.23585916 0.3803474 50 10
-0.52862638 -0.02862934 -0.083848871 21 3
-4.358871 -0.23530474 0.53598124 41 11
-0.59466749 -0.031997826 -0.073121585 16 4
-4.3908782 -0.23549552 0.69644636 48 12
-4.3914194 -0.23475596 0.85482407 36 13
-0.86957145 -0.046333253 -0.045636941 100 6
-4.4076848 -0.23408264 1.0190283 39 14
-4.3192949 -0.22863249 -0.075498886 6 7
-4.423583 -0.2333786 1.1869441 36 15
-4.3236427 -0.22205302 0.075568825 50 8
-4.320446 -0.22037582 0.22671942 53 9
-4.3338666 -0.21954481 0.37965015 52 10
-0.5918594 -0.029878685 -0.093860678 18 3
-4.3537188 -0.21978766 0.53525013 42 11
-0.63442731 -0.031916626 -0.077996358 14 4
-4.3837814 -0.21977235 0.69519484 48 12
-4.3981333 -0.21895181 0.85596889 42 13
-0.88569391 -0.043937456 -0.046474319 71 6
-4.4124064 -0.21811846 1.0199281 38 14
-4.3160725 -0.21335638 -0.075429074 8 7
-4.4089355 -0.21717556 1.1828032 36 15
-4.3104458 -0.2055378 0.075324498 50 8
-4.3211889 -0.20529318 0.22671942 53 9
-4.3306274 -0.20422663 0.37930161 52 10
-0.52092481 -0.024475006 -0.08259739 22 3
-4.3683753 -0.20447968 0.53695625 41 11
-4.3963614 -0.20501971 0.69707209 46 12
-4.394948 -0.20341749 0.85520566 43 13
-0.88783693 -0.040937502 -0.046578985 63 6
-4.4131055 -0.20348501 1.0199281 39 14
-4.322783 -0.19856431 -0.075533777 9 7
-4.4077368 -0.20169678 1.1822857 35 15
-4.3071074 -0.19106528 0.075254671 52 8
-4.3298268 -0.19131497 0.2271381 53 9
-4.3432231 -0.19038899 0.38034743 50 10
-0.59204906 -0.025849326 -0.093860678 18 3
-4.3452306 -0.18895742 0.53403139 40 11
-4.4049115 -0.19078252 0.69832361 49 12
-4.3916755 -0.1886735 0.85444289 40 13
-0.87799066 -0.037566185 -0.046055626 52 6
-4.4215436 -0.18918256 1.0217277 40 14
-4.3334069 -0.18465383 -0.0757083 9 7
-4.408381 -0.18707891 1.1822854 35 15
-4.3117137 -0.17694519 0.075324483 50 8
-4.3264775 -0.17603841 0.22692879 55 9
-4.339849 -0.17582384 0.3799988 48 10
-4.361701 -0.17518423 0.53598124 41 11
-4.4016027 -0.17524701 0.69769782 46 12
-4.3981624 -0.17434227 0.8555873 36 13
-0.86813188 -0.034260828 -0.045532268 39 6
-4.4202294 -0.17367068 1.0212777 40 14
-4.3360233 -0.16960537 -0.075743206 9 7
-4.4090071 -0.17168953 1.1822854 33 15
-4.3202977 -0.1621944 0.075464107 52 8
-4.3270659 -0.160935 0.22692879 53 9
-4.3524103 -0.16035636 0.38104469 50 10
-4.3622861 -0.15995787 0.53598124 41 11
-4.3962655 -0.15966731 0.69675928 45 12
-4.4046578 -0.1584316 0.85673207 39 13
-0.88421941 -0.031650279 -0.046369642 28 6
-4.418889 -0.15740019 1.0208279 39 14
-4.3285947 -0.15418391 -0.075603582 11 7
-4.4115109 -0.15636545 1.1828032 33 15
-4.3288579 -0.14662831 0.075603731 48 8
-4.3276272 -0.14507437 0.2269288 53 9
-4.3409963 -0.1447641 0.37999883 52 10
-4.3668108 -0.14409909 0.53646874 40 11
-4.3987947 -0.14361747 0.69707197 46 12
-4.4051838 -0.14305645 0.85673207 39 13
-0.88632077 -0.028628042 -0.046474315 28 6
-4.4233069 -0.14209945 1.0217277 40 14
-4.3271327 -0.13825388 -0.075568691 11 7
-4.4023991 -0.13988958 1.1802149 35 15
-4.3253455 -0.13139533 0.075533919 50 8
-4.3320994 -0.130087 0.22713813 55 9
-4.3454804 -0.12897071 0.38034743 48 10
-4.3791928 -0.12920633 0.5379312 41 11
-4.3992701 -0.12826183 0.69707209 48 12
-4.4096031 -0.12702265 0.85749537 43 13
-0.90039492 -0.025779432 -0.04720702 19 6
-4.4354858 -0.1262188 1.0244272 39 14
-4.3255901 -0.12309152 -0.075533777 11 7
-4.4047918 -0.12457598 1.1807326 33 15
-4.3178024 -0.1153276 0.075394303 52 8
-4.3365402 -0.11431441 0.22734746 53 9
-4.3538713 -0.11400986 0.38104472 48 10
-4.3716993 -0.11295081 0.53695625 41 11
-4.4076099 -0.1123381 0.69832367 46 12
-4.4080572 -0.1115797 0.85711378 40 13
-0.90247601 -0.022686474 -0.047311693 19 6
-4.447588 -0.11102694 1.0271264 39 14
-4.3280115 -0.1072861 -0.075568691 13 7
-4.4052186 -0.10843068 1.1807325 34 15
-4.3281746 -0.10048693 0.075568825 50 8
-4.3349156 -0.09912955 0.22724277 53 9
