# .PCD v0.7 - Point Cloud Data file format
VERSION 0.7
FIELDS x y z intensity ring
SIZE 4 4 4 4 2
TYPE F F F F U
COUNT 1 1 1 1 1
WIDTH 1117
HEIGHT 1
VIEWPOINT 0 0 0 1 0 0 0
POINTS 1117
DATA ascii
1.6104301 -0.19174711 -0.1418896 1 5
1.5998631 -0.19615504 -0.14101805 3 5
1.6512803 -0.20304428 -0.087191679 1 6
1.616959 -0.20398276 -0.14258684 10 5
1.6267838 -0.20579906 -0.085935615 1 6
1.6122854 -0.20911317 -0.14223821 30 5
1.6240752 -0.21121877 -0.085830949 10 6
1.6095707 -0.21447667 -0.14206392 52 5
1.5995719 -0.21371259 -0.084574886 36 6
1.5792023 -0.216043 -0.13944924 72 5
1.5922889 -0.22321485 -0.14066942 77 5
1.590169 -0.22348368 -0.0841562 82 6
1.5954443 -0.22933853 -0.14101805 80 5
1.6012402 -0.23074225 -0.084784232 96 6
1.5965639 -0.23547532 -0.14119235 82 5
1.5964322 -0.2360253 -0.084574886 64 6
1.5839123 -0.23926145 -0.14014649 77 5
1.5870053 -0.24539779 -0.14049512 85 5
1.6875001 -0.26214364 -0.029808618 2 7
1.7097836 -0.27019131 -0.21254005 1 4
1.5861388 -0.25093597 -0.14049511 77 5
1.5761193 -0.2499148 -0.083632834 1 6
1.6668718 -0.26460302 -0.029459571 2 7
1.6657643 -0.26889995 -0.20717782 1 4
1.5931205 -0.25774392 -0.14119235 77 5
1.5634526 -0.2532241 -0.083004802 1 6
1.6422517 -0.26657513 -0.029040717 20 7
1.5982229 -0.26372436 -0.19889069 4 4
1.5961887 -0.26367491 -0.14154099 80 5
1.5940863 -0.2638993 -0.084679559 1 6
1.6334203 -0.27099681 -0.028901096 84 7
1.5855477 -0.26732147 -0.19742826 13 4
1.5874001 -0.26791868 -0.14084372 77 5
1.6207255 -0.27412516 -0.086144969 1 6
1.6324644 -0.2766968 -0.028901096 100 7
1.6022117 -0.27588615 -0.19962192 41 4
1.5786014 -0.27210435 -0.14014648 63 5
1.5803963 -0.27298185 -0.084051527 1 6
1.6473017 -0.2848345 -0.029180335 100 7
1.5895568 -0.27913773 -0.19815966 54 4
1.577642 -0.27761307 -0.14014648 30 5
1.5912844 -0.28029999 -0.084679559 1 6
1.6167583 -0.28536904 -0.028656762 100 7
1.5651251 -0.28048259 -0.19523479 90 4
1.6060222 -0.2886796 -0.08551693 1 6
1.6275609 -0.29313764 -0.028866194 100 7
1.5602309 -0.28523019 -0.19474728 91 4
1.5874243 -0.29077411 -0.14119236 2 5
1.5970956 -0.29312184 -0.085098244 3 6
1.6166934 -0.29701045 -0.028691664 100 7
1.7085816 -0.31697536 0.030332243 1 8
1.5689324 -0.29276752 -0.19596584 93 4
1.6059849 -0.29997167 -0.14293547 2 5
1.5999891 -0.29942974 -0.085307591 1 6
1.6136814 -0.30228376 -0.028656766 100 7
1.6721523 -0.3159565 0.029703956 1 8
1.5621022 -0.29685685 -0.19523479 93 4
1.5951418 -0.30371249 -0.14206392 3 5
1.606835 -0.30622956 -0.085726276 1 6
1.6224375 -0.30978999 -0.028831286 100 7
1.641585 -0.3161194 0.029180385 13 8
1.5688522 -0.30381751 -0.19620956 96 4
1.6057564 -0.31183657 -0.085726283 1 6
1.6272349 -0.31659722 -0.028936002 100 7
1.5560967 -0.30698663 -0.19474714 93 4
1.5889837 -0.31433901 -0.084888898 3 6
1.6280814 -0.32266408 -0.028970908 100 7
1.6589475 -0.3314904 0.029529436 78 8
1.6230493 -0.32549578 -0.26218417 1 3
1.5511231 -0.31163454 -0.19425985 96 4
1.6309512 -0.32856119 -0.087191686 3 6
1.6191615 -0.32648018 -0.028831286 100 7
1.6402024 -0.33340481 0.029215293 49 8
1.6297029 -0.33245552 -0.26343563 1 3
1.5539711 -0.31757146 -0.19474714 99 4
1.60246 -0.3283549 -0.085726269 3 6
1.6140945 -0.33132598 -0.02876148 100 7
1.640987 -0.33953339 0.029250199 68 8
1.5898499 -0.33011034 -0.25717825 4 3
1.564514 -0.32541943 -0.19620956 99 4
1.5780106 -0.32851398 -0.14101805 77 5
1.6091248 -0.33557755 -0.086144961 3 6
1.6168429 -0.33777604 -0.028831286 100 7
1.6378348 -0.34484738 0.029215291 72 8
1.6002843 -0.33810797 -0.2590555 27 3
1.5672526 -0.33170062 -0.19669722 99 4
1.5904981 -0.33691043 -0.14223821 85 5
1.6040361 -0.34036326 -0.085935615 3 6
1.6176101 -0.34383363 -0.028866194 100 7
1.6405318 -0.35140011 0.029285101 72 8
1.5720565 -0.33788076 -0.2546753 31 3
1.5544415 -0.3346625 -0.19523479 93 4
1.585417 -0.34162092 -0.1418896 82 5
1.595029 -0.3442747 -0.085516922 7 6
1.624218 -0.35116833 -0.029005809 100 7
1.6432029 -0.35797575 0.029354909 47 8
1.7035189 -0.37173858 0.091378614 1 9
1.5689378 -0.34294441 -0.25436243 59 3
1.5532638 -0.34008649 -0.19523479 96 4
1.5919998 -0.34885886 -0.14258686 85 5
1.5918667 -0.34941217 -0.085412256 29 6
1.6190763 -0.35597697 -0.028936002 100 7
1.6302292 -0.36111459 0.029145481 13 8
1.6846623 -0.37378913 0.09043657 3 9
1.5793009 -0.35099027 -0.25623965 85 3
1.559818 -0.34723172 -0.19620956 96 4
1.5868827 -0.3535473 -0.14223821 87 5
1.5964855 -0.35627162 -0.085726276 52 6
1.6080658 -0.3594453 -0.028761476 100 7
1.6268461 -0.36692393 0.087401077 15 9
1.5607247 -0.35258329 -0.25342381 100 3
1.5585965 -0.35267439 -0.19620956 96 4
1.5817527 -0.35820433 -0.1418896 87 5
1.6030233 -0.36360952 -0.086144969 45 6
1.6165516 -0.36727148 -0.028936002 100 7
1.643263 -0.37605563 0.029424723 1 8
1.5537088 -0.35670313 -0.25248522 100 3
1.5670289 -0.36033702 -0.19742826 96 4
1.5882592 -0.36551082 -0.14258684 87 5
1.6270159 -0.37532708 -0.029145429 100 7
1.6381114 -0.38059768 0.029354913 1 8
1.6379277 -0.3811577 0.088133782 52 9
1.5544411 -0.36230177 -0.25279808 97 3
1.5542269 -0.3628239 -0.19596586 99 4
1.5869737 -0.37105265 -0.14258684 90 5
1.5966216 -0.37360233 -0.085935615 1 6
1.6276428 -0.38146043 -0.029180335 100 7
1.6562347 -0.3909069 0.029703956 1 8
1.6463057 -0.38917017 0.088657141 55 9
1.5627782 -0.37000111 -0.25436243 100 3
1.5568138 -0.36916301 -0.1964533 99 4
1.5896119 -0.3772333 -0.14293548 81 5
1.6030804 -0.38102069 -0.086354308 1 6
1.6185199 -0.38528734 -0.029040717 100 7
1.6587493 -0.39761817 0.029773766 1 8
1.6468792 -0.3953808 0.088761814 43 9
1.5633976 -0.37591577 -0.2546753 100 3
1.5535858 -0.37413025 -0.19620956 90 4
1.5805372 -0.38091251 -0.14223821 93 5
1.5862083 -0.38286516 -0.085516922 3 6
1.6171652 -0.39093468 -0.029040717 100 7
1.6534654 -0.40246001 0.029703956 1 8
1.6513103 -0.40254608 0.089075826 9 9
1.5524811 -0.37902823 -0.25311098 100 3
1.5541986 -0.38002247 -0.1964533 48 4
1.5791982 -0.38642731 -0.14223823 90 5
1.6120204 -0.39505529 -0.08698234 1 6
1.6157907 -0.39657724 -0.029040717 100 7
1.6404027 -0.40535098 0.02949453 1 8
1.6847932 -0.41694415 0.090959929 2 9
1.570349 -0.38862205 -0.31445327 3 2
1.5511484 -0.38444507 -0.25311095 100 3
1.5778396 -0.39193735 -0.14223821 87 5
1.595126 -0.39682254 -0.086144961 3 6
1.6221581 -0.4041487 -0.029180335 100 7
1.6506156 -0.41399351 0.02970396 1 8
1.6601551 -0.4166941 0.089703858 3 9
1.5613664 -0.3921881 -0.3129268 9 2
1.7332536 -0.43568483 0.15635732 1 10
1.5574598 -0.39178485 -0.25436243 100 3
1.559276 -0.3925311 -0.19742826 3 4
1.5841898 -0.39939094 -0.14293547 81 5
1.6092231 -0.40629962 -0.08698234 3 6
1.6343803 -0.41295484 -0.029424667 100 7
1.6531097 -0.42045066 0.029773768 1 8
1.6529577 -0.42071915 0.089389846 7 9
1.5410324 -0.39251783 -0.30911064 25 2
1.687394 -0.43011132 0.15234815 8 10
1.5618943 -0.39841217 -0.25530106 97 3
1.5771999 -0.40260956 -0.19986564 2 4
1.5944383 -0.40760294 -0.14398134 76 5
1.619476 -0.41460586 -0.087610364 3 6
1.6213789 -0.41539454 -0.029215237 92 7
1.6517063 -0.42593032 0.02977377 1 8
1.5605645 -0.40358943 -0.25530106 81 3
1.556568 -0.40313554 -0.19742826 3 4
1.5776486 -0.40888909 -0.14258684 90 5
1.5987601 -0.4149563 -0.086563647 1 6
1.6179839 -0.42054871 -0.029180335 22 7
1.6579477 -0.43371749 0.029913386 1 8
1.646116 -0.43123633 0.089180499 47 9
1.5174339 -0.39752519 -0.30491281 97 2
1.6478094 -0.43198732 0.14903623 65 10
1.5476818 -0.40602678 -0.25342381 39 3
1.5781906 -0.41461939 -0.20035312 2 4
1.5800657 -0.41540682 -0.14293547 61 5
1.6166164 -0.42561957 -0.087610364 3 6
1.6493777 -0.4348605 -0.029773716 99 7
1.6409612 -0.43539947 0.029634148 1 8
1.6561824 -0.44005713 0.089808539 66 9
1.5179346 -0.40332386 -0.30529445 100 2
1.6751738 -0.44541621 0.15165092 84 10
1.5481641 -0.41193464 -0.2537367 6 3
1.5728972 -0.41910356 -0.19986583 2 4
1.5785327 -0.42119527 -0.14293548 31 5
1.5881057 -0.4240467 -0.086144969 3 6
1.6401223 -0.4385491 -0.029634094 100 7
1.6664656 -0.44839901 0.030122817 1 8
1.6392083 -0.44167858 0.08897116 65 9
1.5335063 -0.4134846 -0.30872902 67 2
1.6773771 -0.45259115 0.15199952 100 10
1.5752501 -0.42533001 -0.25842971 2 3
1.5714248 -0.42459157 -0.19986564 2 4
1.5866687 -0.42930466 -0.14380704 5 5
1.5903963 -0.4309091 -0.086354308 3 6
1.6212114 -0.43956208 -0.029319955 83 7
1.6455199 -0.44923732 0.029773766 2 8
1.6434367 -0.4489769 0.089285173 69 9
1.5263723 -0.41728187 -0.30758417 76 2
1.675787 -0.45844343 0.15199952 100 10
1.5851874 -0.43395555 -0.26030695 2 3
1.5622748 -0.42797622 -0.19889086 1 4
1.6042898 -0.44069031 -0.087191679 3 6
1.6119542 -0.44309825 -0.029180333 100 7
1.6632944 -0.46002212 0.030122815 2 8
1.6457887 -0.45548964 0.089494526 69 9
1.5117357 -0.41867316 -0.30491284 73 2
1.6646575 -0.46133742 0.15112796 100 10
1.5608972 -0.43287513 -0.25655252 2 3
1.5723242 -0.4363395 -0.20035313 2 4
1.5835782 -0.44065359 -0.086144969 1 6
1.6181816 -0.45058689 -0.029319949 100 7
1.6425043 -0.46014088 0.029773768 2 8
1.6499575 -0.46285009 0.089808531 67 9
1.5179002 -0.42580506 -0.30643931 73 2
1.666955 -0.46793208 0.15147659 100 10
1.5594534 -0.43804884 -0.25655252 2 3
1.7562383 -0.4936564 0.22399583 1 11
1.5669694 -0.4407503 -0.19986564 2 4
1.5688167 -0.44156533 -0.14258684 50 5
1.6205554 -0.45673859 -0.088238396 1 6
1.620448 -0.45731896 -0.029389761 100 7
1.6543539 -0.46969453 0.030018102 11 8
1.6521742 -0.46969905 0.090017885 67 9
1.5201814 -0.43217456 -0.30720255 75 2
1.6653115 -0.47374803 0.15147659 100 10
1.5655144 -0.44565305 -0.25780401 2 3
1.7354131 -0.49434528 0.22155842 1 11
1.5845118 -0.45165905 -0.20230302 2 4
1.5940893 -0.45468992 -0.14502721 77 5
1.5959055 -0.45581046 -0.086982332 1 6
1.6207645 -0.46352246 -0.029424667 100 7
1.6466861 -0.4743576 0.089808531 67 9
1.52236 -0.43883109 -0.30796576 77 2
1.6674764 -0.4806619 0.15182522 100 10
1.5810311 -0.45604229 -0.26061982 5 3
1.7107902 -0.4937942 0.21863359 10 11
1.56004 -0.45057732 -0.19937837 3 4
1.5847561 -0.45831537 -0.14432995 78 5
1.5942243 -0.46165669 -0.08698234 3 6
1.6210573 -0.46973377 -0.029459571 100 7
1.6375123 -0.47760147 0.029773766 49 8
1.5751272 -0.45970425 -0.3788175 1 1
1.6449366 -0.48038983 0.089808539 67 9
1.5169727 -0.44330651 -0.30720255 79 2
1.6752656 -0.48956463 0.15269677 100 10
1.573619 -0.46075466 -0.20132808 2 4
1.5830656 -0.46412072 -0.14432995 66 5
1.60402 -0.47087216 -0.087610371 3 6
1.6193248 -0.47567204 -0.029459571 100 7
1.641504 -0.48530084 0.029878484 56 8
1.5696943 -0.4643687 -0.37791771 1 1
1.6470801 -0.48726204 0.090017885 65 9
1.5116509 -0.44748443 -0.30643931 73 2
1.6715499 -0.49513561 0.15252247 38 10
1.7223496 -0.51083726 0.22058348 52 11
1.560582 -0.46285811 -0.19986564 2 4
1.581436 -0.46964389 -0.14432997 78 5
1.6215107 -0.48216099 -0.088657089 3 6
1.6195711 -0.48189196 -0.029494476 100 7
1.6322225 -0.48844844 0.029738864 61 8
1.5457437 -0.4628633 -0.3725189 13 1
1.6454552 -0.49272129 0.090017885 67 9
1.5214428 -0.4558759 -0.30872902 75 2
1.5590577 -0.46773967 -0.25780398 100 3
1.697831 -0.50969672 0.21765864 62 11
1.5742487 -0.47259673 -0.20181556 2 4
1.5722378 -0.47259143 -0.14363272 76 5
1.6332903 -0.49156466 -0.089389786 9 6
1.6237084 -0.48898986 -0.02959919 100 7
1.6344213 -0.49501759 0.029808672 45 8
1.5386053 -0.46629095 -0.37116918 42 1
1.6514578 -0.5004921 0.090436563 65 9
1.516165 -0.45977917 -0.30796579 73 2
1.6758554 -0.50852478 0.15321971 4 10
1.5537177 -0.47175932 -0.25717825 100 3
1.6942321 -0.51474714 0.21741489 57 11
1.5764716 -0.47896874 -0.20230302 4 4
1.5820988 -0.48128173 -0.14467859 78 5
1.5781547 -0.4806838 -0.086458974 29 6
1.6297293 -0.49670351 -0.02973881 100 7
1.6557138 -0.50746667 0.030227531 9 8
1.5221459 -0.46681955 -0.36756995 78 1
1.6421512 -0.50362343 0.090017885 67 9
1.5221394 -0.46710822 -0.30949226 73 2
1.6741599 -0.51407939 0.15321971 2 10
1.5615861 -0.47980997 -0.2587426 100 3
1.7020031 -0.52327943 0.21863359 12 11
1.5691824 -0.48244384 -0.20157182 15 4
1.5843025 -0.48769778 -0.14502721 76 5
1.6032732 -0.49415016 -0.087924376 43 6
1.6299841 -0.50269449 -0.029773714 100 7
1.6499338 -0.5126338 0.030157721 2 8
1.5203421 -0.47266072 -0.36756995 100 1
1.6440197 -0.51111096 0.090227224 65 9
1.509087 -0.46945035 -0.30720255 75 2
1.6988065 -0.52879405 0.15566006 1 10
1.5635043 -0.4869774 -0.25936836 100 3
1.5691283 -0.48932996 -0.20181558 41 4
1.5862222 -0.49496451 -0.14537583 72 5
1.586113 -0.49553806 -0.087087013 8 6
1.6261333 -0.50835276 -0.02973881 100 7
1.6615785 -0.5223 0.030402053 1 8
1.5169076 -0.47711504 -0.36712006 100 1
1.6498462 -0.51924491 0.090645909 57 9
1.5074389 -0.47471523 -0.30720255 75 2
1.674147 -0.52753526 0.15356833 2 10
1.5694171 -0.49453413 -0.26061982 100 3
1.72472 -0.54380214 0.22204593 2 11
1.5674968 -0.49453065 -0.20181556 49 4
1.8291143 -0.57741964 0.30379581 1 12
1.5844849 -0.50049841 -0.14537583 74 5
1.5863652 -0.50139695 -0.087191679 3 6
1.6167227 -0.51161265 -0.029599188 100 7
1.6559341 -0.52688414 0.030332245 1 8
1.5189468 -0.48358953 -0.36801988 100 1
1.6442175 -0.52378827 0.090436563 24 9
1.513339 -0.48209521 -0.30872902 79 2
1.6723883 -0.53308403 0.15356833 2 10
1.5582713 -0.4970082 -0.25905547 93 3
1.7265937 -0.55102623 0.22253342 2 11
1.5827801 -0.50543392 -0.20400938 96 4
1.7894545 -0.57177609 0.2975384 1 12
1.575137 -0.50359923 -0.14467859 72 5
1.6112375 -0.51545107 -0.088657089 3 6
1.6168315 -0.51786304 -0.029634094 100 7
1.6464713 -0.53020948 0.030192629 1 8
1.5116849 -0.48709568 -0.36667016 100 1
1.5190357 -0.4900496 -0.3102555 73 2
1.6893839 -0.54533046 0.15531145 1 10
1.5583192 -0.50332344 -0.25936836 100 3
1.7152146 -0.55399925 0.22131471 4 11
1.5715618 -0.50790352 -0.20279051 42 4
1.7648934 -0.57072544 0.29378402 9 12
1.5771608 -0.5103212 -0.14502722 76 5
1.590337 -0.51519787 -0.087610371 1 6
1.6188184 -0.52473682 -0.029703904 100 7
1.6635284 -0.54243976 0.030541673 1 8
1.5061842 -0.4914242 -0.36577037 100 1
1.6727993 -0.54578584 0.092215985 2 9
1.5210483 -0.49656761 -0.31101874 73 2
1.6836821 -0.5499869 0.15496282 1 10
1.5584302 -0.50937343 -0.2596812 97 3
1.5829434 -0.51830322 -0.14572443 69 5
1.6075077 -0.52696764 -0.088657081 1 6
1.6283776 -0.53412378 -0.029913332 100 7
1.6351329 -0.53918606 0.030053006 1 8
1.5119486 -0.49885842 -0.36756995 100 1
1.6632977 -0.54911715 0.091797292 2 9
1.511849 -0.49941084 -0.30949226 75 2
1.6968861 -0.56086278 0.15635732 1 10
1.5567327 -0.51453853 -0.25968122 97 3
1.711305 -0.56595999 0.2213147 46 11
1.5905927 -0.52634615 -0.20571537 1 4
1.7646161 -0.58427441 0.29440972 68 12
1.5849074 -0.52507871 -0.14607307 72 5
1.5981683 -0.52978164 -0.088238403 3 6
1.6094221 -0.53413576 -0.029599192 100 7
1.648416 -0.54995316 0.030332243 1 8
1.5138952 -0.50536722 -0.36846977 100 1
1.6651597 -0.55618536 0.092006646 3 9
1.513909 -0.50566566 -0.3102555 75 2
1.6836789 -0.56269759 0.15531145 1 10
1.5661675 -0.52372843 -0.26155841 88 3
1.7224969 -0.57633936 0.22302088 52 11
1.543568 -0.51677024 -0.19986564 2 4
1.7457086 -0.58478355 0.29159391 73 12
1.5717304 -0.52680892 -0.14502722 72 5
1.6076709 -0.5391674 -0.088866428 3 6
1.6037562 -0.53847748 -0.02952938 49 7
1.6654334 -0.56209862 0.030681292 1 8
1.5195069 -0.51314265 -0.37026954 100 1
1.6594238 -0.56071562 0.0917973 13 9
1.5120455 -0.51121098 -0.3102555 75 2
1.6816051 -0.56886476 0.15531144 3 10
1.5567529 -0.52693176 -0.26030695 97 3
1.7035518 -0.5766204 0.22082724 65 11
1.5718378 -0.53234351 -0.20376545 2 4
1.753011 -0.59404349 0.29315826 78 12
1.5736556 -0.53357148 -0.14537583 69 5
1.6132488 -0.54762417 -0.089285113 1 6
1.5777729 -0.53865463 -0.44672167 1 0
1.6520081 -0.5643205 0.030471865 1 8
1.5102401 -0.51618743 -0.36846977 100 1
1.5176822 -0.51902688 -0.31178197 73 2
1.6796093 -0.57473123 0.15531145 3 10
1.5567729 -0.53300256 -0.26061982 100 3
1.6957932 -0.58093047 0.22009604 67 11
1.5887498 -0.54426044 -0.20620286 1 4
1.7527955 -0.60079956 0.29347116 66 12
1.5793221 -0.54164684 -0.14607309 69 5
1.6113274 -0.55325216 -0.089285113 1 6
1.6283261 -0.55940634 -0.030052952 6 7
1.5358024 -0.53001875 -0.43533364 1 0
1.6652491 -0.57501715 0.030751104 1 8
1.5048363 -0.51991993 -0.36756998 100 1
1.6423544 -0.5674324 0.091064602 47 9
1.5178084 -0.52469832 -0.31216359 100 2
1.7040551 -0.58941591 0.1577518 7 10
1.554997 -0.53816199 -0.26061982 90 3
1.7032363 -0.58979839 0.22131471 63 11
1.54942 -0.53653473 -0.20132808 2 4
1.7507933 -0.60660875 0.29347113 66 12
1.5699874 -0.54427075 -0.14537583 69 5
1.6057104 -0.55728281 -0.089075781 1 6
1.6321292 -0.56677103 -0.030157667 24 7
1.52674 -0.53256363 -0.43326309 6 0
1.6633331 -0.58053613 0.030751104 2 8
1.5123026 -0.52811968 -0.36981946 100 1
1.6516764 -0.57711464 0.091692626 69 9
1.5625268 -0.54657686 -0.26218417 88 3
1.712513 -0.59937799 0.22277713 59 11
1.5775142 -0.55243754 -0.2052279 1 4
1.7374796 -0.60879725 0.29159391 61 12
1.5869766 -0.55606234 -0.14711894 55 5
1.8249043 -0.63978761 0.37589362 1 13
1.6151615 -0.56657106 -0.089703806 3 6
1.5266937 -0.53853238 -0.43378076 29 0
1.6688391 -0.58900076 0.030890718 2 8
1.5122876 -0.53404427 -0.37026939 84 1
1.6458857 -0.58154589 0.091483288 65 9
1.5606095 -0.55202776 -0.26218417 76 3
1.7066675 -0.60402751 0.22228965 61 11
1.5755761 -0.55794072 -0.20522809 2 4
1.7409297 -0.61683756 0.2925325 38 12
1.5812701 -0.56026775 -0.14677033 24 5
1.8078567 -0.64090592 0.37284067 4 13
1.6056446 -0.56953484 -0.08928512 1 6
1.633786 -0.58015895 -0.030262381 100 7
1.5157067 -0.54061323 -0.43119255 52 0
1.655473 -0.59078997 0.030681295 2 8
1.5140847 -0.54063058 -0.37116918 30 1
1.6513689 -0.5899753 0.091901973 63 9
1.51972 -0.54294187 -0.31369004 3 2
1.6678774 -0.59620148 0.15496282 100 10
1.5419331 -0.55148476 -0.25936836 45 3
1.7082869 -0.61131883 0.22277713 61 11
1.5624055 -0.55942208 -0.20376545 1 4
1.5773307 -0.56538731 -0.14659603 47 5
1.6036465 -0.57513607 -0.089285113 1 6
1.6223404 -0.58247977 -0.030087857 100 7
1.5082633 -0.54419804 -0.42963964 84 0
1.6552815 -0.59724379 0.030716198 7 8
1.6530564 -0.59709311 0.092111319 63 9
1.5066416 -0.54450452 -0.31140035 3 2
1.6750493 -0.60569811 0.15583438 100 10
1.5399015 -0.55713254 -0.25936836 12 3
1.7024093 -0.6159274 0.22228967 59 11
1.5791087 -0.57162941 -0.20620285 1 4
1.7551543 -0.6357035 0.29566121 2 12
1.5753474 -0.57088989 -0.14659603 74 5
1.6052831 -0.58237213 -0.089494467 1 6
1.6372147 -0.59427989 -0.030401999 100 7
1.5027248 -0.54813546 -0.42860433 100 0
1.5986049 -0.58342493 0.02970396 25 8
1.5083469 -0.5507828 -0.37071931 4 1
1.6434579 -0.60011947 0.091692634 65 9
1.519484 -0.55515021 -0.3144533 3 2
1.6860238 -0.61632985 0.15705457 100 10
1.5657749 -0.57268238 -0.26406136 2 3
1.7001401 -0.62216294 0.22228965 63 11
1.5732751 -0.5760482 -0.20571539 2 4
1.7566345 -0.64318454 0.29628697 2 12
1.5714741 -0.57569993 -0.1464217 66 5
1.7714376 -0.649306 0.36673501 57 13
1.5844889 -0.58109522 -0.088447735 3 6
1.6257437 -0.59654695 -0.030227477 100 7
1.5044276 -0.55471432 -0.42963964 100 0
1.6172998 -0.59633273 0.030087911 39 8
1.5138252 -0.55847961 -0.3725189 1 1
1.6451002 -0.60723579 0.091901973 59 9
1.5138535 -0.55909044 -0.31369004 3 2
1.6819932 -0.62152082 0.15688024 94 10
1.5749848 -0.58197969 -0.26593858 11 3
1.7055155 -0.63055086 0.22326462 59 11
1.5601852 -0.57713002 -0.20425294 2 4
1.7617887 -0.65205508 0.2975384 1 12
1.578797 -0.58464128 -0.14729325 68 5
1.774798 -0.65722203 0.36787966 57 13
1.6050273 -0.59467322 -0.089703798 3 6
1.6217767 -0.60152292 -0.030192573 100 7
1.488097 -0.55430537 -0.42549852 100 0
1.6433151 -0.61244965 0.030611482 49 8
1.5264739 -0.56920737 -0.37611809 3 1
1.6504556 -0.61576706 0.092320658 60 9
1.5377429 -0.57371515 -0.3190327 2 2
1.67059 -0.62361115 0.15600869 73 10
1.707023 -0.63789016 0.2237521 59 11
1.5804738 -0.59091491 -0.20717782 1 4
1.748401 -0.6540482 0.29566121 2 12
1.5786126 -0.59084719 -0.14746757 67 5
1.7632995 -0.65997225 0.36597177 16 13
1.5992011 -0.59887141 -0.089494467 3 6
1.615922 -0.60577625 -0.030122761 100 7
1.4842476 -0.55907488 -0.42498088 100 0
1.6336819 -0.61536264 0.030471865 54 8
1.5098894 -0.56903434 -0.3725189 3 1
1.648296 -0.62152451 0.092320658 63 9
1.5282824 -0.57657546 -0.31750625 2 2
1.6887974 -0.63746971 0.15792611 21 10
1.557844 -0.58834946 -0.2637485 77 3
1.7084999 -0.64524752 0.22423956 61 11
1.5709736 -0.59362149 -0.20620285 2 4
1.7461073 -0.66014731 0.29566121 2 12
1.5765406 -0.59635395 -0.14746757 67 5
1.7498518 -0.66226119 0.36368185 7 13
1.6455588 -0.62311798 -0.092215925 9 6
1.6175376 -0.61283028 -0.030192571 100 7
1.4913143 -0.56768876 -0.42756909 100 0
1.6314155 -0.62134635 0.030471865 56 8
1.5150777 -0.57734025 -0.37431851 3 1
1.6573147 -0.63154143 0.09294869 65 9
1.5335982 -0.58470422 -0.31903273 2 2
1.5447078 -0.58955753 -0.26187131 77 3
1.6987058 -0.64867264 0.22326462 38 11
1.5762049 -0.60220921 -0.20717782 2 4
1.7622453 -0.67328835 0.29878992 2 12
1.5763103 -0.60256487 -0.14764188 65 5
1.6247259 -0.62204766 -0.030367091 100 7
1.4911267 -0.57358468 -0.42808673 100 0
1.6461434 -0.63321412 0.030786006 58 8
1.50588 -0.57956141 -0.3725189 3 1
1.643917 -0.63301647 0.092320658 63 9
1.5278838 -0.58864236 -0.31826946 2 2
1.6861647 -0.64996076 0.15810043 1 10
1.5611761 -0.60178167 -0.26499999 93 3
1.5667913 -0.60457432 -0.20620286 2 4
1.7635701 -0.68085861 0.29941565 2 12
1.576056 -0.6087814 -0.1478162 67 5
1.7727743 -0.6847676 0.36940613 45 13
1.5965679 -0.61702496 -0.089703798 52 6
1.6206799 -0.62699372 -0.030332187 100 7
1.5000209 -0.58272362 -0.43119255 100 0
1.6476508 -0.64040536 0.030855816 27 8
1.5220101 -0.59187734 -0.37701806 3 1
1.6492544 -0.64135998 0.092739344 59 9
1.5295826 -0.59512955 -0.3190327 5 2
1.713707 -0.66711295 0.1608894 1 10
1.5590659 -0.60722756 -0.26499999 78 3
1.723845 -0.67175239 0.22716443 2 11
1.5683702 -0.61148196 -0.20669033 2 4
1.7465787 -0.68096256 0.29691267 1 12
1.5851654 -0.61834884 -0.14886205 63 5
1.7722021 -0.69166547 0.36978772 54 13
1.6167299 -0.63131207 -0.090959869 88 6
1.8114991 -0.70773137 0.4490023 6 14
1.6130038 -0.63018155 -0.030227473 100 7
1.4853896 -0.5830152 -0.42756909 100 0
1.538178 -0.60404444 -0.3815169 12 1
1.6488647 -0.64784342 0.092844017 46 9
1.5128789 -0.59471899 -0.31597978 5 2
1.6854099 -0.66288143 0.15844904 1 10
1.5625585 -0.61456323 -0.26593858 88 3
1.7308439 -0.68109965 0.22838314 2 11
1.5626397 -0.61522508 -0.20620285 2 4
1.7588948 -0.69284695 0.29941565 2 12
1.5718755 -0.61949515 -0.1478162 67 5
1.7753781 -0.69969803 0.37093282 60 13
1.6016212 -0.63154125 -0.090227157 87 6
1.6182346 -0.63874489 -0.030367095 100 7
1.483448 -0.58793771 -0.42756909 100 0
1.6413949 -0.65086848 0.030820912 1 8
1.5364448 -0.60987306 -0.32132241 5 2
1.6720923 -0.66405445 0.15740317 1 10
1.5512249 -0.61636668 -0.26437423 82 3
1.7210773 -0.68420404 0.22740819 2 11
1.5789279 -0.62801248 -0.20864043 12 4
1.7602582 -0.70013601 0.30004135 2 12
1.5716637 -0.6254409 -0.14799049 65 5
1.763805 -0.70225984 0.36902452 55 13
1.6086843 -0.64082372 -0.090750515 43 6
1.772245 -0.70633703 0.44045416 30 14
1.6179652 -0.64484799 -0.030401999 100 7
1.4939411 -0.59813875 -0.43119258 100 0
1.6392277 -0.65630811 0.030820915 1 8
1.5141318 -0.60652936 -0.37656802 100 1
1.5324844 -0.61450189 -0.32094079 8 2
1.6845571 -0.67582172 0.15879788 1 10
1.5528394 -0.62297833 -0.26499999 82 3
1.7132723 -0.68768919 0.22667697 6 11
1.5842053 -0.63620406 -0.2096152 45 4
1.7614696 -0.70774913 0.30066711 2 12
1.5824113 -0.63612527 -0.14921069 61 5
1.7669313 -0.71030182 0.37016937 60 13
1.5750495 -0.6334852 -0.088971108 8 6
1.8006266 -0.72457755 0.4481025 46 14
1.6194143 -0.65198559 -0.030471809 100 7
1.4899478 -0.6028856 -0.43067491 100 0
1.6552308 -0.67010123 0.031169958 1 8
1.5027608 -0.60868078 -0.37431851 100 1
1.6529803 -0.66986173 0.093472049 2 9
1.5138463 -0.61347836 -0.31750625 28 2
1.7005328 -0.68947774 0.16054079 1 10
1.5595882 -0.63264906 -0.26656434 88 3
1.5468051 -0.62809247 -0.20498416 31 4
1.7514186 -0.71153343 0.29941565 2 12
1.5874527 -0.64492041 -0.14990793 61 5
1.7569159 -0.71412408 0.3686429 54 13
1.6040574 -0.65231872 -0.090750515 3 6
1.790611 -0.72854835 0.44630292 49 14
1.6224554 -0.66046065 -0.030576522 100 7
1.4967756 -0.61173719 -0.43326312 100 0
1.6565837 -0.67738873 0.03123977 1 8
1.5114487 -0.61834991 -0.37701792 100 1
1.6543288 -0.67714083 0.093681388 2 9
1.4898922 -0.60983449 -0.31292683 54 2
1.679678 -0.68785894 0.15879767 1 10
1.5610262 -0.63958699 -0.26719007 88 3
1.7247159 -0.70700598 0.22887062 52 11
1.5427665 -0.6327346 -0.20474042 4 4
1.7562343 -0.72064227 0.30066711 2 12
1.585192 -0.6504578 -0.14990795 61 5
1.7689415 -0.72621733 0.37169603 56 13
1.6128557 -0.66246712 -0.091378555 1 6
1.7862544 -0.73405355 0.44585299 45 14
1.6127422 -0.66307849 -0.030436905 89 7
1.4839168 -0.61253554 -0.43015727 91 0
1.661602 -0.68622035 0.031379387 1 8
1.5182865 -0.62734306 -0.37926742 100 1
1.6705333 -0.6902501 0.094728112 2 9
1.4841259 -0.61353153 -0.31216359 78 2
1.680949 -0.69524086 0.15914629 3 10
1.5624347 -0.64654273 -0.2678158 88 3
1.7130671 -0.7092253 0.22765192 65 11
1.5662242 -0.64875138 -0.20815276 1 4
1.7666099 -0.73175383 0.30285719 7 12
1.5755492 -0.65293616 -0.14921069 63 5
1.7663959 -0.73238748 0.37169582 54 13
1.6179127 -0.67115402 -0.09179724 1 6
1.7908807 -0.74327213 0.44765258 45 14
1.4799864 -0.61696827 -0.42963961 100 0
1.6630089 -0.69326562 0.031449199 1 8
1.5197946 -0.63387465 -0.38016737 100 1
1.6718 -0.69761556 0.094937459 3 9
1.5073389 -0.62929744 -0.31750622 100 2
1.674835 -0.69956845 0.15879767 3 10
1.5529909 -0.64867496 -0.26656431 88 3
1.7198637 -0.7187292 0.22887062 70 11
1.582379 -0.66159892 -0.21059017 2 4
1.5695847 -0.65689343 -0.14886206 61 5
1.7603356 -0.73672533 0.37093261 50 13
1.6119936 -0.67497265 -0.091587894 1 6
1.792001 -0.75071299 0.44855243 44 14
1.4832745 -0.62412047 -0.43119255 96 0
1.6458343 -0.69285935 0.031169958 1 8
1.5067973 -0.63463748 -0.37746781 100 1
1.5160991 -0.63886672 -0.31979594 100 2
1.7184035 -0.72446865 0.16315547 4 10
1.5488971 -0.65332419 -0.26625144 82 3
1.7045419 -0.71932572 0.22716443 61 11
1.5910325 -0.6717512 -0.21205258 1 4
1.7632779 -0.74483776 0.30317006 43 12
1.5784098 -0.66674638 -0.14990793 61 5
1.7541364 -0.74133706 0.3701694 52 13
1.6059486 -0.6790399 -0.091378555 3 6
1.7965485 -0.76000059 0.45035201 43 14
1.6297687 -0.68978244 -0.030890662 4 7
1.4917549 -0.63382697 -0.43429837 100 0
1.6618091 -0.70642316 0.031519007 1 8
1.5009862 -0.63836783 -0.37656802 100 1
1.5174726 -0.64569229 -0.32055917 85 2
1.5593288 -0.66414529 -0.2684415 88 3
1.6983682 -0.72371495 0.22667696 59 11
1.5740694 -0.67107284 -0.21010266 1 4
1.7643014 -0.75253832 0.30379581 49 12
1.579738 -0.67381537 -0.15025654 57 5
1.7623723 -0.75207901 0.37245908 54 13
1.596221 -0.68150467 -0.090959869 1 6
1.7920928 -0.76550156 0.44990215 37 14
1.6236737 -0.69389564 -0.030820858 4 7
1.4877579 -0.63826865 -0.43378073 99 0
1.6556579 -0.71064228 0.031449199 2 8
1.5094924 -0.64821702 -0.37926739 100 1
1.6460526 -0.70719999 0.093890741 55 9
1.5533719 -0.66802359 -0.2678158 85 3
1.7067726 -0.73434615 0.22813939 59 11
1.5644239 -0.67342359 -0.2091279 1 4
1.743521 -0.75087875 0.30066711 21 12
1.5865258 -0.68326592 -0.15112811 25 5
1.7615392 -0.75900316 0.37284067 48 13
1.6121736 -0.69497877 -0.092006586 1 6
1.7876203 -0.77098072 0.44945222 13 14
1.6249135 -0.70114344 -0.030890662 8 7
1.4819754 -0.64192235 -0.43274546 99 0
1.6715155 -0.72436869 0.031798247 2 8
1.5107962 -0.65503252 -0.38016737 100 1
1.6582321 -0.71929979 0.094728112 61 9
1.5201323 -0.65939558 -0.32208565 2 2
1.6759964 -0.7273531 0.15984353 79 10
1.5619022 -0.6781621 -0.26969299 85 3
1.7041987 -0.74029946 0.22813937 59 11
1.5511401 -0.674133 -0.20766547 1 4
1.771481 -0.77062958 0.37551224 54 13
1.5950871 -0.69422561 -0.091169208 1 6
1.6389558 -0.71399921 -0.031204809 46 7
1.4850358 -0.64941353 -0.43429837 100 0
1.6671448 -0.72939742 0.031763341 6 8
1.5120713 -0.66186512 -0.38106704 100 1
1.6576676 -0.72559565 0.094832793 60 9
1.5250149 -0.66784811 -0.32361212 2 2
1.6807469 -0.73639733 0.16054079 91 10
1.5450518 -0.67726564 -0.26719004 85 3
1.7106938 -0.75022995 0.22935806 65 11
1.5852551 -0.69521838 -0.21254024 1 4
1.7600766 -0.77225322 0.30442154 2 12
1.5616493 -0.68551606 -0.14921069 2 5
1.7615901 -0.77365065 0.37398556 54 13
1.6255676 -0.71425122 -0.093053304 1 6
1.4846413 -0.65511435 -0.43481597 99 0
1.5063027 -0.66530102 -0.38016722 100 1
1.6625603 -0.73431659 0.095251478 63 9
1.5120174 -0.66814041 -0.32132241 2 2
1.6782959 -0.74196678 0.16054079 94 10
1.5500237 -0.68558168 -0.26844153 85 3
1.7027509 -0.75348884 0.22862688 61 11
1.5793105 -0.69886494 -0.21205258 1 4
1.764731 -0.78128421 0.305673 1 12
1.5812278 -0.70037353 -0.15130243 3 5
1.7626046 -0.78107888 0.37474877 50 13
1.6158867 -0.71639979 -0.092634611 2 6
1.6104209 -0.71431303 -0.030751046 94 7
1.4824607 -0.66003406 -0.43481597 99 0
1.642177 -0.73148781 0.031379387 44 8
1.5040882 -0.67029232 -0.38016722 100 1
1.6526903 -0.73686218 0.094832793 63 9
1.5384831 -0.68594223 -0.32742831 2 2
1.6812848 -0.74996305 0.16106372 84 10
1.5477417 -0.69071805 -0.26844153 76 3
1.703868 -0.76074988 0.22911434 59 11
1.5696115 -0.70113504 -0.21107763 1 4
1.7619932 -0.78743958 0.305673 2 12
1.6043625 -0.71699411 -0.15374279 20 5
1.7671738 -0.79012507 0.37627524 39 13
1.6025631 -0.71686119 -0.092006586 3 6
1.6352944 -0.73218769 -0.031274617 100 7
1.4889581 -0.66916436 -0.43740416 100 0
1.6487328 -0.74131578 0.031553909 50 8
1.5106254 -0.67953587 -0.38241673 99 1
1.6464653 -0.7409873 0.094623439 63 9
1.5038538 -0.67680538 -0.32055917 2 2
1.6786567 -0.75582737 0.16106372 73 10
1.5345148 -0.69124842 -0.26656431 32 3
1.7012022 -0.76669288 0.22911434 63 11
1.5671546 -0.70660967 -0.21107763 1 4
1.7592337 -0.79358518 0.305673 1 12
1.7626156 -0.79548115 0.37589362 25 13
1.6036917 -0.72409451 -0.092215925 2 6
1.64184 -0.74200922 -0.031449143 100 7
1.4813355 -0.67196363 -0.43585131 99 0
1.6479559 -0.74789274 0.031588811 58 8
1.5082442 -0.68480486 -0.38241673 94 1
1.6547793 -0.75168628 0.095251478 60 9
1.5265068 -0.69341826 -0.32590181 2 2
1.6705666 -0.75920922 0.16054079 35 10
1.5608642 -0.70968235 -0.27157021 28 3
1.7021292 -0.77427036 0.2296018 51 11
1.5610648 -0.71043134 -0.21059015 1 4
1.756453 -0.79972136 0.30567303 1 12
1.5956914 -0.72652584 -0.15339416 77 5
1.7616148 -0.80244273 0.37627524 33 13
1.6265984 -0.74128354 -0.093681328 8 6
1.6101298 -0.73445731 -0.030890662 100 7
1.4772245 -0.6763261 -0.43533364 84 0
1.6435173 -0.75280786 0.031553909 53 8
1.5093877 -0.69168907 -0.38331655 59 1
1.6521455 -0.75745779 0.095251478 60 9
1.5276464 -0.70037884 -0.32666507 2 2
1.5565821 -0.71430266 -0.27125734 63 3
1.7048285 -0.78269202 0.23033305 23 11
1.5621834 -0.71753329 -0.21107763 1 4
1.7536505 -0.80584764 0.305673 2 12
1.5732313 -0.72294039 -0.15147674 69 5
1.7677219 -0.81268746 0.37818334 49 13
1.6184551 -0.74509072 -0.031100092 100 7
1.4818693 -0.6847198 -0.43740419 66 0
1.6336188 -0.75518394 0.031414289 55 8
1.4892768 -0.68877339 -0.37881753 15 1
1.6603673 -0.76825255 0.09587951 56 9
1.54301 -0.71395129 -0.33048126 2 2
1.6796901 -0.77754933 0.16193527 1 10
1.5630417 -0.72388256 -0.27282169 85 3
1.5812812 -0.73300016 -0.21400249 2 4
1.7830837 -0.82692343 0.31130463 2 12
1.5761205 -0.73094213 -0.15199965 64 5
1.7648743 -0.81885296 0.37818334 55 13
1.6212851 -0.75326347 -0.031204809 100 7
1.5004804 -0.69968551 -0.44361585 14 0
1.6418462 -0.76595426 0.031623725 53 8
1.5009904 -0.70056123 -0.38241673 3 1
1.6431978 -0.76728338 0.095042124 57 9
1.5227197 -0.71102673 -0.3266651 2 2
1.6841862 -0.78678083 0.16263252 1 10
1.5479784 -0.72347945 -0.27063164 78 3
1.7244979 -0.80634624 0.23374538 2 11
1.5571361 -0.72842175 -0.21107763 2 4
1.77303 -0.82979333 0.31005323 2 12
1.5807778 -0.73981762 -0.15269692 66 5
1.7691171 -0.8283385 0.37970978 52 13
1.60066 -0.74980402 -0.092634611 90 6
1.625888 -0.76231378 -0.031344425 100 7
1.6391625 -0.77168077 0.031623725 40 8
1.5267437 -0.719082 -0.38961518 9 1
1.6405095 -0.77301455 0.095042124 31 9
1.5308843 -0.72135872 -0.32895479 2 2
1.6994513 -0.80115062 0.16437563 1 10
1.5561632 -0.73393428 -0.27250883 78 3
1.7360349 -0.81913763 0.23569527 2 11
1.5545835 -0.73385274 -0.21107781 2 4
1.7665502 -0.83429009 0.30942744 2 12
1.5889951 -0.75043607 -0.15374279 63 5
1.7697653 -0.83618635 0.38047305 45 13
1.6052558 -0.75880092 -0.093053311 75 6
1.6159869 -0.76456374 -0.031204809 100 7
1.6418774 -0.7799719 0.031728435 10 8
1.5248108 -0.72501206 -0.32819155 2 2
1.6786526 -0.79851937 0.16263254 1 10
1.5571594 -0.74105954 -0.27313459 82 3
1.7188264 -0.81836569 0.23374537 3 11
1.5645578 -0.7452504 -0.21278399 13 4
1.7671937 -0.84215105 0.31005317 2 12
1.5755744 -0.75083542 -0.15269692 59 5
1.7774684 -0.84742808 0.38276273 45 13
1.5971892 -0.7618202 -0.092739291 72 6
1.6133082 -0.77019984 -0.031204809 100 7
1.5216862 -0.72972304 -0.38961515 91 1
1.6622232 -0.79711735 0.096612215 2 9
1.5435116 -0.74052083 -0.33277094 2 2
1.6830398 -0.8078227 0.16332977 1 10
1.5474403 -0.74307024 -0.2718831 78 3
1.7679522 -0.84971821 0.31067896 2 12
1.5801263 -0.75978416 -0.15339416 61 5
1.7621154 -0.84767002 0.38009143 32 13
1.6053184 -0.7725876 -0.093367323 71 6
1.6107453 -0.77554548 -0.031204809 100 7
1.6509334 -0.79809231 0.032007676 1 8
1.5017146 -0.72628051 -0.38511613 100 1
1.6450478 -0.79595572 0.095774844 1 9
1.5373832 -0.74419343 -0.33200771 2 2
1.6837959 -0.81542945 0.16367839 1 10
1.5449677 -0.74819762 -0.2718831 78 3
1.5665941 -0.75934613 -0.21375874 75 4
1.7543107 -0.85071272 0.30880171 2 12
1.5810494 -0.76703453 -0.15374278 60 5
1.597357 -0.77529031 -0.093053304 48 6
1.6098268 -0.78203714 -0.031239711 97 7
1.6409482 -0.80034387 0.031868055 1 8
1.5044242 -0.7340818 -0.38646582 77 1
1.6637971 -0.81220704 0.097030908 2 9
1.5384355 -0.75100988 -0.33277094 4 2
1.695405 -0.82800347 0.16507289 2 10
1.5441213 -0.75445306 -0.27219597 76 3
1.7067418 -0.83427811 0.23325792 48 11
1.558584 -0.76219356 -0.21302773 93 4
1.7832698 -0.87245739 0.31443337 4 12
1.5820767 -0.77402455 -0.1540914 60 5
1.5820848 -0.77471298 -0.092320599 15 6
1.6214523 -0.79469222 -0.031518951 35 7
1.6596755 -0.81666154 0.032286912 1 8
1.4913626 -0.73416466 -0.38376644 8 1
1.6573683 -0.81624508 0.096821561 2 9
1.5252372 -0.75117117 -0.33048126 4 2
1.6996533 -0.83743876 0.16577013 2 10
1.553881 -0.76595217 -0.27438605 78 3
1.7145014 -0.8454985 0.23472033 60 11
1.5594743 -0.76938605 -0.21351519 77 4
1.7394724 -0.85856771 0.30723739 19 12
1.5829384 -0.78130585 -0.15444003 60 5
1.6603969 -0.82422823 0.032356724 1 8
1.6616638 -0.82558006 0.097240247 2 9
1.5226058 -0.75649059 -0.33048126 7 2
1.6824467 -0.83627212 0.16437565 2 10
1.5618104 -0.77664888 -0.27626327 82 3
1.7097622 -0.85059381 0.23447658 53 11
1.5567793 -0.77482486 -0.21351519 50 4
1.7417694 -0.86727566 0.30817595 39 12
1.5766346 -0.78505039 -0.15409142 57 5
1.614177 -0.80444711 -0.094518714 2 6
1.6212331 -0.80867034 -0.031623665 1 7
1.6396292 -0.82106513 0.032007672 1 8
1.6623429 -0.83316523 0.097449586 8 9
1.5304867 -0.76707894 -0.33277094 23 2
1.6848601 -0.84481883 0.16489856 13 10
1.5484958 -0.77678138 -0.27438602 82 3
1.7174282 -0.86189926 0.23593904 53 11
1.5540651 -0.78025436 -0.21351519 25 4
1.766975 -0.88753694 0.31318191 42 12
1.5774453 -0.79233766 -0.15444003 57 5
1.6042211 -0.80648839 -0.094100021 1 6
1.6326909 -0.82151496 -0.031902902 1 7
1.658172 -0.83760291 0.032426532 1 8
1.5457748 -0.78218204 -0.27438602 78 3
1.7037823 -0.86250937 0.23447658 53 11
1.7814867 -0.90262729 0.31631052 61 12
1.5764472 -0.79873973 -0.15461434 32 5
1.6013963 -0.81208318 -0.094100028 2 6
1.6173313 -0.82087386 -0.031658567 3 7
1.6516746 -0.84157032 0.03235672 2 8
1.6547066 -0.84384269 0.09734492 45 9
1.5180984 -0.77417725 -0.33124447 99 2
1.6948942 -0.86470985 0.16646737 68 10
1.5500729 -0.79116511 -0.27563751 82 3
1.6989933 -0.86754876 0.23423286 51 11
1.5468124 -0.7901817 -0.21327128 2 4
1.7607356 -0.8998509 0.31318188 49 12
1.6056643 -0.82130635 -0.094518706 2 6
1.6393759 -0.83927208 -0.032147232 3 7
1.6700698 -0.85829931 0.032775577 5 8
1.6518992 -0.8493253 0.09734492 42 9
1.5118952 -0.77767581 -0.33048126 100 2
1.684779 -0.86697423 0.16577013 52 10
1.5508144 -0.79837954 -0.27626327 78 3
1.7083083 -0.87983656 0.23593904 55 11
1.5475739 -0.79739469 -0.21375874 1 4
1.7559863 -0.90478015 0.31286907 48 12
1.5938549 -0.82159328 -0.15688039 1 5
1.6098875 -0.83056897 -0.094937399 1 6
1.625922 -0.83920091 -0.031937808 3 7
1.6595627 -0.86060303 0.097972952 51 9
1.5143994 -0.7856608 -0.33162609 47 2
1.674669 -0.86917877 0.16507289 58 10
1.5551717 -0.80715787 -0.27751476 70 3
1.7089047 -0.88732624 0.23642652 53 11
1.5554907 -0.80801278 -0.21522118 1 4
1.7563227 -0.91272581 0.31349474 48 12
1.5697645 -0.81612325 -0.15478866 2 5
1.6177558 -0.84143287 -0.095565431 1 6
1.6212088 -0.84394795 -0.031902898 13 7
1.6600882 -0.86824214 0.098182298 54 9
1.6806042 -0.87934572 0.16594444 67 10
1.5470941 -0.80983287 -0.2765761 85 3
1.712831 -0.89696956 0.23740146 48 11
1.5491441 -0.81159514 -0.2147337 1 4
1.7618738 -0.92343605 0.31505907 46 12
1.6058726 -0.84167236 -0.15862352 2 5
1.607734 -0.84336352 -0.095146738 2 6
1.6377289 -0.85982692 -0.032286853 52 7
1.6416833 -0.86519533 0.032391626 46 8
1.6676466 -0.87962234 0.098810323 53 9
1.6810488 -0.88706648 0.16629307 63 10
1.5425112 -0.81430638 -0.27626327 78 3
1.6991577 -0.89738077 0.23593903 46 11
1.5603429 -0.8244164 -0.21668361 1 4
1.7638794 -0.93235004 0.31599775 41 12
1.5923561 -0.84168637 -0.15757763 2 5
1.5977185 -0.84523445 -0.094728045 2 6
1.6347176 -0.86553848 -0.032286853 68 7
1.6457163 -0.8746745 0.032531243 55 8
1.6539863 -0.87981039 0.098182298 53 9
1.6867361 -0.89760894 0.16716461 35 10
1.5466341 -0.82339883 -0.27751473 70 3
1.7030233 -0.90703923 0.23691398 40 11
1.5399365 -0.82052326 -0.21424623 1 4
1.7693298 -0.9431473 0.31756204 23 12
1.5788592 -0.84161639 -0.15653177 2 5
1.6159043 -0.86208791 -0.095984116 8 6
1.6528542 -0.88254195 -0.032705709 97 7
1.6532283 -0.88608176 0.032740675 55 8
1.6544251 -0.88746667 0.098391637 53 9
1.5437503 -0.82879263 -0.27751473 63 3
1.7120882 -0.9195531 0.23862013 10 11
1.5615439 -0.83904791 -0.21765876 2 4
1.5899512 -0.85466921 -0.15792626 4 5
1.6198317 -0.8721894 -0.03211233 89 7
1.6501254 -0.89184731 0.032740675 55 8
1.658344 -0.89703739 0.098810323 51 9
1.6804287 -0.90936267 0.16716462 1 10
1.5443221 -0.83605719 -0.27814046 38 3
1.555115 -0.84260219 -0.21717107 2 4
1.6080911 -0.87239558 -0.09587945 63 6
1.6202919 -0.87974685 -0.032182138 82 7
1.647002 -0.89760184 0.032740675 55 8
1.6639696 -0.90760249 0.099333681 41 9
1.7052274 -0.93049246 0.1699536 1 10
1.7439557 -0.95241553 0.2439824 2 11
1.5591325 -0.85183251 -0.21814604 2 4
1.6067883 -0.87896204 -0.095984124 63 6
1.6242274 -0.88923842 -0.032321759 76 7
1.6403538 -0.9014194 0.032670863 52 8
1.6625413 -0.91436774 0.099438347 10 9
1.6984776 -0.93451822 0.16960497 1 10
1.7232317 -0.9489218 0.24154502 3 11
1.5909239 -0.87642658 -0.22302082 4 4
1.5913837 -0.87704194 -0.15897213 59 5
1.6002127 -0.88263625 -0.095774777 65 6
1.6263655 -0.89780194 -0.032426473 72 7
1.6406955 -0.90907818 0.032740675 39 8
1.7021743 -0.94430745 0.17030223 1 10
1.7129669 -0.95107698 0.24057007 20 11
1.5566185 -0.86462438 -0.21863353 25 4
1.5917956 -0.88452709 -0.15932074 57 5
1.6041039 -0.89209938 -0.096193463 65 6
1.6284635 -0.90639108 -0.032531187 67 7
1.6462411 -0.91967595 0.032915197 9 8
1.6683203 -0.9327749 0.10017106 1 9
1.7162563 -0.95996958 0.17204534 1 10
1.5921748 -0.89202583 -0.15966937 57 5
1.6027224 -0.89867038 -0.096298143 62 6
1.6183141 -0.9081555 -0.032391567 67 7
1.668534 -0.94055426 0.10038041 2 9
1.6920694 -0.95421058 0.1699536 1 10
1.7408606 -0.9825263 0.24544485 47 11
1.5574585 -0.87937444 -0.21960847 61 4
1.5855817 -0.8956182 -0.15932074 59 5
1.6013142 -0.9052422 -0.096402809 65 6
1.6238365 -0.91872251 -0.032566093 52 7
1.6571693 -0.94102079 0.033264246 1 8
1.6756593 -0.95229375 0.10100843 2 9
1.6921924 -0.96208054 0.17030223 2 10
1.7115401 -0.97387129 0.24178876 45 11
1.5699061 -0.89364374 -0.22180213 41 4
1.5807145 -0.90016168 -0.15914644 55 5
1.6068206 -0.91577107 -0.09692616 62 6
1.6538744 -0.94679964 0.033264246 1 8
1.6723249 -0.95813715 0.10100843 2 9
1.7061096 -0.9778893 0.17204534 2 10
1.7115741 -0.98181516 0.24227624 48 11
1.586202 -0.91063368 -0.160018 57 5
1.598419 -0.91838926 -0.096612148 56 6
1.6782708 -0.96855968 0.033822723 1 8
1.6760571 -0.96767205 0.10142712 2 9
1.6940601 -0.97885466 0.17117378 7 10
1.7046996 -0.98579615 0.24178876 48 11
1.5812894 -0.91516703 -0.1598437 55 5
1.5917468 -0.92196125 -0.096402809 27 6
1.6350528 -0.94742548 -0.032984946 1 7
1.668135 -0.97009826 0.033683103 1 8
1.6674906 -0.97050267 0.1011131 8 9
1.7202876 -1.0024376 0.24446987 40 11
1.5884107 -0.92670524 -0.16088955 52 5
1.6282822 -0.95111018 -0.032915138 1 7
1.6647387 -0.97591537 0.033683103 2 8
1.6873581 -0.990363 0.17117378 42 10
1.716778 -1.0084363 0.24446987 22 11
1.5784585 -0.92792863 -0.16019231 52 5
1.6060917 -0.94492799 -0.097658873 1 6
1.6387377 -0.96490496 -0.033194378 1 7
1.6647652 -0.98375511 0.033752911 4 8
1.6606747 -0.98212022 0.10111311 42 9
1.682176 -0.99523246 0.17099947 42 10
1.57521 -0.93343282 -0.16019231 52 5
1.6302695 -0.96682912 -0.099333622 1 6
1.638799 -0.9726606 -0.033264186 2 7
1.6606674 -0.9899565 0.10132245 42 9
1.6769807 -1.000078 0.17082517 50 10
1.5804945 -0.9440341 -0.16106386 35 5
1.599456 -0.95611757 -0.09765888 2 6
1.6319613 -0.97632182 -0.033194374 2 7
1.6304258 -0.97888428 0.033194438 38 8
1.6520658 -0.99266136 0.10100843 43 9
1.693971 -1.018243 0.1729169 46 10
1.6029514 -0.96581775 -0.098077558 2 6
1.6388183 -0.98820835 -0.033403803 2 7
1.6543722 -1.0011344 0.033752911 44 8
1.6485907 -0.99842185 0.10100843 43 9
1.6972225 -1.0282793 0.17361413 43 10
1.6098132 -0.97762746 -0.09870559 2 6
1.6302323 -0.99080706 -0.033299088 11 7
1.6406245 -1.0006555 0.033543486 44 8
1.6519145 -1.0083328 0.10142712 46 9
1.6868212 -1.0300443 0.1729169 47 10
1.6012802 -0.98011285 -0.09839157 11 6
1.6405284 -1.0084707 0.033613294 47 8
1.6704993 -1.027698 0.10278786 45 9
1.6832154 -1.035926 0.1729169 44 10
1.6419926 -1.0137192 -0.033683043 67 7
1.6369984 -1.014191 0.033613294 48 8
1.6669019 -1.033523 0.10278787 46 9
1.6897478 -1.0480964 0.17396276 49 10
1.6130567 -1.0028677 -0.099542961 61 6
1.6316526 -1.0152191 -0.033543423 82 7
1.6402328 -1.0241354 0.033752911 47 8
1.6600775 -1.0369288 0.10257851 28 9
1.6928369 -1.0582126 0.17466001 46 10
1.5943139 -0.99894828 -0.098600917 37 6
1.6350541 -1.0248725 -0.033683039 64 7
1.6435987 -1.0338279 0.033892535 47 8
1.6926899 -1.065944 0.17500885 46 10
1.626574 -1.0270858 -0.033578325 57 7
1.6469177 -1.0435538 0.034032151 43 8
1.6816549 -1.0663877 0.10435794 1 9
1.6925108 -1.0736856 0.17535725 42 10
1.6229792 -1.0327574 -0.033578329 57 7
1.6449504 -1.0503722 0.034067053 37 8
1.6678245 -1.0657982 0.1037299 1 9
1.6820381 -1.0752946 0.17466001 36 10
1.6311475 -1.0459722 -0.033822659 60 7
1.6446372 -1.058272 0.034136865 7 8
1.6909615 -1.088915 0.10540466 1 9
1.6950235 -1.0919495 0.17640312 9 10
1.6308458 -1.0538305 -0.033892471 54 7
1.663694 -1.07959 0.10393925 2 9
1.635536 -1.0649725 -0.034066994 44 7
1.6721731 -1.0929893 0.034869865 1 8
1.6799749 -1.0985075 0.10519532 2 9
1.6217767 -1.0640931 -0.033857562 37 7
1.6752205 -1.1029272 0.035009485 1 8
1.6761304 -1.1043652 0.10519533 2 9
1.6646948 -1.104346 0.034869865 2 8
1.6641545 -1.1123726 0.034939673 5 8
1.6661296 -1.1229726 0.10529997 42 9
1.6398014 -1.112735 0.034590624 40 8
1.6605475 -1.1276598 0.10519532 45 9
1.6524148 -1.1297386 0.034939673 29 8
1.6615461 -1.1368327 0.10550933 44 9
1.6674343 -1.1494269 0.10613736 43 9
1.6699734 -1.1597974 0.10655603 37 9
1.6595719 -1.16075 0.10613736 14 9
