# .PCD v0.7 - Point Cloud Data file format
VERSION 0.7
FIELDS x y z intensity ring
SIZE 4 4 4 4 2
TYPE F F F F U
COUNT 1 1 1 1 1
WIDTH 1271
HEIGHT 1
VIEWPOINT 0 0 0 1 0 0 0
POINTS 1271
DATA ascii
-4.3554263 0.42014739 1.1724504 51 15
-4.400301 0.43067783 0.07717444 50 8
-4.4007511 0.43227276 0.23174366 48 9
-4.4315858 0.43608245 0.38958588 48 10
-4.4507623 0.43953809 0.5491432 41 11
-4.4210534 0.43738326 -0.54548746 2 4
-4.4936957 0.44536185 0.71521848 46 12
-4.4894853 0.44573689 0.87695789 36 13
-4.3604712 0.43369523 -0.22965011 57 6
-4.5123749 0.44960007 1.0469221 41 14
-4.3954864 0.43872833 -0.077104494 48 7
-4.3520103 0.43515491 1.1719326 48 15
-4.4146867 0.44764915 0.07745368 53 8
-4.4012027 0.44783396 0.23184833 49 9
-4.4379654 0.4523572 0.39028317 52 10
-4.4451904 0.45387861 -0.70770949 1 3
-4.4551253 0.45567754 0.54987442 38 11
-4.4273992 0.45362246 -0.54646194 2 4
-4.4842534 0.4602395 0.71396703 48 12
-4.5015731 0.46280995 0.87962925 37 13
-4.3648915 0.44952744 -0.22996412 48 6
-4.5107784 0.4653486 1.0469222 40 14
-4.3899493 0.45365673 -0.077034682 48 7
-4.3504653 0.45034379 1.1719327 45 15
-4.421052 0.46389028 0.077593289 50 8
-4.41153 0.46444911 0.23247637 49 9
-4.4244714 0.46659124 0.38923734 47 10
-4.5142999 0.47686198 -0.7189728 1 3
-4.4614034 0.47206166 0.55084938 38 11
-4.4336848 0.46991226 -0.54743683 2 4
-4.4904771 0.47672293 0.71521848 46 12
-4.5116434 0.47976628 0.88191897 40 13
-4.3712397 0.46560842 -0.23038283 51 6
-4.526566 0.48295107 1.0509713 40 14
-4.3883395 0.46897787 -0.077034682 50 7
-4.3450251 0.46511698 1.1708975 48 15
-4.4114537 0.47845855 0.07745368 53 8
-4.4158392 0.48049265 0.23279041 49 9
-4.4267769 0.48246557 0.38958594 47 10
-4.457623 0.48661464 -0.71021241 1 3
-4.4656487 0.48827836 0.55158055 40 11
-4.4083381 0.48279157 -0.54451197 2 4
-4.5005674 0.49368718 0.71709573 48 12
-31.016762 3.4023662 -2.7298932 9 5
-4.5001836 0.49443999 0.88001084 36 13
-4.3775287 0.48173696 -0.23080149 48 6
-4.5229158 0.49853539 1.0505214 40 14
-4.3906503 0.48473319 -0.077104487 48 7
-4.3395343 0.47985548 1.1698622 45 15
-4.4057817 0.49340945 0.077383861 50 8
-4.4141355 0.49590403 0.23279041 49 9
-4.4329848 0.49880618 0.39028317 52 10
-4.4560266 0.50297397 0.55060565 41 11
-4.4460769 0.50263673 -0.5493868 2 4
-4.498817 0.50939429 0.71709579 46 12
-30.683977 3.4743009 -2.7016547 9 5
-4.500381 0.51036692 0.88039243 40 13
-4.3698668 0.49633834 -0.23048747 57 6
-4.528893 0.51520151 1.052321 40 14
-4.3929057 0.50050831 -0.077174298 50 7
-4.3435917 0.49565756 1.1714151 51 15
-4.4159513 0.51016152 0.077593289 50 8
-4.4103928 0.51108044 0.23268571 51 9
-4.4430909 0.5156554 0.3913295 48 10
-4.4541173 0.51772177 -0.71021229 1 3
-4.462131 0.51944363 0.55158055 41 11
-4.4206338 0.51539481 -0.54646242 2 4
-4.504859 0.52601033 0.71834719 46 12
-30.287746 3.536552 -2.6678381 9 5
-4.5141716 0.52789736 0.88344586 36 13
-4.3681073 0.51158905 -0.23048745 55 6
-4.5212607 0.53032619 1.0509713 40 14
-4.399076 0.51677275 -0.077313922 48 7
-4.3437533 0.51104236 1.1719327 48 15
-4.4181151 0.52604598 0.077663101 48 8
-4.4125485 0.52694625 0.23289508 51 9
-4.4412642 0.53116059 0.3913295 48 10
-4.409133 0.52809942 -0.70332927 1 3
-4.4622617 0.53525275 0.55182427 37 11
-4.418808 0.53082168 -0.54646194 2 4
-4.4951506 0.54078948 0.71709573 48 12
-29.982454 3.6070418 -2.64204 8 5
-4.5200982 0.54459113 0.88497186 31 13
-4.3742266 0.52778965 -0.23090616 57 6
-4.5251861 0.54680651 1.052321 39 14
-4.3932748 0.53164482 -0.07724411 48 7
-4.3457789 0.52666569 1.172968 45 15
-4.424192 0.54243839 0.077802725 50 8
-4.4166293 0.54307604 0.23320909 49 9
-4.4314737 0.54568642 0.39063177 47 10
-4.434711 0.54687184 -0.70770955 1 3
-4.4702172 0.55204123 0.55304301 40 11
-4.4287481 0.54770595 -0.54792428 2 4
-4.4991174 0.55720574 0.71803439 45 12
-29.593998 3.6651514 -2.6089208 8 5
-4.5220666 0.56084824 0.88573509 33 13
-4.3802862 0.54404122 -0.23132487 59 6
-4.534853 0.56404245 1.0550206 39 14
-4.3913922 0.54697609 -0.07724411 48 7
-4.3324113 0.54039854 1.1698622 48 15
-4.4163194 0.55712879 0.077698015 47 8
-4.424614 0.55974311 0.23373243 49 9
-4.433495 0.56165385 0.39098039 47 10
-4.432775 0.56234759 -0.70770955 1 3
-4.4820476 0.56939322 0.55474919 37 11
-4.4228711 0.56266087 -0.54743731 2 4
-4.5030236 0.57365519 0.71897304 46 12
-4.512291 0.57563609 0.88420856 36 13
-4.3823223 0.55983424 -0.23153418 57 6
-4.5367222 0.58036214 1.0559202 39 14
-4.4073076 0.56458956 -0.077558249 47 7
-4.3362479 0.55625582 1.1714152 51 15
-4.4222803 0.57356912 0.077837631 48 8
-4.4305563 0.57621396 0.23415117 49 9
-4.4473128 0.57918364 0.39237487 45 10
-4.5013018 0.5870136 -0.7189728 1 3
-4.4721584 0.58400792 0.55377418 38 11
-4.4248166 0.57861006 -0.54792428 2 4
-4.5068698 0.59013969 0.71991163 43 12
-28.963181 3.7925043 -2.5555816 8 5
-4.5160942 0.59215033 0.88535345 30 13
-4.3803415 0.57512707 -0.23153418 59 6
-4.5501256 0.59822702 1.0595194 38 14
-4.4132404 0.58101469 -0.077697873 47 7
-4.3342795 0.57138783 1.1714151 51 15
-4.4222331 0.58926642 0.07787253 50 8
-4.4225779 0.59088349 0.2338371 48 9
-4.449214 0.59523267 0.39272353 48 10
-4.4209089 0.59223133 -0.70645791 1 3
-4.4681253 0.59935033 0.55353045 40 11
-4.4109659 0.59246671 -0.54646194 2 4
-4.5224013 0.6082378 0.72272742 42 12
-28.606182 3.8473721 -2.5252512 7 5
-4.5198369 0.60869604 0.88649833 28 13
-4.382266 0.59094781 -0.23174354 57 6
-4.544147 0.61358589 1.0586196 38 14
-4.4032583 0.59534353 -0.077558249 45 7
-4.3341727 0.58677304 1.1719327 45 15
-4.4340177 0.60659671 0.078116864 48 8
-4.4244466 0.6068607 0.23404647 48 9
-4.4589524 0.61238641 0.39376944 48 10
-4.4970937 0.61842436 -0.7189728 1 3
-4.4719052 0.61575568 0.55426162 38 11
-4.4442668 0.61274046 -0.55084968 2 4
-4.5085092 0.62239945 0.72085011 43 12
-28.336 3.9117832 -2.5025907 7 5
-4.5254636 0.62554491 0.88802487 28 13
-4.3880897 0.60733646 -0.23216219 57 6
-4.5419779 0.62944335 1.0586197 38 14
-4.4031339 0.6109851 -0.077593148 42 7
-4.3359251 0.60243034 1.1729679 45 15
-4.4397945 0.62318158 0.07825648 47 8
-4.4263644 0.62208533 0.23425579 49 9
-4.4449501 0.62627846 0.39272353 48 10
-4.5653238 0.64405239 -0.73023611 1 3
-4.4775915 0.63247269 0.5552367 38 11
-4.4578252 0.63047409 -0.55279952 2 4
-4.4985971 0.63624048 0.71959865 43 12
-27.982866 3.9626226 -2.4726093 7 5
-4.534915 0.6429916 0.89031446 28 13
-4.3859429 0.62265021 -0.23216219 57 6
-4.5532584 0.64721376 1.0617689 38 14
-4.4010835 0.62558317 -0.077593148 45 7
-4.3262539 0.61571699 1.1708975 48 15
-4.431766 0.63704771 0.078151777 48 8
-4.4380045 0.63952678 0.23498854 49 9
-4.450624 0.64293104 0.39342076 45 10
-4.4927797 0.64902073 -0.71897274 1 3
-4.4813628 0.64816988 0.55596781 40 11
-4.4124899 0.63899344 -0.54743683 2 4
-4.5119886 0.65420741 0.72210163 43 12
-4.5308151 0.65774453 0.88993287 30 13
-4.3917603 0.63833934 -0.2325809 55 6
-4.5510869 0.66230953 1.0617689 38 14
-4.4067888 0.64209557 -0.077732772 45 7
-4.3240776 0.63081473 1.1708974 48 15
-4.4235802 0.6516394 0.078047059 47 8
-4.4396973 0.65559697 0.23519786 49 9
-4.4563513 0.65885097 0.39411798 48 10
-4.4904871 0.66469967 -0.7189728 1 3
-4.4771104 0.663517 0.55572414 38 11
-4.4298677 0.65730679 -0.54987478 2 4
-4.5155392 0.67082423 0.72304022 40 12
-4.5284915 0.67355508 0.88993287 31 13
-4.3855548 0.65307844 -0.23237158 55 6
-4.5603118 0.67991608 1.0644683 36 14
-4.4203424 0.65983498 -0.078012012 45 7
-4.3294916 0.64704692 1.1729679 45 15
-4.4311647 0.66856939 0.078221582 50 8
-4.4354067 0.67079186 0.23509321 49 9
-4.4658446 0.67619342 0.39516386 48 10
-4.4881396 0.68036944 -0.7189728 1 3
-4.4806547 0.6800347 0.55645531 37 11
-4.4353967 0.67395884 -0.5508492 2 4
-4.530746 0.68925512 0.72585601 42 12
-4.5358171 0.69083649 0.89184093 28 13
-4.387197 0.66898507 -0.2325809 57 6
-4.5463524 0.69406486 1.0617689 37 14
-4.4219666 0.67586643 -0.078081831 45 7
-4.3272066 0.66215587 1.1729679 48 15
-4.4426379 0.68616867 0.078465916 47 8
-4.4350119 0.68657696 0.23519786 51 9
-4.4634571 0.69177705 0.39516386 48 10
-4.4857368 0.69603187 -0.71897274 1 3
-4.4802151 0.69597685 0.55669904 38 11
-4.4487095 0.69187677 -0.55279911 2 4
-4.5244088 0.70445848 0.72523034 42 12
-4.5391974 0.70757359 0.89298582 31 13
-4.3907552 0.68521821 -0.23289493 53 6
-4.5593052 0.71233708 1.0653682 36 14
-4.4156284 0.69067985 -0.078012012 43 7
-4.3248692 0.67725581 1.172968 45 15
-4.4421906 0.70198435 0.078500815 50 8
-4.442452 0.70361519 0.23572123 48 9
-4.4610147 0.70735335 0.39516386 52 10
-4.4832807 0.71168602 -0.7189728 1 3
-4.4934421 0.7141031 0.558649 37 11
-4.4305835 0.70490628 -0.5508492 2 4
-4.5219226 0.72024864 0.7252304 43 12
-4.550271 0.72557712 0.89565766 28 13
-4.4001703 0.70242977 -0.23352294 48 6
-4.5567908 0.72824895 1.0653682 36 14
-4.4131904 0.70608807 -0.078012012 45 7
-4.3148484 0.69112623 1.1708974 45 15
-4.4436622 0.71812457 0.078570634 52 8
-4.447854 0.72039521 0.23613989 49 9
-4.4703183 0.72483426 0.39621025 48 10
-4.4807687 0.72733134 -0.7189728 1 3
-4.4948411 0.73042071 0.55913645 37 11
-4.4712014 0.72738022 -0.55621147 2 4
-4.5271792 0.73729777 0.7264818 42 12
-4.545773 0.74114031 0.89527553 30 13
-4.4095187 0.7197156 -0.23415099 48 6
-4.5657601 0.74603629 1.0680676 37 14
-4.4225402 0.72342575 -0.07822144 43 7
-4.3124099 0.70618486 1.1708975 48 15
-4.4371819 0.73297864 0.078500822 50 8
-4.4571352 0.73787409 0.23676793 48 9
-4.4677615 0.74043334 0.39620975 47 10
-4.4782028 0.74296784 -0.7189728 1 3
-4.4883471 0.7454558 0.558649 37 11
-4.4412198 0.73842508 -0.55279905 2 4
-4.5343208 0.75471783 0.72804612 40 12
-4.5431585 0.75700366 0.89527553 30 13
-4.3990993 0.73378998 -0.23373228 53 6
-4.570817 0.76325208 1.0698671 36 14
-4.4239326 0.7395184 -0.078291252 45 7
-4.3099189 0.72123379 1.1708975 45 15
-4.4424834 0.7497952 0.078640439 50 8
-4.4525628 0.75309378 0.23666324 49 9
-4.4808655 0.7586863 0.39760426 45 10
-4.4755821 0.75859523 -0.7189728 1 3
-4.4876752 0.76144964 0.55889273 36 11
-4.4503574 0.75591791 -0.55426151 2 4
-4.5375018 0.77153462 0.72898477 43 12
-24.570148 4.1777878 -2.1804631 5 5
-4.5501657 0.77450389 0.89718366 28 13
-4.4024186 0.75014693 -0.23404635 55 6
-4.5681248 0.7792027 1.0698671 36 14
-4.4331512 0.75697702 -0.078500681 45 7
-4.314992 0.73757488 1.172968 45 15
-4.4496922 0.76699632 0.078814961 47 8
-4.445971 0.76795298 0.23645391 51 9
-4.4703364 0.77296513 0.39690703 43 10
-4.4729071 0.77421242 -0.7189728 1 3
-4.4928136 0.7784667 0.55986768 36 11
-4.4242215 0.7673772 -0.55133671 2 4
-4.5328345 0.7870298 0.72867191 45 12
-4.5590401 0.7924006 0.89947337 27 13
-4.3997731 0.76550967 -0.23404633 57 6
-4.5692172 0.79581153 1.070767 36 14
-4.4265413 0.77175909 -0.078430861 43 7
-4.3066816 0.75163615 1.1714151 43 15
-4.4548664 0.78390938 0.078954592 47 8
-4.4530978 0.78520191 0.23697728 48 9
-4.4636874 0.78787118 0.39655837 42 10
-4.4701767 0.78982109 -0.71897274 1 3
-4.5017972 0.79621935 0.56133008 36 11
-4.4136963 0.78143054 -0.55036217 2 4
-4.5339494 0.8035382 0.72929764 40 12
-4.5581799 0.808653 0.89985508 30 13
-4.4108396 0.78330779 -0.23477903 55 6
-4.5779228 0.81380385 1.0734663 38 14
-4.423821 0.78720605 -0.078430869 42 7
-4.2964239 0.76530969 1.1693447 43 15
-4.4521031 0.79945511 0.078954592 47 8
-4.4621243 0.80286247 0.23760532 48 9
-4.4628706 0.80380082 0.39673269 43 10
-4.5179381 0.81453407 -0.72710741 1 3
-4.5087585 0.81369054 0.56254882 33 11
-4.4304776 0.80036169 -0.55279911 2 4
-4.5388923 0.82076591 0.7305491 39 12
-4.5591917 0.82525831 0.90061814 30 13
-4.427731 0.80225962 -0.23582575 48 6
-4.5827246 0.83117008 1.075266 38 14
-4.428916 0.8040722 -0.078570485 45 7
-4.2994289 0.78133881 1.1708975 45 15
-4.4532185 0.81571156 0.079024389 47 8
-4.4671516 0.81987542 0.23802398 48 9
-4.4717956 0.82153451 0.3977786 47 10
-4.5150671 0.83029878 -0.72710741 1 3
-4.5019855 0.82870537 0.56206125 33 11
-4.4276562 0.81582326 -0.55279905 2 4
-4.553483 0.83982927 0.73336494 43 12
-4.5562835 0.84116691 0.90061814 30 13
-4.4131188 0.81553382 -0.23519769 48 6
-4.5817113 0.8475163 1.075716 38 14
-4.441813 0.82243884 -0.078849725 43 7
-4.2966752 0.79634196 1.1708975 48 15
-4.4542751 0.83198571 0.079094194 45 8
-4.4564104 0.83399439 0.23760532 48 9
-4.4845662 0.84007472 0.39917302 47 10
-4.5315566 0.84969479 -0.73023611 1 3
-4.5029678 0.84514773 0.56254882 33 11
-4.4403896 0.83420599 -0.55474901 2 4
-4.5505242 0.8557179 0.73336494 42 12
-4.5610371 0.85851896 0.90214515 27 13
-4.4141707 0.83167332 -0.23540707 48 6
-4.5787249 0.86350328 1.0757159 38 14
-4.4448104 0.83905268 -0.078954451 45 7
-4.3014617 0.81277001 1.1729679 45 15
-4.4552727 0.84827709 0.079164006 45 8
-4.461319 0.85104311 0.23802398 48 9
-4.4933496 0.85796493 0.4002189 45 10
-4.5116887 0.86310011 0.56401128 33 11
-4.4023561 0.84297979 -0.55036223 2 4
-4.5475097 0.87159705 0.73336494 42 12
-4.563797 0.8755458 0.90328956 28 13
-4.4230103 0.84933561 -0.23603511 48 6
-4.5814242 0.88058442 1.0770656 37 14
-4.4359627 0.85342956 -0.078849725 42 7
-4.3004956 0.82814443 1.1734856 43 15
-4.4660268 0.86649007 0.079408348 42 8
-4.4622431 0.86737227 0.23823336 49 9
-4.4825044 0.87212253 0.39952168 43 10
-4.4557123 0.86771578 -0.7189728 1 3
-4.520339 0.88112134 0.56547368 33 11
-4.4305601 0.86442393 -0.55426198 2 4
-4.5444393 0.88746673 0.73336494 43 12
-4.5684204 0.89297658 0.90481597 27 13
-4.4278588 0.86630368 -0.23645379 48 6
-4.5859714 0.89807034 1.0788651 37 14
-4.4408069 0.8704465 -0.078989349 42 7
-4.2862039 0.84091944 1.1703796 43 15
-4.4610128 0.88168538 0.079373449 45 8
-4.4709435 0.88527089 0.2388614 46 9
-4.4813867 0.88815033 0.39969647 42 10
-4.5495362 0.90248305 -0.73461616 1 3
-4.5230765 0.89805478 0.56620491 31 11
-4.4625626 0.88684922 -0.55864882 2 4
-4.5587502 0.90679169 0.73618066 43 12
-4.5710521 0.91006809 0.90596086 30 13
-4.4248071 0.88175458 -0.23645376 46 6
-4.5961871 0.91674024 1.0820146 38 14
-4.4455848 0.88750839 -0.079128958 42 7
-4.2832432 0.85587728 1.1703799 43 15
-4.459868 0.89764655 0.07940834 43 8
-4.4756575 0.9024511 0.23928005 46 9
-4.4880247 0.90575886 0.40056753 43 10
-4.5140772 0.91265774 0.56547368 33 11
-4.424417 0.89533401 -0.55426198 2 4
-4.5574932 0.92309153 0.73649359 42 12
-4.5678477 0.92601866 0.90596086 30 13
-4.4217029 0.89719486 -0.23645379 48 6
-4.5948682 0.93316633 1.0824643 37 14
-4.4502978 0.90461433 -0.079268582 45 7
-4.2896943 0.87274802 1.1729679 48 15
-4.468461 0.91561842 0.079617761 40 8
-4.464654 0.91646117 0.23886137 46 9
-4.498497 0.92422754 0.40178776 43 10
-4.516037 0.92865258 -0.73023611 1 3
-4.5050311 0.92720777 0.56474245 36 11
-4.4407082 0.91477805 -0.55669892 2 4
-4.5619822 0.9405902 0.73774505 43 12
-21.771154 4.4887805 -1.9447937 3 5
-4.5761237 0.94433743 0.90825057 30 13
-4.4224558 0.913432 -0.23666312 53 6
-4.5915823 0.94919974 1.0824642 37 14
-4.4549465 0.92176425 -0.079408206 42 7
-4.2885137 0.88810849 1.1734856 43 15
-4.4652381 0.93121094 0.079617769 42 8
-4.4672933 0.93326676 0.23917541 43 9
-4.4991431 0.94074005 0.40213633 43 10
-4.5398369 0.95007473 -0.73461628 1 3
-4.5250826 0.94781244 0.56766731 35 11
-4.4374881 0.93027359 -0.55669892 2 4
-4.5548048 0.95569658 0.73711938 42 12
-21.544764 4.5205574 -1.9259681 3 5
-4.5804849 0.96192056 0.90977705 30 13
-4.4309678 0.93132877 -0.23729114 51 6
-4.5882421 0.96522069 1.0824643 36 14
-4.4419169 0.93524927 -0.079233669 39 7
-4.2948399 0.90506476 1.176074 48 15
-4.4756546 0.94969666 0.079862118 45 8
-4.4718227 0.95051599 0.23959409 43 9
-4.4958324 0.95643848 0.40213636 40 10
-4.6330953 0.98648477 -0.75025958 1 3
-4.5314531 0.96567082 0.56888598 33 11
-4.4458623 0.94824117 -0.55816132 2 4
-4.5533729 0.97200364 0.7374323 39 12
-21.295033 4.5458279 -1.9050508 3 5
-4.5847788 0.97954452 0.91130358 27 13
-4.4315963 0.94762444 -0.2375005 46 6
-4.5924668 0.98286331 1.0842639 38 14
-4.4523139 0.95368087 -0.079478018 42 7
-4.2784314 0.91721535 1.1724503 43 15
-4.4703569 0.96489197 0.079827204 42 8
-4.4762855 0.96780699 0.24001275 45 9
-4.5002561 0.97381175 0.40283364 39 10
-4.5330925 0.98174655 -0.73461616 1 3
-4.5358148 0.98316377 0.56986094 33 11
-4.4658055 0.96880478 -0.56108677 2 4
-4.5596042 0.98998767 0.73899662 37 12
-4.5813313 0.99554127 0.91130394 27 13
-4.4438739 0.96648341 -0.23833784 51 6
-4.6004329 1.001375 1.0869634 38 14
-4.4567728 0.97091806 -0.079617627 42 7
-4.2752037 0.93214548 1.1724504 43 15
-4.4708676 0.9813481 0.079897009 40 8
-4.4847569 0.98521721 0.24064083 45 9
-4.5046124 0.99122733 0.40353084 42 10
-4.5207248 0.9964273 0.56839854 32 11
-4.4393048 0.97848135 -0.55816132 2 4
-4.5717278 1.0085068 0.74149954 43 12
-5.4377775 1.2005483 -0.4872008 1 5
-4.5816627 1.0123745 0.91206676 27 13
-4.432673 0.98026586 -0.23791918 48 6
-4.6085038 1.01915 1.0896628 38 14
-4.4535284 0.98569208 -0.079617627 43 7
-4.2720895 0.9463166 1.1724504 43 15
-4.4773474 0.99834466 0.080071531 40 8
-4.4814649 1.0000838 0.2406408 45 9
-4.5129671 1.0087677 0.40457672 42 10
-4.527081 1.0135818 0.56961721 30 11
-4.4747787 1.0018716 -0.56303608 2 4
-4.5760694 1.0253886 0.74275106 43 12
-5.4259901 1.2168303 -0.48650354 1 5
-4.5916891 1.0305719 0.91473806 26 13
-4.4371924 0.9967097 -0.23833786 46 6
-4.5936909 1.0318633 1.0869635 37 14
-4.4580393 1.0022098 -0.079757251 43 7
-4.2745814 0.96175033 1.1740032 45 15
-4.4876647 1.0162786 0.080315873 42 8
-4.4857383 1.0174885 0.24105951 45 9
-4.513483 1.0246099 0.40492532 40 10
-4.5372453 1.0316697 0.57132339 33 11
-4.4712543 1.0174855 -0.56303608 2 4
-4.5686092 1.0404785 0.74212521 43 12
-5.3848004 1.2273506 -0.48319164 4 5
-4.5939894 1.0471021 0.915883 24 13
-4.4416518 1.0131954 -0.23875655 42 6
-4.60146 1.0504944 1.0896628 38 14
-4.4623117 1.0195469 -0.079896867 42 7
-4.2749648 0.97752696 1.1750386 45 15
-4.487987 1.0328332 0.080385678 42 8
-4.4841046 1.033589 0.24116416 42 9
-4.509697 1.0411459 0.40492532 39 10
-4.5394187 1.0488421 0.57205462 31 11
-4.4676752 1.0330859 -0.56303608 2 4
-4.5745726 1.0586467 0.7436896 39 12
-5.3319578 1.2349011 -0.47883376 5 5
-4.5958586 1.0652629 0.91702789 26 13
-4.4515281 1.0326275 -0.23948927 48 6
-4.6089683 1.0699968 1.0923623 36 14
-4.4548297 1.0342127 -0.079827055 42 7
-4.2602363 0.98982143 1.1719327 40 15
-4.4841714 1.0492767 0.080385678 42 8
-4.4977875 1.0541188 0.24210621 45 9
-4.5137939 1.0587013 0.40562254 40 10
-4.5452065 1.0677429 0.57327336 33 11
-4.4909124 1.0558155 -0.56644851 2 4
-4.5821981 1.0781194 0.74556667 39 12
-5.3082213 1.2489413 -0.47709072 5 5
-4.5940228 1.0817488 0.91740936 26 13
-4.4498396 1.048618 -0.23959391 51 6
-4.6165853 1.0887614 1.0950615 36 14
-4.466579 1.0542085 -0.080106296 42 7
-4.25282 1.0045402 1.1708975 40 15
-4.4843731 1.0658469 0.080455489 42 8
-4.5057387 1.072588 0.24273425 45 9
-4.513948 1.0753734 0.40597117 40 10
-4.5395203 1.0831414 0.57302958 30 11
-4.5296769 1.0816271 -0.5718112 2 4
-4.5803289 1.0945684 0.74587977 37 12
-5.2786369 1.2614441 -0.47482461 5 5
-4.594038 1.0986919 0.91817266 26 13
-4.4383831 1.0622841 -0.23917526 51 6
-4.6336036 1.1098642 1.1000106 33 14
-4.4687057 1.0711919 -0.080211014 40 7
-4.2605577 1.0220821 1.1740031 48 15
-4.4961762 1.0852476 0.08073473 40 8
-4.5000257 1.087839 0.24262956 46 9
-4.5256581 1.0948715 0.40736565 40 10
-4.5415001 1.1003821 0.57376081 33 11
-4.5142989 1.0946256 -0.57034826 2 4
-4.5860782 1.1128792 0.74744397 39 12
-5.2838821 1.2822115 -0.47569615 5 5
-4.5939898 1.1156471 0.91893595 24 13
-4.4443517 1.0801289 -0.23969857 42 6
-4.6202331 1.1237292 1.0977612 37 14
-4.4785404 1.0900936 -0.08045534 42 7
-4.2550879 1.036492 1.1734856 43 15
-4.5020719 1.1033155 0.08090926 45 8
-4.492321 1.1025883 0.24242021 46 9
-4.5334182 1.1135151 0.40841153 42 10
-4.5414863 1.1171768 0.57424825 33 11
-4.5104504 1.110378 -0.57034826 2 4
-4.5860019 1.129825 0.74806976 40 12
-5.2755051 1.2996936 -0.47534752 2 5
-4.5957856 1.133086 0.9200812 24 13
-4.4599452 1.1004217 -0.24074532 38 6
-4.6087151 1.1379815 1.0959616 36 14
-4.4688845 1.1042811 -0.08035063 40 7
-4.2701974 1.0559764 1.1786621 43 15
-4.5040145 1.1204723 0.081013978 43 8
-4.5078259 1.1230915 0.24346694 48 9
-4.521771 1.127404 0.40771428 37 10
-4.5568185 1.1378318 0.57668561 32 11
-4.5181017 1.129002 -0.5718112 2 4
-4.5896959 1.1477432 0.74932128 39 12
-5.2554741 1.3142341 -0.47395313 1 5
-4.6127529 1.1543658 0.92427856 23 13
-4.4580145 1.1164684 -0.24085002 38 6
-4.6236176 1.1587986 1.1004605 36 14
-4.4650021 1.1198747 -0.08035063 40 7
-4.2477479 1.0661728 1.1734856 43 15
-4.4981365 1.1356978 0.080979057 42 8
-4.5116234 1.1407784 0.24388564 46 9
-4.5293975 1.1461136 0.40876016 39 10
-4.5662885 1.1571445 0.57839173 31 11
-4.5449209 1.1525739 -0.57571107 2 4
-4.5933204 1.1657012 0.75057274 39 12
-4.6125007 1.1714268 0.92504174 23 13
-4.4753828 1.1374336 -0.24200137 48 6
-4.6384301 1.1797345 1.1049595 29 14
-4.4823828 1.1408795 -0.080734581 42 7
-4.2496166 1.0824233 1.1750386 40 15
-4.4902706 1.1503999 0.080909252 39 8
-4.5194235 1.1587083 0.24451366 46 9
-4.5369473 1.1648902 0.40980655 40 10
-4.5583777 1.1720886 0.5779044 37 11
-4.6028204 1.1843727 0.75276279 25 12
-4.5631452 1.1750139 -0.41224676 8 5
-4.6216912 1.1909485 0.92771351 11 13
-4.4617157 1.1505553 -0.24147803 46 6
-4.6512661 1.2003021 1.1090087 24 14
-4.488256 1.1582358 -0.080909103 39 7
-4.244133 1.0960267 1.1745209 43 15
-4.5077214 1.170814 0.08129321 47 8
-4.5211501 1.1759865 0.24482769 33 9
-4.5540633 1.1862437 0.41172349 22 10
-4.5640688 1.1897017 0.57912302 13 11
-4.5427327 1.1849868 -0.5764423 70 4
-4.6082144 1.2029257 0.75432706 22 12
-4.6006212 1.2018024 0.92427844 17 13
-4.4559431 1.1648395 -0.24137333 55 6
-4.6057835 1.2048684 1.0991108 23 14
-4.503531 1.1789591 -0.081258155 30 7
-4.2458887 1.112304 1.176074 40 15
-4.5364799 1.1952015 0.081886582 15 8
-4.5170174 1.1917614 0.24482769 22 9
-4.5443249 1.1998132 0.41120055 24 10
-4.5483747 1.202582 0.57766068 21 11
-4.5040264 1.1916963 -0.57205445 72 4
-4.5619764 1.2078823 0.74744397 25 12
-4.5434856 1.2029864 -0.41120091 1 5
-4.564136 1.2093062 0.91779095 19 13
-4.4866004 1.1896006 -0.24325746 19 6
-4.4263783 1.1744598 1.0572698 6 14
-4.4839263 1.1905669 -0.080978915 16 7
-4.2419801 1.1271181 1.176074 40 15
-4.5033016 1.2032866 0.081363015 22 8
-4.4877481 1.2008091 0.24346694 25 9
-4.4958434 1.2038161 0.4071914 22 10
-4.5038834 1.2076538 0.57254201 7 11
-4.4353504 1.1909382 -0.40178809 2 5
-4.3911424 1.1798897 0.88382697 19 13
-4.4515605 1.1969568 -0.24158271 27 6
-4.3300433 1.1650931 1.0352248 13 14
-4.4623647 1.2015322 -0.080664769 19 7
-4.2324233 1.1404097 1.174521 43 15
-4.4604721 1.20854 0.080664918 8 8
-4.4170623 1.2017456 -0.56206113 8 4
-4.425189 1.2056146 -0.40126514 4 5
-4.3169112 1.1761149 0.86970758 9 13
-4.4319391 1.2082856 -0.24074532 14 6
-4.2939892 1.1714813 1.0275763 12 14
-4.4118457 1.204461 -0.079827063 4 7
-4.2284169 1.1551778 1.174521 43 15
-4.4141216 1.2158513 0.40056753 1 10
-4.4090123 1.2161009 -0.56157416 2 4
-4.2860794 1.1846085 0.8643645 9 13
-4.2633729 1.1799346 1.0212778 9 14
-4.2336674 1.172509 1.1771091 45 15
-4.3457627 1.2109061 0.078745157 1 8
-4.2793593 1.1948183 0.3887144 6 10
-0.99598897 0.27864727 -0.12698781 2 4
-4.2516708 1.1910878 0.85825861 12 13
-4.315485 1.2097775 -0.2348837 2 6
-4.2029386 1.1790191 1.0077807 9 14
-4.2991486 1.2068163 -0.077942207 1 7
-4.223762 1.186451 1.1755563 37 15
-4.2502394 1.2026975 0.38644829 13 10
-4.3240199 1.2252045 0.55182427 7 11
-4.2760606 1.2124227 -0.54573077 2 4
-4.2229347 1.198951 0.85329801 12 13
-4.284338 1.2171934 -0.2334183 2 6
-4.1781788 1.1878202 1.0028318 9 14
-4.3064499 1.225099 -0.078151636 1 7
-4.2270269 1.2033031 1.1776267 37 15
-4.1770678 1.197755 0.38017309 13 10
-4.2853723 1.2304298 0.54743695 8 11
-0.99401927 0.28559375 -0.12698793 2 4
-4.440752 1.2758818 0.73180056 3 12
-4.190423 1.2055439 0.84757328 7 13
-4.2493539 1.2232996 -0.23174351 2 6
-4.1346827 1.1910695 0.99338377 9 14
-4.2639327 1.2283024 -0.077453539 1 7
-4.2248693 1.2178491 1.1781443 40 15
-4.513607 1.3079069 0.082026199 1 8
-4.1518149 1.206214 0.37825617 13 10
-4.2412386 1.2329966 0.54231846 5 11
-0.99306673 0.28888848 -0.12698793 2 4
-4.1845179 1.2188834 0.84719169 7 13
-4.2030902 1.225089 -0.22944075 2 6
-4.1007771 1.196044 0.98618531 9 14
-4.2173877 1.2308534 -0.076685637 1 7
-4.2150302 1.2309638 1.1765915 43 15
-4.1172104 1.2109804 0.37546673 16 10
-4.1950164 1.2354552 0.53695619 5 11
-4.4271045 1.3046473 -0.56669217 2 4
-4.2386937 1.2491235 0.69988793 15 12
-4.3839078 1.292749 -0.39987063 4 5
-4.1538758 1.2257041 0.84184909 12 13
-4.1183367 1.2159986 -0.22504453 2 6
-4.0778885 1.2048295 0.98168629 10 14
-4.1941047 1.239166 -0.076336578 14 7
-4.2146306 1.2460303 1.177627 43 15
-4.0804968 1.215674 0.3725034 43 10
-4.1357288 1.2329136 0.52988791 6 11
-0.99107736 0.29564139 -0.12698793 2 4
-4.2002363 1.2537419 0.69425631 12 12
-4.3889146 1.3108939 -0.40074223 33 5
-4.1441445 1.2377853 0.84070462 22 13
-4.0951462 1.22393 -0.22399783 2 6
-4.0365305 1.2071787 0.97268838 10 14
-4.2280693 1.2652638 -0.077034682 52 7
-4.2139559 1.2618427 1.1786621 43 15
-4.45539 1.3426161 0.081223391 66 8
-4.0969944 1.2369561 0.37442082 56 10
-4.1404638 1.2516562 0.53110641 7 11
-0.93673301 0.28335172 -0.12016313 2 4
-4.1500149 1.2561258 0.68674737 30 12
-4.4164977 1.3367846 -0.40370551 44 5
-4.1130562 1.2457216 0.83536148 16 13
-4.0483646 1.2269008 -0.22169502 2 6
-4.0001621 1.213055 0.96504009 11 14
-4.2002172 1.2745214 -0.076615825 27 7
-4.2220192 1.2819427 1.1822854 45 15
-4.4449387 1.3564104 0.081118681 17 8
-4.0869355 1.2495022 0.37389836 81 10
-4.1436629 1.2684261 0.53208148 13 11
-0.9888835 0.30289841 -0.12698793 2 4
-4.1512713 1.2723401 0.68768603 43 12
-4.4079947 1.3510243 -0.40335688 42 5
-4.0020518 1.2281344 -0.21939225 4 6
-3.9660971 1.2178572 0.95784152 16 14
-4.2045927 1.2926986 1.1786621 43 15
-3.9147685 1.2095773 0.071519867 8 8
-4.0768399 1.2619925 0.37337494 50 10
-4.1183519 1.2764192 0.52940035 13 11
-1.0257405 0.31810823 -0.13186258 2 4
-4.1545758 1.2884398 0.68893749 49 12
-4.4070578 1.3675839 -0.40370551 48 5
-3.9901114 1.2397256 -0.21897358 6 6
-3.943213 1.2259089 0.9533425 16 14
-4.0959678 1.2733989 -0.074870586 1 7
-3.997371 1.2435123 1.1217219 24 15
-3.9069183 1.2213593 0.071450055 16 8
-4.0438919 1.2672788 0.37076035 13 10
-4.0572724 1.2722496 0.52208817 13 11
-0.99816334 0.31318805 -0.12845038 2 4
-4.1557078 1.3047096 0.68987614 48 12
-4.4117613 1.3859462 -0.40457708 48 5
-3.9516816 1.2421697 -0.21708947 4 6
-3.9093826 1.2296232 0.94614404 19 14
-4.041903 1.2720814 -0.073963068 1 7
-3.8879747 1.2243812 1.0922163 19 15
-3.9045382 1.235593 0.071484968 14 8
-4.0187755 1.2740586 0.36884284 16 10
-4.0187497 1.2755945 0.51770091 10 11
-0.96679258 0.30705613 -0.12455054 2 4
-4.1588888 1.3208752 0.6911276 48 12
-4.4109387 1.4017744 -0.40492567 48 5
-3.9244823 1.2486893 -0.2158334 4 6
-3.888355 1.2379416 0.94209504 13 14
-3.94239 1.2551448 -0.07221783 1 7
-3.8562829 1.2284732 1.0844519 21 15
-3.9137506 1.2528017 0.071729295 8 8
-4.1367817 1.3257855 0.22766148 1 9
-3.9782579 1.2765131 0.36553091 14 10
-3.9785862 1.2773844 0.51306987 8 11
-0.99222827 0.31876069 -0.12796287 4 4
-4.1523724 1.3347799 0.69081467 48 12
-4.4173994 1.4208235 -0.40597162 48 5
-3.8975055 1.2543541 -0.21457735 2 6
-3.8452744 1.2382849 0.93264699 11 14
-3.9075315 1.2590872 -0.071659356 6 7
-3.8225534 1.2324409 1.0761697 15 15
-3.9093535 1.2664557 0.071729295 8 8
-4.1131301 1.3340566 0.22661476 1 9
-3.9323113 1.2761683 0.36169609 14 10
-3.9571114 1.2857436 0.51087618 10 11
-0.97034365 0.31547102 -0.12528165 9 4
-4.1608377 1.353543 0.69300485 48 12
-4.4143071 1.4368513 -0.4061459 48 5
-3.9080737 1.2735827 -0.21541473 2 6
-3.8223999 1.2456629 0.92814797 11 14
-3.9107177 1.2751983 -0.07179898 1 7
-3.788842 1.2361889 1.0678873 19 15
-3.9046857 1.2807748 0.071729295 11 8
-4.4668512 1.4668977 0.24639775 10 9
-3.9105721 1.2849748 0.3601273 13 10
-3.9259734 1.2915529 0.50746387 10 11
-0.94843966 0.31219804 -0.12260053 2 4
-4.1914964 1.3805264 0.69894928 49 12
-4.4071193 1.4523963 -0.40597162 48 5
-3.9185531 1.2929033 -0.2162521 2 6
-3.7919004 1.2511151 0.92184937 11 14
-3.9022198 1.2882684 -0.071729168 1 7
-3.7641084 1.2434024 1.0621935 18 15
-3.9037607 1.296338 0.071799099 8 8
-4.4614444 1.4832608 0.24639775 12 9
-3.8793695 1.2904938 0.35768697 11 10
-3.8854287 1.294017 0.50283283 10 11
-0.96235526 0.32069254 -0.12455054 2 4
-4.3719296 1.4577384 0.72992331 55 12
-4.413363 1.4715536 -0.40701747 46 5
-3.8761263 1.2939255 -0.21415867 2 6
-3.7835929 1.2637701 0.92094964 12 14
-3.8519535 1.2873508 -0.070891447 27 7
-3.7393723 1.2504508 1.0564994 19 15
-3.8423445 1.2908521 0.070751958 11 8
-3.8446271 1.2938595 0.35489795 14 10
-3.8507886 1.2974294 0.49893296 11 11
-0.94618142 0.3189767 -0.12260053 2 4
-4.4119744 1.4882236 -0.40736604 46 5
-3.9565675 1.3353773 0.81170124 1 13
-3.742234 1.264493 0.91195148 15 14
-3.8209157 1.2918223 -0.070402786 13 7
-3.7258348 1.2604009 1.0539113 24 15
-3.7999482 1.2913878 0.070053868 14 8
-4.3434625 1.4769433 0.24043146 1 9
-3.8287709 1.3034205 0.35385212 16 10
-3.8218102 1.3025388 0.4957644 8 11
-0.96578699 0.32915685 -0.12528165 2 4
-3.8627079 1.3172308 0.6463874 7 12
-4.4237237 1.509406 -0.40893486 48 5
-3.9518824 1.3491793 0.81170124 1 13
-3.8121879 1.3022313 -0.21112318 12 6
-3.7195787 1.2705964 0.9074524 10 14
-3.774982 1.2902577 -0.069634892 11 7
-3.7070112 1.2677475 1.0497701 56 15
-3.7578211 1.2909877 0.069355778 16 8
-3.7794602 1.2991592 0.20944856 6 9
-3.7792127 1.3005494 0.34966862 17 10
-3.7968245 1.3080925 0.4930833 15 11
-0.94592172 0.32589155 -0.12284437 2 4
-3.8116305 1.3139378 0.63856566 12 12
-4.4168105 1.5234179 -0.40876055 46 5
-4.0772953 1.4071096 0.83841449 1 13
-3.8021846 1.3129103 -0.21080916 4 6
-3.6987669 1.2771997 0.90340334 10 14
-3.7555616 1.2975447 -0.069355644 11 7
-3.6918323 1.2762465 1.0466644 54 15
-3.7157388 1.2903225 0.068657681 13 8
-3.7466044 1.3025066 0.20787849 14 9
-3.7485347 1.3039109 0.34722832 19 10
-3.7643459 1.3108838 0.48942718 15 11
-0.95977491 0.33441681 -0.12479416 2 4
-3.7734454 1.3155307 0.63293397 21 12
-4.41711 1.5407939 -0.40928349 11 5
-4.0667987 1.4193931 0.83726972 6 13
-3.7485535 1.3090541 -0.2080877 4 6
-3.6906071 1.2888182 0.90250361 9 14
-3.7302444 1.3033898 -0.068971694 12 7
-3.6709421 1.2833878 1.0420055 36 15
-3.6770251 1.2920004 0.068029396 16 8
-3.7041237 1.3029739 0.20578504 17 9
-3.702384 1.3030889 0.34339345 19 10
-3.7295604 1.3141162 0.48552746 16 11
-0.94730985 0.33397216 -0.12333185 2 4
-3.7630098 1.3273799 0.63199532 22 12
-4.0671225 1.4362502 0.83841455 6 13
-3.702301 1.3081452 -0.20578493 4 6
-3.687696 1.3029847 0.90295351 15 14
-3.6990473 1.3077227 -0.068483032 12 7
-3.6807833 1.3019876 1.0461466 37 15
-3.6647284 1.3027886 0.067889772 58 8
-3.6598086 1.3024797 0.20358695 30 9
-3.6506591 1.2999403 0.33903563 22 10
-3.6929312 1.3164463 0.48138386 20 11
-0.97225559 0.34677836 -0.12674409 2 4
-3.7227716 1.3285486 0.62605089 6 12
-4.4303656 1.581068 -0.41154954 1 5
-4.0657806 1.4517585 0.83917809 7 13
-3.6394062 1.3002303 -0.2025401 6 6
-3.6608753 1.3086207 0.8975547 20 14
-3.6546888 1.3071288 -0.067750037 9 7
-3.6814432 1.3174233 1.0476996 35 15
-3.6451039 1.3101619 0.067610539 42 8
-3.6496019 1.3132182 0.20327292 43 9
-3.627353 1.3059275 0.33729252 22 10
-3.6640356 1.3205791 0.47821525 16 11
-0.94489563 0.34074238 -0.12333184 2 4
-3.6920972 1.3321494 0.62167072 7 12
-4.0699215 1.4692754 0.84108621 7 13
-3.6066682 1.3027486 -0.20097001 8 6
-3.6287944 1.3114564 0.8908062 18 14
-3.5805247 1.2947181 -0.066458561 6 7
-3.6840885 1.332894 1.04977 32 15
-3.6442671 1.3242446 0.067680344 40 8
-3.6621208 1.3314558 0.20421499 34 9
-3.5890722 1.3063157 0.33415493 13 10
-3.6370225 1.3252052 0.47529045 16 11
-4.4574003 1.6250049 -0.58253527 4 4
-3.6598215 1.3342369 0.61697775 6 12
-4.4529114 1.6242489 -0.41468716 45 5
-4.0629244 1.4828002 0.8407042 7 13
-3.5814621 1.3077947 -0.19981864 15 6
-3.6223638 1.3234468 0.89035624 3 14
-3.5273764 1.2887427 -0.065551035 10 7
-3.6796486 1.3451039 1.0497701 32 15
-3.4859271 1.2798088 0.064818159 25 8
-3.6649494 1.3469862 0.20463367 32 9
-3.5807502 1.3174599 0.33380672 3 10
-3.6139791 1.3304011 0.472853 14 11
-4.4408097 1.6356605 -0.58107334 14 4
-3.6347528 1.3394902 0.61353612 11 12
-4.4378681 1.6363351 -0.41381559 50 5
-4.0543008 1.4949057 0.83994138 7 13
-3.5639887 1.3148252 -0.19908592 24 6
-3.6965666 1.3644687 0.90970206 1 14
-3.4740844 1.2830344 -0.064643517 15 7
-3.6731186 1.3572706 1.0492525 32 15
-3.4626901 1.2850126 0.064469106 34 8
-3.6639695 1.3611622 0.20484301 43 9
-3.5683823 1.327778 0.46749073 15 11
-4.4257717 1.6476892 -0.57985413 23 4
-3.613395 1.345963 0.61072028 12 12
-4.4398856 1.6538247 -0.41451287 48 5
-4.0435381 1.5069929 0.8387965 7 13
-3.5088503 1.3084168 -0.1962598 30 6
-3.4564703 1.2902591 -0.064399183 25 7
-3.6755972 1.3727876 1.0513231 31 15
-3.4675455 1.3006024 0.064643629 33 8
-3.6554561 1.3725404 0.20463367 53 9
-3.5544355 1.3367331 0.46627203 11 11
-4.4292827 1.6666222 -0.58107328 31 4
-3.5772464 1.3467362 0.60540152 8 12
-4.4508667 1.6756306 -0.41608164 49 5
-4.0437655 1.5231749 0.83994091 7 13
-3.4799657 1.3114997 -0.19489905 26 6
-3.4425902 1.2987872 -0.064224653 34 7
-3.6780133 1.3883377 1.0533937 30 15
-3.4517653 1.3084458 0.064434201 31 8
-3.6581123 1.3881254 0.20505236 56 9
-3.5311921 1.342079 0.46383464 12 11
-3.541137 1.3472745 0.60008276 5 12
-4.4505768 1.6932834 -0.41660458 48 5
-4.0329194 1.5351845 0.8387965 7 13
-3.4567015 1.3165303 -0.19385234 26 6
-3.4212196 1.304384 -0.063910514 43 7
-3.6875842 1.4066762 1.0575347 29 15
-3.4471769 1.3204868 0.064434201 31 8
-3.6681633 1.4066072 0.20588973 56 9
-3.5042484 1.3458565 0.46090981 12 11
-3.5124433 1.3504109 0.59601545 11 12
-4.4502192 1.7109529 -0.41712755 48 5
-3.9084327 1.503438 0.81399089 9 13
-3.4371729 1.3228503 -0.19301496 26 6
-3.4147794 1.3155996 -0.063875608 42 7
-3.6772435 1.4174563 1.0559818 30 15
-3.4201684 1.323849 0.064015344 42 8
-3.6669555 1.4208461 0.20609908 47 9
-3.4847243 1.3523352 0.45895991 14 11
-4.448597 1.7272837 -0.58594805 10 4
-3.4929774 1.3569411 0.59351248 13 12
-4.4423609 1.7257546 -0.41695315 19 5
-3.8647335 1.502136 0.80597693 12 13
-3.4139197 1.3276006 -0.19196823 24 6
-3.4101665 1.3275115 -0.063875616 36 7
-3.6866744 1.4358916 1.0601228 32 15
-3.4099388 1.3335953 0.063910626 45 8
-3.661974 1.4336368 0.20609908 48 9
-3.4411726 1.3492728 0.45384139 16 11
-4.4684119 1.7529511 -0.58936042 2 4
-3.4735091 1.3633519 0.5910095 19 12
-4.4492931 1.746347 -0.41817334 4 5
-3.8594663 1.5156175 0.80597693 12 13
-3.3720865 1.3249019 -0.1898748 24 6
-3.4036505 1.3386761 -0.06384071 39 7
-3.6996169 1.4558262 1.0652994 50 15
-3.4187534 1.3494402 0.064154968 43 8
-3.6574514 1.4451351 0.20609908 56 9
-3.4166121 1.352043 0.45116025 19 11
-3.4563532 1.3691652 0.5888195 22 12
-3.8489444 1.5262357 0.8048321 9 13
-3.358392 1.3323944 -0.18935144 15 6
-3.3994281 1.3493617 -0.06384071 40 7
-3.6932294 1.4667277 1.0647817 37 15
-3.4063549 1.3589984 0.064015351 45 8
-3.6725338 1.4666781 0.20725048 52 9
-3.3987319 1.3593961 0.4494541 16 11
-4.3347392 1.7346501 -0.57327312 2 4
-3.4036319 1.3627334 0.5806849 15 12
-4.3630118 1.7477311 -0.41120091 1 5
-3.6993587 1.4826349 0.77468425 10 13
-3.3405094 1.3394904 -0.18861873 12 6
-3.3777568 1.3551112 -0.063526563 42 7
-3.7111354 1.4896102 1.0715109 45 15
-3.4032059 1.3722211 0.06405025 49 8
-3.3698013 1.3621719 0.44628549 19 11
-4.3246717 1.7490363 -0.57278562 4 4
-3.3951917 1.3731247 0.58005911 15 12
-3.6286492 1.4690164 0.76094609 7 13
-3.3191526 1.3443954 -0.18767668 7 6
-3.5073977 1.4213552 0.87370992 1 14
-3.3730059 1.3668936 -0.063526563 43 7
-3.6629462 1.4851338 1.0590876 13 15
-3.3949318 1.381991 0.063980438 49 8
-3.3505621 1.3673387 0.44433558 20 11
-3.3702621 1.3767517 0.5766176 19 12
-3.5056317 1.432763 0.73614097 6 13
-3.305433 1.3516145 -0.18715334 5 6
-3.5026648 1.4329784 0.87370992 1 14
-3.3700647 1.3794169 -0.063561469 46 7
-3.6094706 1.4781437 1.0451114 5 15
-3.3863885 1.3923126 0.063910633 49 8
-4.2609277 1.7536181 0.24147817 1 9
-3.3145685 1.3661662 0.44019201 29 11
-4.6760311 1.9282755 -0.62104648 2 4
-3.3581319 1.3854934 0.57536614 41 12
-3.464314 1.4300094 0.72850901 12 13
-3.2785423 1.3539966 -0.18589728 1 6
-3.5876944 1.4824054 0.89620507 3 14
-3.3744693 1.3949912 -0.063735992 46 7
-3.5632293 1.4737531 1.0332059 3 15
-3.3815079 1.404125 0.063910633 24 8
-4.2953548 1.7853456 0.24378097 1 9
-3.3006163 1.3739139 0.43897334 41 11
-4.4713588 1.8621625 -0.59472269 2 4
-3.3569217 1.3987265 0.57599181 44 12
-4.4782739 1.8659595 -0.42444858 5 5
-3.4683621 1.4458706 0.73041666 9 13
-3.2553627 1.3577446 -0.18485057 1 6
-3.5806992 1.4941685 0.89575505 7 14
-3.3695793 1.4067619 -0.063735992 43 7
-3.2924562 1.3752396 0.95607764 21 15
-3.3159299 1.3938895 0.44165447 37 11
-4.4501929 1.8716028 -0.59277219 17 4
-3.3210661 1.3974118 0.57067311 15 12
-4.4680605 1.880035 -0.42409998 5 5
-3.296824 1.3878896 0.69530785 3 13
-3.566483 1.5028749 0.89350563 9 14
-3.3535922 1.4138553 -0.063526563 12 7
-3.2591562 1.3747107 0.94779551 20 15
-3.2022126 1.355962 0.060699388 9 8
-3.3201811 1.4093333 0.44287318 36 11
-3.2598078 1.3850486 0.56097418 6 12
-4.5458236 1.9314593 -0.43211836 1 5
-3.2485964 1.3809552 0.686149 4 13
-3.5665946 1.5176051 0.89485532 9 14
-3.2152359 1.3694248 0.93640751 14 15
-3.1643641 1.3529803 0.060071107 12 8
-3.2367842 1.3872877 0.43239236 6 11
-4.5501337 1.9511287 -0.60788399 14 4
-3.2497504 1.3935153 0.56003553 6 12
-4.5408835 1.9481019 -0.43229261 5 5
-3.1896334 1.369056 0.67470044 4 13
-3.559485 1.5292754 0.89440536 9 14
-3.1895576 1.3703421 -0.06059457 28 7
-3.1414998 1.3555439 0.059722062 20 8
-3.4158983 1.4753612 0.19500385 1 9
-3.2881839 1.4215612 0.31341186 1 10
-3.2248785 1.3948617 0.43141744 7 11
-4.5327077 1.9614768 -0.60642153 2 4
-3.2321768 1.399357 0.55784541 13 12
-4.5358844 1.9647328 -0.43246695 1 5
-3.1688623 1.3726028 0.67126584 4 13
-3.554394 1.5410708 0.89440536 9 14
-3.1517329 1.3671434 -0.059966281 17 7
-3.2324224 1.4028147 0.94417197 0 15
-3.1330824 1.3649044 0.059652254 22 8
-3.3053658 1.4420179 0.3155036 1 10
-3.1999786 1.3973715 0.4287363 18 11
-4.7059207 2.0559654 -0.63055176 17 4
-3.2399423 1.4161699 0.56003553 24 12
-3.5507784 1.5542501 0.89485532 9 14
-3.1396146 1.3749281 -0.059826665 20 7
-3.1173155 1.3710022 0.059442822 26 8
-3.5191176 1.549915 0.33642098 1 10
-3.2041636 1.4125361 0.42995501 22 11
-3.2277501 1.4242809 0.55878407 34 12
-4.7447886 2.0936911 -0.45373291 34 5
-3.1915309 1.4089633 0.6781354 12 13
-3.5453315 1.5666354 0.89485532 7 14
-3.1183357 1.3786013 -0.059512522 22 7
-3.0978899 1.3753841 0.059163585 19 8
-3.5355322 1.5719036 0.33851272 6 10
-3.2010272 1.4245195 0.43019876 23 11
-3.1974967 1.4242855 0.55440384 15 12
-4.7461834 2.1151218 -0.45460454 48 5
-3.1489358 1.4033126 0.67012143 8 13
-3.5434008 1.5805881 0.89575505 9 14
-3.0824604 1.3756245 -0.058919139 20 7
-3.0693469 1.3755577 0.058709819 20 8
-3.0523717 1.3692288 0.17532551 1 9
-3.5261123 1.5832185 0.33816409 6 10
-3.1399002 1.4104692 0.42264283 18 11
-4.7185349 2.1205933 -0.63518274 6 4
-3.1871004 1.4330081 0.55346525 6 12
-4.7405872 2.1324947 -0.45477879 46 5
-3.1401901 1.4132338 0.66935813 6 13
-3.5517979 1.5999689 0.89935434 9 14
-3.0667002 1.3814483 -0.058709715 13 7
-3.040602 1.3760793 0.058256064 13 8
-3.050971 1.3820561 0.17553486 2 9
-3.5260084 1.5979846 0.33868703 6 10
-3.0533593 1.3850651 0.41167459 23 11
-4.7306151 2.1468976 -0.63786453 42 4
-3.1818271 1.44468 0.55346531 13 12
-4.744 2.1539705 -0.45582467 46 5
-3.1245131 1.419315 0.66706812 6 13
-3.5390954 1.6091299 0.8975547 7 14
-3.0488753 1.3868824 -0.05846538 15 7
-3.0375981 1.3875161 0.058290962 4 8
-3.0243311 1.382732 0.1742788 2 9
-3.5222208 1.6111119 0.33886135 6 10
-3.0358717 1.3899306 0.40996844 27 11
-4.7646017 2.182411 -0.64347053 63 4
-3.1498275 1.4434338 0.54877222 13 12
-4.7509422 2.1771574 -0.45721912 45 5
-3.1248934 1.4326674 0.66821289 9 13
-3.5281436 1.619036 0.89620507 9 14
-3.0312943 1.3916763 -0.05822105 13 7
-3.0091281 1.3872273 0.057837199 5 8
-3.0049782 1.3865852 0.17344141 2 9
-3.5183842 1.6242319 0.33903563 6 10
-3.0129812 1.392192 0.40753102 29 11
-4.7209172 2.1823699 -0.6385951 46 4
-3.1178763 1.4419822 0.54407924 13 12
-4.757781 2.2004194 -0.45861369 45 5
-3.0913653 1.4303759 0.66210705 15 13
-3.5224707 1.6313417 0.89620507 9 14
-3.0064595 1.3930017 -0.057837099 35 7
-3.0242114 1.4070019 0.058221158 1 8
-2.9820139 1.388636 0.17239472 2 9
-3.5181112 1.6390277 0.33955857 6 10
-2.9847147 1.3917956 0.40436247 15 11
-4.7294612 2.2063894 -0.64078879 46 4
-3.094924 1.4445014 0.54095048 12 12
-4.7500715 2.2170126 -0.45861369 44 5
-3.070344 1.4336827 0.65867251 11 13
-3.5238168 1.6469271 0.89800465 9 14
-2.9979563 1.401794 -0.057767294 53 7
-3.0029907 1.4099003 0.057907011 5 8
-2.9735332 1.3973378 0.17218536 2 9
-3.521384 1.6555359 0.34043011 6 10
-2.9726534 1.3988248 0.40338749 3 11
-4.7396903 2.2313385 -0.64322668 53 4
-3.0827141 1.45193 0.53969902 11 12
-4.753118 2.2386749 -0.45965958 44 5
-3.0049379 1.4159389 0.64569753 9 13
-3.5233338 1.6617123 0.89935434 7 14
-3.0057037 1.4182233 -0.058011618 15 7
-3.0468438 1.4434905 0.058849439 1 8
-2.9505911 1.3991506 0.17113863 2 9
-3.5047832 1.662694 0.33938426 7 10
-3.0197558 1.4338851 0.41045591 1 11
-4.7462177 2.2546844 -0.64517605 48 4
-3.0455129 1.447419 0.53406739 8 12
-4.7686682 2.2663708 -0.46192557 23 5
-2.9928846 1.4230465 0.644171 9 13
-3.5175118 1.674001 0.89935434 7 14
-3.0115683 1.4338639 -0.058221053 5 7
-3.0800738 1.4671409 0.91414905 0 15
-3.0237451 1.4454926 0.05850039 1 8
-2.9513409 1.4115129 0.17145267 5 9
-3.5133345 1.681801 0.34077877 7 10
-4.7347369 2.2695227 -0.64468908 46 4
-2.9961634 1.4361644 0.52624565 7 12
-2.9790487 1.4292389 0.64226294 11 13
-3.5046203 1.682894 0.8975547 7 14
-3.064744 1.4723268 0.91104317 0 15
-3.0621653 1.4763545 0.0593381 1 8
-2.951792 1.4244105 0.17176668 2 9
-3.5110312 1.6957868 0.34112737 6 10
-4.7468457 2.2947145 -0.64736974 48 4
-2.9715707 1.437153 0.52280408 10 12
-2.9619217 1.4331244 0.63959193 16 13
-3.5060358 1.6979041 0.89935428 7 14
-3.1777966 1.5403148 0.94624251 2 15
-2.985064 1.4520456 0.057941917 1 8
-2.950644 1.4359391 0.17197603 2 9
-3.5018058 1.7056756 0.34077877 7 10
-4.7495112 2.3164914 -0.64883274 48 4
-2.9508097 1.4392059 0.5199883 13 12
-4.7611938 2.3232179 -0.46349445 4 5
-2.9586656 1.4443161 0.63997316 20 13
-3.5035896 1.7118435 0.90025413 7 14
-3.1674647 1.5482985 0.94468957 8 15
-2.937145 1.4407994 0.0571042 5 8
-2.9599562 1.4532721 0.1728134 2 9
-3.492254 1.7161314 0.34043011 7 10
-4.7578354 2.3401139 -0.65102571 51 4
-2.9528577 1.4529861 0.52123982 23 12
-2.9432912 1.4489169 0.63768387 17 13
-3.5013895 1.7251749 0.90115386 7 14
-2.9289927 1.4437838 -0.056999385 1 7
-3.1707034 1.5636185 0.94727778 16 15
-2.9571888 1.4634612 0.057592869 1 8
-2.9656038 1.4689137 0.17344142 2 9
-3.4972551 1.7330108 0.34147599 7 10
-4.7763114 2.3699429 -0.65468186 55 4
-2.9442289 1.4615279 0.52061403 15 12
-4.7916694 2.3786054 -0.46802649 41 5
-2.9417326 1.4609278 0.63844669 16 13
-3.4988363 1.7391213 0.90205365 7 14
-2.9275155 1.4557804 -0.05706919 1 7
-3.158308 1.5712345 0.9452073 12 15
-2.9497387 1.4739004 0.1728134 2 9
-3.4947488 1.7469897 0.34182462 7 10
-4.750258 2.3777156 -0.65224445 51 4
-2.9620714 1.4832941 0.52468133 15 12
-4.7958078 2.4015605 -0.46924669 48 5
-2.9524126 1.4791028 0.64188135 15 13
-3.4857764 1.7478293 0.90025407 7 14
-2.8938181 1.4516439 -0.05651072 1 7
-3.1562572 1.5839825 0.94624251 11 15
-2.9731114 1.498572 0.17448814 2 9
-3.4957457 1.7627655 0.34252188 6 10
-4.7543335 2.4005444 -0.65395123 48 4
-2.9498229 1.4900622 0.52342987 15 12
-4.7927303 2.4209814 -0.46976957 46 5
-2.959497 1.4955982 0.64455265 16 13
-3.4761763 1.7582284 0.89935434 7 14
-3.1593273 1.5993522 0.94883078 10 15
-2.9643021 1.50713 0.1742788 2 9
-3.4789162 1.7695378 0.34147602 6 10
-4.7653823 2.4270353 -0.6566323 48 4
-2.9551635 1.5057313 0.52530706 15 12
-4.7895756 2.4404113 -0.47029251 46 5
-2.9560077 1.5068105 0.64493424 15 13
-3.4839044 1.7774366 0.90295351 7 14
-3.1451228 1.605978 0.94624257 11 15
-2.9839036 1.5302277 0.17574421 2 9
-3.4762635 1.7834897 0.34182462 6 10
-4.774539 2.4527273 -0.65906978 48 4
-2.9569178 1.5196489 0.52655858 15 12
-4.7934327 2.4634891 -0.47151268 46 5
-2.954222 1.5189153 0.64569783 16 13
-3.4776785 1.7895869 0.90295351 7 14
-3.1412146 1.6178323 0.94676024 10 15
-2.978544 1.5406343 0.17574422 2 9
-3.4877119 1.80477 0.34356773 6 10
-4.7800488 2.4766848 -0.66101909 48 4
-2.9656253 1.5372338 0.5290615 15 12
-4.7954178 2.485708 -0.47255862 46 5
-2.9506445 1.530122 0.64607942 15 13
-3.4748707 1.8035102 0.9038533 7 14
-3.1389771 1.6305685 0.94779557 10 15
-2.9696066 1.5491737 0.17553486 2 9
-3.4796245 1.8160117 0.34339342 6 10
-4.7713752 2.4933541 -0.66101903 48 4
-2.9689939 1.5521523 0.53062582 13 12
-4.7973056 2.5079703 -0.47360444 46 5
-2.962682 1.5495118 0.64989525 15 13
-3.4651008 1.8138213 0.90295351 7 14
-3.1332662 1.6415147 0.94779545 12 15
-2.967716 1.561391 0.17574422 2 9
-3.4856052 1.8346425 0.34461358 6 10
-4.767911 2.5127707 -0.66175026 46 4
-2.9635582 1.562506 0.53062582 13 12
-4.8043847 2.5330629 -0.47517326 46 5
-2.955519 1.5589277 0.64951366 15 13
-3.4518545 1.8222675 0.90115386 7 14
-3.1428902 1.6605644 0.95245421 11 15
-2.9834189 1.5829741 0.17700027 2 9
-3.4615829 1.8374557 0.3428705 6 10
-4.7696276 2.5349867 -0.66321325 44 4
-2.9685509 1.5784066 0.53250313 13 12
-4.7972713 2.5507545 -0.47534755 45 5
-2.9673922 1.5784547 0.65333021 15 13
-3.459234 1.8416311 0.90475309 7 14
-3.1217301 1.6633492 0.94779551 12 15
-4.8973813 2.6204519 0.29109269 2 9
-3.4569037 1.8504686 0.34304479 6 10
-4.7729974 2.5581851 -0.66491884 42 4
-2.9717274 1.5934263 0.53406745 12 12
-4.7918506 2.5693679 -0.47569618 45 5
-2.9635942 1.5897315 0.65371144 13 13
-3.4562182 1.8555386 0.90565288 7 14
-3.1142027 1.6733215 0.94727778 11 15
-4.8987498 2.6432214 0.29172069 9 9
-3.4556828 1.8653644 0.34356773 7 10
-4.7815013 2.5842702 -0.66735619 42 4
-2.9730976 1.607548 0.53531885 12 12
-4.8003788 2.5955555 -0.47743934 44 5
-2.9580274 1.6000659 0.65371144 13 13
-3.4565752 1.8713028 0.90745246 7 14
-3.1168361 1.6887838 0.94986606 12 15
-4.8877387 2.6593506 0.29161602 13 9
-3.4666498 1.886941 0.34531087 4 10
-4.7776804 2.6037948 -0.66808802 40 4
-2.9761403 1.6226438 0.53688323 12 12
-4.803534 2.6189709 -0.47865948 42 5
-2.9731064 1.6216637 0.65829086 13 13
-3.4380488 1.8768203 0.90430319 9 14
-3.1092265 1.6987269 0.94934833 11 15
-4.8924341 2.6840823 0.29245341 25 9
-3.4478161 1.8923194 0.34409067 1 10
-2.7542353 1.5129024 0.3858383 1 11
-4.7772622 2.6252356 -0.66930681 42 4
-2.9600713 1.6273125 0.53500599 12 12
-4.8205523 2.6501203 -0.48127416 44 5
-2.9725878 1.6348701 0.65943605 12 13
-3.4365978 1.8916299 0.90565288 9 14
-2.8359597 1.5616615 -0.05651072 1 7
-3.1117387 1.7142299 0.9519366 12 15
-4.8987651 2.7098436 0.29339543 30 9
-2.7072613 1.499424 0.37998861 1 11
-4.787169 2.6524785 -0.67198724 44 4
-2.9630117 1.6424247 0.53657037 12 12
-4.8077869 2.6650007 -0.48092556 44 5
-2.9823158 1.6538048 0.66287065 13 13
-3.4163423 1.8960491 0.90205365 2 14
-2.8304915 1.5715507 -0.05651072 1 7
-3.0989807 1.7213295 0.94986606 12 15
-4.9102077 2.7386017 0.29465154 41 9
-2.7124095 1.5146719 0.38145104 1 11
-4.8021421 2.6827278 -0.6753996 46 4
-2.9262223 1.6354101 0.53093868 12 12
-4.8123684 2.6895413 -0.48232001 44 5
-2.9748111 1.6632468 0.662489 15 13
-3.472626 1.9431715 0.9187001 1 14
-2.8249881 1.5814214 -0.056510717 1 7
-3.0929527 1.7321372 0.949866 12 15
-4.9075813 2.7596402 0.29507017 40 9
-2.8420281 1.6000938 0.4004626 1 11
-4.8065863 2.7072666 -0.67734951 44 4
-2.6365349 1.485611 0.47931534 22 12
-4.8203092 2.7161043 -0.48406312 44 5
-2.9826694 1.6813334 0.66554159 13 13
-2.7567575 1.5558902 -0.05525415 1 7
-3.0936167 1.7467216 0.9519366 12 15
-4.9083443 2.7826636 0.29569826 40 9
-2.9123857 1.653121 0.41118708 4 11
-4.8022847 2.726969 -0.67808074 42 4
-2.5849581 1.4684606 0.47086784 30 12
-4.8281226 2.7427552 -0.48580629 45 5
-2.990437 1.6994951 0.66859454 15 13
-3.0908585 1.7594213 0.95297188 12 15
-4.9090042 2.8057277 0.29632628 41 9
-2.9134896 1.6672211 0.4121621 6 11
-4.8047957 2.7506192 -0.67978752 44 4
-2.559247 1.4656938 0.46711344 37 12
-4.8358088 2.7694924 -0.48754939 45 5
-2.9844866 1.7099234 0.66859454 15 13
-3.0981026 1.7778921 0.95711297 12 15
-4.9130244 2.8308232 0.29716364 40 9
