# .PCD v0.7 - Point Cloud Data file format
VERSION 0.7
FIELDS x y z intensity ring
SIZE 4 4 4 4 2
TYPE F F F F U
COUNT 1 1 1 1 1
WIDTH 413
HEIGHT 1
VIEWPOINT 0 0 0 1 0 0 0
POINTS 413
DATA ascii
3.0340459 0.83173019 -0.27523792 1 5
3.0417044 0.81104004 -0.27541226 46 5
3.0329549 0.7973786 -0.27436638 41 5
3.0442388 0.77766603 -0.27488932 1 5
3.0546634 0.76897973 -0.27558655 1 5
3.0495944 0.75639284 -0.27488932 1 5
3.0524764 0.7463721 -0.38583854 1 4
3.0560865 0.74668962 -0.27523792 1 5
3.0444133 0.7427116 -0.1642302 1 6
3.0299747 0.7296713 -0.3826696 15 4
3.050926 0.7341519 -0.27454066 1 5
3.0042634 0.72181559 -0.1619274 11 6
3.0534701 0.7234984 -0.27454069 1 5
3.0543258 0.71301299 -0.38510695 53 4
3.0637381 0.71464646 -0.27523792 1 5
3.0111744 0.70127732 -0.16203208 56 6
3.0645347 0.70412427 -0.38608229 52 4
3.0429118 0.69859707 -0.27314621 1 5
2.996083 0.68674523 -0.16109002 45 6
3.0437396 0.68817025 -0.38315707 53 4
3.0531051 0.68972778 -0.27384344 2 5
3.0004101 0.67672282 -0.1611947 45 6
3.0422475 0.6766786 -0.38266957 52 4
3.0516045 0.67820096 -0.27349481 5 5
3.006654 0.66710979 -0.16140404 45 6
3.0445914 0.66605419 -0.38266957 52 4
3.0089648 0.65660971 -0.16140404 45 6
3.0467832 0.65595496 -0.38266957 52 4
3.0367858 0.65269357 -0.2717517 5 5
3.0169835 0.64788669 -0.16171806 38 6
3.0893247 0.66229367 -0.055149432 1 7
3.0509961 0.64572728 -0.38291368 44 4
3.062438 0.64703077 -0.27384344 1 5
3.0016086 0.63253725 -0.053543817 5 7
3.068579 0.63714904 -0.27419207 1 5
3.0176308 0.62547183 -0.16150871 1 6
3.0476496 0.62282324 -0.3819387 1 4
3.0707843 0.62643307 -0.27419207 1 5
3.0157743 0.61466438 -0.16129936 1 6
3.0059512 0.61156803 -0.053543817 57 7
3.0927653 0.62192506 -0.4996517 1 3
3.0498056 0.61218041 -0.38193837 1 4
3.0845659 0.61859626 -0.27523792 1 5
3.0335689 0.60726911 -0.16213675 1 6
2.9904196 0.59754574 -0.053229682 70 7
3.1104207 0.61418909 -0.50215465 27 3
3.0714004 0.60536885 -0.38437614 1 4
3.055429 0.60166693 -0.27244896 1 5
3.0317504 0.59590507 -0.16192739 2 6
2.9866002 0.58594781 -0.053124961 64 7
3.0698814 0.59505725 -0.4952715 31 3
3.1007802 0.59992361 -0.38778812 1 4
3.0888097 0.59704834 -0.27523795 1 5
3.0377345 0.58607608 -0.16213675 2 6
2.9964821 0.5770309 -0.053264581 57 7
3.1010482 0.58987528 -0.49996451 59 3
3.0482485 0.5787279 -0.38096341 1 4
3.0673845 0.58180797 -0.27314618 1 5
3.0142508 0.57063836 -0.16077602 21 6
2.9984779 0.56656832 -0.053264581 57 7
3.087554 0.57614732 -0.49746159 44 3
3.0658619 0.57099229 -0.38291332 1 4
3.0693972 0.57109648 -0.27314621 1 5
3.0083692 0.55865508 -0.16035733 33 6
2.9886396 0.55391222 -0.053055152 57 7
3.0914891 0.56572098 -0.49777442 53 3
3.0522144 0.55743301 -0.38096341 1 4
3.0556917 0.55751699 -0.2717517 2 5
3.027986 0.55137002 -0.16129938 40 6
2.9866204 0.54276222 -0.052985348 57 7
3.0876119 0.55388051 -0.49683583 52 3
3.0619569 0.54817522 -0.3819387 2 4
3.0497742 0.54544491 -0.27105448 22 5
3.0141625 0.53799009 -0.16046201 50 6
2.988497 0.53233284 -0.052985348 57 7
3.0836899 0.54207247 -0.4958972 55 3
3.059942 0.53679842 -0.38145092 5 4
3.0339973 0.53169972 -0.26948565 40 5
2.9983151 0.52436936 -0.15951996 43 6
2.9923062 0.52224076 -0.053020243 59 7
2.9714484 0.51379234 0.052636392 55 8
3.0914035 0.53231299 -0.49683586 52 3
3.0554709 0.52447861 -0.27122876 46 5
3.0001273 0.51389927 -0.15951996 45 6
2.9921405 0.51145625 -0.052985348 57 7
3.0932429 0.52151787 -0.49683586 52 3
3.044039 0.51212949 -0.37901351 27 4
3.0454943 0.51182777 -0.27018291 10 5
3.0019028 0.50342441 -0.15951996 43 6
2.9860184 0.49968758 -0.052845728 57 7
3.0911467 0.51007318 -0.49621013 52 3
3.0036421 0.49294195 -0.15951996 12 6
2.9877441 0.48926345 -0.052845728 57 7
2.9845607 0.4839299 0.052776009 1 8
3.0812073 0.49739179 -0.49433285 52 3
3.0553801 0.49212688 -0.37998849 1 4
3.0470264 0.49023727 -0.27000862 1 5
2.9933825 0.47946298 -0.052915528 31 7
2.9822819 0.47288173 0.052706201 2 8
3.0570788 0.48146063 -0.37998846 1 4
3.0841463 0.48517042 -0.27314618 1 5
3.0326602 0.47598794 -0.16088067 1 6
2.9871356 0.46777299 -0.052775916 53 7
2.9858909 0.46277422 0.052741103 8 8
2.9764924 0.46025383 0.15784532 1 9
3.1043136 0.48001876 -0.61058891 6 2
3.0587409 0.47078574 -0.37998846 1 4
3.0818825 0.47379702 -0.27279755 1 5
3.0066652 0.46115914 -0.15941529 2 6
2.9986339 0.45885605 -0.052950438 55 7
2.9306071 0.44321358 0.15533318 12 9
3.1038268 0.46774852 -0.49714869 1 3
3.0564392 0.4595162 -0.37950099 1 4
3.0756366 0.46185344 -0.27210033 1 5
3.0161572 0.45184532 -0.15983395 3 6
2.9902506 0.44743073 -0.052775919 57 7
2.9830375 0.44156075 0.052636392 60 8
3.0842822 0.45489728 -0.60600948 42 2
3.1053612 0.45745245 -0.49714875 1 3
3.0618744 0.44995463 -0.37998846 1 4
3.0535743 0.44764599 -0.27000862 1 5
2.9919486 0.43807852 -0.15847324 21 6
2.985858 0.43612224 -0.052671202 59 7
2.9687274 0.4288587 0.05235716 60 8
2.9514213 0.42530707 0.15627521 47 9
3.0935466 0.4457877 -0.60753602 47 2
3.0952075 0.4449228 -0.4952715 1 3
3.0870059 0.44264564 -0.38291368 1 4
3.055042 0.43751669 -0.27000862 2 5
3.0053227 0.42932588 -0.15910126 33 6
2.9913216 0.42626184 -0.05274101 59 7
2.9622853 0.41737789 0.052217532 66 8
2.9607992 0.41611323 0.15669391 7 9
3.0931396 0.43471241 -0.60715437 47 2
3.0810912 0.43192247 -0.49276853 1 3
3.0649409 0.42856914 -0.37998846 1 4
3.0526035 0.42629939 -0.26965994 3 5
3.0166936 0.42021111 -0.15962461 40 6
2.994772 0.41609195 -0.052775916 57 7
2.9637241 0.40703431 0.052217532 64 8
2.9622338 0.40577614 0.15669391 1 9
3.0926931 0.42364693 -0.60677272 50 2
3.0943234 0.42276844 -0.49464574 2 3
3.0585508 0.4167949 -0.37901354 1 4
3.0224864 0.41134161 -0.26687098 28 5
3.0062675 0.40806711 -0.15899658 47 6
2.9981878 0.40590465 -0.052810822 60 7
2.9651275 0.39668569 0.052217536 64 8
2.9458144 0.39305544 0.15575185 2 9
3.0824769 0.41129005 -0.60448301 48 2
3.0879476 0.41092452 -0.49339429 4 3
3.0521157 0.40507057 -0.37803856 2 4
3.0337794 0.40209973 -0.26774257 36 5
3.007674 0.39757001 -0.1589966 46 6
2.9916561 0.39439031 -0.052671202 60 7
2.9744258 0.38736665 0.052357156 42 8
2.9669755 0.38534182 0.15679859 1 9
3.0761063 0.39951539 -0.60295653 48 2
3.0736911 0.39811233 -0.49089131 27 3
3.055479 0.39466915 -0.37828264 5 4
3.0470202 0.39303592 -0.2687884 46 5
3.0031004 0.386305 -0.15868257 45 6
2.9850814 0.38292655 -0.052531585 59 7
2.95245 0.3729822 0.15596122 1 9
3.085273 0.38976172 -0.60448301 47 2
2.9690378 0.3745499 0.26181573 1 10
3.0588086 0.38424772 -0.37852603 23 4
3.0365124 0.38090867 -0.26774254 50 5
3.0044303 0.37581909 -0.15868255 46 6
2.9903681 0.37300146 -0.052601397 59 7
2.9810264 0.36708203 0.052426964 1 8
2.9656279 0.3641336 0.15658922 2 9
3.0827177 0.37851042 -0.60371977 48 2
2.92682 0.35885152 0.25798088 10 10
3.0705137 0.37592408 -0.48995274 41 3
3.0299127 0.36934325 -0.26704529 28 5
2.9938283 0.36388272 -0.15805455 45 6
2.9956222 0.36304113 -0.052671202 59 7
3.0021455 0.35904789 0.052776016 1 8
2.9510152 0.35188815 0.15575187 2 9
3.0957167 0.3691428 -0.60600948 50 2
3.0894611 0.36730173 -0.49276853 45 3
3.0968993 0.36709133 -0.38291368 1 4
2.9970636 0.35366619 -0.15815921 37 6
3.0028293 0.35328388 -0.052775919 46 7
2.9994078 0.34810439 0.052706201 1 8
2.9680378 0.34394014 0.15658924 2 9
3.0813844 0.35652843 -0.60295653 46 2
2.9351912 0.33909419 0.25850376 47 10
3.0705526 0.35310316 -0.37950099 1 4
3.0700259 0.35249969 -0.27035722 1 5
2.9846489 0.3363637 0.052426968 1 8
2.9652507 0.33313093 0.15637988 2 9
3.0748062 0.34489405 -0.60143006 45 2
2.9125969 0.32618609 0.25641203 48 10
3.107595 0.34802422 -0.49527156 1 3
3.0677612 0.34247753 -0.37901351 1 4
3.0593565 0.34045959 -0.26931134 1 5
3.0192521 0.33546171 -0.15920593 2 6
3.0091393 0.3332763 -0.052845724 44 7
2.9818292 0.32551137 0.05235716 2 8
2.98228 0.32450727 0.15721728 2 9
3.0798366 0.33512259 -0.6021933 46 2
2.9097013 0.31609467 0.25606343 49 10
3.097007 0.33589575 -0.49339429 1 3
3.072885 0.33219433 -0.37950099 1 4
3.0644298 0.33073923 -0.26965994 1 5
3.0164332 0.32449389 -0.15899661 7 6
3.0102844 0.32276961 -0.052845724 57 7
2.9789693 0.31467986 0.05228734 9 8
2.9794223 0.31367618 0.15700795 2 9
3.0927022 0.32560241 -0.60448301 45 2
2.9266386 0.3076027 0.25745791 51 10
3.1020901 0.32549605 -0.49402002 1 3
3.0779746 0.32187954 -0.37998846 1 4
3.0695295 0.32045481 -0.27000862 1 5
2.9956956 0.31168965 -0.15784521 27 6
2.9855351 0.30957919 -0.052391961 57 7
2.9467199 0.29983622 0.1552285 7 9
3.1016328 0.31559902 -0.60600948 42 2
2.9276946 0.29738554 0.25745791 55 10
3.1228602 0.31665772 -0.49714869 1 3
3.0790792 0.31113407 -0.37998882 1 4
3.0626998 0.30893752 -0.26931134 2 5
3.0086884 0.30242994 -0.15847324 40 6
3.0025158 0.30074945 -0.052671202 55 7
2.9810936 0.2938751 0.05228734 60 8
2.9326808 0.28755227 0.25780654 51 10
3.1318107 0.30652532 -0.49840021 1 3
3.0524869 0.29768589 -0.37657616 1 4
3.0419464 0.29612198 -0.26739389 6 5
3.0236411 0.29327473 -0.15920591 40 6
2.9916048 0.28911343 -0.052461773 60 7
2.9761295 0.28289887 0.05218263 63 8
2.9487414 0.27925697 0.1552285 4 9
2.9177978 0.27581269 0.25641236 55 10
3.0895956 0.29150984 -0.4915171 1 3
3.0851297 0.29000056 -0.38047597 1 4
3.0166922 0.28197417 -0.15878724 47 6
2.9886134 0.27829736 -0.052391961 61 7
2.9671421 0.27159774 0.052008107 59 8
2.9715772 0.27095923 0.15637989 2 9
2.9187429 0.26562658 0.25641203 55 10
3.0945287 0.28107986 -0.49214283 2 3
3.0623984 0.27708375 -0.37755144 2 4
3.0479088 0.27523646 -0.26774257 46 5
3.0176587 0.27144289 -0.15878727 46 6
2.9935505 0.26821962 -0.052461777 61 7
2.962096 0.26071209 0.051903393 37 8
2.960567 0.25953758 0.15575187 2 9
2.9236219 0.25578323 0.25676066 55 10
3.1033623 0.27096415 -0.49339429 2 3
3.0534587 0.26553157 -0.3763327 11 4
3.0428956 0.26407942 -0.2672196 55 5
3.0026686 0.25953093 -0.15794986 47 6
2.9944682 0.2577706 -0.052461773 59 7
2.9534941 0.24853098 0.15533316 2 9
2.9244971 0.24557833 0.25676069 55 10
3.0964153 0.25946912 -0.4921428 27 3
3.066236 0.25586396 -0.37779516 43 4
3.0338717 0.25262865 -0.26634806 46 5
2.9955947 0.24838997 -0.15753119 47 6
2.9993358 0.24764465 -0.052531585 59 7
2.9857686 0.24180336 0.052287348 1 8
2.9702284 0.24002166 0.15617056 1 9
2.9293089 0.23568727 0.25710931 55 10
3.0611317 0.24521817 -0.3770636 37 4
3.0307629 0.24171929 -0.26599944 46 5
3.0004253 0.23824726 -0.15774052 47 6
2.9921663 0.23706453 -0.052391961 60 7
2.9905417 0.23220965 0.052357156 1 8
2.9710081 0.23017272 0.15617056 1 9
2.9181552 0.225052 0.25606343 52 10
3.0902314 0.23778026 -0.49089131 41 3
3.0335343 0.23182002 -0.26617375 45 5
3.0011988 0.22829534 -0.15774052 47 6
2.9710026 0.22547689 -0.052008007 38 7
2.9952838 0.22258839 0.052426968 1 8
2.9717932 0.21979976 0.15617055 1 9
2.9228592 0.21566762 0.25641206 55 10
3.0969136 0.2279671 -0.49182999 50 3
3.078568 0.22553627 -0.37901384 1 4
3.0362735 0.22190501 -0.26634806 10 5
3.0099075 0.21892191 -0.15815921 47 6
2.9840741 0.21128476 0.052217536 1 8
2.9605885 0.20858191 0.15554252 1 9
2.9235942 0.20546424 0.25641203 51 10
3.0779848 0.21577464 -0.48870122 37 3
3.0793369 0.21478935 -0.37901351 1 4
2.9986982 0.20758708 -0.15753119 28 6
3.008414 0.20720313 -0.052636299 2 7
2.9927745 0.20140344 0.05235716 1 8
2.9453561 0.19717965 0.15470514 2 9
2.9342337 0.19592062 0.25728363 45 10
3.0642214 0.20298859 -0.37706393 1 4
3.0636282 0.2018753 -0.26861408 1 5
3.0133557 0.19803442 -0.15826391 10 6
2.9891641 0.19539677 -0.052287247 5 7
3.0054328 0.19171846 0.05256658 1 8
2.9579859 0.18765655 0.15533316 2 9
3.0886867 0.19378203 -0.37998849 1 4
3.0364752 0.18944378 -0.26617375 1 5
3.0100744 0.18674192 -0.15805455 40 6
2.9778533 0.18421984 -0.052077826 33 7
2.9901462 0.17974247 0.05228734 2 8
2.9526727 0.17645553 0.15501915 8 9
3.0893757 0.18246081 -0.37998846 1 4
3.0331402 0.1786083 -0.26582512 2 5
3.0286522 0.17728324 -0.15899658 40 6
2.9944787 0.17423412 -0.052357059 53 7
2.9847662 0.16896538 0.05218263 9 8
3.0979218 0.17211689 -0.38096341 1 4
3.0397129 0.16835074 -0.26634803 12 5
3.0152929 0.16594116 -0.15826389 45 6
3.0150359 0.16487144 -0.052706107 57 7
2.9498439 0.15562867 0.15480982 42 9
3.0747147 0.16006285 -0.37803891 1 4
3.0323231 0.15732539 -0.26565078 36 5
3.0118647 0.15520985 -0.15805455 50 6
2.9916279 0.15312149 -0.052287251 55 7
2.9798815 0.14782643 0.052077919 60 8
2.9364052 0.14464222 0.15407711 44 9
3.0633583 0.14875063 -0.37657648 2 4
3.0527544 0.14770314 -0.26739389 46 5
2.9964285 0.14392817 -0.15721717 46 6
3.0081236 0.14343898 -0.052566487 59 7
2.9803555 0.13794315 0.052077919 28 8
2.9288878 0.13453653 0.1536584 48 9
3.0578859 0.13832286 -0.37584493 25 4
3.0452659 0.1372209 -0.26669666 52 5
3.0068655 0.1344375 -0.15774052 48 6
2.9985938 0.13301894 -0.052391961 61 7
2.9433081 0.12490678 0.15439112 46 9
3.0643001 0.12789698 -0.37657616 42 4
3.0298011 0.12592739 -0.26530218 46 5
2.9993343 0.12361241 -0.15732184 48 6
2.995044 0.12238701 -0.052322153 59 7
2.989238 0.11744701 0.052217532 1 8
2.9477174 0.11478661 0.15460047 45 9
3.0627439 0.11712313 -0.37633237 35 4
3.0262601 0.11467157 -0.26495355 50 5
3.0117223 0.11359287 -0.15794986 48 6
2.9934547 0.11185899 -0.052287251 57 7
2.9936266 0.10715703 0.052287348 1 8
2.9520924 0.10463717 0.15480982 44 9
3.03859 0.1045174 -0.26599944 50 5
2.9961495 0.10201057 -0.15711248 47 6
2.9798369 0.10093451 -0.052042916 27 7
3.0019944 0.096438743 0.052426968 1 8
2.9444547 0.094077297 0.15439112 44 9
3.0469015 0.094156891 -0.26669666 50 5
3.004473 0.091794632 -0.15753119 47 6
3.0062952 0.086599015 0.052496776 1 8
2.9487433 0.08442755 0.15460049 43 9
3.0471971 0.084051639 -0.26669666 40 5
3.0087538 0.081940278 -0.15774053 47 6
3.0224335 0.081784956 -0.052775919 1 7
3.0025675 0.076528005 0.052426964 1 8
2.9530132 0.074233592 0.1548098 32 9
3.0070124 0.071913846 -0.15763585 33 6
3.0187023 0.07114061 -0.052706111 2 7
2.9948194 0.06587135 0.05228734 1 8
3.0536854 0.062900685 -0.2672196 1 5
3.007256 0.060892787 -0.15763587 28 6
3.0029378 0.060281057 -0.052426867 2 7
3.0070374 0.055113453 0.052496776 1 8
3.0658391 0.0524446 -0.26826546 2 5
3.0094469 0.050429221 -0.15774052 45 6
2.9991312 0.049732801 -0.052357059 5 7
2.9832096 0.044781882 0.052077916 1 8
3.05405 0.04157896 -0.26721957 23 5
3.0036063 0.040369339 -0.15742652 46 6
2.9812903 0.039027195 -0.052042909 27 7
2.9913461 0.03445961 0.052217532 2 8
3.04421 0.031349167 -0.26634803 36 5
3.0017319 0.029863881 -0.15732184 47 6
2.9994054 0.028793707 -0.052357063 53 7
2.9934478 0.02403434 0.052252438 9 8
3.0363314 0.02066909 -0.26565081 28 5
3.0078094 0.019423593 -0.15763585 46 6
3.0154848 0.018420577 -0.052636299 57 7
3.0158479 0.0089485981 -0.15805455 46 6
2.9955337 0.0078413095 -0.052287251 53 7
2.9795446 0.0031194638 0.052008104 60 8
3.0058744 -0.0015738723 -0.15753119 47 6
3.0095406 -0.0026263201 -0.052531581 55 7
2.975538 -0.0072706258 0.051938295 59 8
3.0038538 -0.012058306 -0.15742652 45 6
3.0075133 -0.013122835 -0.052496672 57 7
2.9754949 -0.017657148 0.051938299 59 8
3.001792 -0.02305256 -0.15732184 47 6
2.987453 -0.023463881 -0.052147631 23 7
2.9874074 -0.028677935 0.052147724 57 8
3.0076845 -0.033597559 -0.15763585 46 6
2.9633019 -0.038274463 0.051728871 52 8
3.0115509 -0.043629076 -0.15784521 45 6
3.0352042 -0.045031462 -0.052985348 1 7
2.9811444 -0.048913334 0.052043006 37 8
3.007386 -0.054069277 -0.15763585 45 6
3.0190332 -0.055332858 -0.052706107 1 7
2.9951985 -0.064309448 -0.15700784 45 6
3.0268185 -0.066045411 -0.052845724 1 7
3.0009458 -0.074913777 -0.15732186 28 6
2.9985828 -0.075902164 -0.052357059 2 7
2.9982996 -0.086368717 -0.052357059 2 7
3.0039761 -0.097027868 -0.052461777 8 7
2.981636 -0.10672626 -0.052077819 31 7
3.0091989 -0.11875776 -0.052566484 44 7
3.0247493 -0.12994775 -0.052845728 57 7
2.9923401 -0.13849817 -0.052287247 55 7
3.0098143 -0.14983742 -0.052601397 53 7
3.0072756 -0.1602363 -0.052566484 57 7
2.9867334 -0.16959901 -0.052217443 15 7
