# .PCD v0.7 - Point Cloud Data file format
VERSION 0.7
FIELDS x y z intensity ring
SIZE 4 4 4 4 2
TYPE F F F F U
COUNT 1 1 1 1 1
WIDTH 1279
HEIGHT 1
VIEWPOINT 0 0 0 1 0 0 0
POINTS 1279
DATA ascii
-4.5572853 0.74955183 1.066268 37 14
-4.4099412 0.726107 -0.078012012 45 7
-4.3135743 0.71101427 1.1714151 43 15
-4.4482479 0.73959357 0.078710251 48 8
-4.44454 0.74057138 0.23613992 49 9
-4.4512615 0.74249089 0.39481527 43 10
-4.4774218 0.74765658 -0.71897274 1 3
-4.4953961 0.75146443 0.55962396 37 11
-4.4424024 0.74340397 -0.55304283 2 4
-4.5276837 0.75848645 0.72710752 42 12
-4.5539804 0.76370877 0.89756572 27 13
-4.3865108 0.73641205 -0.23310427 55 6
-4.5642495 0.76706892 1.0685174 34 14
-4.411324 0.74216098 -0.078081831 42 7
-4.3091612 0.72574639 1.1708975 45 15
-4.4416962 0.75444669 0.078640439 48 8
-4.4596486 0.75909656 0.23708197 48 9
-4.4584632 0.7596966 0.39568681 43 10
-4.4747853 0.7632814 -0.7189728 1 3
-4.4966593 0.76782125 0.56011146 33 11
-4.4397807 0.75890541 -0.55304283 2 4
-4.5366907 0.77628541 0.72898471 42 12
-24.656097 4.2189713 -2.1884816 5 5
-4.5474167 0.77893877 0.89680195 28 13
-4.4075356 0.75576895 -0.23436032 53 6
-4.5692272 0.78431541 1.0703171 34 14
-4.4205313 0.75958687 -0.07829126 45 7
-4.2989855 0.73947281 1.1688269 40 15
-4.4370656 0.76960504 0.078605548 47 8
-4.460907 0.77534419 0.23729131 48 9
-4.4695249 0.77764571 0.39690703 45 10
-4.4720936 0.77889574 -0.7189728 1 3
-4.4919958 0.78317088 0.55986768 37 11
-4.4136386 0.77030307 -0.55011803 2 4
-4.5320077 0.79177696 0.72867191 40 12
-4.5446696 0.79480642 0.89680243 28 13
-4.4009361 0.77046084 -0.23415099 55 6
-4.5760589 0.80194336 1.0725666 38 14
-4.4257317 0.77639389 -0.078430869 42 7
-4.3039894 0.75581139 1.1708975 45 15
-4.4501042 0.78787637 0.078884773 48 8
-4.442441 0.78812009 0.23645394 48 9
-4.4705677 0.7947197 0.39725566 43 10
-4.4692087 0.79528266 -0.7189728 1 3
-4.4950972 0.79988945 0.56059885 33 11
-4.4617343 0.79475594 -0.55645567 2 4
-4.5486631 0.81105942 0.73180056 40 12
-4.5513902 0.81318486 0.89871007 30 13
-4.3980827 0.78658599 -0.23415099 53 6
-4.5654159 0.81733537 1.0707669 36 14
-4.4348049 0.79395241 -0.078640297 45 7
-4.3089314 0.77219367 1.172968 45 15
-4.4511228 0.80489451 0.078954592 47 8
-4.4514546 0.80575687 0.23708197 48 9
-4.4854097 0.81352007 0.39882442 43 10
-4.4664049 0.81087834 -0.71897274 1 3
-4.5058084 0.81884432 0.56230509 31 11
-4.4197307 0.80399823 -0.55158043 2 4
-4.534143 0.82481104 0.72992325 40 12
-4.565906 0.83223569 0.90214515 28 13
-4.4070992 0.80408442 -0.23477903 53 6
-4.5740371 0.83536744 1.0734663 37 14
-4.428072 0.8087095 -0.078570493 43 7
-4.3081093 0.78757739 1.1734856 43 15
-4.456295 0.82110012 0.079094201 45 8
-4.4603992 0.82346505 0.23770998 48 9
-4.4629521 0.82554835 0.39708138 43 10
-4.4636917 0.82568526 -0.7189728 1 3
-4.5089235 0.83486485 0.56303626 32 11
-4.4170403 0.81865031 -0.55158043 2 4
-4.5428901 0.84279525 0.73180056 39 12
-4.5631213 0.84737128 0.90214515 28 13
-4.4083347 0.81942439 -0.23498833 55 6
-4.5789056 0.85195702 1.075266 37 14
-4.4252219 0.82416147 -0.078570485 42 7
-4.2958388 0.80084074 1.1708975 45 15
-4.449471 0.83591211 0.079024389 45 8
-4.4614229 0.83976871 0.23791932 48 9
-4.4699783 0.842188 0.39795285 43 10
-4.4607825 0.84126049 -0.7189728 1 3
-4.5118332 0.85170466 0.56376749 31 11
-4.4453654 0.83996093 -0.55548078 2 4
-4.5418611 0.85901386 0.73211342 42 12
-4.5543485 0.86220002 0.90100032 27 13
-4.4250722 0.83852625 -0.23603511 48 6
-4.5873914 0.87011307 1.0779654 38 14
-4.4341059 0.84184152 -0.078779921 43 7
-4.2930174 0.81583124 1.1708975 45 15
-4.4504542 0.85218984 0.079094201 47 8
-4.46631 0.85684323 0.23833799 48 9
-4.4787521 0.86003953 0.39899877 47 10
-4.5276542 0.87024939 -0.73023611 1 3
-4.5088334 0.86744899 0.56376755 31 11
-4.4657974 0.85997653 -0.55840504 2 4
-4.5465941 0.87635845 0.73336494 42 12
-4.5551662 0.87883633 0.9017635 27 13
-4.4181962 0.85320914 -0.23582575 48 6
-4.5919795 0.88760138 1.0797651 38 14
-4.438993 0.85883373 -0.07891953 42 7
-4.2977295 0.8322798 1.1729679 45 15
-4.4553027 0.86925137 0.079233818 45 8
-4.4634438 0.8716495 0.23833799 45 9
-4.4835434 0.87719828 0.39969647 43 10
-4.4548006 0.87238318 -0.7189728 1 3
-4.511621 0.88432682 0.56449866 33 11
-4.439393 0.87097389 -0.55548078 2 4
-4.5552931 0.89371258 0.73524207 43 12
-4.5713353 0.89851707 0.90557915 30 13
-4.4112711 0.86785531 -0.23561637 48 6
-4.5773811 0.901366 1.0770656 36 14
-4.4478927 0.87586749 -0.079128951 45 7
-4.2949462 0.84652728 1.172968 45 15
-4.4582806 0.88518953 0.079338543 43 8
-4.4642935 0.88800311 0.2385474 46 9
-4.4902239 0.89479047 0.40056804 42 10
-4.4518833 0.88715017 -0.7189728 1 3
-4.5125585 0.90005994 0.56498623 33 11
-4.4170136 0.88180453 -0.55304283 2 4
-4.5502086 0.9092223 0.7349292 43 12
-4.5721812 0.91444153 0.90634245 30 13
-4.4201193 0.88483125 -0.23624443 48 6
-4.5858312 0.91883749 1.0797651 37 14
-4.4408879 0.89060104 -0.079059169 42 7
-4.2919645 0.86151433 1.1729679 40 15
-4.4649634 0.9027279 0.079513066 45 8
-4.4729104 0.90595978 0.23917538 45 9
-4.4833269 0.90888417 0.4002189 42 10
-4.4487596 0.90268481 -0.7189728 1 3
-4.5171704 0.91738671 0.56596118 33 11
-4.4567051 0.90591675 -0.55840504 2 4
-4.5508795 0.92588669 0.73555505 40 12
-4.5747318 0.93157101 0.90748781 27 13
-4.4287453 0.90264821 -0.23687242 46 6
-4.5864148 0.93561739 1.0806648 37 14
-4.4377522 0.90609735 -0.079059169 42 7
-4.2889314 0.87649202 1.172968 45 15
-4.4617853 0.91830707 0.079513066 40 8
-4.4736338 0.92237455 0.23938477 45 9
-4.4840298 0.92533278 0.40056753 42 10
-4.4455814 0.91820848 -0.7189728 1 3
-4.5256042 0.93556035 0.56742358 33 11
-4.4457402 0.91985941 -0.55743009 2 4
-4.5611596 0.94457072 0.73774505 43 12
-21.712603 4.4964638 -1.939913 3 5
-4.561841 0.9455421 0.90557915 27 13
-4.4294796 0.9189136 -0.23708183 48 6
-4.5907526 0.95320606 1.0824642 38 14
-4.4443502 0.92361677 -0.079233669 40 7
-4.2820625 0.89067107 1.1719326 45 15
-4.4644237 0.93510699 0.079617769 40 8
-4.4723415 0.93839401 0.23948942 45 9
-4.4963713 0.94425642 0.40196207 42 10
-4.5164838 0.95012498 0.56669235 31 11
-4.4735823 0.94191641 -0.56132996 2 4
-4.555902 0.96007925 0.7374323 40 12
-21.443335 4.5188198 -1.9172528 3 5
-4.571959 0.96429527 0.90825105 27 13
-4.4262452 0.93436992 -0.23708183 51 6
-4.6064639 0.97325349 1.0869634 37 14
-4.4469695 0.94036734 -0.079338402 42 7
-4.280818 0.90601206 1.1724504 43 15
-4.4689555 0.95235234 0.079757392 40 8
-4.4748983 0.95525175 0.23980345 46 9
-4.4969449 0.96077859 0.4023107 43 10
-4.5626917 0.97565711 -0.73899639 1 3
-4.5189624 0.96713221 0.56742358 33 11
-4.4314456 0.94921088 -0.55645567 2 4
-4.5679746 0.97928798 0.73993516 40 12
-4.5800824 0.98272103 0.91054022 27 13
-4.4190502 0.94897598 -0.23687242 46 6
-4.5973239 0.98809791 1.0856138 38 14
-4.4495249 0.95714509 -0.079443112 40 7
-4.2776294 0.92094958 1.1724504 43 15
-4.4656043 0.96794516 0.079757392 42 8
-4.4715362 0.97086626 0.23980342 42 9
-4.5052443 0.9790073 0.403357 43 10
-4.5233178 0.98458934 0.56839854 33 11
-4.4513812 0.96974349 -0.55938005 2 4
-4.552948 0.99270362 0.73805797 39 12
-5.4370084 1.18546 -0.48685214 1 5
-4.5823793 0.9999584 0.91168517 27 13
-4.4274192 0.96695173 -0.2375005 44 6
-4.5957499 1.0045568 1.0860636 36 14
-4.4520164 0.97395313 -0.079547822 43 7
-4.283824 0.9379406 1.1750386 40 15
-4.4856319 0.9886924 0.080176249 42 8
-4.485673 0.99034327 0.24074547 45 9
-4.4940186 0.99300838 0.4026593 40 10
-4.4323277 0.98018956 -0.7189728 1 3
-4.527606 1.0020876 0.56937349 33 11
-4.4789791 0.992145 -0.56327993 2 4
-4.5629549 1.0115833 0.74024796 42 12
-5.4483986 1.2078816 -0.48824662 1 5
-4.5865273 1.0176479 0.91321164 27 13
-4.4357157 0.9849984 -0.23812854 48 6
-4.6074338 1.0239751 1.0896628 37 14
-4.4446859 0.98861945 -0.079478011 42 7
-4.265439 0.94953126 1.1708975 40 15
-4.4684949 1.0012836 0.079931922 40 8
-4.4841371 1.0064327 0.24085017 43 9
-4.4983001 1.0104361 0.40335649 40 10
-4.5318279 1.019629 0.5703485 32 11
-4.4290094 0.99730873 -0.55743009 2 4
-4.5690317 1.0296752 0.74181235 40 12
-5.4519234 1.2286434 -0.48894382 1 5
-4.5810313 1.0332197 0.91282994 26 13
-4.440043 1.0022361 -0.23854722 46 6
-4.6076331 1.0409108 1.0905627 36 14
-4.4548612 1.0072143 -0.079722345 40 7
-4.2620988 0.96441489 1.1708976 40 15
-4.4649725 1.0168756 0.079931922 40 8
-4.4981222 1.0260769 0.24179219 43 9
-4.5064006 1.0287927 0.40440238 39 10
-4.5263047 1.0349993 0.57010466 30 11
-4.4874234 1.0269325 -0.56523031 2 4
-4.5711861 1.046941 0.742751 39 12
-5.3660336 1.2289853 -0.48162282 5 5
-4.5831375 1.0505202 0.9139753 24 13
-4.428731 1.0159426 -0.23812854 46 6
-4.6115689 1.0587314 1.0923623 36 14
-4.4610629 1.0249985 -0.079896867 42 7
-4.2662363 0.98101819 1.172968 40 15
-4.4808774 1.0369637 0.08028096 40 8
-4.4867296 1.0399683 0.24137348 43 9
-4.5144267 1.0472181 0.40544876 42 10
-4.5381336 1.054388 0.57205462 31 11
-4.4683433 1.0389937 -0.56327987 2 4
-4.5771236 1.0651298 0.74431539 40 12
-5.3267808 1.2395805 -0.47848517 5 5
-4.5947399 1.0700758 0.91702777 27 13
-4.4290476 1.0323012 -0.23833786 46 6
-4.6040502 1.0739372 1.0914625 37 14
-4.4671941 1.0428374 -0.08007139 40 7
-4.272192 0.99810064 1.1755562 43 15
-4.4908562 1.0558022 0.080525294 42 8
-4.490849 1.0574547 0.24179219 43 9
-4.506866 1.0620563 0.40509963 39 10
-4.5286293 1.0688536 0.57132339 30 11
-4.5071921 1.0646244 -0.56864214 2 4
-4.5676103 1.0797384 0.74337673 42 12
-5.3069096 1.2545016 -0.47709072 5 5
-4.5967083 1.0874628 0.91817254 26 13
-4.4370785 1.0505162 -0.2389659 48 6
-4.61165 1.0926987 1.0941619 38 14
-4.4596357 1.0575008 -0.080001585 40 7
-4.2668023 1.0125614 1.1750386 40 15
-4.4871445 1.071471 0.080525301 42 8
-4.4949002 1.0749825 0.24221085 43 9
-4.5108814 1.0796359 0.40579689 35 10
-4.5480356 1.0902081 0.57424825 32 11
-4.5073085 1.0812761 -0.56913006 2 4
-4.5791798 1.0993639 0.74587965 39 12
-5.290874 1.2702266 -0.47604477 5 5
-4.6024284 1.105795 0.92008072 24 13
-4.4450359 1.0687999 -0.23959394 48 6
-4.6115971 1.1097006 1.0950617 36 14
-4.459805 1.0739979 -0.08007139 37 7
-4.2500958 1.0242821 1.1714152 37 15
-4.4794908 1.0861852 0.080455497 40 8
-4.5008249 1.093022 0.24273425 43 9
-4.5148296 1.0972574 0.40649411 39 10
-4.5557752 1.1088928 0.57571071 33 11
-4.5266514 1.1026419 -0.57205445 2 4
-4.5829911 1.117213 0.74713111 37 12
-5.2689877 1.2844409 -0.47447607 4 5
-4.5966334 1.1213886 0.91969913 24 13
-4.4509788 1.0866779 -0.24011727 38 6
-4.6171613 1.1281041 1.0973114 34 14
-4.4812808 1.0957335 -0.080525145 39 7
-4.2483702 1.0395695 1.1719326 40 15
-4.4814963 1.1032501 0.080560207 40 8
-4.5107508 1.1112858 0.24346694 45 9
-4.5187092 1.1149207 0.4071914 40 10
-4.5403142 1.1219317 0.57424825 30 11
-4.5075526 1.1138361 -0.57010502 2 4
-4.5869317 1.1343017 0.74838269 37 12
-5.262537 1.3023466 -0.47430167 2 5
-4.6022191 1.1397856 0.92160761 24 13
-4.4549131 1.1041303 -0.24053596 38 6
-4.6304178 1.1476283 1.1013603 36 14
-4.4815049 1.111551 -0.080594972 40 7
-4.252399 1.0555135 1.1740031 40 15
-4.4952741 1.1224642 0.080874339 40 8
-4.5031652 1.1252697 0.24325761 43 9
-4.5246506 1.1323178 0.40806293 40 10
-4.546196 1.1393948 0.57546693 31 11
-4.5076861 1.1297431 -0.57059258 2 4
-4.5946412 1.1523898 0.75025988 37 12
-5.2234054 1.3110602 -0.47116408 1 5
-4.6022234 1.1559979 0.92237043 24 13
-4.4531646 1.1193844 -0.24064066 44 6
-4.6284766 1.1634523 1.1018102 34 14
-4.4874907 1.1288455 -0.080769487 37 7
-4.2563705 1.0714951 1.176074 40 15
-4.4915266 1.137365 0.080874331 40 8
-4.5069532 1.1429455 0.24367628 45 9
-4.5401831 1.152216 0.40980604 39 10
-4.5558605 1.1578872 0.57717311 32 11
-4.5498867 1.1572144 -0.5764423 4 4
-4.5829329 1.1664722 0.74900836 37 12
-4.6078768 1.1736761 0.92427844 23 13
-4.462976 1.1375989 -0.24137336 48 6
-4.6545992 1.1873083 1.1090086 14 14
-4.4815855 1.1440074 -0.080734588 39 7
-4.2507315 1.0858688 1.1755562 43 15
-4.5068979 1.1580122 0.081223398 43 8
-4.5106735 1.1606619 0.24409498 45 9
-4.5206976 1.1640836 0.40841153 43 10
-4.5594788 1.1757658 0.57814801 30 11
-4.6036983 1.1888826 0.75307566 25 12
-4.5468922 1.1742127 -0.41085234 4 5
-4.6284623 1.1961395 0.92923951 11 13
-4.4609108 1.1536708 -0.24147803 48 6
-4.6221285 1.196224 1.1022601 23 14
-4.4775648 1.159644 -0.080734581 39 7
-4.237565 1.0982769 1.172968 40 15
-4.5047626 1.1742426 0.081258297 42 8
-4.5336494 1.1834613 0.24556036 33 9
-4.5493779 1.1884164 0.41137487 16 10
-4.5803142 1.1982057 0.58131671 17 11
-4.5397763 1.1884477 -0.57619858 65 4
-4.5899658 1.2024425 0.75151134 24 12
-4.5843773 1.2018347 0.92122602 17 13
-4.4665165 1.1717684 -0.24200138 57 6
-4.5802274 1.2024543 1.0932621 16 14
-4.4908962 1.179841 -0.081048734 30 7
-4.2318377 1.1125699 1.1724504 37 15
-4.5199695 1.1950717 0.081607349 22 8
-4.5140448 1.1951913 0.24472299 24 9
-4.5297942 1.2002071 0.40998033 19 10
-4.5434847 1.205532 0.57717305 21 11
-4.5106587 1.1976647 -0.5730294 10 4
-4.5551929 1.2103406 0.74650532 21 12
-4.5308809 1.2038808 -0.41015506 1 5
-4.5270295 1.2037033 0.91054022 20 13
-4.4643288 1.187866 -0.24210605 21 6
-4.3839231 1.1672909 1.0473721 7 14
-4.4944792 1.1975682 -0.081188336 17 7
-4.2335277 1.1288283 1.1740032 40 15
-4.4848671 1.2025547 0.081048869 24 8
-4.473196 1.2011002 0.24273425 22 9
-4.4928675 1.2072228 0.40701708 11 10
-4.4894094 1.2079741 0.57083595 3 11
-4.4278607 1.1922418 -0.56303608 8 4
-4.453547 1.1999917 -0.40353122 2 5
-4.3635736 1.1765655 0.87848437 16 13
-4.4447289 1.1992799 -0.24126869 27 6
-4.3271432 1.168363 1.0347748 13 14
-4.4613147 1.2054259 -0.080664776 17 7
-4.2351565 1.145112 1.1755563 43 15
-4.4729233 1.216104 0.080909252 4 8
-4.4026074 1.2019389 -0.56035554 8 4
-4.4070482 1.203979 -0.39969635 4 5
-4.3120961 1.1788473 0.86894399 9 13
-4.4212513 1.2095176 -0.24022198 8 6
-4.2722893 1.1695676 1.0226274 12 14
-4.2367225 1.1614207 1.177109 45 15
-4.3414159 1.1966401 0.07860554 1 8
-4.3364515 1.197716 0.39359504 3 10
-4.3698978 1.2085946 0.55669904 1 11
-0.99484998 0.27533552 -0.12674409 2 4
-4.302279 1.1923182 0.86779904 9 13
-4.249404 1.1792629 1.0181285 10 14
-4.2158909 1.1715477 1.1724504 37 15
-4.4065461 1.2311597 0.07986211 1 8
-4.26893 1.1951206 0.38784277 8 10
-4.365653 1.2238413 0.5566991 1 11
-0.99388278 0.27880654 -0.12674408 2 4
-4.2451677 1.1924638 0.85711378 12 13
-4.2608032 1.1976581 -0.23195292 2 6
-4.2002392 1.1814241 1.0073308 10 14
-4.3021536 1.2109017 -0.078012012 1 7
-4.2154942 1.1873041 1.1734855 36 15
-4.2302318 1.200225 0.38470525 13 10
-4.3040681 1.2227987 0.54938692 8 11
-4.2885799 1.2192063 -0.54743683 2 4
-4.4782772 1.2739803 0.73743224 1 12
-4.191885 1.1932994 0.84719169 12 13
-4.2412291 1.2081454 -0.23111551 2 6
-4.1754742 1.1902024 1.0023818 10 14
-4.3132858 1.2303001 -0.07829126 1 7
-4.2224712 1.2051923 1.1765915 36 15
-4.1896343 1.2045242 0.38139328 13 10
-4.2711592 1.2295769 0.54573089 8 11
-1.0186176 0.29343107 -0.13015641 2 4
-4.4927835 1.2950773 0.74056089 7 12
-4.1876945 1.2079238 0.84719169 6 13
-4.2177968 1.2174039 -0.23006879 2 6
-4.1338496 1.1939566 0.99338377 10 14
-4.2628598 1.2320228 -0.077453546 1 7
-4.2219501 1.2209978 1.1776268 43 15
-4.512464 1.3118461 0.082026199 1 8
-4.1452341 1.2074406 0.37773275 14 10
-4.2363505 1.2355857 0.54183102 5 11
-1.0290205 0.30032182 -0.13161884 2 4
-4.3234897 1.2618196 0.71334136 28 12
-4.1721458 1.2192301 0.84490198 9 13
-4.148344 1.2130615 -0.22650996 2 6
-4.0903802 1.1968856 0.98393589 10 14
-4.1474357 1.2135805 -0.075429074 1 7
-4.2234397 1.2366202 1.1791798 40 15
-4.0855761 1.2055504 0.37267819 24 10
-4.1789217 1.2338872 0.53500628 5 11
-4.4357114 1.3105496 -0.56791085 2 4
-4.2394967 1.2533817 0.70020086 13 12
-4.3980627 1.3010956 -0.40126514 11 5
-4.1737275 1.2347298 0.84604681 13 13
-4.148129 1.2279441 -0.2267193 2 6
-4.0508876 1.1999273 0.97538769 10 14
-4.2006907 1.2450986 -0.076476201 37 7
-4.213541 1.2497075 1.1776268 43 15
-4.0758295 1.2173808 0.37215477 43 10
-4.1498652 1.241073 0.5318377 6 11
-1.0269524 0.30731893 -0.13161895 2 4
-4.1877866 1.2540065 0.69237906 10 12
-4.4089932 1.3202455 -0.40265968 44 5
-4.1336594 1.2385846 0.8387965 22 13
-4.0940766 1.2275029 -0.22399783 2 6
-4.0354753 1.2107004 0.97268826 11 14
-4.2193022 1.266654 -0.076895066 52 7
-4.2036018 1.2627414 1.1760739 45 15
-4.4508576 1.3437936 0.081153587 64 8
-4.0829973 1.235063 0.37320065 58 10
-4.1455083 1.2555503 0.53183776 8 11
-0.98787814 0.29938722 -0.12674408 2 4
-4.1588092 1.2611649 0.68831176 45 12
-4.4100771 1.3373623 -0.40318257 41 5
-4.1067672 1.2461647 0.83421713 12 13
-4.0515437 1.2301809 -0.22190435 2 6
-3.9957969 1.214016 0.96414012 11 14
-4.1880698 1.2732302 -0.076406389 13 7
-4.206562 1.2796552 1.1781445 45 15
-4.0862813 1.251642 0.37389788 71 10
-4.135406 1.2682681 0.53110647 12 11
-0.98682719 0.3028338 -0.12674409 2 4
-4.1543818 1.2756733 0.68831176 45 12
-4.414906 1.3556716 -0.40405414 48 5
-3.9975903 1.2290559 -0.21918295 4 6
-3.9617341 1.2187877 0.95694178 16 14
-4.1965303 1.2926251 1.1765914 43 15
-3.9141347 1.2116266 0.071519867 11 8
-4.0799842 1.2653069 0.37372404 40 10
-4.0873499 1.2691565 0.52550054 15 11
-0.98576403 0.30627638 -0.12674408 2 4
-4.1499033 1.2901671 0.68831176 49 12
-4.4158545 1.3728489 -0.40457708 49 5
-3.978019 1.2382525 -0.21834551 6 6
-3.9314072 1.2244972 0.95064318 15 14
-4.0454397 1.260789 -0.073963068 1 7
-3.9393289 1.2284733 1.1056749 18 15
-3.9136975 1.2264783 0.071589671 14 8
-4.0375242 1.2676052 0.37023783 11 10
-4.0563831 1.2750816 0.52208817 13 11
-1.0149871 0.31924522 -0.13064387 2 4
-4.1491427 1.3058321 0.68893754 49 12
-4.4072342 1.3870596 -0.40422845 48 5
-3.966053 1.2497301 -0.21792686 4 6
-3.9066648 1.2317671 0.94569421 18 14
-4.0410142 1.2749026 -0.073963068 1 7
-3.8779087 1.2241876 1.0896283 18 15
-3.9189234 1.2431556 0.071764201 13 8
-3.9988966 1.2708294 0.36709973 16 10
-4.0178585 1.2783996 0.51770091 10 11
-0.97225255 0.30953756 -0.12528175 2 4
-4.1577344 1.3245047 0.6911276 48 12
-4.4099588 1.4048543 -0.40492567 48 5
-3.9312212 1.2538573 -0.2162521 2 6
-3.8837764 1.2394717 0.94119519 11 14
-3.9184346 1.251285 -0.07179898 1 7
-3.8441684 1.2283098 1.0813462 19 15
-3.9050398 1.2537712 0.071589671 8 8
-4.156538 1.3361189 0.22881286 1 9
-3.9583988 1.2731893 0.3637878 14 10
-3.9718015 1.2790302 0.51233864 8 11
-1.0146229 0.32693243 -0.13088776 4 4
-4.1643667 1.342646 0.69300485 48 12
-4.410717 1.4220726 -0.40544862 48 5
-3.9230192 1.2663453 -0.21604276 2 6
-3.8460467 1.2422389 0.93309689 11 14
-3.9121399 1.2643404 -0.071764067 4 7
-3.8159609 1.2339935 1.0746167 17 15
-3.9120507 1.2711025 0.071799114 11 8
-4.1860371 1.3617406 0.23069698 1 9
-3.9349849 1.2808324 0.36204469 14 10
-3.9371138 1.2830465 0.50843883 10 11
-0.95496958 0.31139442 -0.12333185 9 4
-4.1784339 1.3633014 0.69613343 49 12
-4.4133029 1.4399325 -0.4061459 48 5
-3.9185748 1.2800306 -0.21604276 2 6
-3.8194592 1.2483915 0.92769802 10 14
-3.9438145 1.2897999 -0.072427258 1 7
-3.7932706 1.2412974 1.0694404 20 15
-3.9113886 1.2859995 0.071868904 9 8
-4.4696202 1.4712656 0.24660711 18 9
-3.9077818 1.2870812 0.35995299 13 10
-3.9156439 1.2911859 0.50624514 11 11
-0.96707267 0.31907991 -0.12503789 2 4
-4.2074142 1.3890245 0.70176512 49 12
-4.4158182 1.4578265 -0.40684319 46 5
-3.902705 1.2899405 -0.21541473 2 6
-3.7873256 1.252539 0.92094964 11 14
-3.8557563 1.2759159 -0.070891447 3 7
-3.7669072 1.247244 1.0632287 18 15
-3.9144664 1.302169 0.072008535 6 8
-4.4511924 1.4824408 0.24587438 6 9
-3.8730223 1.290635 0.357164 13 10
-3.8866334 1.2966793 0.50307655 11 11
-0.95842117 0.31993943 -0.12406306 2 4
-4.3992701 1.4694145 0.7346164 52 12
-4.4107022 1.473233 -0.40684319 46 5
-3.8640838 1.2921544 -0.21353063 4 6
-3.7570579 1.2570939 0.91465092 13 14
-3.8304205 1.282384 -0.070507504 32 7
-3.7368853 1.2517948 1.0559818 20 15
-3.8189254 1.2852099 0.070333108 11 8
-4.4481454 1.4978311 0.24597907 1 9
-3.8420613 1.2952359 0.35472366 16 10
-3.8595135 1.3026208 0.50015169 10 11
-0.95729864 0.32328281 -0.12406306 2 4
-4.4149694 1.4918089 -0.40771466 46 5
-3.9447086 1.3336759 0.80941153 1 13
-3.7415717 1.2664522 0.91195148 15 14
-3.8166761 1.2918737 -0.070332982 11 7
-3.7034373 1.2542648 1.0476996 29 15
-3.7767797 1.2849848 0.069635011 14 8
-4.3975158 1.4978925 0.24346694 4 9
-3.8054583 1.297708 0.35176033 16 10
-3.8194764 1.3032326 0.49552068 11 11
-0.97876483 0.33415195 -0.12698793 2 4
-3.8470631 1.3141446 0.64388442 10 12
-4.4172769 1.5097888 -0.40841192 46 5
-3.9662724 1.3556391 0.81475413 1 13
-3.8136227 1.3042072 -0.21122785 6 6
-3.7244449 1.2744366 0.90880221 9 14
-3.7799814 1.2941771 -0.069739595 11 7
-3.6990368 1.2671839 1.0476996 56 15
-3.7344546 1.2851466 0.068936922 15 8
-3.7672222 1.2978939 0.20882054 9 9
-3.7747638 1.3012291 0.34931996 19 10
-3.7830038 1.3055471 0.49137712 16 11
-0.93631208 0.32331246 -0.12162555 2 4
-3.8088448 1.3159541 0.63825274 13 12
-4.4216619 1.5276821 -0.40928349 46 5
-4.0839801 1.4118099 0.83994091 1 13
-3.7863967 1.3096777 -0.2099718 4 6
-3.696033 1.2791442 0.90295351 11 14
-3.758435 1.3014741 -0.069425464 13 7
-3.6891148 1.2781919 1.0461468 51 15
-3.7110598 1.2916025 0.068587877 13 8
-3.7287202 1.2992073 0.20693645 16 9
-3.7551482 1.3091516 0.34792551 17 10
-3.7503102 1.3089323 0.48772103 15 11
-0.96516359 0.33705035 -0.12552539 2 4
-3.7687969 1.3168606 0.63230824 18 12
-4.0660548 1.421522 0.83726972 6 13
-3.7554088 1.3136544 -0.20850641 4 6
-3.6805103 1.2881746 0.90025413 10 14
-3.7180095 1.3020289 -0.068762273 12 7
-3.6882768 1.2923393 1.047182 36 15
-3.6782348 1.2945894 0.068064302 18 8
-3.6940227 1.3015945 0.20526169 16 9
-3.6829107 1.2984027 0.34165034 21 10
-3.726999 1.3154097 0.48528367 17 11
-0.96398121 0.34041715 -0.12552539 2 4
-3.7474146 1.3240854 0.6294924 15 12
-4.0703211 1.4389791 0.83917809 7 13
-3.701844 1.3094373 -0.20578492 4 6
-3.6778281 1.3016645 0.90070403 19 14
-3.679512 1.3029841 -0.068133987 12 7
-3.6764598 1.3026243 1.0451114 36 15
-3.6473179 1.2980344 0.067575634 40 8
-3.672524 1.3084493 0.20431966 47 9
-3.6408212 1.2978703 0.33816406 21 10
-3.6980805 1.319737 0.48211509 18 11
-0.95530903 0.3411099 -0.12455054 2 4
-3.7037048 1.3232018 0.62292218 4 12
-4.4054222 1.5739003 -0.40928349 4 5
-4.0634251 1.4525167 0.8387965 7 13
-3.6389523 1.3015004 -0.2025401 6 6
-3.660418 1.3098994 0.8975547 21 14
-3.6504672 1.3070561 -0.067680225 9 7
-3.6791646 1.3180556 1.0471818 33 15
-3.6446459 1.311435 0.067610539 57 8
-3.6566598 1.3171997 0.20369162 42 9
-3.6231482 1.3058425 0.33694389 24 10
-3.6542382 1.3184894 0.47699657 16 11
-1.0213298 0.36870846 -0.13332513 2 4
-3.6842008 1.3307537 0.62041926 8 12
-4.0601764 1.4673592 0.83917809 7 13
-3.6005788 1.3019698 -0.200656 12 6
-3.6356661 1.3153749 0.89260572 16 14
-3.5706706 1.2925645 -0.066284031 7 7
-3.6854398 1.3348379 1.0502878 32 15
-3.6043415 1.3111601 0.066947348 30 8
-3.6595461 1.3326895 0.20411031 35 9
-3.5998483 1.3116602 0.33520082 10 10
-3.6328294 1.3251148 0.47480291 16 11
-4.4698858 1.6313244 -0.58424139 4 4
-3.6591222 1.3361528 0.61697769 5 12
-4.454216 1.6264865 -0.4148615 46 5
-4.0587187 1.4828708 0.83994091 7 13
-3.5697503 1.3049303 -0.1991906 16 6
-3.5304568 1.2919636 -0.065620847 7 7
-3.6753159 1.3457018 1.0487349 32 15
-3.4833791 1.2809442 0.064783253 28 8
-3.6623693 1.3482147 0.20452899 35 9
-3.5989864 1.325596 0.33554938 1 10
-3.6058321 1.329546 0.47187805 14 11
-4.4399529 1.6379853 -0.58107334 14 4
-3.6266382 1.3386568 0.61228466 11 12
-4.4503798 1.6427145 -0.41503575 52 5
-4.0498338 1.4956679 0.83917809 7 13
-3.5426922 1.3090761 -0.19793454 26 6
-3.732408 1.3799192 0.9187001 1 14
-3.4640341 1.2813852 -0.064468995 19 7
-3.6760314 1.3605347 1.0502878 32 15
-3.4732635 1.2910056 0.064678535 34 8
-3.6595125 1.3616871 0.20463367 52 9
-3.5807073 1.3344998 0.46919692 16 11
-4.4360681 1.6541675 -0.58131707 31 4
-3.5978837 1.3423308 0.60821736 12 12
-4.4371524 1.6554526 -0.41433853 48 5
-4.0537853 1.5132297 0.84108579 7 13
-3.5212617 1.3151453 -0.19699249 30 6
-3.450175 1.2899678 -0.064294465 30 7
-3.6712596 1.3733582 1.0502878 32 15
-3.4575043 1.2989016 0.064469106 27 8
-3.6568465 1.3745179 0.20473833 55 9
-3.5574503 1.3399934 0.4667595 12 11
-4.4321251 1.6703413 -0.58156079 19 4
-3.5712311 1.3458949 0.60446292 6 12
-4.4388037 1.6737429 -0.41503575 48 5
-4.0392928 1.5239056 0.83917809 7 13
-3.49049 1.3175533 -0.19552708 26 6
-3.4365246 1.2978693 -0.064119942 36 7
-3.6721065 1.3875736 1.0518408 27 15
-3.4419601 1.3061032 0.064259671 28 8
-3.6744311 1.3957862 0.2059944 55 9
-3.517736 1.3383713 0.46212852 12 11
-3.544359 1.3499157 0.60070848 6 12
-4.4459658 1.6941944 -0.41625595 48 5
-3.9975266 1.5233107 0.83154529 7 13
-3.4525092 1.3163136 -0.19364299 26 6
-3.4245002 1.307005 -0.063980326 45 7
-3.6852884 1.4072741 1.0570171 30 15
-3.4411144 1.3195422 0.06432949 34 8
-3.6620786 1.40574 0.20557572 56 9
-3.49822 1.3449426 0.46017861 14 11
-3.5211895 1.3551855 0.59757984 11 12
-4.4514804 1.7132226 -0.41730183 48 5
-3.8895864 1.4977473 0.8101747 12 13
-3.4292562 1.321177 -0.19259626 24 6
-3.4199173 1.3189501 -0.063980326 42 7
-3.69297 1.424998 1.0606406 31 15
-3.4308932 1.3293782 0.064224772 42 8
-3.6645973 1.4214035 0.20599438 43 9
-3.4768505 1.3506762 0.45798495 15 11
-4.4220915 1.7187686 -0.58253521 8 4
-3.4832983 1.3545804 0.59194815 13 12
-4.4584718 1.7338045 -0.418522 13 5
-3.869698 1.5056206 0.80712187 12 13
-3.4022889 1.324445 -0.19134021 24 6
-3.4078395 1.3279756 -0.06384071 39 7
-3.700572 1.4427933 1.0642641 34 15
-3.4280949 1.3420748 0.064259686 46 8
-3.6633325 1.4356444 0.20620374 53 9
-3.4425488 1.3511999 0.45408511 19 11
-3.4693558 1.3631194 0.59038377 19 12
-3.8699 1.5212739 0.80826664 12 13
-3.3846343 1.3311969 -0.1906075 21 6
-3.3957405 1.3369329 -0.063701078 40 7
-3.6919179 1.454286 1.0632287 45 15
-3.4140911 1.3503563 0.064085156 43 8
-3.6750119 1.4550395 0.20714578 52 9
-3.415668 1.3544271 0.45116028 19 11
-3.4315281 1.3621032 0.58475214 22 12
-4.3944068 1.7443063 -0.41364124 1 5
-3.8043535 1.5108595 0.79567331 9 13
-3.3688302 1.3385775 -0.18997946 17 6
-3.3854783 1.3465618 -0.063596368 43 7
-3.6850247 1.4664493 1.0627111 34 15
-3.4037855 1.3600396 0.063980438 46 8
-3.6754739 1.470085 0.20745981 47 9
-3.3869629 1.3567464 0.44799167 18 11
-4.3504133 1.7435656 -0.57546729 2 4
-3.4102519 1.3674561 0.58193636 16 12
-4.3587041 1.7477702 -0.41085234 2 5
-3.6860862 1.4788089 0.77201337 9 13
-3.3307738 1.3369372 -0.18809536 12 6
-3.38818 1.3613527 -0.063735999 42 7
-3.7031851 1.4886708 1.0694404 45 15
-3.3953092 1.3704152 0.063910633 48 8
-3.3582842 1.3588811 0.44482306 20 11
-4.3222203 1.7498007 -0.57254243 4 4
-3.3999648 1.3771276 0.58099777 16 12
-3.6063015 1.4614356 0.75636667 7 13
-3.3075778 1.3410505 -0.18704864 7 6
-3.5069013 1.4225794 0.87370992 1 14
-3.3852603 1.3739235 -0.063770905 45 7
-3.6532176 1.4834179 1.0564992 9 15
-3.3979118 1.3852785 0.06405025 49 8
-3.5504708 1.4489199 0.20097014 1 9
-3.3388209 1.3645869 0.44287321 20 11
-3.3695409 1.378516 0.5766176 22 12
-3.5194161 1.4405487 0.73919433 7 13
-3.2936356 1.3488035 -0.18652532 3 6
-3.5487986 1.4540217 0.88540733 1 14
-3.3711922 1.3819395 -0.063596375 48 7
-3.6140575 1.4822332 1.0466642 5 15
-3.3986025 1.399415 0.06415496 49 8
-4.2618561 1.7566099 0.24158287 1 9
-3.3120177 1.3671441 0.43994826 31 11
-4.6952033 1.9390597 -0.62372702 2 4
-3.3446262 1.3819716 0.57317603 42 12
-3.4980373 1.4460737 0.73575974 22 13
-3.263068 1.3496062 -0.18505991 1 6
-3.5671098 1.4760871 0.89125603 3 14
-3.362653 1.3921683 -0.063526563 48 7
-3.5267608 1.4608324 1.0228529 5 15
-3.3733866 1.4028239 0.063771017 12 8
-4.3331413 1.8037125 0.24597907 1 9
-3.3163867 1.3825159 0.44116694 42 11
-4.4722152 1.8652687 -0.59496588 2 4
-3.3434277 1.3951589 0.57380176 44 12
-4.4662642 1.8637006 -0.42340273 6 5
-3.4476757 1.4393662 0.7262193 6 13
-3.2804525 1.3702257 -0.18631595 1 6
-3.5799167 1.496043 0.89575505 7 14
-3.3651521 1.4069841 -0.06366618 43 7
-3.2881713 1.3754723 0.95504248 20 15
-3.3078814 1.3925445 0.44067949 38 11
-4.4583592 1.8777851 -0.59399146 8 4
-3.3094118 1.3945479 0.56879586 11 12
-4.4615674 1.880053 -0.42357704 5 5
-3.279815 1.3827512 0.69187325 2 13
-3.5836499 1.5123187 0.89800465 9 14
-3.3436401 1.4117217 -0.063352041 7 7
-3.2370808 1.3673961 0.94158387 22 15
-3.1867743 1.351393 0.060420148 8 8
-3.3121352 1.4079642 0.4418982 29 11
-4.6198387 1.9648126 -0.61641484 4 4
-3.270231 1.3908259 0.56285137 6 12
-4.5136437 1.9205796 -0.42915502 4 5
-3.2207773 1.3711208 0.68042511 4 13
-3.5604212 1.5171803 0.89350563 9 14
-3.1972888 1.3624409 -0.060664386 4 7
-3.2183118 1.3720622 0.93744266 12 15
-3.1712451 1.3572327 0.060210727 13 8
-3.338166 1.4314287 0.31776965 1 10
-3.2290027 1.3852868 0.43141741 6 11
-4.5257378 1.9425395 -0.60471541 12 4
-3.2453899 1.3936586 0.5594098 6 12
-4.5343714 1.9481196 -0.43176967 4 5
-3.1999781 1.374819 0.67699009 5 13
-3.5589509 1.5305177 0.89440536 9 14
-3.1888394 1.3720117 -0.060594566 28 7
-3.1573107 1.3643275 0.060036208 19 8
-3.4279571 1.4826996 0.19573654 1 9
-3.2712312 1.4155875 0.3118431 1 10
-3.2277906 1.3981279 0.43190491 7 11
-4.4897866 1.9456962 -0.60081559 2 4
-3.2260063 1.3986925 0.55690682 13 12
-4.5754128 1.9837518 -0.43630174 1 5
-3.1825521 1.380512 0.67431879 5 13
-3.5535867 1.5429316 0.89440536 9 14
-3.1436801 1.3656064 -0.059826665 17 7
-3.1250355 1.363346 0.05951263 22 8
-3.2918303 1.4381647 0.31428343 1 10
-3.202884 1.4006375 0.42922378 16 11
-4.7193928 2.0647945 -0.63250226 17 4
-3.2247233 1.4115289 0.55753249 24 12
-3.5624578 1.5615855 0.89800465 9 14
-3.1352317 1.3749655 -0.05975686 20 7
-3.0982969 1.3645741 0.059093777 27 8
-3.5274198 1.555778 0.33729252 3 10
-3.1961598 1.4110068 0.42898005 22 11
-3.2306178 1.4275676 0.5594098 31 12
-4.740047 2.0945644 -0.45338428 33 5
-3.172837 1.402696 0.67431879 11 13
-3.5552027 1.5732226 0.8975547 9 14
-3.1212707 1.3818527 -0.059582334 22 7
-3.0880325 1.3729445 0.058989059 16 8
-3.1458325 1.3999568 0.18045445 1 9
-3.5310681 1.5721335 0.33816406 6 10
-3.1894014 1.4213468 0.42873627 23 11
-3.2111831 1.4323974 0.55690688 12 12
-4.7581816 2.1224597 -0.45582467 46 5
-3.1320643 1.3977616 0.66668683 8 13
-3.5425727 1.5824432 0.89575505 9 14
-3.0963452 1.3837655 -0.05919838 19 7
-3.0649779 1.3755271 0.058640014 19 8
-3.0680509 1.3781939 0.17626756 1 9
-3.5291944 1.5860826 0.33851272 6 10
-3.1192474 1.403155 0.41996172 16 11
-4.7119927 2.1206193 -0.63445151 8 4
-3.1899524 1.4362986 0.55409098 8 12
-4.7561936 2.14151 -0.45634761 46 5
-3.1361163 1.4127179 0.66859454 6 13
-3.5352509 1.5939986 0.89530522 9 14
-3.0659766 1.3830537 -0.058709715 13 7
-3.054693 1.3837421 0.058535296 13 8
-3.0632215 1.3888942 0.17626755 2 9
-3.5145638 1.5942768 0.33764115 6 10
-3.0601056 1.3894135 0.41264951 23 11
-4.7244434 2.1460857 -0.63713264 42 4
-3.1687334 1.4400702 0.55127519 13 12
-4.7468753 2.1572762 -0.4561733 46 5
-3.1275918 1.4220304 0.66783172 6 13
-3.5367596 1.6095589 0.8971048 9 14
-3.0374718 1.382975 -0.058255959 13 7
-3.0331709 1.3874137 0.17480215 2 9
-3.5198464 1.6115116 0.338687 6 10
-3.0408001 1.393471 0.41069964 25 11
-4.7728615 2.18821 -0.64468908 63 4
-3.1441886 1.4415137 0.54783362 13 12
-4.7465606 2.1771545 -0.45687053 45 5
-3.1154711 1.4296639 0.66630518 8 13
-3.5311198 1.621894 0.8971048 9 14
-3.0183313 1.3863628 -0.057976723 12 7
-3.0070701 1.386915 0.057802297 5 8
-3.0174296 1.3929704 0.17417413 2 9
-3.5142002 1.6237876 0.33868703 6 10
-3.0091341 1.3910526 0.40704358 29 11
-4.740355 2.1923599 -0.64127618 48 4
-3.1212101 1.4441853 0.54470497 12 12
-4.7497802 2.1987319 -0.45791641 45 5
-3.0804257 1.4259671 0.65981734 15 13
-3.5310266 1.6360525 0.89845449 9 14
-3.0261734 1.4027773 -0.058221053 48 7
-3.0275919 1.4092164 0.058290962 1 8
-2.9799612 1.3883128 0.17229003 2 9
-3.5178251 1.6396407 0.33955854 6 10
-2.975477 1.3881203 0.40314376 13 11
-4.7326741 2.2088926 -0.64127618 48 4
-3.101831 1.4483855 0.542202 15 12
-4.7565169 2.2220445 -0.45931089 44 5
-3.0523062 1.4259089 0.65485632 9 13
-3.5182331 1.6450666 0.8966549 7 14
-3.0103903 1.4082481 -0.058011618 52 7
-3.0099847 1.4138252 0.058046632 5 8
-2.9606373 1.3919078 0.17145267 2 9
-3.509989 1.6516759 0.33938426 6 10
-4.7321177 2.2287838 -0.64225113 48 4
-3.069952 1.4465739 0.5375089 10 12
-4.7613473 2.2445803 -0.46053106 42 5
-2.9955645 1.4128001 0.64378935 9 13
-3.5051315 1.6546223 0.89485532 7 14
-3.0000315 1.4161862 -0.057906903 30 7
-3.1443145 1.4849681 0.93174863 0 15
-3.0427265 1.4428405 0.058779635 1 8
-2.9485424 1.3988094 0.17103396 2 9
-3.5060027 1.6647719 0.33955857 6 10
-4.7328811 2.2503741 -0.64347053 46 4
-3.0202847 1.4360746 0.52968723 8 12
-4.7624793 2.2654679 -0.46140268 13 5
-2.9977057 1.4266227 0.64531589 11 13
-3.5134084 1.6735525 0.89845449 7 14
-3.0798175 1.4676784 0.91414905 0 15
-3.0271008 1.4477459 0.058570202 1 8
-2.9526486 1.4134058 0.17155732 5 9
-3.5073571 1.6804435 0.34025583 6 10
-4.7468719 2.2763572 -0.64639473 51 4
-2.986757 1.4329371 0.52468127 10 12
-2.9610994 1.4212641 0.63844669 11 13
-3.5148659 1.6885688 0.90025407 7 14
-3.1338713 1.5068825 0.93174863 0 15
-2.9638839 1.4315211 0.17249937 2 9
-3.5053532 1.693799 0.34060445 6 10
-4.7603393 2.3032877 -0.64931959 53 4
-2.9817367 1.443355 0.52468127 10 12
-2.9525867 1.4298795 0.63768387 16 13
-3.5124571 1.7025286 0.90115386 7 14
-3.1668305 1.5363638 0.94313669 3 15
-2.9593863 1.4408325 0.057453252 1 8
-2.9516871 1.4383587 0.17208068 2 9
-3.4991214 1.7066355 0.34060445 6 10
-4.7522697 2.3198905 -0.64932013 53 4
-2.9589305 1.445085 0.52155262 13 12
-4.7617664 2.3265851 -0.46366873 5 5
-2.9526174 1.4432784 0.63882875 20 13
-3.4886887 1.706826 0.89665484 7 14
-3.173594 1.5533547 0.94676024 8 15
-2.9379332 1.4437323 0.05713911 4 8
-2.9499798 1.4509305 0.17229003 2 9
-3.5074444 1.7258766 0.34199893 7 10
-4.7472973 2.3390479 -0.6498071 48 4
-2.9500709 1.4541737 0.52092689 21 12
-2.9475613 1.453577 0.6388284 17 13
-3.4966898 1.7258939 0.90025413 7 14
-2.9136395 1.4387456 -0.056720149 1 7
-3.1800039 1.5709649 0.95038366 16 15
-2.9663665 1.471872 0.17354609 2 9
-3.4906912 1.7327943 0.34095308 7 10
-4.7604342 2.3662076 -0.65273249 53 4
-2.9379015 1.460945 0.51967543 15 12
-4.7864394 2.3801768 -0.46767789 41 5
-2.9530158 1.469103 0.64111841 15 13
-3.4906435 1.73809 0.90025413 7 14
-2.9086001 1.4489068 -0.056720149 1 7
-3.1537526 1.5717156 0.94417202 11 15
-2.9612105 1.4822177 0.17354609 2 9
-3.4881842 1.7467518 0.34130168 7 10
-4.7698913 2.3917072 -0.65516931 53 4
-2.9610348 1.4853622 0.52468127 15 12
-4.7870064 2.4013357 -0.46854943 48 5
-2.946115 1.4785216 0.64073682 16 13
-3.4950032 1.755511 0.90295339 7 14
-3.1534247 1.5853186 0.94572496 12 15
-2.9667163 1.4979459 0.17417413 2 9
-3.4820657 1.7589172 0.34130168 6 10
-4.7668271 2.4110315 -0.65590107 48 4
-2.962882 1.4992567 0.52593285 15 12
-4.7839279 2.4207296 -0.46907237 46 5
-2.9461913 1.491456 0.64188129 16 13
-3.4888544 1.7677006 0.90295351 7 14
-3.1513178 1.5980631 0.94676018 12 15
-2.9655554 1.5090711 0.17438346 2 9
-3.4765229 1.7698481 0.34130168 6 10
-4.7716093 2.4323049 -0.65760666 51 4
-2.9687161 1.5139415 0.52781004 15 12
-4.7904992 2.4429872 -0.47046685 46 5
-2.9554813 1.507843 0.64493424 15 13
-3.4798129 1.7768792 0.90205365 7 14
-3.1480014 1.6088345 0.94727772 11 15
-2.9673777 1.5230612 0.17480215 2 9
-3.4845021 1.7892531 0.34269661 6 10
-4.7683873 2.4516683 -0.65833789 48 4
-2.9651697 1.5251992 0.52812284 13 12
-4.7961159 2.4669862 -0.47186136 45 5
-2.9571826 1.5217438 0.64646077 17 13
-3.470124 1.7872317 0.90115386 7 14
-3.1475186 1.6224682 0.94883078 10 15
-2.9833269 1.5444285 0.17605822 2 9
-3.4764667 1.8004895 0.34252188 6 10
-4.7668486 2.4719548 -0.65931284 48 4
-2.9580743 1.5346308 0.52781004 15 12
-4.7910123 2.485548 -0.47221002 46 5
-2.955338 1.533865 0.64722431 16 13
-3.4638641 1.7993339 0.90115386 7 14
-3.1418355 1.6334461 0.94883078 12 15
-2.9920814 1.562228 0.17689559 2 9
-3.4736922 1.8144596 0.3428705 6 10
-4.7792983 2.49962 -0.6622383 48 4
-2.9649515 1.551357 0.53000009 13 12
-4.7893691 2.5059502 -0.47290725 45 5
-2.9551842 1.5469034 0.64836884 15 13
-3.4679198 1.8168395 0.9038533 7 14
-3.129271 1.640815 0.94676024 12 15
-2.9868844 1.5721415 0.17689559 2 9
-3.4761515 1.8312163 0.34374207 6 10
-4.7793236 2.5209177 -0.6634571 44 4
-2.9667795 1.564867 0.53125155 13 12
-4.8017378 2.5338113 -0.47499898 45 5
-2.9532385 1.5590433 0.64913201 13 13
-3.4615569 1.8289338 0.9038533 7 14
-3.1272285 1.6529886 0.94779551 10 15
-2.9813793 1.582557 0.1768956 2 9
-3.4591808 1.8377305 0.34269616 6 10
-4.7726903 2.5376847 -0.66370082 42 4
-2.9682753 1.5789245 0.53250307 13 12
-4.7998986 2.554301 -0.47569618 45 5
-2.9653835 1.5780504 0.6529482 13 13
-3.4554727 1.8404028 0.9038533 7 14
-3.1282589 1.6675289 0.949866 12 15
-4.898684 2.6222486 0.29119733 3 9
-3.4636061 1.8548353 0.34374204 6 10
-4.7742996 2.559957 -0.66516322 42 4
-2.9644859 1.5902097 0.53281587 13 12
-4.8014865 2.5766928 -0.47674206 44 5
-2.9702365 1.5939621 0.65523791 15 13
-3.4421599 1.848765 0.90205365 7 14
-3.1275239 1.6811817 0.95141894 14 15
-4.8895001 2.6393337 0.29119733 10 9
-3.4515262 1.8646758 0.3432191 6 10
-4.7775578 2.5832162 -0.66686934 38 4
-2.9623926 1.6024271 0.5334416 13 12
-4.8012242 2.5981789 -0.47761366 41 5
-2.9695537 1.6076417 0.65638316 13 13
-3.4456413 1.8669391 0.90475309 7 14
-3.1097474 1.6856452 0.94779551 12 15
-4.8903193 2.662967 0.29182541 15 9
-3.4589925 1.8843384 0.34461361 4 10
-4.7819996 2.608314 -0.66881931 40 4
-2.966903 1.618952 0.53531885 12 12
-4.7991214 2.6187401 -0.47831088 42 5
-2.9656472 1.6189376 0.65676475 12 13
-3.4373934 1.878021 0.90430319 9 14
-3.1069381 1.6988852 0.94883078 12 15
-4.9037528 2.6925175 0.2931861 25 9
-3.4593787 1.9002379 0.34531084 1 10
-4.7954779 2.6374271 -0.67198724 42 4
-2.97508 1.6369162 0.53782183 12 12
-4.8056622 2.6441193 -0.47987965 44 5
-2.9634175 1.6311741 0.65752798 12 13
-3.4461792 1.8984704 0.90835232 7 14
-3.1043727 1.7115858 0.949866 12 15
-4.9013133 2.7134895 0.29360482 30 9
-2.708473 1.5013316 0.38023227 1 11
-4.7845063 2.6531863 -0.67174411 46 4
-2.9728026 1.6492077 0.53844756 12 12
-4.8173103 2.6724768 -0.48197144 44 5
-2.9765885 1.6519884 0.6617254 13 13
-3.1017566 1.7242883 0.95090133 10 15
-4.9040198 2.737395 0.29433751 41 9
-2.7032161 1.5107763 0.38023227 1 11
-4.7994733 2.6834338 -0.67515588 44 4
-2.9049625 1.6248602 0.52718425 12 12
-4.8288178 2.7009485 -0.48406315 44 5
-2.9827969 1.6690787 0.66439676 15 13
-3.471947 1.9443843 0.9187001 1 14
-3.10583 1.7407721 0.95400715 12 15
-4.9083591 2.7623329 0.2951749 41 9
-2.8743289 1.619601 0.40509361 1 11
-4.7969942 2.7040701 -0.67613077 44 4
-2.6239717 1.4797388 0.47712526 25 12
-4.8193607 2.7177866 -0.48406312 44 5
-2.9786625 1.6804453 0.66477835 16 13
-2.8188953 1.592257 -0.05651072 1 7
-3.0862792 1.7440007 0.94986606 11 15
-4.9160576 2.7893057 0.29622161 40 9
-2.9187129 1.6580597 0.4121621 4 11
-4.8047848 2.7306068 -0.67856818 44 4
-2.5775764 1.4654573 0.46961635 30 12
-4.8185043 2.7395163 -0.48493466 46 5
-2.9744852 1.6918032 0.66516 15 13
-3.0835302 1.7566749 0.95090133 12 15
-4.9171834 2.8115411 0.29684961 41 9
-2.9111853 1.6672508 0.41191834 6 11
-4.8055582 2.753283 -0.68003064 44 4
-2.5675607 1.4710511 0.46867779 36 12
-4.8331127 2.7701907 -0.48737508 46 5
-2.97878 1.7080351 0.66744965 15 13
-3.0776875 1.7668908 0.95090133 10 15
-4.9177222 2.8346715 0.29747766 41 9
-2.9039211 1.6759032 0.41167462 7 11
-4.8135929 2.7791295 -0.682468 44 4
-2.5470154 1.4711128 0.46586198 36 12
-4.8354897 2.7940209 -0.48859522 46 5
-2.9883993 1.7267435 0.67088431 15 13
-3.0848773 1.7853644 0.95504242 12 15
-4.9181595 2.8578415 0.29810575 40 9
-2.9100637 1.6930181 0.41338077 7 11
-4.8107247 2.7999091 -0.68344361 44 4
-2.5111372 1.4621029 0.46023032 22 12
-4.8399725 2.8180611 -0.48998979 46 5
-2.9993176 1.7470466 0.6747005 17 13
-3.083632 1.7990423 0.95659524 14 15
-4.9391727 2.8931632 0.29998976 18 9
-2.9024239 1.7021617 0.41313702 7 11
-4.8163323 2.8257246 -0.68563658 42 4
-2.4974997 1.4658599 0.45866597 7 12
-4.840415 2.8409894 -0.49103558 46 5
-2.9965863 1.7594936 0.67546403 16 13
-3.0606816 1.8000016 0.95141894 11 15
-2.899883 1.7143025 0.41362455 7 11
-4.8166914 2.8485825 -0.68709904 42 4
-2.497468 1.4775872 0.45960459 1 12
-4.8338976 2.8598988 -0.49138421 46 5
-2.9904268 1.7699422 0.67546403 17 13
-3.0610271 1.8146149 0.95348948 12 15
-2.8921752 1.7233981 0.41338074 6 11
-4.8271799 2.8775764 -0.69002461 36 4
-4.8409982 2.8869586 -0.49312732 8 5
-2.9977188 1.7884163 0.67851698 17 13
-3.0513573 1.823308 0.95245421 11 15
-2.8912473 1.7365497 0.414112 6 11
-2.9965048 1.8019053 0.67966145 12 13
-3.0634999 1.8443766 0.95814824 12 15
-2.8854728 1.746128 0.41411197 6 11
-3.0056252 1.8209882 0.68309605 12 13
-3.0421786 1.8460399 0.95348948 11 15
-2.8793602 1.756189 0.41411197 6 11
-3.3603079 2.0503359 -0.48333365 2 4
-3.3450916 2.0418525 -0.34287083 2 5
-2.9942238 1.8283985 0.68195152 8 13
-3.2790751 2.0039134 0.88720697 1 14
-3.0442815 1.8611566 0.95607769 12 15
-2.8836684 1.7719634 0.4155744 6 11
-3.2858453 2.0198851 -0.47358409 4 4
-3.0048659 1.8486049 0.68576771 6 13
-3.2226291 1.9841247 0.87370992 1 14
-3.0328326 1.8687309 0.95452487 11 15
-2.8788416 1.783567 0.41581815 6 11
-2.9913964 1.8554672 0.68424088 8 13
-2.1994267 1.3647655 -0.13565478 1 6
-3.2418256 2.0123677 0.88090831 1 14
-3.0472956 1.8930868 0.96125412 14 15
-4.9688449 3.0988524 0.30689815 11 9
-2.867547 1.7904509 0.41508693 6 11
-3.3285513 2.0791013 -0.48187163 4 4
-3.3674564 2.1042209 -0.3474029 1 5
-2.9948897 1.8721421 0.68653059 9 13
-2.1743283 1.3597262 -0.13439868 2 6
-4.0674329 2.5445752 1.107659 1 14
-3.0275702 1.8955107 0.95711303 12 15
-4.9461603 3.1087379 0.30616543 28 9
-2.8696802 1.8057351 0.4163056 6 11
-3.0016258 1.8909558 0.68958396 8 13
-2.1763277 1.3715682 -0.13481739 2 6
-3.9398355 2.4839292 1.075266 2 14
-3.0242021 1.9081296 0.95814824 12 15
-4.9673381 3.1462893 0.30815423 32 9
-2.8633599 1.8157414 0.41630563 6 11
-4.8835144 3.0991721 -0.50602639 30 5
-3.0099237 1.9108922 0.6930185 9 13
-2.1546669 1.3684489 -0.13377067 2 6
-3.9081135 2.4830348 1.0689673 2 14
-2.4386547 1.5500067 -0.050437298 1 7
-3.0142627 1.9166013 0.95711297 12 15
-1.987751 1.2678007 0.041152723 4 8
-4.9787641 3.1767113 0.30951494 5 9
-3.1217122 1.9933479 0.32404488 1 10
-2.8737309 1.8364153 0.41874301 6 11
-4.892808 3.129081 -0.50811815 42 5
-2.9949658 1.9160978 0.69111037 8 13
-2.1532419 1.3781146 -0.13398002 2 6
-3.9125519 2.5050683 1.0725666 1 14
-2.3324566 1.4933892 -0.048343018 1 7
-3.0127707 1.9297127 0.95866591 12 15
-1.9397936 1.2462819 0.040245201 13 8
-2.2619104 1.4554678 0.23532036 5 10
-2.855942 1.8384123 0.41703686 6 11
-4.8902292 3.1515374 -0.50898969 39 5
-2.9951966 1.9302723 0.69263643 8 13
-2.1486597 1.3852473 -0.13398002 2 6
-3.9009476 2.5159166 1.0716667 2 14
-2.300344 1.4841764 -0.047784541 5 7
-3.0060167 1.9402169 0.95866591 12 15
-1.9270382 1.2476116 0.040070675 20 8
-2.2393773 1.4509369 0.13984172 12 9
-2.2436962 1.4542912 0.23392618 10 10
-2.8461764 1.8462105 0.41654941 6 11
-4.8931208 3.1764157 -0.51038414 45 5
-2.9983196 1.9471316 0.6949262 7 13
-2.1337621 1.3862108 -0.13335198 2 6
-3.8823376 2.5231464 1.0689673 1 14
-2.2632954 1.4714866 -0.04712135 11 7
-3.0089426 1.9570179 0.96177179 14 15
-1.9829645 1.2936645 0.041327246 32 8
-2.2192478 1.4489176 0.13889968 12 9
-2.23527 1.4599355 0.23357727 9 10
-2.8530071 1.8648229 0.41849926 6 11
-3.0145035 1.972636 0.70026886 6 13
-2.1238971 1.3903689 -0.13303797 7 6
-3.8800278 2.5409536 1.070767 1 14
-2.0557489 1.3467823 -0.042897888 36 7
-2.9891667 1.9590378 0.95763069 3 15
-1.981779 1.3027755 0.041397057 30 8
-2.2125077 1.4555583 0.138795 15 9
-2.2051961 1.451299 0.23096259 5 10
-2.8580854 1.882414 0.42020547 6 11
-4.4938388 2.9608896 -0.66077524 2 4
-3.3620009 2.2159896 -0.3522836 1 5
-3.0043213 1.980985 0.69950557 3 13
-3.8873997 2.5652153 1.075266 1 14
-2.0193267 1.3330182 -0.042234696 39 7
-1.9805533 1.3118939 0.041466866 33 8
-2.1957607 1.4555475 0.13806231 17 9
-2.1918139 1.453482 0.23009102 4 10
-2.8448815 1.887988 0.41923055 6 11
-4.5760889 3.0380447 -0.6744253 2 4
-3.2778997 2.1770072 -0.34426531 5 5
-3.0333638 2.0153613 0.70790118 1 13
-2.1291091 1.4151126 -0.13398002 36 6
-3.8719301 2.5744534 1.0734663 1 14
-1.9946812 1.3267684 -0.041815832 38 7
-3.0558336 2.0333676 0.98351252 0 15
-1.9809513 1.3221301 0.04157158 28 8
-2.1823623 1.4576567 0.13753895 18 9
-2.1734738 1.4522693 0.22869653 5 10
-2.8349733 1.8956999 0.41874301 6 11
-3.2818718 2.1961918 -0.34548551 5 5
-4.148736 2.7773361 0.97045475 1 13
-2.082669 1.394752 -0.13136321 18 6
-3.8758731 2.5966294 1.0770656 2 14
-2.0016656 1.3415167 -0.04206017 37 7
-1.9862807 1.3357319 0.041781008 37 8
-2.1606905 1.454115 0.13649222 18 9
-2.1634336 1.4565088 0.22817361 9 10
-2.8266916 1.9044756 0.41849926 6 11
-4.9129295 3.3125646 -0.51840252 4 5
-2.0413647 1.377436 -0.12906043 27 6
-3.8538635 2.6014209 1.0734663 1 14
-2.0218289 1.3652819 -0.042583738 34 7
-1.9948503 1.3516302 0.042060245 36 8
-2.1390712 1.450439 0.13544551 18 9
-2.148443 1.4573411 0.22712773 11 10
-2.8298817 1.9210202 0.41996172 6 11
-4.5670161 3.1014106 -0.67783701 2 4
-4.9293532 3.3487289 -0.52136582 6 5
-5.0661612 3.4429591 1.1906478 16 13
-2.0332408 1.3823075 -0.12885109 31 6
-3.8576498 2.6236255 1.0770655 1 14
-2.0203583 1.3745807 -0.042653557 34 7
-2.0099382 1.3721154 0.042479105 34 8
-2.1208022 1.4488837 0.13460812 20 9
-2.1236038 1.4513413 0.225036 28 10
-2.8280742 1.9342486 0.42069289 6 11
-4.5053744 3.0825844 -0.67028111 8 4
-2.2079344 1.511804 0.52014518 6 13
-2.0366418 1.3950397 -0.12937444 31 6
-3.8452532 2.6348715 1.0761657 2 14
-2.0270932 1.3895389 -0.042897884 29 7
-2.0314984 1.397254 0.043037578 42 8
-2.120667 1.4596751 0.13492215 32 9
-2.1267297 1.4643945 0.22590755 38 10
-2.8294783 1.9497405 0.42191163 7 11
-4.5092955 3.1084321 -0.67247534 2 4
-2.1060243 1.4523064 -0.22381604 16 5
-2.039979 1.4078127 -0.1298978 32 6
-3.8280144 2.6427424 1.0739163 4 14
-2.023876 1.3977429 -0.04293279 14 7
-2.1170087 1.46698 0.04495734 34 8
-2.1237657 1.4727584 0.13544549 34 9
-2.1216049 1.4718099 0.22590755 34 10
-2.8161328 1.9550763 0.42093664 7 11
-2.2436073 1.5587671 0.4326978 1 12
-2.1009417 1.4596487 -0.22381602 24 5
-2.189266 1.5215788 0.51823741 38 13
-2.05637 1.4297467 -0.13125853 22 6
-3.8395638 2.6705544 1.0797651 1 14
-2.0386813 1.4185048 -0.043351647 27 7
-2.1167943 1.4777952 0.045062061 36 8
-2.1136999 1.4767325 0.13513151 32 9
-2.1295185 1.4883373 0.22730231 36 10
-2.8125443 1.9671711 0.42142418 5 11
-3.4465318 2.4114952 -0.51648206 2 4
-2.2705197 1.5892439 0.43895522 1 12
-2.0795116 1.4555482 -0.2220729 11 5
-2.1710753 1.5202032 0.51518416 19 13
-2.0562744 1.4403538 -0.13157254 18 6
-2.140152 1.5002213 -0.045620449 33 7
-2.1181655 1.4897763 0.045201674 34 8
-2.1117983 1.4864007 0.13534084 33 9
-2.1243107 1.4957613 0.22730203 38 10
-2.2294419 1.572116 0.4320721 1 12
-2.0593939 1.4532802 -0.13209592 15 6
-2.0434301 1.4430845 -0.043665789 19 7
-2.1211107 1.5029409 0.0453762 40 8
-2.1117461 1.4968606 0.13565485 27 9
-2.1190767 1.5031676 0.22730204 37 10
-2.0700684 1.4700333 -0.31174165 1 4
-2.2435436 1.5932245 0.43582654 1 12
-2.036814 1.4469537 -0.2185867 3 5
-2.1748126 1.5455582 0.5186187 1 13
-2.0640752 1.4674038 -0.13272396 20 6
-2.0239668 1.439422 -0.043351647 29 7
-2.1161146 1.5099671 0.0453762 34 8
-2.1219218 1.5163475 0.22817361 28 10
-2.1284206 1.5215528 0.32124755 1 11
-2.1039348 1.5046034 -0.3175914 1 4
-2.0398521 1.4598517 -0.21945825 2 5
-2.1377447 1.5299102 0.51098669 1 13
-2.0543258 1.4707524 -0.13240993 11 6
-2.0953305 1.5012162 -0.044992164 18 7
-2.110831 1.5173446 0.0453762 32 8
-2.0720608 1.4905723 0.13377076 2 9
-2.1359835 1.5382532 0.32319748 1 11
-2.0761204 1.4956932 -0.3141793 1 4
-2.0621388 1.4872612 -0.13324732 14 6
-2.1079142 1.521394 -0.045376118 3 7
-2.0862522 1.51186 0.13502683 1 9
-2.2237942 1.6133102 0.33733431 1 11
-2.0551522 1.5002902 0.13335207 1 9
-2.0257444 1.4793657 0.21945804 1 10
-2.1380141 1.562498 0.32514739 1 11
-2.0729568 1.516064 -0.22468758 1 5
-2.1435728 1.568858 -0.13921361 1 6
-2.1278932 1.5585238 -0.046039309 1 7
-2.1349123 1.5642366 0.70916432 1 15
-2.0917366 1.5382203 0.13607353 1 9
-2.0205681 1.4864279 0.21945804 1 10
-2.0283763 1.4938093 -0.3093043 1 4
-2.1358774 1.5735533 0.42018306 1 12
-2.0323629 1.4972916 -0.22085273 2 5
-2.0577042 1.5170704 -0.13398002 1 6
-2.1546226 1.589686 -0.046737403 1 7
-2.1107869 1.5579127 0.70295262 1 15
-2.0063696 1.4857192 0.13083993 1 9
