# .PCD v0.7 - Point Cloud Data file format
VERSION 0.7
FIELDS x y z intensity ring
SIZE 4 4 4 4 2
TYPE F F F F U
COUNT 1 1 1 1 1
WIDTH 937
HEIGHT 1
VIEWPOINT 0 0 0 1 0 0 0
POINTS 937
DATA ascii
2.175678 -0.093089953 0.038011294 8 8
2.1630175 -0.093304701 0.1134644 2 9
2.1736512 -0.09414348 0.19034825 51 10
2.0942466 -0.091802992 -0.25738797 49 4
2.1536639 -0.095160827 -0.18860509 1 5
2.1249909 -0.094265506 -0.11147555 34 6
2.1515226 -0.096194975 -0.037592366 1 7
2.1453764 -0.099297099 0.037487723 35 8
2.174649 -0.10141268 0.11409242 2 9
2.1693115 -0.10192268 0.1899994 44 10
2.1018448 -0.099488154 -0.25836292 52 4
2.1413782 -0.10210858 -0.18755923 1 5
2.1471794 -0.10351205 -0.037522562 2 7
2.1469955 -0.10725941 0.037522629 44 8
2.1702924 -0.10880302 0.11388309 2 9
2.1828718 -0.11019756 0.1912196 28 10
2.1014659 -0.10719112 -0.25836292 49 4
2.1410086 -0.10958274 -0.18755923 2 5
2.1302459 -0.10977745 -0.11178956 6 6
2.1627805 -0.11183252 -0.037801791 2 7
2.1466279 -0.11437851 0.037522629 48 8
2.1818655 -0.11701988 0.11451111 2 9
2.1110098 -0.11469771 -0.2595816 34 4
2.1366343 -0.11683803 -0.1872106 1 5
2.1583841 -0.11916092 -0.037731986 1 7
2.1522048 -0.12221103 0.037627339 55 8
2.1694798 -0.12395173 0.11388309 3 9
2.1521254 -0.1252214 -0.18860509 1 5
2.1434064 -0.12508945 -0.11252227 59 6
2.1579549 -0.12669437 -0.037731986 2 7
2.1677339 -0.13068557 0.03790658 53 8
2.1610594 -0.13104035 0.11346439 12 9
2.1357667 -0.13175158 -0.1872106 2 5
2.1329663 -0.13232623 -0.11199891 69 6
2.1614909 -0.13447456 -0.037801791 2 7
2.1712315 -0.13888514 0.037976392 53 8
2.1313176 -0.13894676 -0.18686199 2 5
2.1384709 -0.14016278 -0.11231295 52 6
2.1729813 -0.14280559 -0.038011231 2 7
2.1607826 -0.14541312 0.037801862 51 8
2.1620848 -0.14625883 0.11356907 42 9
2.1586475 -0.14829737 -0.18930236 3 5
2.141979 -0.14752789 -0.11252227 55 6
2.1724696 -0.15038984 -0.038011231 2 7
2.1542778 -0.15253101 0.037697144 55 8
2.1715488 -0.15413482 0.11409242 49 9
2.1422455 -0.15430972 -0.18790784 22 5
2.1275067 -0.15399456 -0.11178956 46 6
2.1679695 -0.15730375 -0.037941415 9 7
2.1597431 -0.16011757 0.037801865 49 8
2.1650226 -0.16126889 0.1137784 65 9
2.1289759 -0.1611996 -0.11189425 52 6
2.1671455 -0.16827473 0.037941482 51 8
2.1684289 -0.16913591 0.11398776 51 9
2.1490901 -0.16951448 -0.18860506 58 5
2.1363645 -0.16926108 -0.11231294 52 6
2.1747921 -0.1730696 -0.038081031 24 7
2.1765106 -0.17664731 0.038116001 55 8
2.1718066 -0.17702864 0.11419711 53 9
2.130615 -0.17554282 -0.18703631 37 5
2.1477036 -0.17770556 -0.11294098 55 6
2.1679111 -0.18356882 0.037976392 53 8
2.1751556 -0.18494698 0.11440644 54 9
2.1530392 -0.18571624 -0.11325496 57 6
2.1735308 -0.18824819 -0.038081031 1 7
2.1672571 -0.19113512 0.037976392 52 8
2.1744964 -0.19253856 0.11440643 38 9
2.132452 -0.19181696 -0.11220826 44 6
2.1768439 -0.19619311 -0.038150843 2 7
2.1665416 -0.19907723 0.037976388 53 8
2.1417122 -0.2001888 -0.11273162 55 6
2.1681466 -0.20342311 -0.038011227 1 7
2.1718054 -0.20720842 0.038081102 51 8
2.1390126 -0.20747077 -0.11262694 50 6
2.1674232 -0.21099012 -0.038011227 1 7
2.1790287 -0.21557567 0.038220722 51 8
2.1442375 -0.21553531 -0.11294098 52 6
2.1587529 -0.217375 -0.037871603 1 7
2.1763127 -0.2225969 0.03818582 30 8
2.1574166 -0.22408904 -0.11367366 50 6
2.1818483 -0.22739662 -0.038290463 1 7
2.1655798 -0.2291403 0.038011298 48 8
2.1427207 -0.23012558 -0.11294098 47 6
2.1889935 -0.23586819 -0.038430076 1 7
2.1707296 -0.2373502 0.038116001 55 8
2.1378922 -0.23753633 -0.11273162 34 6
2.2040567 -0.24527715 -0.038709324 1 7
2.177794 -0.24620329 0.038255632 55 8
2.1793475 -0.25023198 -0.038290463 1 7
2.1849105 -0.25434867 0.038395248 55 8
2.1744888 -0.2573677 -0.038220651 2 7
2.180038 -0.2614975 0.038325433 55 8
2.1855333 -0.26602685 -0.038430076 2 7
2.17519 -0.26823592 0.038255632 52 8
2.2084022 -0.27663681 -0.03884894 2 7
2.1801918 -0.27658212 0.038360342 48 8
2.189573 -0.28204459 -0.03853479 15 7
2.1930935 -0.28600088 0.038604677 29 8
2.1716993 -0.29516923 -0.038255561 47 7
2.2003634 -0.3068915 -0.038779128 37 7
2.0358853 0.65914291 -0.26275045 1 4
2.0268295 0.64840376 -0.26128775 1 4
2.014143 0.62926477 -0.25909412 41 4
2.0201209 0.62340033 -0.25958183 70 4
2.1019082 0.6482389 -0.19243994 1 5
1.9994986 0.60940087 -0.25665674 75 4
2.0431685 0.62232071 -0.18686199 4 5
2.009217 0.60470533 -0.25763193 62 4
2.017024 0.59938592 -0.25836292 56 4
2.0264537 0.60180235 -0.18494456 37 5
2.000056 0.58675295 -0.25592557 52 4
2.0495734 0.60089028 -0.18686199 69 5
2.0020919 0.57976729 -0.25592554 49 4
2.0286915 0.58708733 -0.18477024 32 5
2.0079207 0.57386661 -0.25641298 46 4
2.0302942 0.57336813 -0.334144 1 3
2.0137329 0.56793135 -0.25690046 27 4
2.0519178 0.57831502 -0.18651336 2 5
2.0132542 0.5609749 -0.33101532 2 3
2.0500851 0.57008082 -0.18616475 2 5
2.0214772 0.55490988 -0.25738817 2 4
2.0443764 0.56081223 -0.18546745 2 5
2.0688322 0.56674457 -0.1124176 1 6
2.0042408 0.54266268 -0.25495079 2 4
2.0655539 0.55887681 -0.18721059 2 5
2.057301 0.55587316 -0.1116849 3 6
2.0323768 0.54343289 -0.3332054 56 3
2.0176301 0.53873634 -0.25641298 2 4
2.0251415 0.5403623 -0.18337575 2 5
2.0361712 0.53684032 -0.33351827 65 3
2.0156593 0.53067887 -0.25592554 3 4
2.0462832 0.53836077 -0.18511885 2 5
2.0534048 0.53946704 -0.11126622 35 6
2.0188227 0.52511197 -0.33038959 59 3
2.038543 0.52948064 -0.25860664 20 4
2.0481503 0.53121394 -0.18511885 2 5
2.057116 0.5331552 -0.11137088 59 6
2.0244706 0.51904237 -0.33101532 61 3
2.0363894 0.520962 -0.1838987 3 5
2.029937 0.51855761 -0.10980079 69 6
2.0320158 0.51342374 -0.33195394 63 3
2.0306411 0.51232332 -0.25714424 70 4
2.0478551 0.51628524 -0.18477024 19 5
2.0375459 0.51293087 -0.11011482 55 6
2.0280445 0.50489718 -0.33101532 59 3
2.0189314 0.50188017 -0.2554383 77 4
2.039324 0.50581479 -0.11011482 55 6
2.024039 0.49640286 -0.33007669 63 3
2.0225992 0.49530128 -0.25568178 62 4
2.0552797 0.50292403 -0.18511885 69 5
2.0507779 0.50106388 -0.11063818 60 6
2.0258451 0.48898149 -0.33007675 66 3
2.0224712 0.48742011 -0.2554383 54 4
2.0396762 0.49118996 -0.18355006 66 5
2.0448329 0.49167681 -0.1102195 55 6
2.121299 0.50967127 -0.038081035 1 7
2.0015607 0.47646996 -0.39993575 3 2
2.0370641 0.48454589 -0.33164105 68 3
2.0124881 0.47795796 -0.2539756 54 4
2.0355628 0.48268759 -0.18302715 57 5
2.0464523 0.48489261 -0.1102195 53 6
2.0841458 0.49305555 -0.037382942 4 7
2.0329735 0.47608054 -0.33070248 63 3
2.0141442 0.47093061 -0.2539756 56 4
2.0429726 0.47729391 -0.18355006 55 5
2.0481324 0.47774661 -0.1102195 52 6
1.976063 0.45621008 -0.39421144 29 2
2.0307727 0.46809423 -0.33007669 54 3
2.0196445 0.46478784 -0.25446332 54 4
2.0290923 0.46658826 -0.18215556 55 5
2.0536809 0.47148764 -0.11042884 53 6
1.991045 0.4523547 -0.3968828 42 2
2.0227618 0.45881823 -0.32851231 16 3
2.0212545 0.45773456 -0.25446332 54 4
2.0384815 0.46126178 -0.1828528 39 5
2.0553141 0.46431652 -0.11042884 47 6
2.0735891 0.46768439 -0.037103701 70 7
2.0060239 0.44839928 -0.39955413 70 2
2.026716 0.45153916 -0.25495082 54 4
2.0393751 0.45323905 -0.10948679 36 6
2.0771613 0.46087599 -0.037138607 38 7
2.0037417 0.44055149 -0.3987909 60 2
2.0413513 0.44807357 -0.33101532 2 3
2.0244009 0.4436124 -0.25446332 54 4
2.0805781 0.45554209 -0.18633907 2 5
2.0467982 0.44739741 -0.10980081 7 6
1.9879968 0.4298209 -0.3953563 53 2
2.0313177 0.43844402 -0.3291381 2 3
2.0220561 0.43570638 -0.25397584 52 4
2.068521 0.44534078 -0.18511885 2 5
2.0776377 0.44654474 -0.11137088 2 6
1.9894851 0.4228783 -0.3953563 53 2
2.0521588 0.43545139 -0.33226675 2 3
2.025507 0.42905831 -0.25421935 40 4
2.0622663 0.43646786 -0.18442164 2 5
2.0674593 0.43681201 -0.11074286 2 6
2.0720901 0.43703598 -0.036964081 2 7
2.1119201 0.44197306 0.037662249 1 8
1.9909492 0.41593152 -0.3953563 53 2
2.0343292 0.42425206 -0.3291381 2 3
2.0289357 0.42238939 -0.25446308 8 4
2.0403697 0.42439723 -0.18232988 2 5
2.0728822 0.43040606 -0.1109522 2 6
2.0775192 0.43061253 -0.037033889 2 7
2.1016979 0.43218121 0.037452821 2 8
1.9923888 0.40897876 -0.3953563 53 2
2.0590193 0.42190811 -0.33289251 2 3
2.0381773 0.41689512 -0.2554383 2 4
2.0574543 0.42046511 -0.18372436 2 5
2.0704584 0.42236876 -0.11074286 2 6
2.0750906 0.42255938 -0.036964081 2 7
2.0385098 0.41177669 0.036300961 12 8
2.0092008 0.40512541 -0.39840925 35 2
2.0488603 0.41237906 -0.33101532 2 3
2.0279427 0.40743238 -0.2539756 2 4
2.0706303 0.41563284 -0.18477024 2 5
2.0562532 0.41200033 -0.10990548 2 6
2.0804751 0.41609725 -0.037033893 2 7
2.0147848 0.39930445 -0.47419676 2 1
2.018306 0.39963624 -0.39993575 6 2
2.03866 0.40292606 -0.3291381 2 3
2.0351954 0.40150321 -0.25470683 9 4
2.0759783 0.40917242 -0.18511885 2 5
2.0615981 0.40559065 -0.11011481 3 6
2.0858393 0.40960351 -0.037103701 4 7
2.0864799 0.40632686 0.037103768 44 8
2.0042715 0.38959125 -0.3968828 26 2
2.0633249 0.40032277 -0.33289254 2 3
2.0443799 0.39590666 -0.25568178 35 4
2.0656571 0.39965308 -0.184073 2 5
2.0767286 0.40104219 -0.11084753 17 6
2.0761008 0.39678925 0.036894344 48 8
2.0017619 0.38185728 -0.39611956 42 2
2.0530665 0.39090055 -0.33101532 2 3
2.0515318 0.39023831 -0.25641298 43 4
2.0670397 0.39243963 -0.184073 2 5
2.0885789 0.39539617 -0.037103701 62 7
2.0734739 0.38916412 0.036824528 52 8
2.0053823 0.37602192 -0.4710474 62 1
2.0203846 0.37846991 -0.39955413 68 2
2.0465844 0.38263842 -0.32976377 2 3
2.0625713 0.38525489 -0.25763193 70 4
2.044826 0.38120171 -0.18198127 3 5
2.0735195 0.38580203 -0.11053351 59 6
2.1016746 0.39066112 -0.037313133 65 7
2.0885196 0.38482299 0.037068866 59 8
2.0008688 0.36831081 -0.46969774 72 1
2.0119739 0.36999297 -0.39764604 64 2
2.0361848 0.37370953 -0.32788664 2 3
2.0268042 0.37125665 -0.25300068 77 4
2.0579035 0.37621185 -0.18302712 4 5
2.0610342 0.37641147 -0.10980081 69 6
2.0931892 0.38153008 -0.037138607 72 7
2.0859146 0.37681988 0.036999058 62 8
2.0155666 0.36374736 -0.4728471 70 1
1.995927 0.35948464 -0.3942115 50 2
2.0530944 0.36904025 -0.33038959 3 3
2.0261338 0.36382911 -0.25275713 65 4
2.0525696 0.3670972 -0.10927745 55 6
2.0866339 0.37281373 -0.036998987 66 7
2.0990965 0.3712602 0.037208486 57 8
2.0168862 0.35635793 -0.4728471 61 1
2.1359396 0.37739316 0.11367375 1 9
1.9991027 0.35285604 -0.39459303 56 2
2.0660424 0.36392781 -0.33226678 3 3
2.0372291 0.35811833 -0.25397584 56 4
2.050668 0.36011279 -0.18215556 37 5
2.06761 0.36234295 -0.11001017 55 6
2.0741348 0.36311337 -0.036754657 54 7
2.0845537 0.36156377 0.036929246 62 8
2.0218968 0.35033354 -0.47374684 70 1
2.1116598 0.36550605 0.11231301 4 9
1.996454 0.34520632 -0.39382991 56 2
2.0652919 0.35673884 -0.33195397 7 3
2.0442746 0.35237274 -0.25470683 58 4
2.0735118 0.35666719 -0.18407302 69 5
2.0766735 0.35683781 -0.11042884 53 6
2.0773602 0.35620943 -0.036789555 51 7
2.0818605 0.35361585 0.036859442 60 8
2.0192652 0.34262118 -0.47284704 65 1
2.0092015 0.34055185 -0.39611956 56 2
2.0454922 0.34523517 -0.25470683 58 4
2.060991 0.34711024 -0.1828528 62 5
2.0621495 0.34693629 -0.10959146 55 6
2.0845077 0.34994864 -0.036894277 55 7
2.0909724 0.34765798 0.036999054 57 8
2.0166039 0.3349314 -0.47194725 61 1
2.0649018 0.34258372 0.1096962 32 9
2.0104361 0.33318591 -0.39611956 56 2
2.0444043 0.33808327 -0.32819948 32 3
2.0349333 0.33615121 -0.2532444 60 4
2.0523605 0.33829513 -0.18198127 48 5
2.0634074 0.33937526 -0.10959146 53 6
2.0936091 0.34396839 -0.037033889 57 7
2.1001277 0.3412753 0.037138671 27 8
2.0139709 0.32691386 -0.47104746 42 1
2.0799437 0.33725131 0.1104289 42 9
1.9999592 0.3242822 -0.39382991 53 2
2.041672 0.33031335 -0.32757375 5 3
2.0361516 0.32869101 -0.2532444 58 4
2.0752246 0.33425424 -0.1838987 13 5
2.0685234 0.33280554 -0.10980082 53 6
2.0869584 0.33502325 -0.036894273 34 7
2.0185678 0.32079297 -0.54766113 1 0
2.0850539 0.33061391 0.11063825 32 9
2.0011344 0.31694832 -0.39382985 56 2
2.0428689 0.3228285 -0.32757375 2 3
2.037287 0.32158098 -0.25324443 60 4
2.0901551 0.32917941 -0.18511885 3 5
2.0736754 0.32584128 -0.11001016 52 6
2.0081124 0.31266701 -0.54455531 2 0
2.1083298 0.32789415 0.037243389 2 8
2.0219264 0.31409502 -0.47239712 2 1
2.0098801 0.3118645 -0.3953563 56 2
2.0692508 0.32033718 -0.33164105 2 3
2.0442271 0.31573269 -0.25397584 62 4
2.0793645 0.32078817 -0.184073 2 5
2.0786366 0.31993312 -0.1102195 52 6
2.0891345 0.32117569 -0.036894277 2 7
2.0473888 0.31146577 -0.55490798 30 0
2.1173136 0.32210332 0.037383009 1 8
2.0268099 0.30797422 -0.47329697 2 1
2.1089218 0.32007459 0.11178964 2 9
2.0109565 0.30484626 -0.3953563 53 2
2.0507708 0.31051666 -0.32851237 2 3
2.0491884 0.3095445 -0.25446332 56 4
2.0883522 0.31471592 -0.18477024 2 5
2.0579612 0.30976769 -0.1090681 24 6
2.1139729 0.3174451 -0.037313133 2 7
2.1184251 0.314711 0.037383009 1 8
2.0394387 0.30261308 -0.47599635 2 1
2.1139779 0.3132962 0.11199899 2 9
2.0177824 0.29903984 -0.39650118 59 2
2.1896856 0.32412574 0.19365995 1 10
2.0792003 0.30740044 -0.33289254 2 3
2.03651 0.30036253 -0.25275716 58 4
2.1012111 0.30953056 -0.18581611 2 5
2.0913258 0.3065829 -0.036894277 2 7
2.0322554 0.29502556 -0.55024934 73 0
2.1274269 0.30846259 0.037522629 2 8
2.0211964 0.29269972 -0.47149739 2 1
2.1031983 0.30420017 0.11137095 2 9
2.0071561 0.29030892 -0.39421153 59 2
2.1710844 0.31363216 0.19191682 1 10
2.0724397 0.29901287 -0.33164105 2 3
2.0355811 0.29296961 -0.25251341 56 4
2.0746689 0.29822475 -0.18337572 2 5
2.0837977 0.29879564 -0.11032415 2 6
2.0963418 0.29984763 -0.036964081 2 7
2.0237093 0.28657508 -0.54766113 83 0
2.10869 0.29823473 0.037173573 2 8
2.0299239 0.28673238 -0.47329691 2 1
2.1042471 0.29685619 0.11137094 3 9
2.0101008 0.28357449 -0.39459303 56 2
2.1129789 0.29771295 0.1866875 4 10
2.0695586 0.29122579 -0.33101532 2 3
2.0503519 0.28779426 -0.25421959 39 4
2.0836408 0.29172421 -0.184073 2 5
2.0966961 0.29317996 -0.11095219 2 6
2.1092587 0.29418498 -0.037173506 2 7
2.0094359 0.27704549 -0.54352009 64 0
2.1176424 0.29196414 0.037313201 2 8
2.0502176 0.28230351 -0.47779599 2 1
2.1112065 0.29032594 0.11168497 12 9
2.0169618 0.27700707 -0.39573795 59 2
2.0784404 0.28471133 -0.33226678 2 3
2.0415103 0.27928957 -0.25300068 8 4
2.0728021 0.28283349 -0.18302715 2 5
2.0740087 0.2822597 -0.10969613 3 6
2.1063101 0.28628236 -0.037103701 2 7
2.008476 0.26977181 -0.54300237 61 0
2.1167161 0.28393528 0.037278291 3 8
2.0357866 0.2727167 -0.47419676 2 1
2.0159705 0.26970401 -0.3953563 45 2
2.0637572 0.27536386 -0.32976377 2 3
2.0936816 0.27861387 -0.25933784 30 4
2.089577 0.27769557 -0.18442164 2 5
2.0789411 0.27554464 -0.10990548 14 6
2.0914857 0.27646348 -0.036824465 2 7
2.0113208 0.2630102 -0.54352003 64 0
2.0740719 0.27084768 0.036510389 12 8
2.044456 0.26661634 -0.47599635 2 1
2.0855026 0.27160007 0.11021957 42 9
2.0383148 0.26545468 -0.39955413 23 2
2.1278832 0.27674171 0.18773335 69 10
2.0764599 0.26968431 -0.33164105 2 3
2.0532999 0.26594862 -0.25421935 41 4
2.0707743 0.26784351 -0.18267852 2 5
2.1122711 0.27171287 -0.037173506 3 7
2.0218091 0.2572062 -0.54610831 61 0
2.0569735 0.26095113 -0.47869572 2 1
2.09828 0.26619133 0.11084759 62 9
2.0100138 0.25463635 -0.39382985 48 2
2.1189532 0.26806253 0.18686181 59 10
2.0773883 0.26243591 -0.33164105 2 3
2.0660329 0.26026773 -0.25568178 70 4
2.0914648 0.26310176 -0.18442164 2 5
2.096668 0.26301196 -0.11074284 59 6
2.0913348 0.2619732 -0.036789559 7 7
2.013108 0.24896306 -0.54352003 64 0
2.1056359 0.26040608 0.03703396 44 8
2.0423553 0.2522172 -0.47509661 2 1
2.0972142 0.25862038 0.11074292 62 9
2.0147867 0.24809976 -0.39459303 64 2
2.1060333 0.25896168 0.18564162 60 10
2.0821683 0.25602719 -0.33226678 2 3
2.0452108 0.25075918 -0.25300068 79 4
2.0765488 0.25386479 -0.18302712 2 5
2.0697727 0.25267076 -0.10927743 66 6
2.0100863 0.24182393 -0.5424847 64 0
2.092634 0.25138435 0.036789626 50 8
2.0316138 0.24369347 -0.47239712 2 1
2.1000433 0.25190163 0.11084759 58 9
2.0136495 0.24118309 -0.3942115 59 2
2.110837 0.25245002 0.18599024 58 10
2.0791266 0.2482885 -0.33164105 2 3
2.0559297 0.24479149 -0.25421935 65 4
2.0694656 0.24603587 -0.18232988 2 5
2.0845263 0.24708955 -0.11001017 57 6
2.014756 0.23525353 -0.54352003 67 0
2.0874977 0.24374719 0.036684915 52 8
2.0401533 0.23785813 -0.4741967 2 1
2.1009097 0.244571 0.11084759 60 9
2.0164289 0.2343788 -0.39459303 56 2
2.1156638 0.2455391 0.18633887 60 10
2.0603163 0.2391156 -0.32851231 2 3
2.0587015 0.23819996 -0.25446332 62 4
2.0782287 0.23972525 -0.18302715 3 5
2.0773973 0.23926097 -0.10959146 55 6
2.1058416 0.24179225 -0.036998987 74 7
2.0193639 0.22900681 -0.54455525 67 0
2.1022446 0.23803431 0.036929246 59 8
2.0332255 0.22985999 -0.47239712 2 1
2.0938122 0.23633935 0.11042891 60 9
2.0249991 0.22857206 -0.39611956 56 2
2.1125066 0.23807511 0.18599024 58 10
2.0886204 0.23501506 -0.33289251 2 3
2.167978 0.24356136 0.26786879 1 11
2.0457118 0.22946286 -0.25275716 60 4
2.0770726 0.23224747 -0.1828528 7 5
2.080205 0.23222913 -0.10969614 58 6
2.10866 0.23466161 -0.037033889 73 7
2.0221105 0.22181506 -0.54507297 58 0
2.0990875 0.23025905 0.036859442 59 8
2.03789 0.22318508 -0.47329691 2 1
2.0985954 0.22946377 0.11063827 58 9
2.0141134 0.21987066 -0.39382991 53 2
2.1391134 0.23313755 0.18825629 37 10
2.0737574 0.22564931 -0.33038959 3 3
2.1431599 0.23320112 0.26470017 6 11
2.0465002 0.22232103 -0.25275716 58 4
2.0798516 0.22520964 -0.18302712 31 5
2.0830276 0.22481798 -0.10980081 55 6
2.1015136 0.22644213 -0.036894273 61 7
2.0209513 0.21455073 -0.54455531 62 0
2.1158257 0.2242495 0.037138678 59 8
2.0483837 0.21674006 -0.47554648 4 1
2.107367 0.22260919 0.11105695 56 9
2.0187728 0.21325064 -0.39459303 56 2
2.094178 0.2204769 -0.3335183 7 3
2.1420262 0.22513644 0.26445642 29 11
2.0473013 0.21481919 -0.25275716 60 4
2.0707176 0.21691084 -0.18215558 37 5
2.0877728 0.21796073 -0.11001016 55 6
2.0943739 0.21791087 -0.03675466 63 7
2.0159223 0.20690371 -0.54300237 56 0
2.0967026 0.21482475 0.036789626 60 8
2.1081312 0.21525221 0.11105695 58 9
2.0175521 0.20600353 -0.3942115 59 2
2.1406891 0.21819803 0.18825629 2 10
2.1566234 0.21906267 0.26616257 58 11
2.0618634 0.20907274 -0.25446308 62 4
2.0694795 0.20948015 -0.18198127 24 5
2.0885212 0.21067117 -0.11001017 55 6
2.1010907 0.21119925 -0.036859374 39 7
2.0166326 0.19986503 -0.54300243 58 0
2.0974398 0.20750403 0.036789626 59 8
2.1167839 0.20904477 0.11147563 28 9
2.0260737 0.19972959 -0.39573789 62 2
2.1275582 0.20935898 0.18703613 2 10
2.0720747 0.20353407 -0.32976377 24 3
2.1633017 0.21211387 0.2668938 47 11
2.058629 0.20148791 -0.25397584 56 4
2.0832801 0.20279947 -0.10969614 56 6
2.0211639 0.19319251 -0.5440377 56 0
2.120013 0.20264095 0.03717358 43 8
2.0272279 0.19341511 -0.47014761 62 1
2.0306678 0.19302709 -0.39650118 65 2
2.1560445 0.20456627 0.18947646 2 10
2.1501601 0.20362829 0.26518771 25 11
2.0533574 0.19409916 -0.2532444 58 4
2.0986621 0.19764265 -0.18442161 2 5
2.0819526 0.19570245 -0.10959146 55 6
2.1104434 0.19763745 -0.036998987 2 7
2.0333354 0.18755405 -0.54714346 60 0
2.1067686 0.19395567 0.036929246 7 8
2.0395341 0.1874069 -0.47284704 60 1
2.1360579 0.19627619 0.11241768 2 9
2.0234761 0.18557626 -0.39497468 63 2
2.1567111 0.19741483 0.18947646 2 10
2.0852156 0.19050351 -0.33164105 2 3
2.0500686 0.186571 -0.25275716 60 4
2.1191485 0.19248487 -0.18616475 2 5
2.0826228 0.18843432 -0.10959146 55 6
2.1130786 0.19081815 -0.037033889 2 7
2.0224323 0.17943038 -0.5440377 56 0
2.0382032 0.18047009 -0.47239712 16 1
2.1407087 0.18917081 0.11262701 2 9
2.024112 0.17851134 -0.39497471 63 2
2.145479 0.18883666 0.18843062 2 10
2.0858357 0.18358706 -0.33164105 2 3
2.1613836 0.18985738 0.26640639 3 11
2.0625412 0.1808123 -0.25421935 58 4
2.08408 0.18196748 -0.18302712 2 5
2.0872157 0.18187422 -0.10980081 52 6
2.1057632 0.18274985 -0.036894273 2 7
2.0191667 0.17239355 -0.54300243 58 0
2.1140175 0.18012013 0.037033956 2 8
2.141356 0.18169661 0.11262701 2 9
2.0325177 0.17246155 -0.39650118 61 2
2.1381516 0.18104888 0.18773359 2 10
2.0785906 0.17564115 -0.33038962 2 3
2.1442304 0.18080983 0.26421273 12 11
2.0651379 0.17377746 -0.25446308 56 4
2.2538738 0.18926422 0.358235 1 12
2.0886426 0.17538927 -0.18337575 2 5
2.0977893 0.17541897 -0.11032415 43 6
2.1143596 0.17606144 -0.037033893 2 7
2.0236068 0.16566092 -0.5440377 56 0
2.1345642 0.17436828 0.037383012 2 8
2.0471826 0.16687061 -0.4741967 2 1
2.137996 0.1738964 0.11241768 2 9
2.0370207 0.16568346 -0.39726439 63 2
2.1546578 0.17487414 0.18912785 2 10
2.0949423 0.16965954 -0.33289254 2 3
2.0657318 0.16656815 -0.25446308 56 4
2.2545211 0.18139496 0.35823506 1 12
2.1130736 0.17001437 -0.18546745 2 5
2.0864439 0.16713881 -0.10969614 19 6
2.1189477 0.16899726 -0.037103701 2 7
2.0280244 0.15889744 -0.54507291 56 0
2.1351597 0.16691566 0.037383009 2 8
2.0594096 0.16063325 -0.4768962 2 1
2.1346071 0.16612385 0.11220832 2 9
2.0336721 0.15826869 -0.39650118 59 2
2.1552553 0.16735131 0.18912785 2 10
2.0955222 0.16234623 -0.33289257 2 3
2.1632533 0.16721377 0.26640639 47 11
2.0623422 0.15905054 -0.2539756 56 4
2.207871 0.16988634 0.35072616 5 12
2.1136541 0.16263676 -0.18546745 2 5
2.1275003 0.16220929 -0.037243322 2 7
2.0362725 0.1523935 -0.54714346 56 0
2.1297464 0.1590163 0.037278291 3 8
2.0521843 0.15286405 -0.47509655 2 1
2.11924 0.15748698 0.11137095 3 9
2.0302966 0.15087734 -0.39573795 59 2
2.1478786 0.15923831 0.18843062 2 10
2.0881958 0.15444711 -0.33164105 2 3
2.1460059 0.15834633 0.2642127 58 11
2.0648644 0.15199687 -0.25421959 43 4
2.1729894 0.15957475 0.3450945 30 12
2.1221578 0.1558419 -0.18616475 2 5
2.0935357 0.15300536 -0.11001016 10 6
2.1280537 0.15478136 -0.037243322 2 7
2.0213768 0.1441855 -0.54300243 56 0
2.082417 0.14817424 0.036440577 12 8
2.0643685 0.14652692 -0.47779599 2 1
2.1177843 0.14994788 0.11126628 5 9
2.0347273 0.14406711 -0.39650118 34 2
2.1345093 0.15075769 0.18721043 5 10
2.092663 0.14743409 -0.33226678 2 3
2.1524866 0.15127237 0.26494393 60 11
2.0752835 0.14548272 -0.25543827 24 4
2.1853566 0.15281479 0.34697172 42 12
2.1028137 0.14704284 -0.18442164 2 5
2.1126215 0.14624776 -0.036964081 2 7
2.0257225 0.13738959 -0.5440377 56 0
2.0609789 0.1390581 -0.4768962 2 1
2.0931647 0.14012888 -0.33226678 2 3
2.1688468 0.14481525 0.26689383 60 11
2.093605 0.13942434 -0.25763193 70 4
2.2095292 0.14675701 0.35072619 61 12
2.1112659 0.14023036 -0.18511885 2 5
2.1204605 0.14009769 -0.11137087 59 6
2.1410549 0.14070778 -0.037452754 2 7
2.0339012 0.13081408 -0.54610825 51 0
2.1053524 0.13504063 0.036824532 44 8
2.0536726 0.13136595 -0.47509655 2 1
2.0533173 0.13098241 -0.39993575 3 2
2.1315331 0.13559936 0.18686181 42 10
2.0896986 0.13257183 -0.33164105 2 3
2.1554711 0.13636577 0.26518768 65 11
2.0722635 0.13110164 -0.25495079 77 4
2.1922605 0.13831018 0.34791034 59 12
2.1117425 0.13286027 -0.18511885 2 5
2.0910361 0.1308248 -0.10980081 69 6
2.1215515 0.13236226 -0.037103701 2 7
2.0420368 0.1245395 -0.54817873 43 0
2.1077847 0.1281791 0.036859438 50 8
2.0540969 0.12455442 -0.47509661 2 1
2.1231811 0.12874348 0.11147563 59 9
2.0498209 0.12393707 -0.39917254 10 2
2.139926 0.12900917 0.18755905 66 10
2.09407 0.12587787 -0.33226678 2 3
2.149967 0.1288624 0.26445645 62 11
2.0588162 0.1233991 -0.2532444 62 4
2.1966507 0.13127469 0.34853607 66 12
2.0922828 0.12467106 -0.18337575 2 5
2.0834837 0.12341698 -0.10938212 57 6
2.1279674 0.12567933 -0.037208419 3 7
2.0482242 0.1181002 -0.54973161 7 0
2.1161838 0.1216482 0.036999054 55 8
2.0544987 0.11774252 -0.47509661 2 1
2.1116533 0.12064829 0.11084759 58 9
2.1383529 0.12179935 0.18738475 56 10
2.0905318 0.11870945 -0.33164105 2 3
2.1583104 0.12218034 0.26543143 62 11
2.0572526 0.11609935 -0.25300071 56 4
2.193151 0.12338469 0.34791034 59 12
2.1205549 0.11892926 -0.18581611 2 5
2.0998347 0.11739955 -0.1102195 53 6
2.1283932 0.118251 -0.037208419 20 7
2.1245828 0.11469119 0.037138678 60 8
2.0510051 0.11036128 -0.4741967 2 1
2.1160507 0.1134899 0.11105695 54 9
2.0271103 0.10836497 -0.39459303 42 2
2.1328161 0.11364351 0.1868618 56 10
2.0909529 0.11104594 -0.33164105 2 3
2.162688 0.11485563 0.26591888 62 11
2.0695388 0.1095465 -0.25446332 56 4
2.1896229 0.11552072 0.34728459 59 12
2.1090193 0.11089811 -0.18477024 2 5
2.1022451 0.10980711 -0.11032415 56 6
2.1170001 0.10650202 0.036999054 60 8
2.0630739 0.10342815 -0.47689614 2 1
2.1204233 0.10630325 0.11126629 56 9
2.0490456 0.10236636 -0.3987909 70 2
2.1332002 0.10619733 0.18686181 56 10
2.0873818 0.10355116 -0.33101532 3 3
2.1630945 0.1069287 0.26591888 62 11
2.0679443 0.10186333 -0.25421935 58 4
2.1979051 0.10826498 0.34853607 59 12
2.1093936 0.10353503 -0.18477024 2 5
2.1046107 0.10256492 -0.11042884 52 6
2.1351585 0.10367908 -0.03731313 60 7
2.1133466 0.099292934 0.036929246 59 8
2.0478325 0.095857628 -0.47329691 3 1
2.1287618 0.099273548 0.11168497 56 9
2.0493903 0.095212691 -0.3987909 68 2
2.1375382 0.098934107 0.18721043 54 10
2.1133666 0.097815327 -0.33508265 6 3
2.1555052 0.099389739 0.26494393 62 11
2.0801687 0.095551185 -0.25568181 58 4
2.1982696 0.10059161 0.34853607 62 12
2.1017811 0.095809773 -0.18407302 5 5
2.0989537 0.095312826 -0.11011482 56 6
2.1255193 0.095776744 -0.037138604 72 7
2.1256673 0.092438087 0.037138678 59 8
2.1250887 0.09204033 0.11147563 53 9
2.0398879 0.087993503 -0.3968828 53 2
2.1497977 0.092359766 0.18825631 37 10
2.1617889 0.092117958 0.26567513 65 11
2.0705726 0.087870039 -0.25446308 56 4
2.2005646 0.093386576 0.34884891 57 12
2.093287 0.087734044 -0.10980081 55 6
2.1278229 0.088810548 -0.037173506 36 7
2.1259623 0.085388027 0.037138678 57 8
2.1234012 0.084541798 0.11137094 16 9
2.032335 0.080561802 -0.39535627 56 2
2.1021397 0.08296141 -0.3332054 80 3
2.1561317 0.084714316 0.26494393 51 11
2.0668857 0.080847546 -0.2539756 56 4
2.1969292 0.085550271 0.34822318 57 12
2.1023843 0.081500143 -0.184073 11 5
2.0975583 0.080947459 -0.11001017 55 6
2.130244 0.078112498 0.03720849 59 8
2.0526059 0.074906945 -0.4741967 60 1
2.0326042 0.073466584 -0.3953563 56 2
2.1742692 0.078586943 0.19034825 2 10
2.0984688 0.075480506 -0.3325797 56 3
2.0711229 0.073773049 -0.25446308 54 4
2.1972146 0.077880457 0.34822318 43 12
2.1058247 0.07353723 -0.11042884 53 6
2.1265187 0.070172802 0.037138678 57 8
2.0665007 0.067831241 -0.47734612 60 1
2.1479065 0.070127033 0.11262702 2 9
2.0367844 0.066144146 -0.39611956 53 2
2.1486557 0.069777124 0.18808199 2 10
2.1026797 0.067916721 -0.3332054 62 3
2.1785078 0.069984332 0.26762506 2 11
2.0753474 0.066308737 -0.25495079 54 4
2.2034082 0.070015445 0.3491618 13 12
2.1188445 0.066957191 -0.18546745 2 5
2.1100726 0.065943755 -0.11063818 53 6
2.1366429 0.06639985 -0.037313133 2 7
2.1267617 0.062378723 0.037138678 52 8
2.051152 0.059802786 -0.47374684 21 1
2.1601272 0.062601693 0.11325504 2 9
2.0428901 0.059204098 -0.39726445 62 2
2.1767788 0.062704064 0.19052236 2 10
2.0693469 0.059248932 -0.32788664 27 3
2.176765 0.061943255 0.26738131 2 11
2.079545 0.058813494 -0.25543827 56 4
2.1150823 0.059450131 -0.18511885 2 5
2.0983114 0.058244757 -0.11001017 53 6
2.1408699 0.058678266 -0.037382942 2 7
2.1429582 0.055367179 0.037417907 16 8
2.1523461 0.054857973 0.11283635 2 9
2.0430841 0.052073151 -0.39726439 59 2
2.1690176 0.054904092 0.1898251 1 10
2.1849058 0.054543156 0.26835623 3 11
2.0717998 0.051357824 -0.25446308 54 4
2.1232443 0.052262291 -0.18581611 2 5
2.102495 0.051017269 -0.1102195 53 6
2.1290669 0.050917447 -0.03717351 2 7
2.1405439 0.047081478 0.11220833 2 9
2.0412908 0.044898394 -0.39688277 56 2
2.1811473 0.047592681 0.19087096 2 10
2.0934091 0.045313708 -0.33164105 2 3
2.1751597 0.046702445 0.26713756 5 11
2.0759361 0.044209559 -0.25495082 52 4
2.1353655 0.045103364 -0.18686199 2 5
2.0986667 0.043594357 -0.11001016 53 6
2.1292315 0.043485753 -0.037173506 2 7
2.1532893 0.040593613 0.037592433 2 8
2.1526768 0.03983042 0.11283635 2 9
2.0375094 0.037699513 -0.39611956 53 2
2.169348 0.03976015 0.1898251 2 10
2.1054049 0.03822064 -0.33351827 2 3
2.0800469 0.037034031 -0.25543827 56 4
2.1195729 0.037367746 -0.18546747 1 5
2.1067936 0.03640686 -0.11042884 49 6
2.1413674 0.036256664 -0.037382945 2 7
2.1454201 0.03295356 0.037452817 4 8
2.1567912 0.032751724 0.11304571 2 9
2.0435174 0.030675873 -0.39726439 50 2
2.1575205 0.032009561 0.18877922 3 10
2.0976245 0.030754765 -0.33226678 2 3
2.1794028 0.031574376 0.26762506 41 11
2.0900884 0.029914586 -0.25665674 38 4
2.1356285 0.030193588 -0.18686199 2 5
2.1148963 0.029162139 -0.11084753 28 6
2.1574717 0.029372612 -0.037662178 2 7
2.1489038 0.025129955 0.11262701 2 9
2.0553911 0.023677625 -0.39955413 59 2
2.1396887 0.024275243 0.18721043 10 10
2.101666 0.023843866 -0.33289254 2 3
2.18942 0.024457304 0.26884371 47 11
2.1277516 0.022654273 -0.18616475 2 5
2.0990043 0.021981835 -0.11001016 40 6
2.1455634 0.02172045 -0.03745275 2 7
2.1076019 0.018025445 0.036789626 35 8
2.1449845 0.017595386 0.11241768 3 9
2.0495687 0.016812688 -0.39840925 56 2
2.0977855 0.016476948 -0.33226678 2 3
2.1617019 0.016600659 0.2654314 50 11
2.0882583 0.015673179 -0.25641298 3 4
2.147738 0.015744749 -0.18790783 2 5
2.1050599 0.014696077 -0.11032417 55 6
2.1496258 0.014256855 -0.037522562 2 7
2.1376469 0.010819689 0.037313197 44 8
2.1390409 0.010081126 0.11210366 5 9
2.0397987 0.009613405 -0.39650118 50 2
2.1517587 0.009764499 0.18825631 42 10
2.0899284 0.0091191726 -0.33101529 2 3
2.1696868 0.0090895575 0.26640636 60 11
2.0863159 0.0083751781 -0.25616929 4 4
2.1358259 0.0082011735 -0.18686196 2 5
2.1090927 0.0073623457 -0.11053351 52 6
2.1416636 0.006729519 -0.037382942 2 7
2.1396716 0.0033604139 0.037348103 50 8
2.0496356 0.0025045716 -0.39840922 39 2
2.1577568 0.0022590845 0.18877922 69 10
2.0978494 0.0018312423 -0.33226678 2 3
2.1816161 0.0015236225 0.26786879 58 11
2.1278718 0.00074336526 -0.18616474 2 5
2.1131003 -0 -0.11074286 55 6
2.1416738 -0.00074758538 -0.037382942 2 7
2.1276722 -0.0040848423 0.037138671 55 8
2.145797 -0.0052431822 0.18773335 56 10
2.1096954 -0.0055231811 -0.334144 2 3
2.1875634 -0.0061088451 0.26860002 56 11
2.1061735 -0.0062491614 -0.25860688 41 4
2.1318467 -0.0066974158 -0.18651336 2 5
2.1190791 -0.0073970109 -0.11105688 57 6
2.1456573 -0.0082387719 -0.03745275 2 7
2.1356437 -0.011555057 0.037278295 56 8
2.1510124 -0.012389078 0.11273169 62 9
2.1577203 -0.012804319 0.18877925 60 10
2.097811 -0.012814956 -0.33226678 2 3
2.1776032 -0.013682463 0.26738131 51 11
2.1180491 -0.013677956 -0.26006928 70 4
2.1158712 -0.014033196 -0.18511885 2 5
2.1110513 -0.014738157 -0.11063818 50 6
2.1456156 -0.015728466 -0.03745275 3 7
2.1435888 -0.01908097 0.037417911 56 8
2.1309841 -0.019712687 0.11168497 58 9
2.1616466 -0.020373641 0.18912785 58 10
2.1056547 -0.020213457 -0.33351827 3 3
2.1696026 -0.021206031 0.26640639 24 11
2.0882137 -0.020775022 -0.25641322 77 4
2.1197937 -0.021459213 -0.18546747 3 5
2.1109872 -0.022107011 -0.11063819 50 6
2.1615446 -0.023391075 -0.03773199 8 7
2.1475081 -0.026612932 0.037487723 56 8
2.1468792 -0.02735466 0.11252235 51 9
2.1675391 -0.027996268 0.18965077 56 10
2.1272986 -0.027847864 -0.33695981 7 3
2.0861442 -0.028037451 -0.25616929 62 4
2.1515813 -0.029292509 -0.18825649 9 5
2.1188858 -0.029587144 -0.11105689 50 6
2.1474023 -0.034108981 0.037487723 56 8
2.1487677 -0.034880918 0.11262701 40 9
2.1594598 -0.035431482 0.18895355 56 10
2.0880179 -0.035352886 -0.25641298 56 4
2.1187692 -0.036983252 -0.11105688 50 6
2.1453333 -0.03819602 -0.03745275 25 7
2.1432712 -0.041527115 0.037417907 55 8
2.1573312 -0.042929545 0.18877925 58 10
2.1191523 -0.042539831 -0.33570835 53 3
2.0918508 -0.04272227 -0.2569007 56 4
2.1274209 -0.043820176 -0.18616475 64 5
2.1266143 -0.044546217 -0.11147556 49 6
2.1431134 -0.049008287 0.037417911 56 8
2.182416 -0.050669264 0.11440644 2 9
2.1591599 -0.050506365 0.18895355 56 10
2.1071422 -0.049657561 -0.33383116 53 3
2.0976429 -0.05016632 -0.25763172 58 4
2.1212792 -0.05110205 -0.18564177 62 5
2.114466 -0.051676437 -0.11084753 52 6
2.169003 -0.05376688 -0.037871599 2 7
2.1509249 -0.056699615 0.037557527 53 8
2.1642668 -0.057429321 0.11346439 2 9
2.1669369 -0.058257114 0.18965077 56 10
2.095108 -0.05669196 -0.33195394 25 3
2.0915015 -0.057324987 -0.2569007 52 4
2.1250713 -0.058616254 -0.18599041 33 5
2.1102793 -0.058945443 -0.11063817 52 6
2.1768088 -0.061184008 -0.038011227 2 7
2.1507249 -0.063832037 0.037557527 55 8
2.164053 -0.064983666 0.11346438 2 9
2.1667204 -0.065820776 0.18965077 56 10
2.087332 -0.064138412 -0.25641298 54 4
2.1180575 -0.06619262 -0.11105686 47 6
2.1565952 -0.068150505 -0.037662178 2 7
2.1624811 -0.071736895 0.03776696 53 8
2.1757901 -0.072938725 0.11409242 2 9
2.162508 -0.07287132 0.18930218 56 10
2.095031 -0.071695723 -0.25738817 52 4
2.1385617 -0.073559128 -0.1872106 2 5
2.1218061 -0.073724322 -0.11126622 50 6
2.1603408 -0.075818293 -0.037731986 1 7
2.1522257 -0.078918532 0.037592437 46 8
2.1675386 -0.080237679 0.11367373 2 9
2.16224 -0.080419436 0.18930216 56 10
2.0947683 -0.079008333 -0.25738797 52 4
2.1422739 -0.08117453 -0.18755923 2 5
2.129519 -0.081435658 -0.11168491 53 6
2.1640592 -0.083513029 -0.037801791 1 7
2.1559334 -0.086591229 0.037662249 12 8
2.1712365 -0.087965004 0.11388307 2 9
2.1699088 -0.08829055 0.18999964 56 10
2.0984464 -0.086483434 -0.25787568 56 4
2.1379964 -0.0884872 -0.18721063 2 5
2.1252306 -0.088701978 -0.11147556 46 6
2.1677508 -0.091234684 -0.03787161 2 7
2.1556182 -0.094116315 0.037662249 14 8
2.1669257 -0.095367879 0.11367373 2 9
2.1775494 -0.096216224 0.19069666 54 10
2.0941653 -0.09363053 -0.25738817 51 4
2.1456354 -0.096306995 -0.18790783 1 5
2.1229129 -0.096029617 -0.11137088 30 6
2.167419 -0.09880098 -0.037871603 2 7
2.1552763 -0.10164026 0.037662249 44 8
2.1705697 -0.10312084 0.11388309 2 9
2.1811807 -0.10400651 0.19104527 41 10
2.0938258 -0.10093996 -0.25738817 52 4
2.169167 -0.10495151 -0.18999958 1 5
2.1510823 -0.10558183 -0.037592366 1 7
2.150914 -0.10896061 0.037592433 48 8
2.1821647 -0.11130738 0.11451112 2 9
2.176825 -0.11141593 0.19069667 18 10
2.1053555 -0.1088632 -0.25885037 47 4
2.1369524 -0.11087098 -0.1872106 1 5
2.1441305 -0.1119939 -0.11252227 13 6
2.1586885 -0.11350986 -0.037731986 2 7
2.1445303 -0.11614361 0.037487723 55 8
2.1737854 -0.11848904 0.11409242 2 9
2.1049623 -0.1162116 -0.2588506 31 4
2.148488 -0.1189907 -0.18825646 1 5
2.1582794 -0.12104442 -0.037731986 2 7
2.1600831 -0.12454959 0.037766963 52 8
2.1733584 -0.12607624 0.11409242 3 9
2.1361263 -0.1257869 -0.1872106 1 5
2.1492777 -0.12731418 -0.11283628 59 6
2.1698203 -0.12929112 -0.037941415 2 7
2.1596348 -0.13208894 0.03776696 52 8
2.1436279 -0.13373883 -0.18790783 2 5
2.1368601 -0.13406539 -0.11220825 66 6
2.1653645 -0.13661262 -0.037871603 2 7
2.1651473 -0.14001377 0.037871674 51 8
2.1511004 -0.14174469 -0.18860509 2 5
2.1363795 -0.14152363 -0.11220826 52 6
2.1568933 -0.14363883 -0.037731986 2 7
2.1666405 -0.14770672 0.03790658 52 8
2.1699524 -0.14831299 0.11398775 59 9
2.1426423 -0.14870079 -0.18790784 4 5
2.1398573 -0.14925811 -0.11241762 52 6
2.1803434 -0.15246443 -0.038150847 3 7
2.1621494 -0.15460549 0.037836771 52 8
2.1694217 -0.15588666 0.11398776 58 9
2.1493101 -0.15708119 -0.11294097 57 6
2.1399109 -0.15714523 -0.03745275 14 7
2.1615968 -0.16215187 0.037836771 52 8
2.1688645 -0.16345842 0.11398776 56 9
2.1328177 -0.16336249 -0.1121036 46 6
2.1689918 -0.17032246 0.037976392 52 8
2.1603158 -0.17039992 0.11356905 53 9
2.1489415 -0.17138986 -0.18860509 59 5
2.1302431 -0.17064692 -0.11199891 55 6
2.1666672 -0.17432591 -0.037941415 13 7
2.1683841 -0.17789261 0.037976392 52 8
2.1636891 -0.17826782 0.1137784 53 9
2.1503162 -0.17905539 -0.18877943 32 5
2.1316249 -0.17824826 -0.1121036 50 6
2.1757193 -0.18614243 0.038116004 55 8
2.1789732 -0.18718697 0.11461578 53 9
2.1449175 -0.18690155 -0.11283628 52 6
2.1653974 -0.18944772 -0.037941415 1 7
2.1710727 -0.19338116 0.038046196 55 8
2.1783066 -0.19479185 0.11461578 30 9
2.1442521 -0.19438753 -0.11283628 52 6
2.1448085 -0.19519283 -0.03759237 1 7
2.1664021 -0.20058972 0.037976388 53 8
2.1515143 -0.20262027 -0.11325496 52 6
2.1719854 -0.20531307 -0.038081035 2 7
