# .PCD v0.7 - Point Cloud Data file format
VERSION 0.7
FIELDS x y z intensity ring
SIZE 4 4 4 4 2
TYPE F F F F U
COUNT 1 1 1 1 1
WIDTH 568
HEIGHT 1
VIEWPOINT 0 0 0 1 0 0 0
POINTS 568
DATA ascii
2.4102736 -0.30705303 -0.29833603 2 4
2.3757257 -0.31108305 -0.29419273 20 4
2.3804719 -0.32058325 -0.29492369 30 4
2.4070029 -0.33143041 -0.38482878 1 3
2.3911948 -0.33010435 -0.29638615 36 4
2.3940952 -0.33817267 -0.38295156 4 3
2.3801999 -0.33705747 -0.29516768 30 4
2.3779984 -0.35284877 -0.38076147 48 3
2.3876066 -0.35512629 -0.29638642 1 4
2.3806581 -0.36174086 -0.3813872 69 3
2.3785028 -0.36226285 -0.2954112 1 4
2.3618133 -0.36731663 -0.37857136 67 3
2.3968372 -0.37362051 -0.29784882 1 4
2.3644187 -0.37617937 -0.37919715 73 3
2.3798363 -0.37948418 -0.29589865 2 4
2.4849246 -0.39668602 -0.22015549 1 5
2.3630915 -0.38443047 -0.37919715 58 3
2.3667417 -0.38587239 -0.29443622 2 4
2.436332 -0.3976548 -0.21597202 21 5
2.3656321 -0.39332482 -0.37982288 66 3
2.3810453 -0.39674169 -0.29638642 1 4
2.3818674 -0.39730594 -0.21126561 29 5
2.3545072 -0.39992601 -0.37825853 60 3
2.3913872 -0.40704924 -0.29784858 2 4
2.407963 -0.41030315 -0.21370596 37 5
2.353097 -0.40814236 -0.37825853 60 3
2.4095097 -0.41879353 -0.30028597 2 4
2.4202564 -0.42109665 -0.21492612 63 5
2.3594382 -0.41773126 -0.37950999 63 3
2.37676 -0.42165375 -0.29638642 2 4
2.40504 -0.42710373 -0.21370596 49 5
2.3397791 -0.4218359 -0.46213949 1 2
2.3579659 -0.42596471 -0.37951002 63 3
2.3791804 -0.4306547 -0.2968736 2 4
2.4113762 -0.43691719 -0.21440318 52 5
2.3267069 -0.42787027 -0.45984977 10 2
2.3661783 -0.43598273 -0.38107437 66 3
2.389375 -0.44111934 -0.2983363 2 4
2.4019997 -0.44388351 -0.21370596 52 5
2.3510518 -0.44168642 -0.37888426 63 3
2.376116 -0.44725391 -0.2968736 2 4
2.3965199 -0.45152763 -0.21335733 52 5
2.3591967 -0.45174798 -0.38044861 66 3
2.3979342 -0.46003348 -0.29979873 17 4
2.3968854 -0.46026605 -0.21353163 50 5
2.4829953 -0.47770008 -0.13251461 1 6
2.3278799 -0.45333734 -0.4609946 60 2
2.3557467 -0.45919102 -0.38013574 60 3
2.392499 -0.46722186 -0.29931125 30 4
2.3991752 -0.46939501 -0.21388027 50 5
2.4323967 -0.47633561 -0.1298978 16 6
2.3128836 -0.45838276 -0.45832333 65 2
2.3541296 -0.46741128 -0.38013574 63 3
2.3635967 -0.47014865 -0.29589865 3 4
2.4015133 -0.47812644 -0.21422888 50 5
2.3054955 -0.46528825 -0.45717841 63 2
2.3621643 -0.47758305 -0.38170007 66 3
2.4008527 -0.48627755 -0.30077341 2 4
2.3959248 -0.48571473 -0.21388029 50 5
2.4583714 -0.49926776 -0.13146788 66 6
2.3077037 -0.47412327 -0.45794162 61 2
2.3450046 -0.48264003 -0.37919715 58 3
2.3835871 -0.49144822 -0.29882351 2 4
2.3961656 -0.49447772 -0.21405457 52 5
2.4233637 -0.50097233 -0.12968846 34 6
2.3098783 -0.48297951 -0.45870495 63 2
2.3452387 -0.4912276 -0.37950999 63 3
2.3935137 -0.50221127 -0.30028623 2 4
2.4002745 -0.5040673 -0.21457751 37 5
2.306258 -0.49063095 -0.45832333 55 2
2.3454418 -0.49982274 -0.37982288 58 3
2.3878634 -0.50973445 -0.29979846 2 4
2.4530087 -0.524984 -0.13146789 2 6
2.3102877 -0.49992397 -0.45946819 24 2
2.3552659 -0.51051748 -0.38170007 40 3
2.3705504 -0.51469696 -0.29784858 2 4
2.437583 -0.52969658 -0.21823806 2 5
2.4511611 -0.53354335 -0.13146789 2 6
2.3881238 -0.52724814 -0.30028597 2 4
2.4026463 -0.53089434 -0.21527475 2 5
2.4414837 -0.54036981 -0.1310492 2 6
2.3164022 -0.51777726 -0.5479809 3 1
2.3201528 -0.51904082 -0.46213949 1 2
2.3458619 -0.52565205 -0.38076147 2 3
2.3862686 -0.53558111 -0.30028597 1 4
2.4163299 -0.5427711 -0.21666925 4 5
2.4298396 -0.54669678 -0.13052583 11 6
2.4950376 -0.56228095 -0.044643123 1 7
2.2917774 -0.520679 -0.54258186 25 1
2.3183267 -0.52713645 -0.46213949 2 2
2.3574951 -0.53690797 -0.38295156 2 3
2.3843844 -0.54390746 -0.30028597 2 4
2.3716874 -0.54144663 -0.2128344 23 5
2.4201286 -0.55339438 -0.13010713 33 6
2.4521258 -0.56161177 -0.043910116 16 7
2.3202982 -0.53610957 -0.46290272 2 2
2.351758 -0.54424322 -0.38232586 3 3
2.3786035 -0.55133069 -0.29979846 2 4
2.3911328 -0.55467451 -0.21475185 33 5
2.4201276 -0.56229091 -0.13021183 36 6
2.3032649 -0.5402258 -0.54618114 68 1
2.3184128 -0.54420567 -0.46290272 2 2
2.3650713 -0.55690038 -0.29833603 2 4
2.4085746 -0.56758767 -0.21649495 41 5
2.4453635 -0.57715827 -0.13167721 66 6
2.4638159 -0.58196735 -0.044189364 61 7
2.2919817 -0.54560435 -0.5439316 67 1
2.322228 -0.55366111 -0.46404755 3 2
2.3863802 -0.5702768 -0.30126089 2 4
2.4123914 -0.5773831 -0.21701787 72 5
2.4201291 -0.57968146 -0.13042118 69 6
2.4617689 -0.59056401 -0.044189356 57 7
2.2976401 -0.55543315 -0.54573119 76 1
2.3421888 -0.56750065 -0.38170007 67 3
2.3766587 -0.57673085 -0.30028597 2 4
2.3814218 -0.57832676 -0.21440318 55 5
2.421972 -0.58906978 -0.13063051 50 6
2.2881167 -0.56159198 -0.54393184 60 1
2.3536212 -0.57897598 -0.38389021 69 3
2.3823409 -0.58692282 -0.30126089 4 4
2.389061 -0.58902079 -0.21527475 48 5
2.406328 -0.59416902 -0.1298978 47 6
2.2823603 -0.5686332 -0.54303169 60 1
2.3144989 -0.5770694 -0.46366593 45 2
2.3439193 -0.58527386 -0.38263863 60 3
2.3927886 -0.59880769 -0.21579768 61 5
2.4061766 -0.60305053 -0.13000248 43 6
2.4651475 -0.61874485 -0.044363882 1 7
2.2898083 -0.57898539 -0.54528129 58 1
2.3086641 -0.58418179 -0.46290275 56 2
2.3476069 -0.59490788 -0.38357729 66 3
2.3512478 -0.59670401 -0.29784882 25 4
2.3887532 -0.60666597 -0.21562341 54 5
2.4117994 -0.61341524 -0.13042116 50 6
2.4513457 -0.62438458 -0.044154454 1 7
2.2877734 -0.58697474 -0.54528129 58 1
2.3009059 -0.59077221 -0.46175787 62 2
2.3493421 -0.60408276 -0.38420302 66 3
2.3808327 -0.613509 -0.21510047 46 5
2.4193127 -0.62432551 -0.13094452 41 6
2.472384 -0.63894165 -0.044573303 1 7
2.4868598 -0.64685148 0.044852629 11 8
2.2875962 -0.59544778 -0.54573143 54 1
2.3026297 -0.5997901 -0.46252114 59 2
2.3433969 -0.61128271 -0.38357732 68 3
2.3739135 -0.62012833 -0.30126116 2 4
2.3786767 -0.62181598 -0.21510047 44 5
2.4325759 -0.63681304 -0.13178189 9 6
2.4507954 -0.642497 -0.044224262 1 7
2.2779675 -0.6014396 -0.5439316 45 1
2.304318 -0.60882699 -0.46328431 59 2
2.3374293 -0.61844844 -0.38295159 54 3
2.3832481 -0.6314615 -0.30272335 1 4
2.3841949 -0.63215774 -0.21579768 49 5
2.4678633 -0.65618646 -0.044573307 1 7
2.3011317 -0.61529523 -0.63824779 1 0
2.4784203 -0.66316366 0.044782825 49 8
2.3078678 -0.61839134 -0.46442917 53 2
2.3428879 -0.6286515 -0.38420305 56 3
2.3695269 -0.63668603 -0.30126089 1 4
2.393518 -0.64358038 -0.21684356 43 5
2.4261425 -0.65326083 -0.13167723 1 6
2.4578352 -0.66271466 -0.044433694 1 7
2.2877829 -0.62029088 -0.63514197 16 0
2.4664404 -0.66919255 0.044608295 51 8
2.3019056 -0.62541395 -0.4636659 53 2
2.3444912 -0.6378631 -0.38482878 21 3
2.355798 -0.64182258 -0.29979846 1 4
2.3854899 -0.65035915 -0.21632062 10 5
2.4161401 -0.65962154 -0.13125853 2 6
2.4593647 -0.67234462 -0.044503506 1 7
2.2707016 -0.6241765 -0.63100088 37 0
2.477586 -0.68151051 0.044852629 52 8
2.2903326 -0.63043267 -0.54843086 1 1
2.2940309 -0.63188142 -0.46252114 47 2
2.380332 -0.65744084 -0.30321079 2 4
2.4120111 -0.66664362 -0.2189353 2 5
2.4330721 -0.67337877 -0.13230526 2 6
2.4647107 -0.68306142 -0.044643119 1 7
2.2666478 -0.63158035 -0.63048315 60 0
2.4674869 -0.68800634 0.044713002 52 8
2.3068886 -0.64366084 -0.55292988 1 1
2.3012655 -0.6425249 -0.46442917 29 2
2.3666151 -0.66166139 -0.38920897 2 3
2.3665531 -0.66253471 -0.30174839 1 4
2.4077511 -0.67452168 -0.218761 21 5
2.4268606 -0.68078882 -0.1320959 2 6
2.4738624 -0.69490546 -0.044852547 2 7
2.2681482 -0.64053881 -0.63151854 83 0
2.4612219 -0.69552773 0.044643197 54 8
2.2933764 -0.64852774 -0.55023044 1 1
2.364291 -0.66991848 -0.38920897 2 3
2.3833227 -0.67620981 -0.30418605 1 4
2.3919656 -0.67911297 -0.21754082 37 5
2.4340751 -0.6919868 -0.13261926 19 6
2.4791148 -0.7057265 -0.044992164 2 7
2.2603264 -0.6468575 -0.6299656 61 0
2.4626236 -0.70521581 0.044713002 56 8
2.3060856 -0.66082388 -0.55382943 1 1
2.5900595 -0.74219847 0.14120246 1 9
2.3155961 -0.6639865 -0.46824539 2 2
2.3581407 -0.67707694 -0.38858324 2 3
2.3809478 -0.68452501 -0.30418605 1 4
2.3972397 -0.6896618 -0.21823807 41 5
2.4498606 -0.70618969 -0.044503499 2 7
2.2654762 -0.65689552 -0.63203615 65 0
2.4756362 -0.71783334 0.044992246 54 8
2.3038812 -0.66846746 -0.55382967 1 1
2.5260751 -0.73341459 0.13785295 1 9
2.3057227 -0.66987437 -0.46671885 2 2
2.3558824 -0.68489301 -0.38858324 2 3
2.3634171 -0.68797827 -0.30223587 2 4
2.4082069 -0.70192832 -0.21945825 70 5
2.4408131 -0.71189445 -0.13324732 65 6
2.4339442 -0.71081287 -0.044259168 12 7
2.2558711 -0.66222799 -0.62996554 65 0
2.4807901 -0.72872508 0.045131866 51 8
2.3015339 -0.67650533 -0.55382967 1 1
2.3034887 -0.6775167 -0.46671891 5 2
2.3572674 -0.69422859 -0.38920897 4 3
2.3800416 -0.70183873 -0.30467325 2 4
2.382812 -0.70355976 -0.2173665 66 5
2.4191592 -0.71475077 -0.1322006 65 6
2.2534287 -0.67049187 -0.6299656 65 0
2.4628978 -0.73281789 0.044852626 52 8
2.2842169 -0.68008649 -0.55023021 1 1
2.3813813 -0.7112785 -0.30516073 2 4
2.374615 -0.71016055 -0.21684356 49 5
2.416523 -0.72361273 -0.13220058 47 6
2.4519093 -0.73467529 -0.044678029 11 7
2.260323 -0.68114066 -0.63255382 62 0
2.4678538 -0.74414909 0.044992246 51 8
2.2891717 -0.69070566 -0.55202985 2 1
2.5047395 -0.75622541 0.13712025 42 9
2.3023405 -0.69511753 -0.46748212 42 2
2.3692584 -0.71712643 -0.30394202 22 4
2.3835628 -0.7219103 -0.21788944 51 5
2.4120712 -0.73146397 -0.13209592 50 6
2.2616272 -0.69015402 -0.63358909 62 0
2.4728913 -0.75509489 0.045131866 49 8
2.3091106 -0.7055254 -0.5574289 1 1
2.4887152 -0.76087648 0.13638757 18 9
2.3036554 -0.70429802 -0.46824539 48 2
2.3440759 -0.71755087 -0.38827032 63 3
2.3810287 -0.73022616 -0.21788946 49 5
2.4056847 -0.73870659 -0.13188659 45 6
2.4867287 -0.76454258 -0.045411028 1 7
2.2592041 -0.69804448 -0.63358909 62 0
2.4721508 -0.76431298 0.045166768 39 8
2.288017 -0.70782202 -0.55292988 2 1
2.2899299 -0.70885164 -0.46595567 43 2
2.3566515 -0.73040706 -0.39077327 66 3
2.3698823 -0.73541445 -0.30467328 69 4
2.3860757 -0.74089622 -0.21858667 49 5
2.4030914 -0.74709952 -0.13188659 42 6
2.453495 -0.76370883 -0.044852547 1 7
2.2493787 -0.70361924 -0.63151848 62 0
2.477102 -0.77532715 0.045306396 7 8
2.30041 -0.72046387 -0.55652887 2 1
2.5062127 -0.78539932 0.13764362 2 9
2.2874415 -0.71684057 -0.46595567 53 2
2.3446641 -0.73567206 -0.38920897 54 3
2.3559375 -0.74011272 -0.30321079 41 4
2.3739719 -0.74623346 -0.21771514 54 5
2.413805 -0.75968051 -0.13261928 11 6
2.4508142 -0.77226841 -0.044852547 1 7
2.2469089 -0.71146667 -0.63151848 62 0
2.4743805 -0.78396916 0.045306396 2 8
2.3108842 -0.73261172 -0.55967814 4 1
2.5150177 -0.7973274 0.13827166 2 9
2.2886682 -0.7260083 -0.46671891 53 2
2.3345509 -0.74146008 -0.38795745 56 3
2.3515778 -0.74731994 -0.30296734 7 4
2.3789468 -0.75693184 -0.21841237 54 5
2.4634819 -0.78524989 -0.045131784 1 7
2.2518964 -0.72127116 -0.63358909 62 0
2.4850969 -0.79644215 0.045550723 2 8
2.2881174 -0.73419362 -0.46710053 50 2
2.3320794 -0.74919778 -0.38795751 58 3
2.37832 -0.76542705 -0.21858667 51 5
2.4142811 -0.77793056 -0.1329333 1 6
2.4532514 -0.79096031 -0.044992164 1 7
2.2605188 -0.73230672 -0.63669479 60 0
2.2726083 -0.73709983 -0.55157989 25 1
2.2968743 -0.74541342 -0.46939021 50 2
2.5601213 -0.8313399 0.23549467 2 10
2.3258245 -0.75570619 -0.38733172 30 3
2.3558755 -0.76637971 -0.30418605 1 4
2.3813169 -0.77557522 -0.21910959 54 5
2.4192839 -0.78840762 -0.13335198 1 6
2.4656839 -0.80448103 -0.0452714 1 7
2.2578199 -0.740587 -0.63669485 60 0
2.4858007 -0.81632829 0.13712025 42 9
2.2848012 -0.75076258 -0.46748212 53 2
2.3682704 -0.77956378 -0.30613565 1 4
2.3937335 -0.78887182 -0.22050411 39 5
2.4012043 -0.79226303 -0.13251461 1 6
2.4704564 -0.81559062 -0.045411024 1 7
2.251554 -0.74724686 -0.63565958 62 0
2.4728248 -0.82116145 0.045480914 49 8
2.3024127 -0.76501828 -0.56012803 1 1
2.4922686 -0.82858437 0.13764362 48 9
2.2765777 -0.7568754 -0.46633729 50 2
2.36534 -0.78730243 -0.39484057 2 3
2.3616312 -0.78698379 -0.30564821 1 4
2.3775959 -0.79322606 -0.21928391 20 5
2.4249473 -0.8094939 -0.13398002 2 6
2.4484849 -0.81830126 -0.045061976 1 7
2.2451375 -0.75426382 -0.6346243 60 0
2.4661522 -0.8285147 0.045411106 54 8
2.307117 -0.77553433 -0.56192791 1 1
2.4950402 -0.83918905 0.13795762 51 9
2.2849526 -0.76897162 -0.46862698 47 2
2.5226529 -0.84945661 0.23288003 43 10
2.3399749 -0.78839785 -0.39108616 1 3
2.3776798 -0.8015638 -0.30808586 1 4
2.3918028 -0.80725485 -0.22085273 70 5
2.4295325 -0.82093364 -0.1343987 2 6
2.4494021 -0.82812405 -0.045131784 2 7
2.2534657 -0.76582587 -0.63773018 58 0
2.4630992 -0.83754808 0.04541111 54 8
2.2858105 -0.77770817 -0.55742866 1 1
2.4958775 -0.84917986 0.13816698 49 9
2.2878299 -0.77884078 -0.46977186 43 2
2.5291018 -0.86146909 0.23375157 47 10
2.3521667 -0.80165911 -0.39358911 2 3
2.3598368 -0.8047331 -0.30613565 1 4
2.375772 -0.81109291 -0.21963257 61 5
2.4096432 -0.82359582 -0.13345666 3 6
2.4616337 -0.84184545 -0.045411028 3 7
2.2472596 -0.772039 -0.63669485 58 0
2.4678726 -0.84831148 0.045550726 54 8
2.2795331 -0.78401631 -0.5565291 1 1
2.4892702 -0.85615259 0.13795762 46 9
2.3000858 -0.79153389 -0.47282475 30 2
2.5205796 -0.86790514 0.23322862 49 10
2.3494954 -0.8094548 -0.39358911 2 3
2.3458953 -0.80867261 -0.30467325 1 4
2.3824856 -0.82221663 -0.22050409 54 5
2.4493783 -0.84673727 -0.045236502 22 7
2.2519867 -0.78202188 -0.63876539 58 0
2.4650457 -0.85649067 0.045550723 56 8
2.2990088 -0.79925013 -0.56192791 1 1
2.4826446 -0.86309105 0.1377483 46 9
2.5252144 -0.87887847 0.23392618 48 10
2.357991 -0.82113928 -0.3954663 2 3
2.3619461 -0.82297891 -0.30711064 2 4
2.3835087 -0.83142513 -0.22085273 54 5
2.4229836 -0.84614378 -0.13450338 40 6
2.4446692 -0.85419542 -0.045201588 45 7
2.2475581 -0.78884566 -0.63824779 55 0
2.465965 -0.86598539 0.045620531 55 8
2.2963459 -0.80686951 -0.56192768 1 1
2.4910746 -0.87529141 0.13837631 47 9
2.2503343 -0.7911436 -0.4636659 16 2
2.520407 -0.88658637 0.23375158 36 10
2.3515284 -0.82764244 -0.39484057 2 3
2.3741832 -0.83608186 -0.30906054 3 4
2.3732224 -0.83667475 -0.22015549 56 5
2.4126306 -0.85151494 -0.13408467 52 6
2.4644501 -0.87028784 -0.045620449 60 7
2.2481537 -0.79876328 -0.63928306 40 0
2.4626219 -0.87544751 0.045620531 49 8
2.2969029 -0.81698704 -0.56282747 1 1
2.4876955 -0.8848502 0.13837631 37 9
2.2620769 -0.80504453 -0.46671885 26 2
2.3371682 -0.83268774 -0.39296335 2 3
2.3764169 -0.84760636 -0.30979174 29 4
2.3681157 -0.84511149 -0.21998116 51 5
2.4225094 -0.86547643 -0.13481739 57 6
2.4479094 -0.87503266 -0.045376118 13 7
2.4597054 -0.883609 0.045620531 51 8
2.2868454 -0.82196271 -0.56102812 1 1
2.2888103 -0.82357097 -0.47282481 47 2
2.3566976 -0.84846324 -0.39671785 22 3
2.3820181 -0.85945839 -0.22154996 54 5
2.40084 -0.86672312 -0.13377067 42 6
2.4603653 -0.89355493 0.045690343 47 8
2.2912884 -0.8326025 -0.56282771 1 1
2.2934468 -0.83383983 -0.47435126 54 2
2.3556714 -0.8583256 -0.30784187 63 4
2.3790038 -0.86776793 -0.22154996 56 5
2.3940475 -0.87372869 -0.13356133 38 6
2.4774282 -0.90513933 -0.046039313 1 7
2.4684944 -0.90627301 0.045899775 30 8
2.2810514 -0.83790779 -0.56102812 2 1
2.483917 -0.91291922 0.13869034 2 9
2.2830045 -0.83952975 -0.47282475 57 2
2.339443 -0.861211 -0.39484057 46 3
2.3507979 -0.86585695 -0.30759811 74 4
2.3815687 -0.87813491 -0.22207293 51 5
2.4442394 -0.90269685 -0.045480832 1 7
2.2998862 -0.8544063 -0.56642669 5 1
2.491787 -0.92619234 0.13931838 2 9
2.2690189 -0.84338987 -0.47053507 44 2
2.3456793 -0.87281638 -0.39640492 57 3
2.3457482 -0.87377441 -0.30735463 47 4
2.3691537 -0.8829636 -0.22120135 54 5
2.4633944 -0.92004544 -0.045899693 1 7
2.4750512 -0.92883182 0.046144102 7 8
2.48106 -0.9320749 0.13889968 14 9
2.2770879 -0.85544747 -0.47282475 48 2
2.3444674 -0.88169438 -0.39671779 59 3
2.3464 -0.88335609 -0.30784187 34 4
2.364193 -0.89052588 -0.22102705 51 5
2.4182484 -0.91185117 -0.1354454 1 6
2.4751346 -0.9342882 -0.04617893 1 7
2.28143 -0.86617821 -0.47435126 46 2
2.319217 -0.88145113 -0.39296335 21 3
2.3340251 -0.88801163 -0.30662313 5 4
2.3741043 -0.90373474 -0.22224723 54 5
2.4187837 -0.92170924 -0.13565476 1 6
2.4645486 -0.93964124 -0.046039309 1 7
2.4686716 -0.94565731 0.046144102 46 8
2.2709498 -0.87037194 -0.56147778 51 1
2.4877124 -0.95394719 0.13963239 38 9
2.2783926 -0.87413669 -0.47435126 50 2
2.3570096 -0.90571541 -0.3100355 2 4
2.376514 -0.91416228 -0.22277015 48 5
2.415714 -0.92972517 -0.13565478 1 6
2.4873774 -0.95830315 -0.046527971 1 7
2.4672208 -0.95499074 0.046179011 53 8
2.4825048 -0.96190333 0.13952771 40 9
2.2718201 -0.88026869 -0.47358802 48 2
2.3352642 -0.90578908 -0.39671779 1 3
2.3612356 -0.91681129 -0.31101042 1 4
2.3825934 -0.92606133 -0.22364172 22 5
2.4161766 -0.93959963 -0.13586409 1 6
2.4653826 -0.95972562 -0.046178926 1 7
2.4713213 -0.96651059 0.046318632 60 8
2.4902909 -0.97493172 0.14015575 45 9
2.2722344 -0.89002144 -0.47435126 48 2
2.3503191 -0.92155319 -0.39984649 1 3
2.3543251 -0.92359799 -0.31052297 1 4
2.3830559 -0.93582904 -0.22399035 36 5
2.4127169 -0.94844902 -0.13586411 2 6
2.4396863 -0.95954263 -0.045760069 2 7
2.4640429 -0.97409147 0.046248816 60 8
2.4924443 -0.98582226 0.14046976 43 9
2.2691138 -0.89794761 -0.47435126 47 2
2.3397417 -0.92684162 -0.39859498 1 3
2.3656867 -0.93807459 -0.31247288 1 4
2.3760703 -0.94267219 -0.22364172 58 5
2.4316661 -0.96571147 -0.13712017 2 6
2.4474723 -0.97248328 -0.045969497 9 7
2.4645135 -0.98373991 0.046318628 58 8
2.4889879 -0.99451649 0.14046976 25 9
2.2696118 -0.90732038 -0.47511455 49 2
2.3476601 -0.93899709 -0.40047222 2 3
2.3699343 -0.94886589 -0.31344783 2 4
2.374615 -0.9517017 -0.22381604 58 5
2.4006438 -0.96261996 -0.13555011 3 6
2.4477744 -0.98251051 -0.046039309 40 7
2.4647741 -0.99383223 0.04638844 60 8
2.277514 -0.91925067 -0.47740424 49 2
2.3443685 -0.94718623 -0.40047225 1 3
2.3518856 -0.95117861 -0.31149793 2 4
2.3731251 -0.96073264 -0.22399034 56 5
2.4628615 -0.99856234 -0.046388354 52 7
2.4649935 -1.0039383 0.046458244 58 8
2.2668574 -0.92462587 -0.4758777 49 2
2.3408806 -0.95577246 -0.40047222 1 3
2.3540635 -0.96163416 -0.31222939 10 4
2.3771336 -0.97202665 -0.22468758 54 5
2.427902 -0.99427032 -0.045794975 47 7
2.4686942 -1.0160105 0.046597861 60 8
2.2672467 -0.93402886 -0.47664097 45 2
2.3521399 -0.96996236 -0.40297517 2 3
2.3682017 -0.97803706 -0.22416465 51 5
2.4124081 -0.9972797 -0.13680615 49 6
2.4244161 -1.0027391 -0.045794971 36 7
2.4579251 -1.0211227 0.046458248 61 8
2.2766607 -0.94721633 -0.47931224 23 2
2.3306732 -0.97016567 -0.39984649 2 3
2.3417964 -0.97575486 -0.31149796 47 4
2.3629344 -0.98553067 -0.22399034 54 5
2.3980289 -1.0006593 -0.13617814 41 6
2.4506576 -1.028149 0.04638844 58 8
2.3345566 -0.98135716 -0.40109795 2 3
2.3585024 -0.99239194 -0.31417903 64 4
2.3686609 -0.99763978 -0.22486192 51 5
2.3834782 -1.0043703 -0.13555011 9 6
2.4818442 -1.0468408 -0.047016639 1 7
2.4581015 -1.0413774 0.046597864 63 8
2.3418536 -0.99454027 -0.40297517 18 3
2.3367538 -0.99285579 -0.31174165 47 4
2.3761649 -1.0105804 -0.22590779 58 5
2.4781747 -1.0554979 -0.047016636 1 7
2.4579451 -1.0519536 0.046667676 60 8
2.3202126 -0.99492371 -0.39984649 39 3
2.3369222 -1.0025719 -0.31222939 52 4
2.3726225 -1.0188686 -0.22590777 49 5
2.4331126 -1.0458509 -0.13879493 1 6
2.4597793 -1.0578218 -0.046737403 1 7
2.4617863 -1.0632701 0.046807297 60 8
2.3404689 -1.0128113 -0.40391383 48 3
2.3499804 -1.0174145 -0.31442308 56 4
2.3619184 -1.023562 -0.22521052 49 5
2.4076436 -1.0443759 -0.13753887 1 6
2.4599268 -1.0675651 -0.046807215 1 7
2.4582467 -1.0714278 0.046807297 61 8
2.331666 -1.0181954 -0.40297517 48 3
2.3409576 -1.0232257 -0.31369156 47 4
2.3619816 -1.0333974 -0.22555913 49 5
2.4332552 -1.0655929 -0.13921359 1 6
2.4671748 -1.0809603 -0.047016639 1 7
2.4543033 -1.0804305 0.046807297 58 8
2.3279188 -1.0267345 -0.40297517 43 3
2.3426399 -1.0342042 -0.31442308 24 4
2.3636456 -1.0444636 -0.22608209 25 5
2.4293334 -1.0745039 -0.13921359 1 6
2.4668534 -1.091614 -0.047086444 1 7
2.4576356 -1.0926684 0.046946917 52 8
2.3205309 -1.0336523 -0.40234944 7 3
2.4180846 -1.0801425 -0.13879493 1 6
2.4664876 -1.1022801 -0.047156259 2 7
2.4609115 -1.1049451 0.047086533 31 8
2.316895 -1.0431986 -0.3119857 1 4
2.3777232 -1.0715854 -0.22817384 3 5
2.4213917 -1.0922828 -0.13921361 1 6
2.4350908 -1.0989739 -0.046632688 11 7
2.3390965 -1.0615535 -0.31539774 2 4
2.3600211 -1.0720435 -0.22677933 27 5
2.4292419 -1.1039983 -0.13984163 2 6
2.3498149 -1.0763253 -0.31734794 2 4
2.4179182 -1.1095626 -0.13942295 2 6
2.4388471 -1.1196823 -0.046842117 66 7
2.3404491 -1.0824308 -0.31661642 10 4
2.3687532 -1.096023 -0.22834814 45 5
2.3977194 -1.110442 -0.1384809 10 6
2.4331093 -1.1273478 -0.046807211 58 7
2.3422437 -1.0927038 -0.31734794 38 4
2.3757443 -1.1093426 -0.22939397 55 5
2.3940239 -1.1183871 -0.1384809 30 6
2.4364052 -1.1392221 -0.046946827 51 7
2.3527832 -1.1076374 -0.31929755 40 4
2.377265 -1.1201766 -0.22991693 54 5
2.4135909 -1.1378083 -0.13984165 36 6
2.4251797 -1.1443064 -0.046807211 52 7
2.3399374 -1.1115844 -0.31807885 20 4
2.3643434 -1.1241903 -0.22904538 49 5
2.4166179 -1.1500798 -0.14026031 5 6
2.4247816 -1.154484 -0.046877019 52 7
2.360405 -1.1324366 -0.22904538 51 5
2.430593 -1.1671543 -0.14130703 1 6
2.4333544 -1.1690028 -0.047121353 53 7
2.3618174 -1.1432732 -0.2295683 56 5
2.4267092 -1.175208 -0.14130703 1 6
2.4310586 -1.1783619 -0.047156259 52 7
2.3685541 -1.1567566 -0.23061417 56 5
2.4118254 -1.1784106 -0.140679 1 6
2.4305232 -1.1885976 -0.047226064 52 7
2.3591399 -1.1623756 -0.23009123 51 5
2.3895774 -1.1784092 -0.1396323 1 6
2.424566 -1.1961898 -0.047191162 47 7
2.3586369 -1.1723772 -0.23043989 49 5
2.4176369 -1.202756 -0.14151639 1 6
2.4185855 -1.2037547 -0.047156256 32 7
2.3547361 -1.1801922 -0.23043987 49 5
2.427917 -1.2179309 -0.14235377 1 6
2.3559361 -1.1911012 -0.23096278 25 5
2.391784 -1.2097493 -0.14046967 1 6
2.4015656 -1.2257714 -0.14130704 1 6
2.4079266 -1.239632 -0.14193507 2 6
2.4073479 -1.2494503 -0.14214441 2 6
2.4047413 -1.2587721 -0.14224908 11 6
2.3833327 -1.2693754 -0.14151639 45 6
2.391428 -1.2838851 -0.14224908 27 6
