# .PCD v0.7 - Point Cloud Data file format
VERSION 0.7
FIELDS x y z intensity ring
SIZE 4 4 4 4 2
TYPE F F F F U
COUNT 1 1 1 1 1
WIDTH 816
HEIGHT 1
VIEWPOINT 0 0 0 1 0 0 0
POINTS 816
DATA ascii
2.2932231 0.40724701 -0.20377021 4 5
2.2921503 0.390158 -0.20342156 37 5
2.2620535 0.37691551 -0.20063257 33 5
2.3077676 0.37749809 -0.28712407 1 4
2.2816291 0.36504889 -0.283712 7 4
2.3019488 0.367477 -0.2039445 1 5
2.2954059 0.35781053 -0.20324726 1 5
2.2920933 0.34951201 -0.28468668 36 4
2.2927625 0.34879404 -0.20289865 1 5
2.2678335 0.33731255 -0.28151807 51 4
2.2861426 0.33921915 -0.20220141 1 5
2.2365279 0.33105952 -0.11848858 4 6
2.2590597 0.32875627 -0.28029963 48 4
2.2910819 0.33300811 -0.20255001 1 5
2.1959918 0.31840408 -0.11629046 17 6
2.2463803 0.31930703 -0.27859348 37 4
2.2961755 0.32556748 -0.20289864 1 5
2.2128556 0.31335989 -0.11712783 30 6
2.2435486 0.31091926 -0.27810574 38 4
2.3051372 0.31904438 -0.20359591 1 5
2.2238286 0.30699977 -0.11765119 32 6
2.2406859 0.30255404 -0.27761826 37 4
2.2667465 0.30567017 -0.20010966 1 5
2.2130101 0.29763734 -0.11702316 38 6
2.2952828 0.30258733 -0.36668241 1 3
2.2338555 0.29369721 -0.27664331 39 4
2.2361927 0.2936064 -0.19732068 2 5
2.2199764 0.29069012 -0.11733718 44 6
2.2805994 0.29296118 -0.36417943 7 3
2.2348173 0.28628731 -0.27664331 39 4
2.2174406 0.28327352 -0.19557756 2 5
2.1931915 0.27978778 -0.11587179 42 6
2.2239838 0.27701181 -0.27518088 39 4
2.2223701 0.27602416 -0.19592617 9 5
2.1882086 0.27139235 -0.11555775 40 6
2.2366178 0.27660474 -0.039337605 1 7
2.2571437 0.27354455 -0.3601121 32 3
2.2170548 0.26829246 -0.27420592 40 4
2.2094734 0.26659364 -0.19470598 29 5
2.1891885 0.26337084 -0.11555775 40 6
2.1819782 0.26211712 -0.038360275 8 7
2.2757416 0.26774177 -0.36292797 49 3
2.2140799 0.25970268 -0.27371842 41 4
2.226222 0.26073307 -0.1961005 37 5
2.1900945 0.25572693 -0.11555775 40 6
2.182924 0.25411847 -0.038360272 40 7
2.2570357 0.25755608 -0.35979927 39 3
2.2189178 0.25242177 -0.27420592 39 4
2.2112808 0.25116214 -0.19470598 33 5
2.1870046 0.24763158 -0.11534841 40 6
2.19572 0.24784219 -0.038569696 62 7
2.2441773 0.24815564 -0.35760918 38 3
2.2158387 0.24424024 -0.27371842 40 4
2.1719728 0.23825419 -0.11451104 38 6
2.1786399 0.23859969 -0.038255557 35 7
2.235167 0.23965976 -0.3560448 18 3
2.2008455 0.2352027 -0.27176875 41 4
2.2109995 0.23550732 -0.19453168 1 5
2.1727509 0.23104975 -0.11451104 21 6
2.1977041 0.22711022 -0.27128103 41 4
2.2355907 0.23023787 -0.19662341 1 5
2.1504133 0.22032787 -0.037731986 1 7
2.258182 0.22659077 -0.44115049 1 2
2.2879298 0.2287702 -0.36417943 1 3
2.1984835 0.21943788 -0.27128103 39 4
2.2086246 0.21967155 -0.19418307 1 5
2.1942239 0.2174658 -0.11555775 1 6
2.1511695 0.21281964 -0.03773199 2 7
2.1754215 0.21138585 0.038150918 1 8
2.2218313 0.21511269 -0.43389976 4 2
2.2336595 0.21547094 -0.35541907 1 3
2.1913323 0.21100183 -0.27030611 41 4
2.2173111 0.2127222 -0.19488032 1 5
2.1591821 0.20638491 -0.11367366 1 6
2.15588 0.20568961 -0.037801795 2 7
2.1323097 0.20006157 0.037383012 9 8
2.20103 0.20573317 -0.42970189 16 2
2.2304277 0.20769572 -0.35479334 1 3
2.1959732 0.20410076 -0.27079383 38 4
2.22594 0.20610234 -0.19557756 1 5
2.1717873 0.20032477 -0.11430168 2 6
2.1565504 0.19853877 -0.037801795 2 7
2.0771973 0.18794341 0.036405675 25 8
2.2134323 0.19949098 -0.43199167 26 2
2.2429094 0.20135847 -0.35667056 1 3
2.1729457 0.19431289 -0.267869 15 4
2.2027969 0.19659477 -0.19348581 1 5
2.1565247 0.1917064 -0.11346432 2 6
2.1412957 0.18959826 -0.037522562 13 7
2.103739 0.18294311 0.036859438 35 8
2.2219391 0.19244152 -0.43351811 42 2
2.2514708 0.19420752 -0.35792202 1 3
2.1755886 0.18689604 -0.26811269 36 4
2.2034698 0.18890381 -0.19348581 1 5
2.1631508 0.18468668 -0.11377834 7 6
2.1302705 0.17776173 0.037313197 44 8
2.2049887 0.18322058 -0.43008357 37 2
2.2481976 0.18602085 -0.35729629 1 3
2.1880982 0.18028019 -0.26957488 48 4
2.1604309 0.17761998 -0.18965098 2 5
2.1365871 0.17415819 -0.03741784 51 7
2.1069582 0.16841209 0.03689434 43 8
2.2095289 0.1758346 -0.43084681 38 2
2.2370181 0.17723534 -0.35541907 1 3
2.1768403 0.17170405 -0.26811269 44 4
2.1570654 0.16976438 -0.18930236 2 5
2.1471503 0.16747701 -0.037592366 62 7
2.1035452 0.16075107 0.036824528 47 8
2.200341 0.16737564 -0.42893869 43 2
2.2179258 0.16793571 -0.35229039 1 3
2.1695085 0.1635071 -0.2671375 44 4
2.1655915 0.16283281 -0.18999958 7 5
2.1450491 0.16053426 -0.11273162 55 6
2.143734 0.15968341 -0.037522562 54 7
2.100105 0.15311702 0.036754724 45 8
2.125488 0.15422083 0.11168499 1 9
2.1969965 0.15940931 -0.42817554 43 2
2.2303202 0.16104573 -0.35416764 2 3
2.1621461 0.15536444 -0.26616251 44 4
2.1336434 0.15219352 -0.1121036 42 6
2.1362996 0.15163252 -0.037382945 54 7
2.1046162 0.14606166 0.036824528 43 8
2.1100729 0.14570132 0.11084759 2 9
2.1857872 0.15092944 -0.42588577 41 2
2.2269268 0.15298915 -0.35354188 2 3
2.1587141 0.14754489 -0.26567528 44 4
2.1845658 0.14892876 -0.19156839 42 5
2.1261909 0.14420362 -0.1116849 42 6
2.1328251 0.1439057 -0.03731313 57 7
2.1170857 0.13950366 0.037033956 26 8
2.2226157 0.14606789 -0.51423806 4 1
2.0547652 0.13467677 0.10791678 14 9
2.1823831 0.1430413 -0.42512253 45 2
2.211678 0.14418614 -0.35103893 5 3
2.1592162 0.14000915 -0.26567531 44 4
2.1492841 0.13898844 -0.1884308 52 5
2.1286747 0.13690959 -0.11178958 40 6
2.1173499 0.13543913 -0.037033893 54 7
2.1789262 0.13555905 -0.42435932 43 2
2.1556828 0.13298 -0.26518759 44 4
2.1437666 0.13149384 -0.18790783 52 5
2.1211424 0.12936398 -0.11137087 40 6
2.1197608 0.12890738 -0.037068799 51 7
2.1299634 0.12579724 0.037243389 1 8
2.2177227 0.13059194 -0.51288837 39 1
2.0815542 0.12220906 0.10927752 42 9
2.1794086 0.12757246 -0.42435932 44 2
2.1909161 0.12786239 -0.34759739 12 3
2.1601191 0.12530854 -0.26567531 44 4
2.1482127 0.12386551 -0.18825649 27 5
2.1136265 0.12113111 -0.1109522 38 6
2.1182227 0.12102361 -0.037033893 48 7
2.1144371 0.11710548 0.036964148 1 8
2.2220776 0.12267698 -0.5137881 51 1
2.0580571 0.11326142 0.10802145 28 9
2.1837609 0.12017931 -0.4251225 42 2
2.1427245 0.11642168 -0.26348144 47 4
2.1080532 0.11343092 -0.11063818 21 6
2.1106646 0.11283159 -0.036894273 17 7
2.1148331 0.10972343 0.036964148 1 8
2.1991389 0.1137137 -0.50838935 48 1
2.1645606 0.1115459 -0.42130631 43 2
2.2055843 0.11288916 -0.34978747 1 3
2.1411352 0.10884009 -0.26323792 44 4
2.1450453 0.10866356 -0.18790784 1 5
2.1072137 0.10195451 0.036824532 1 8
2.2014685 0.10612982 -0.50883919 41 1
2.0527956 0.098962486 0.10770744 2 9
2.164937 0.10398893 -0.42130637 44 2
2.22175 0.10594164 -0.35229039 1 3
2.1375184 0.10155024 -0.26275042 44 4
2.1493921 0.10136345 -0.18825649 1 5
2.1227593 0.099364899 -0.11137088 1 6
2.0954034 0.097717896 -0.03661504 1 7
2.1075401 0.094966598 0.036824532 1 8
2.2018085 0.098828286 -0.50883919 33 1
2.0610938 0.092512302 0.10812615 8 9
2.1613472 0.096634209 -0.4205431 44 2
2.0720232 0.092279181 0.18145837 1 10
2.1984079 0.097522341 -0.34853598 1 3
2.1318941 0.094198965 -0.26201898 41 4
2.1417544 0.093885638 -0.18755923 1 5
2.1190863 0.092151903 -0.11116153 1 6
2.1077025 0.091287322 -0.036824461 2 7
2.1158354 0.088310204 0.036964148 1 8
2.1616559 0.089465812 -0.42054313 43 2
2.0444486 0.084258445 0.17901778 4 10
2.206614 0.090556048 -0.34978744 1 3
2.1302269 0.086676441 -0.26177529 22 4
2.1619616 0.087589778 -0.18930234 1 5
2.1193805 0.085123673 -0.11116154 1 6
2.1000161 0.083610751 -0.036684848 2 7
2.0961487 0.080159321 0.036615107 1 8
2.0457225 0.077516861 0.10728876 57 9
2.1619549 0.08192116 -0.42054313 42 2
2.1792808 0.08181487 -0.34540725 1 3
2.1463258 0.079452381 -0.18790784 1 5
2.1036973 0.077139065 -0.11032417 2 6
2.0943003 0.076063521 -0.036580134 3 7
2.2279987 0.077803649 -0.59735435 1 0
2.0724335 0.072010063 0.036196247 2 8
2.1988142 0.076016106 -0.5079394 1 1
2.0399926 0.070168972 0.10697474 42 9
2.1445684 0.073766045 -0.41710851 21 2
2.1795533 0.074207723 -0.34540728 1 3
2.1426833 0.072203659 -0.26323789 4 4
2.14659 0.07196027 -0.18790784 1 5
2.0919766 0.069397464 -0.10969613 2 6
2.1935005 0.068934225 -0.58803689 9 0
2.0846648 0.065149717 0.036405675 3 8
2.2068572 0.068581887 -0.50973898 1 1
2.0422213 0.063109756 0.10707942 55 9
2.0272954 0.062294375 0.17744897 43 10
2.2074413 0.067443199 -0.34978747 1 3
2.1308966 0.063987851 -0.18651336 2 5
2.0981956 0.062273879 -0.11001016 4 6
2.0927811 0.061382063 -0.036545224 42 7
2.2091765 0.061708003 -0.59217799 33 0
2.2031875 0.0607711 -0.50883925 1 1
2.0364394 0.055815972 0.10676538 54 9
2.0235174 0.055108383 0.17710036 53 10
2.1721196 0.058776051 -0.34415582 1 3
2.1451199 0.057296164 -0.26348144 44 4
2.1111898 0.056021191 -0.18477024 2 5
2.1049771 0.05438586 -0.036754657 65 7
2.2113099 0.054042771 -0.59269559 52 0
2.1916971 0.052799042 -0.50613981 1 1
2.0406156 0.0488021 0.10697474 56 9
2.0256896 0.048092373 0.1772747 58 10
2.1802106 0.051380195 -0.34540725 1 3
2.1254613 0.049347647 -0.26104403 54 4
2.0914538 0.048192885 -0.18302712 4 5
2.0846019 0.047306988 -0.10927745 32 6
2.0731666 0.04632251 -0.03619618 62 7
2.1998963 0.046081245 -0.58958977 49 0
2.0532444 0.04265083 0.035847198 44 8
2.1801779 0.044907931 -0.50344038 1 1
2.0287919 0.041434456 0.10634669 60 9
2.1493151 0.04389593 -0.41787174 42 2
2.0198691 0.040899564 0.17675173 52 10
2.1724768 0.04361036 -0.34415579 2 3
2.0263782 0.040323779 0.2488572 1 11
2.1117275 0.041653499 -0.25933784 61 4
2.1027262 0.040374614 -0.1102195 58 6
2.0733161 0.039085962 -0.036196183 54 7
2.1865232 0.038166344 -0.58596635 45 0
2.053381 0.035483848 0.035847202 50 8
2.1686306 0.037096854 -0.50074095 1 1
2.0249307 0.03428521 0.10613736 58 9
2.1396406 0.036227427 -0.41596368 51 2
2.0259757 0.033949222 0.17727467 25 10
2.1449642 0.035568662 -0.33977562 2 3
2.0304761 0.033315711 0.24934465 1 11
2.0959814 0.034024619 -0.25738817 50 4
2.1056843 0.033814546 -0.1842473 37 5
2.0689051 0.03250061 -0.10844007 51 6
2.0574439 0.031602252 -0.035916943 54 7
2.1750531 0.030372342 -0.58286053 45 0
2.0554917 0.028343018 0.035882104 55 8
2.1804383 0.029685291 -0.50344038 2 1
2.0210438 0.027163416 0.10592802 56 9
2.1161969 0.028442303 -0.41138425 43 2
2.1608772 0.028287409 -0.3422786 2 3
2.0325651 0.026253892 0.24958839 12 11
2.0960872 0.026707515 -0.25738817 44 4
2.1037972 0.026438534 -0.184073 59 5
2.0650117 0.025230221 -0.10823072 40 6
2.0555427 0.024397926 -0.035882045 45 7
2.1790092 0.022819687 -0.5838958 45 0
2.0435803 0.021044718 0.035672676 40 8
2.1746826 0.022015238 -0.50209093 14 1
2.017132 0.020068213 0.10571868 54 9
2.1162837 0.021054659 -0.41138428 45 2
1.9942867 0.019492844 0.17448568 1 10
2.1352842 0.020498315 -0.33821133 8 3
2.0961678 0.019390084 -0.25738817 44 4
2.0779769 0.018860117 -0.18180697 49 5
2.0690815 0.018056137 -0.10844007 39 6
2.0536153 0.017205292 -0.035847131 48 7
2.1732805 0.015172346 -0.58234292 43 0
2.1279776 0.01411328 -0.49129298 21 1
2.0171897 0.013026448 0.10571868 53 9
2.116344 0.013666758 -0.41138425 45 2
1.9983271 0.012556825 0.17483431 1 10
2.131392 0.013019954 -0.33758557 41 3
2.0068934 0.011909172 0.24641982 47 11
2.100193 0.012097283 -0.25787568 50 4
2.0780301 0.011605958 -0.18180697 42 5
2.0551515 0.010761798 -0.10770737 42 6
2.057662 0.010055728 -0.035916943 48 7
2.1713881 0.0075798039 -0.58182526 46 0
2.0396783 0.0067640627 0.035602864 1 8
2.1513987 0.0067601088 -0.49669212 39 1
2.0132282 0.0059736334 0.10550931 58 9
2.1163788 0.0062797014 -0.41138425 43 2
2.014298 0.0056252643 0.17622881 1 10
2.1333997 0.0055845296 -0.3378984 19 3
1.9850866 0.0048507983 0.24373868 43 11
2.0823567 0.0047250693 -0.25568178 41 4
2.078058 0.0043516546 -0.18180697 42 5
2.0531793 0.0035838815 -0.10760269 40 6
2.0516858 0.0028651422 -0.035812229 45 7
2.1714013 -0 -0.58182526 45 0
2.0816829 -0.00036332221 0.036335863 1 8
2.1533577 -0.00075166376 -0.49714172 43 1
1.9972589 -0.00069717498 0.10467195 34 9
2.1085353 -0.0011040266 -0.40985787 43 2
2.0143054 -0.0014062506 0.17622881 1 10
1.9870764 -0.0020808622 0.2439824 6 11
2.0764053 -0.0021744072 -0.25495079 44 4
2.0880227 -0.002915431 -0.18267852 24 5
2.0511818 -0.0035799912 -0.10749801 20 6
2.0376859 -0.003912081 -0.035567895 41 7
2.1636624 -0.0071750022 -0.57975477 46 0
2.0456762 -0.0071407859 0.035707582 1 8
2.1513948 -0.0078853099 -0.49669212 38 1
2.0967386 -0.0084168939 -0.40756807 44 2
2.0023339 -0.0083874064 0.17518295 1 10
2.1452403 -0.0089860139 -0.33977562 1 3
1.9850733 -0.0086615719 0.24373865 2 11
2.0744002 -0.0094133941 -0.25470683 41 4
2.1558964 -0.014674949 -0.57768416 46 0
2.0416393 -0.014253562 0.035637766 1 8
2.1318674 -0.015255584 -0.49219283 7 1
2.0171776 -0.014786948 0.10571866 2 9
2.1006234 -0.015765296 -0.40833139 44 2
2.0102649 -0.01508715 0.17588021 1 10
2.1254425 -0.016322548 -0.33664691 1 3
1.9949565 -0.015668672 0.24495737 6 11
2.0743546 -0.016654342 -0.25470683 41 4
2.0167921 -0.01654421 0.31943923 1 12
2.1038895 -0.017625917 -0.184073 1 5
2.0850589 -0.018196033 -0.10927743 1 6
2.1596916 -0.022617059 -0.57871938 46 0
2.0175784 -0.021480979 0.035218913 1 8
2.0191071 -0.022202134 0.10582335 2 9
2.1044774 -0.023508219 -0.40909457 42 2
1.990273 -0.02223249 0.17413707 1 10
2.1253686 -0.024112577 -0.33664694 1 3
1.9631262 -0.022614589 0.24105754 25 11
2.0802345 -0.024326758 -0.2554383 33 4
2.0246189 -0.024029791 0.32069075 2 12
2.087873 -0.025144991 -0.18267851 1 5
2.0690017 -0.025640042 -0.10844007 1 6
2.0535252 -0.025806718 -0.035847131 2 7
2.144141 -0.030314097 -0.57457829 49 0
2.0334823 -0.029104572 0.03549815 1 8
2.1531322 -0.031192953 -0.49714172 1 1
1.9930503 -0.029221738 0.10446261 4 9
2.1043773 -0.031221353 -0.40909457 45 2
2.0021312 -0.029704392 0.17518295 1 10
2.1173651 -0.031783681 -0.33539543 1 3
1.9749393 -0.0299905 0.24251999 51 11
2.0106907 -0.03123544 0.31850058 19 12
2.0837827 -0.032734666 -0.18232988 1 5
2.0609055 -0.033094868 -0.10802138 1 6
2.0574155 -0.033398002 -0.035916943 2 7
2.1517415 -0.038310122 -0.57664883 47 0
2.0293629 -0.036485564 0.035428341 1 8
2.1491065 -0.039013628 -0.49624193 1 1
2.0885453 -0.038643509 -0.40604162 44 2
2.0099773 -0.037189804 0.17588021 2 10
2.1211848 -0.039617784 -0.33602121 1 3
1.9867244 -0.037453309 0.2439824 47 11
2.0561836 -0.039121743 -0.25251341 2 4
2.1035686 -0.040757854 -0.184073 1 5
2.0567768 -0.040569469 -0.10781203 2 6
2.0212917 -0.040222447 -0.035288658 2 7
2.1380987 -0.044413451 -0.57302541 50 0
2.0252471 -0.042422883 0.03535853 1 8
2.1372917 -0.045143064 -0.49354255 1 1
2.0766523 -0.044224877 -0.40375194 43 2
1.9779872 -0.042469066 0.17309122 2 10
2.1052589 -0.045569301 -0.3335183 1 3
1.9627892 -0.042828213 0.24105754 48 11
2.083843 -0.045833483 -0.25592554 2 4
1.9966154 -0.044263594 0.31631055 61 12
2.0795438 -0.046102058 -0.18198127 1 5
2.0446749 -0.04604312 -0.107184 2 6
2.015166 -0.046082415 -0.03518394 7 7
2.1244113 -0.051548492 -0.56940192 49 0
2.0250869 -0.049492061 0.03535853 2 8
2.1449134 -0.052795131 -0.49534214 1 1
1.9906558 -0.049345877 0.10435794 49 9
2.0921865 -0.051862691 -0.40680489 26 2
1.9658762 -0.049074937 0.17204534 3 10
2.1011372 -0.052818462 -0.33289251 1 3
1.964612 -0.049729597 0.24130127 57 11
2.0638256 -0.05260139 -0.25348836 2 4
1.9747268 -0.050675381 0.31286901 55 12
2.0554693 -0.052747399 -0.17988952 2 5
2.0484951 -0.053283956 -0.10739335 2 6
2.0289862 -0.053485237 -0.035428278 32 7
2.1280808 -0.059070971 -0.57043719 47 0
2.0189052 -0.056393128 0.035253819 3 8
2.1213403 -0.05962494 -0.48994353 1 1
1.9864784 -0.056181327 0.10414859 62 9
2.0802178 -0.058832455 -0.40451515 35 2
1.955735 -0.055653457 0.17117378 10 10
2.0930417 -0.05992635 -0.33164105 1 3
1.960458 -0.056472752 0.24081379 68 11
2.0775197 -0.060207706 -0.25519454 18 4
1.9745378 -0.057568152 0.31286901 57 12
2.0632386 -0.060154248 -0.18058676 2 5
2.0403111 -0.060198605 -0.10697467 4 6
2.0327847 -0.060686745 -0.035498086 42 7
2.1355851 -0.066740371 -0.57250774 27 0
2.0938509 -0.066167727 -0.48364472 1 1
1.9722965 -0.062671065 0.10341589 54 9
2.0878489 -0.066342816 -0.40604162 56 2
2.1165121 -0.067993164 -0.33539546 2 3
1.9562809 -0.06318751 0.24032633 65 11
2.0554721 -0.066750504 -0.25251341 33 4
1.980248 -0.06465362 0.31380764 66 12
2.0470858 -0.066835813 -0.17919227 4 5
2.0181305 -0.066595666 -0.10582328 17 6
2.0485494 -0.068315312 -0.035777323 65 7
2.1247678 -0.074569829 -0.49084318 1 1
1.9640818 -0.069273688 0.10299721 56 9
2.0601361 -0.072661556 -0.40069899 42 2
1.9672455 -0.06972903 0.17221963 42 10
2.1004691 -0.074818224 -0.33289254 2 3
1.9540644 -0.069944814 0.24008256 62 11
2.0552266 -0.073925033 -0.25251341 36 4
1.9661914 -0.071066104 0.31161752 68 12
2.0309114 -0.07340534 -0.17779778 19 5
2.0103297 -0.074066788 -0.035114132 58 7
2.0022185 -0.07691747 0.034974582 46 8
2.1050215 -0.081234716 -0.4863441 1 1
1.9718109 -0.07643865 0.10341589 51 9
2.0520229 -0.079548128 -0.39917254 44 2
1.9570358 -0.076207951 0.17134809 57 10
2.1001952 -0.082149774 -0.33289254 2 3
1.9577757 -0.076921225 0.24057007 62 11
2.068841 -0.081646629 -0.25421935 66 4
1.9619837 -0.077772476 0.31099179 71 12
2.0226791 -0.080178425 -0.17710052 31 5
2.0295904 -0.081161968 -0.10645131 49 6
2.0080609 -0.081003092 -0.03507923 57 7
1.9899497 -0.083403595 0.03476515 55 8
2.1086195 -0.088745996 -0.48724395 1 1
1.9675412 -0.083152421 0.10320655 53 9
2.0556557 -0.08687634 -0.39993575 44 2
1.950786 -0.08278539 0.17082515 53 10
2.0801594 -0.088639334 -0.32976383 3 3
1.9614619 -0.083924375 0.24105754 62 11
2.044744 -0.087845273 -0.25129446 57 4
1.9577533 -0.084450349 0.31036606 71 12
2.0363212 -0.087839477 -0.17832072 37 5
2.0292947 -0.08824607 -0.10645131 44 6
2.0097637 -0.088099621 -0.035114132 60 7
1.9876487 -0.090258606 0.034730244 51 8
2.104403 -0.095928423 -0.4863441 1 1
1.9752195 -0.090385117 0.10362523 56 9
2.0553401 -0.094051391 -0.39993575 43 2
1.9664074 -0.09032578 0.17221963 35 10
1.9393439 -0.089761041 0.23837638 65 11
2.0404592 -0.094797976 -0.25080702 47 4
1.9574466 -0.091283664 0.31036606 68 12
2.0320218 -0.094761394 -0.17797211 55 5
2.0110188 -0.094485484 -0.10550926 47 6
2.0134387 -0.095303565 -0.03518394 60 7
1.9913163 -0.097391628 0.034800056 47 8
2.0884843 -0.1025093 -0.48274493 2 1
1.9549437 -0.096296735 0.10257851 53 9
2.0549991 -0.10122527 -0.39993575 43 2
1.9330714 -0.096233986 0.23764522 62 11
2.0222721 -0.1010285 -0.24861358 44 4
1.957116 -0.098115861 0.31036606 68 12
2.0276985 -0.10165437 -0.17762348 42 5
2.0066872 -0.10130325 -0.1052999 47 6
2.0150909 -0.10243269 -0.03521885 57 7
1.9929609 -0.10444666 0.034834959 25 8
2.092006 -0.1100035 -0.48364472 6 1
1.9545956 -0.10312017 0.10257851 53 9
2.0389493 -0.10757048 -0.3968828 43 2
1.9856249 -0.10510475 0.17396276 1 10
2.0771446 -0.1103127 -0.32945096 53 3
1.9426349 -0.10350919 0.2388639 68 11
2.0199251 -0.10798098 -0.24836965 42 4
1.9488714 -0.10452372 0.30911458 68 12
2.0332997 -0.10905185 -0.17814638 48 5
2.0123045 -0.10863028 -0.10561393 50 6
2.0007441 -0.10870664 -0.034974515 60 7
1.9542238 -0.10994238 0.10257851 51 9
2.0424812 -0.11490764 -0.39764604 43 2
1.9554077 -0.11035135 0.17134809 2 10
2.0747745 -0.11745096 -0.3291381 40 3
1.9422618 -0.11028961 0.2388639 53 11
2.0215178 -0.11514404 -0.24861337 44 4
1.9425781 -0.11098785 0.30817595 77 12
2.0209718 -0.11546683 -0.17710052 48 5
2.0059314 -0.11531 -0.10529992 40 6
1.9963596 -0.11545897 -0.034904707 60 7
1.9782101 -0.11752734 0.034590624 1 8
2.091187 -0.12460567 -0.48364472 43 1
1.9498407 -0.11652492 0.10236917 44 9
2.0381484 -0.12180232 -0.3968828 44 2
1.9271669 -0.11550745 0.16890773 1 10
2.0506902 -0.12327021 -0.32538366 17 3
2.0191219 -0.12207995 -0.24836962 42 4
1.9441507 -0.11788764 0.30848885 68 12
2.0145903 -0.12215888 -0.17657758 44 5
1.989568 -0.12133866 -0.10446254 13 6
1.9939485 -0.12230443 -0.034869801 57 7
1.9897627 -0.12518525 0.03480006 1 8
2.0810146 -0.131291 -0.48139516 51 1
1.9713482 -0.12471756 0.10352056 11 9
2.0416296 -0.12916391 -0.39764607 44 2
1.9545896 -0.12399984 0.17134809 1 10
2.0186837 -0.12912725 -0.24836965 42 4
1.9397848 -0.12442037 0.30786312 68 12
2.0141516 -0.12919033 -0.17657758 16 5
1.9815365 -0.1284875 -0.034660377 26 7
1.9773418 -0.1313349 0.034590632 1 8
2.0669327 -0.13764788 -0.47824585 35 1
2.0411663 -0.13628975 -0.39764607 43 2
1.9581206 -0.13108808 0.17169671 1 10
2.0773726 -0.13943568 -0.32976377 1 3
1.9310973 -0.12995608 0.23764521 2 11
2.0102985 -0.13563849 -0.24739471 41 4
1.9432803 -0.13145734 0.30848885 71 12
1.9846871 -0.13495438 -0.1042532 1 6
1.9848505 -0.13879424 0.034730248 1 8
2.0547757 -0.14404428 -0.47554642 6 1
1.9425603 -0.13617775 0.10205515 2 9
2.0289273 -0.14258815 -0.3953563 44 2
1.9497012 -0.13736229 0.17099945 1 10
2.0729325 -0.1464079 -0.3291381 1 3
1.9306319 -0.13669604 0.23764521 3 11
2.0058522 -0.1423738 -0.24690717 12 4
1.9270703 -0.13678192 0.30598587 49 12
2.0231376 -0.14395557 -0.17744917 1 5
2.0041258 -0.14330591 -0.10529992 1 6
1.9726375 -0.14140041 -0.034520756 2 7
1.9883682 -0.14566773 0.03480006 1 8
1.9380896 -0.14266449 0.10184582 2 9
2.0245011 -0.14938059 -0.39459303 44 2
1.953184 -0.14446111 0.17134809 1 10
2.0684958 -0.15298979 -0.32851237 2 3
1.9380865 -0.14368455 0.23862015 6 11
1.934461 -0.14409477 0.30723739 18 12
2.0226228 -0.15101676 -0.17744917 1 5
1.9916893 -0.14905672 -0.1046719 1 6
1.97612 -0.14858523 -0.034590565 2 7
1.9838598 -0.15230139 0.034730248 1 8
1.9475361 -0.15019667 0.10236917 3 9
2.0200799 -0.15579136 -0.39382982 44 2
1.9328295 -0.14940184 0.16960497 1 10
2.0561321 -0.15929373 -0.32663512 1 3
2.0186906 -0.15710194 -0.24861337 1 4
1.9982743 -0.15586399 -0.17535742 1 5
2.0110686 -0.15756822 -0.10571861 1 6
1.9915377 -0.15673742 -0.034869801 2 7
1.9793292 -0.15890536 0.034660436 1 8
2.0332222 -0.16394636 -0.39650118 23 2
1.9283245 -0.15582676 0.16925636 2 10
2.0673773 -0.16742675 -0.32851237 1 3
2.0102153 -0.16350381 -0.24763864 2 4
2.0096331 -0.16380951 -0.17640328 2 5
1.9826378 -0.16230574 -0.1042532 2 6
1.9790205 -0.16270511 -0.034660373 3 7
1.9707917 -0.16514561 0.034520816 1 8
1.9046457 -0.16027234 0.10017106 32 9
1.923798 -0.16222212 0.16890773 2 10
2.0589073 -0.17397696 -0.32726094 1 3
1.9166956 -0.16229704 0.23618276 63 11
2.0175443 -0.17119114 -0.24861358 2 4
2.005079 -0.17048588 -0.17605469 2 5
1.974099 -0.16854587 -0.10383452 2 6
1.9844174 -0.17012459 -0.034765083 20 7
1.9781717 -0.17271967 0.034660436 2 8
1.9140226 -0.16779189 0.10069442 42 9
2.0554969 -0.18019418 -0.40108058 3 2
1.9410827 -0.17050549 0.17047653 4 10
2.0425451 -0.17977722 -0.32475799 1 3
1.9101852 -0.16846339 0.23545155 68 11
1.9932057 -0.17613573 -0.24568848 2 4
2.0124094 -0.17818674 -0.17675188 2 5
1.9814564 -0.17614311 -0.1042532 2 6
1.9775569 -0.17962377 0.03466044 4 8
1.9193922 -0.17501616 0.10100843 49 9
2.0020669 -0.18255469 -0.3907769 10 2
2.0537076 -0.18798631 -0.32663512 2 3
1.9056318 -0.17476757 0.23496407 68 11
2.0083928 -0.1845454 -0.24763864 9 4
1.9899514 -0.18320107 -0.17483447 4 5
1.9867958 -0.18360999 -0.10456721 3 6
1.9433587 -0.18027996 -0.034066994 47 7
1.9128045 -0.18115009 0.10069442 51 9
1.9760084 -0.18713576 -0.38581583 17 2
1.8862911 -0.17897135 0.16577013 38 10
2.0530388 -0.19515398 -0.32663512 2 3
1.9089625 -0.18179479 0.23545155 68 11
2.0116887 -0.19193193 -0.24812587 30 4
1.968594 -0.18955404 -0.034520756 66 7
1.9105784 -0.18699719 0.033508576 35 8
1.9240868 -0.1889974 0.10132245 54 9
1.992928 -0.19575948 -0.3892504 26 2
1.9074659 -0.18770093 0.16768755 47 10
2.0287552 -0.19999368 -0.32288072 2 3
1.8964633 -0.18728665 0.23398912 65 11
2.0070558 -0.198562 -0.24763864 36 4
1.9758794 -0.19721897 -0.034660373 63 7
1.9357775 -0.1962878 0.033962343 44 8
1.9075193 -0.19409512 0.10048507 58 9
2.0273898 -0.20629226 -0.39611956 42 2
1.9087812 -0.19456011 0.16786186 64 10
2.0260794 -0.20687349 -0.32256782 10 3
1.8839494 -0.19269347 0.23252669 68 11
1.9767292 -0.20253177 -0.24398233 51 4
1.9899058 -0.20423278 -0.17500879 52 5
1.9668832 -0.20256373 -0.10362516 62 6
1.9672227 -0.2032927 -0.034520756 63 7
1.9291142 -0.20241766 0.033857629 46 8
1.9068302 -0.20075242 0.10048507 58 9
2.0051799 -0.21110676 -0.39192173 27 2
1.8981833 -0.20017706 0.16699031 62 10
1.8911613 -0.20010404 0.23350163 65 11
1.9760101 -0.20943062 -0.24398233 57 4
1.9911622 -0.21138799 -0.17518312 55 5
1.9661642 -0.20942821 -0.10362516 55 6
1.9605356 -0.20952082 -0.034416035 70 7
1.9303838 -0.20936593 0.033892531 52 8
1.9021468 -0.20697518 0.10027573 60 9
1.8915309 -0.20615408 0.16646758 77 10
2.0402958 -0.22272801 -0.32507083 62 3
1.9022914 -0.20799881 0.23496407 41 11
1.9851332 -0.21740746 -0.24520123 53 4
1.9765486 -0.21681638 -0.17396292 57 5
1.9614506 -0.21585318 -0.10341582 52 6
1.9379289 -0.21394932 -0.034032088 57 7
1.9356028 -0.21677056 0.033997241 55 8
1.905382 -0.21405958 0.10048506 58 9
1.8868401 -0.21231 0.16611874 80 10
2.0061355 -0.22608782 -0.31975204 58 3
1.8877456 -0.2130792 0.23325789 14 11
1.9823902 -0.22411256 -0.2449573 56 4
1.9658811 -0.22259375 -0.17309138 55 5
1.9646542 -0.22314937 -0.10362516 52 6
1.9371704 -0.22071268 -0.034032091 57 7
1.9288753 -0.22283733 0.033892535 42 8
1.9046235 -0.22070929 0.10048507 56 9
1.8900456 -0.21935435 0.16646737 80 10
2.0033722 -0.23286112 -0.31943917 56 3
1.9875103 -0.23172064 -0.24568871 53 4
1.9650922 -0.22945455 -0.17309138 52 5
1.9479938 -0.22814733 -0.10278779 55 6
1.9363881 -0.22747332 -0.034032091 55 7
1.8998752 -0.22688271 0.10027573 58 9
1.8932251 -0.22642368 0.166816 80 10
2.0045078 -0.24008764 -0.31975201 52 3
1.9748644 -0.2372364 -0.24422608 53 4
1.9761477 -0.23774047 -0.17413722 52 5
1.9412367 -0.23422793 -0.10247377 37 6
1.9395524 -0.23471165 -0.034101896 55 7
1.9411664 -0.23800136 0.034136865 2 8
1.8951069 -0.23302561 0.10006639 51 9
1.8924233 -0.23303093 0.16681601 80 10
2.0036578 -0.24708322 -0.31975204 48 3
1.9622036 -0.24266662 -0.24276364 53 4
1.967397 -0.24365754 -0.17343999 55 5
1.9364433 -0.24051037 -0.10226443 10 6
1.9287996 -0.24024469 -0.033927374 66 7
1.9383396 -0.2445256 0.034101956 1 8
1.8863561 -0.23863669 0.099647701 19 9
1.8817153 -0.23838331 0.16594444 82 10
2.0027828 -0.2540758 -0.31975201 50 3
1.9633138 -0.24976505 -0.24300739 47 4
1.9606055 -0.24976827 -0.17291708 36 5
1.9160484 -0.24545148 -0.033717945 43 7
1.9216098 -0.24923247 0.033822723 1 8
1.8769202 -0.24443564 0.16559581 82 10
1.9862139 -0.25902176 -0.31724909 48 3
1.9525883 -0.25532979 -0.2417887 18 4
1.9446183 -0.25532335 -0.10278779 2 6
1.9326211 -0.25752342 0.034032151 1 8
1.9064649 -0.25437674 0.10079909 2 9
1.883955 -0.25204259 0.16629307 82 10
1.9872555 -0.26621559 -0.31756195 47 3
1.935798 -0.26104209 -0.10236911 1 6
1.935719 -0.26447216 0.034101959 1 8
1.8976502 -0.25994572 0.10038041 2 9
1.8830637 -0.25861731 0.16629307 82 10
1.9922326 -0.27361041 -0.31850049 36 3
1.9626043 -0.27023932 -0.2432511 1 4
1.9815661 -0.27355513 -0.17500879 1 5
1.9388787 -0.26800701 -0.10257845 2 6
1.9510535 -0.27038395 -0.034381133 2 7
1.922902 -0.26956183 0.033892531 1 8
1.8729974 -0.26323265 0.099124342 2 9
1.8782499 -0.26430511 0.16594444 82 10
1.9853976 -0.27973616 -0.31756198 9 3
1.9655803 -0.27764374 -0.24373861 1 4
1.9688114 -0.27845067 -0.17396292 2 5
1.9221114 -0.27253026 -0.10174108 1 6
1.9184213 -0.27269021 -0.033822659 2 7
1.9259082 -0.27684134 0.033962343 1 8
1.8898587 -0.27233279 0.10006639 3 9
1.867456 -0.26943725 0.16507289 72 10
1.9488823 -0.28222719 -0.2417887 1 4
1.9362793 -0.28074715 -0.17117395 2 5
1.9488193 -0.28325993 -0.10320648 1 6
1.9135002 -0.27880847 -0.033752851 2 7
1.9011899 -0.28006521 0.033543482 2 8
1.8474041 -0.27280089 0.097868279 15 9
1.8665042 -0.27595422 0.16507289 36 10
1.9518125 -0.28961107 -0.24227616 2 4
1.9352875 -0.28750435 -0.17117395 2 5
1.9438678 -0.28947252 -0.10299714 2 6
1.914493 -0.28578129 -0.033787753 7 7
1.8922914 -0.28550655 0.033403866 2 8
1.8931084 -0.28664374 0.16751324 4 10
1.9586399 -0.29761523 -0.2432511 2 4
1.9500297 -0.29665515 -0.17256843 2 5
1.9231009 -0.29324532 -0.10195041 2 6
1.8991884 -0.29333109 0.033543482 2 8
1.8553234 -0.28721929 0.098391645 42 9
1.9458201 -0.30262002 -0.2417887 2 4
1.9352019 -0.30131453 -0.17134826 6 5
1.9260125 -0.30057237 -0.10215976 2 6
1.908029 -0.30151936 0.033718009 11 8
1.8543094 -0.29369378 0.098391637 47 9
1.9408309 -0.30878651 -0.24130119 9 4
1.934813 -0.30886787 -0.10268312 4 6
1.9054718 -0.30486605 -0.033683043 78 7
1.8418201 -0.29765004 0.032566153 25 8
1.8611591 -0.30144203 0.098810323 58 9
1.9103163 -0.312484 -0.033787753 78 7
1.8664184 -0.30831426 0.033019915 41 8
1.862066 -0.30826303 0.098914996 66 9
1.9210041 -0.31939816 -0.23910756 49 4
1.9280099 -0.32090878 -0.17099963 62 5
1.9013247 -0.31783149 -0.033648137 66 7
1.8751895 -0.31649131 0.033194434 57 8
1.8649726 -0.31510171 0.09912435 66 9
1.9453769 -0.3300837 -0.24227616 61 4
1.9268779 -0.32763684 -0.17099963 64 5
1.8999704 -0.32374412 -0.10100838 69 6
1.8982891 -0.32379854 -0.033613231 68 7
1.872159 -0.32236862 0.033159532 50 8
1.8521078 -0.31924877 0.09849631 68 9
1.9188434 -0.33213159 -0.23910777 42 4
1.927744 -0.33436531 -0.17117396 55 5
1.8988863 -0.33004281 -0.10100837 57 6
1.8912946 -0.32906342 -0.033508521 73 7
1.8730491 -0.32892105 0.033194434 58 8
1.8509821 -0.32571191 0.09849631 68 9
1.9059434 -0.33675528 -0.23764536 15 4
1.9246029 -0.34074497 -0.17099962 58 5
1.8977815 -0.33633792 -0.10100837 52 6
1.8842279 -0.33461431 -0.033403806 78 7
1.8758264 -0.33616266 0.033264246 64 8
1.8576971 -0.33358306 0.098914996 62 9
1.9155593 -0.3460443 -0.17030239 58 5
1.8965359 -0.3432914 -0.10100837 53 6
1.8830482 -0.34118947 -0.033403803 76 7
1.8706478 -0.34231573 0.033194438 64 8
1.8505684 -0.33930895 0.098600976 28 9
1.9044815 -0.35125595 -0.16943084 56 5
1.895326 -0.34990945 -0.10100837 53 6
1.8798187 -0.34772512 -0.0333689 73 7
1.8615782 -0.34737611 0.033054817 66 8
1.8650786 -0.34870309 0.099438347 5 9
1.9052017 -0.35826987 -0.16960514 58 5
1.8881427 -0.35574445 -0.10069436 30 6
1.8805585 -0.35465539 -0.033403803 71 7
1.8642215 -0.35494483 0.033124626 68 8
1.987453 -0.37876746 0.1060327 1 9
1.9117666 -0.36641827 -0.17030239 58 5
1.8871642 -0.36272737 -0.033543423 78 7
1.863034 -0.36112487 0.033124626 66 8
1.9027189 -0.37122983 -0.16960514 58 5
1.8699963 -0.3655231 -0.099856988 2 6
1.8702509 -0.36591181 -0.033264186 58 7
1.8657502 -0.36807504 0.033194438 66 8
1.8955492 -0.37670425 -0.16908221 56 5
1.8844447 -0.3748394 -0.10069435 2 6
1.8670012 -0.37204713 -0.03322928 11 7
1.8526907 -0.37222216 0.032985006 68 8
1.8903168 -0.38252828 -0.16873357 55 5
1.8869734 -0.38253739 -0.1009037 2 6
1.8473963 -0.37820801 0.032915201 71 8
1.8967757 -0.39073229 -0.16943082 55 5
1.8856264 -0.38912177 -0.1009037 2 6
1.8662493 -0.38580233 -0.033264186 2 7
1.8460647 -0.38465434 0.032915201 71 8
1.9032003 -0.39898613 -0.17012808 45 5
1.8686198 -0.39241767 -0.10006633 2 6
1.8648913 -0.39231443 -0.033264186 2 7
1.848623 -0.39192542 0.032985006 71 8
1.8978987 -0.40479589 -0.16977943 14 5
1.8750513 -0.40060708 -0.10048501 2 6
1.875313 -0.40100536 -0.033473611 2 7
1.8512229 -0.39889595 0.033054817 68 8
1.8776159 -0.40767035 -0.10069435 2 6
1.8465456 -0.40159932 -0.032984946 6 7
1.8420058 -0.40364328 0.032915197 46 8
1.872281 -0.4133608 -0.10048501 2 6
1.8504169 -0.41192204 0.033089723 11 8
1.8592068 -0.41694495 -0.09985698 2 6
1.865455 -0.42553326 -0.10027567 3 6
1.848161 -0.4219276 -0.03308966 100 7
1.863883 -0.43236768 -0.10027567 15 6
1.8407583 -0.427342 -0.032984946 100 7
1.8391796 -0.43408582 -0.032984946 86 7
1.8685884 -0.44722894 -0.10069435 59 6
1.8376532 -0.44050312 -0.032984946 94 7
1.834023 -0.44573039 -0.098914936 77 6
1.8400686 -0.44753975 -0.033054758 92 7
1.8305956 -0.45133165 -0.098810256 43 6
1.8443191 -0.4553982 -0.033159468 88 7
1.8522593 -0.46353737 -0.10006633 18 6
1.8253409 -0.4571394 -0.032845326 94 7
1.8198578 -0.46252313 -0.032775518 75 7
1.8202505 -0.4690544 -0.032810424 41 7
