# .PCD v0.7 - Point Cloud Data file format
VERSION 0.7
FIELDS x y z intensity ring
SIZE 4 4 4 4 2
TYPE F F F F U
COUNT 1 1 1 1 1
WIDTH 1254
HEIGHT 1
VIEWPOINT 0 0 0 1 0 0 0
POINTS 1254
DATA ascii
1.60953 0.64344078 -0.15165105 1 5
1.6006509 0.63341939 -0.15060519 10 5
1.5787348 0.61838204 -0.14833912 36 5
1.586457 0.61502755 -0.14886205 45 5
1.595928 0.61261952 -0.1495593 77 5
1.5868814 0.60280031 -0.14851345 83 5
1.5833811 0.59515387 -0.14799051 68 5
1.5985209 0.59448433 -0.14921069 67 5
1.6244272 0.59799564 -0.21254024 1 4
1.5968465 0.58752519 -0.14886205 69 5
1.6459464 0.60493821 -0.091901913 1 6
1.6226712 0.59124595 -0.21205278 1 4
1.5932709 0.5799036 -0.14833914 65 5
1.6216663 0.5899182 -0.090436511 6 6
1.6153878 0.58221233 -0.21083389 5 4
1.5970598 0.57529181 -0.14851345 46 5
1.599285 0.57546264 -0.089075781 34 6
1.5971813 0.56904507 -0.14833914 13 5
1.6119243 0.56828141 -0.20985892 55 4
1.605147 0.56494737 -0.08918044 95 6
1.6064005 0.56003678 -0.20888397 96 4
1.6142849 0.56247044 -0.1495593 2 5
1.5976782 0.55605805 -0.088657089 100 6
1.5989617 0.55119169 -0.20766547 100 4
1.6237736 0.55942768 -0.15025656 2 5
1.5977209 0.54982805 -0.088552415 61 6
1.6083922 0.548168 -0.20864023 100 4
1.6030847 0.54604691 -0.14816482 2 5
1.6084149 0.54191613 -0.20839652 93 4
1.6049811 0.54044813 -0.14816482 2 5
1.6280233 0.54757375 -0.090017818 3 6
1.6434693 0.5521313 -0.030262379 2 7
1.6008793 0.53316319 -0.207178 90 4
1.6030768 0.53358346 -0.1478162 2 5
1.6033911 0.53306645 -0.088552415 3 6
1.6396934 0.54450017 -0.030157667 6 7
1.5950968 0.52536708 -0.20620285 90 4
1.631426 0.53670156 -0.15025654 2 5
1.6090368 0.5287137 -0.088761762 3 6
1.5996931 0.52533323 -0.029389763 50 7
1.6100428 0.52437741 -0.20790921 93 4
1.6142503 0.52512544 -0.14851345 2 5
1.6183795 0.52584326 -0.089180447 3 6
1.6771214 0.54040301 -0.27907908 1 3
1.6117728 0.51903576 -0.20790921 93 4
1.6083961 0.5173288 -0.1478162 2 5
1.6277202 0.52291745 -0.089599133 3 6
1.6278934 0.52265966 -0.029843526 100 7
1.6374964 0.52164769 -0.27219597 1 3
1.6210515 0.51609659 -0.20888397 93 4
1.6328871 0.51923794 -0.14990795 2 5
1.6142172 0.51267987 -0.088761762 4 6
1.6124636 0.511814 -0.029529382 100 7
1.650794 0.51891011 -0.27407315 2 3
1.6098526 0.50542313 -0.20717782 85 4
1.6310668 0.5117709 -0.1495593 2 5
1.6009266 0.50170016 -0.087924376 8 6
1.6315917 0.51099735 -0.029843524 95 7
1.6543919 0.51401937 -0.27438602 28 3
1.6077278 0.49890566 -0.20669034 88 4
1.6252313 0.5037145 -0.14886206 2 5
1.6180829 0.50057054 -0.029564288 100 7
1.6838509 0.51802003 0.030751102 1 8
1.6132555 0.49445346 -0.20717782 90 4
1.6155486 0.49454036 -0.1478162 2 5
1.615764 0.49429703 -0.088552415 52 6
1.61982 0.49492046 -0.029564288 100 7
1.6435556 0.4993498 0.029983196 2 8
1.6504656 0.49987739 -0.27313456 92 3
1.6149718 0.48881879 -0.20717782 90 4
1.6268008 0.49178025 -0.14868775 3 5
1.6366849 0.49414471 -0.08959914 88 6
1.6253666 0.49041811 -0.029634094 100 7
1.5974885 0.47896543 0.029110579 13 8
1.6389527 0.49015072 -0.27094451 72 3
1.6224585 0.48460096 -0.20790921 93 4
1.6609632 0.49578595 -0.15165104 21 5
1.6135176 0.48101056 -0.088238403 100 6
1.6309016 0.48588303 -0.029703906 100 7
1.650041 0.48751271 -0.27250883 90 3
1.610729 0.4752858 -0.20620285 90 4
1.6112719 0.47452903 -0.088029057 97 6
1.6383429 0.48188022 -0.029808618 100 7
1.6237431 0.47481626 0.029529434 68 8
1.6479398 0.48064336 -0.27188307 92 3
1.6123781 0.46966073 -0.20620285 88 4
1.6528215 0.48112833 -0.15060519 77 5
1.6225078 0.47168991 -0.088552415 100 6
1.6264899 0.47253969 -0.029564288 100 7
1.6195452 0.46776488 0.02942472 54 8
1.6533213 0.47626916 -0.27250883 92 3
1.6177424 0.46540856 -0.20669034 90 4
1.6200223 0.46545231 -0.14746757 78 5
1.624063 0.46630648 -0.088552415 100 6
1.6204404 0.46465415 -0.029424667 100 7
1.6211683 0.46210828 0.02942472 58 8
1.6492736 0.46887413 -0.27157024 88 3
1.6308147 0.46301207 -0.20815276 85 4
1.6216371 0.45979485 -0.14746757 76 5
1.6295241 0.46172386 -0.088761762 100 6
1.6335973 0.46226212 -0.029634094 100 7
1.6304715 0.4586128 0.029564342 18 8
1.6528831 0.46335968 -0.2718831 92 3
1.6285981 0.45624521 -0.20766528 88 4
1.6385819 0.4584254 -0.14886205 74 5
1.623511 0.45359802 -0.088343069 100 6
1.6390532 0.45763204 -0.029703906 100 7
1.7111522 0.47390181 0.093053363 1 9
1.6525862 0.45706093 -0.27157021 88 3
1.6226053 0.4481594 -0.20669033 88 4
1.6324902 0.45058209 -0.14816482 72 5
1.6212337 0.44686711 -0.08813373 100 6
1.6445754 0.4526833 -0.029773714 100 7
1.637569 0.44798887 0.029634148 2 8
1.6627033 0.45424029 0.090331897 2 9
1.6579832 0.45232901 -0.27219597 85 3
1.6241599 0.44249311 -0.20669034 90 4
1.6475098 0.44854492 -0.14938501 65 5
1.6304927 0.44330159 -0.088552415 100 6
1.6326367 0.4432717 -0.029529382 100 7
1.6545681 0.44643691 0.029913386 2 8
1.6141381 0.43492374 0.087610424 15 9
1.6757516 0.4515253 -0.33735037 2 2
1.6557368 0.44551256 -0.27157021 76 3
1.6295289 0.43785086 -0.20717782 88 4
1.6394445 0.44020754 -0.14851345 63 5
1.6320302 0.43760687 -0.088552415 97 6
1.6322424 0.43705314 -0.029494477 100 7
1.6406568 0.43654484 0.029634148 2 8
1.6450617 0.43710205 -0.33086288 14 2
1.6420074 0.43567783 -0.26906726 37 3
1.6368039 0.43368486 -0.20790921 93 4
1.6448227 0.4355031 -0.14886206 59 5
1.6509262 0.43650168 -0.089494467 39 6
1.6376252 0.43237346 -0.029564288 100 7
1.6421707 0.43081552 0.029634148 2 8
1.6190673 0.42415047 0.087715097 63 9
1.6282299 0.42594358 -0.26656434 6 3
1.6440698 0.4294742 -0.20864023 88 4
1.6501887 0.43076503 -0.14921069 27 5
1.6429949 0.42766142 -0.029634094 87 7
1.6514087 0.42708296 0.02977377 2 8
1.6263393 0.41999489 0.088029116 82 9
1.6385684 0.42315298 -0.32895476 100 2
1.6756138 0.43209597 -0.27407315 2 3
1.6282578 0.41927719 -0.2064466 82 4
1.6519988 0.42446843 -0.089389786 3 6
1.6425405 0.42142791 -0.029599192 19 7
1.6645153 0.42428055 0.029983196 2 8
1.6239245 0.41332957 0.08781977 77 9
1.6419382 0.4179146 -0.3293364 100 2
1.673283 0.4252708 -0.27344742 2 3
1.635483 0.415057 -0.207178 70 4
1.6570181 0.42021352 -0.1495593 2 5
1.6457256 0.41673934 -0.088971108 3 6
1.6633883 0.42059338 -0.029948236 4 7
1.6504707 0.41457003 0.029703956 2 8
1.6331061 0.4096024 0.088238448 76 9
1.6319612 0.4093152 -0.32704666 82 2
1.6678482 0.41800672 0.15043072 2 10
1.6709249 0.41846707 -0.27282169 2 3
1.6426994 0.41078982 -0.20790921 38 4
1.6352795 0.40863028 -0.14746757 2 5
1.6743002 0.41776091 -0.090436511 3 6
1.6512636 0.41140079 -0.029703904 4 7
1.6635547 0.41168815 0.029913386 2 8
1.6364651 0.404378 0.088343129 78 9
1.6314744 0.40314475 -0.32666507 100 2
1.6963774 0.41886845 0.15287107 2 10
1.6723753 0.41263306 -0.27282169 2 3
1.6405649 0.40387323 -0.1478162 2 5
1.6485952 0.40523899 -0.088971108 3 6
1.6526897 0.40563387 -0.029703906 4 7
1.6572105 0.4039847 0.029773768 2 8
1.6398073 0.39913508 0.088447794 76 9
1.6424094 0.39976847 -0.32857314 100 2
1.6745977 0.40729448 0.15077935 4 10
1.6622885 0.4039934 -0.27094451 2 3
1.6513147 0.40071601 -0.20864023 2 4
1.6380924 0.39720473 -0.14746757 2 5
1.6499996 0.39948225 -0.088971108 3 6
1.6618707 0.40174147 -0.029843526 6 7
1.6469442 0.39539614 0.029564342 2 8
1.6333531 0.39183259 0.088029116 85 9
1.6476132 0.39494941 -0.3293364 100 2
1.6314451 0.39077187 0.14677019 23 10
1.6905843 0.40462607 -0.27532467 2 3
1.656565 0.39587176 -0.20912771 2 4
1.6510965 0.39426035 -0.14851345 2 5
1.6513839 0.39371982 -0.088971101 3 6
1.6826463 0.4008629 -0.030192573 18 7
1.6560299 0.3917743 0.02970396 2 8
1.6347109 0.38612831 0.088029109 85 9
1.6375171 0.38648939 -0.32704666 100 2
1.6765356 0.39538974 -0.27282169 2 3
1.6501395 0.3885566 -0.20815276 2 4
1.6718577 0.39305466 -0.15025657 2 5
1.6526805 0.38824177 -0.088971108 3 6
1.6645664 0.39042097 -0.029843524 90 7
1.6768632 0.3905274 0.030053008 2 8
1.6359824 0.3807056 0.088029109 85 9
1.63879 0.38105664 -0.32704669 100 2
1.6817541 0.39042816 -0.27344742 2 3
1.6553534 0.38369098 -0.20864023 2 4
1.66927 0.3866089 -0.14990795 2 5
1.6773764 0.38787034 -0.090227157 3 6
1.6586581 0.38049296 0.029703956 2 8
1.6450887 0.37677574 0.088447794 74 9
1.6401099 0.37533423 -0.32704666 100 2
1.6392666 0.3748402 0.14711881 100 10
1.6753368 0.38308811 -0.27219597 2 3
1.6566168 0.37819907 -0.20864023 2 4
1.6550688 0.37723795 -0.14851345 3 5
1.6786534 0.38230541 -0.090227157 3 6
1.649636 0.37509117 -0.029529382 100 7
1.6600417 0.37441146 0.02970396 2 8
1.6463939 0.37103137 0.088447802 74 9
1.6529021 0.37219414 -0.3293364 100 2
1.6444529 0.36999002 0.14746743 100 10
1.672875 0.3760789 -0.27157024 2 3
1.6579918 0.37212428 -0.20864043 4 4
1.6816487 0.37712649 -0.1507795 7 5
1.6566556 0.37091342 -0.088971108 3 6
1.6645955 0.37238687 -0.029773714 91 7
1.6651783 0.36977184 0.029773768 3 8
1.6912992 0.37526175 -0.39996293 1 1
1.6437792 0.36441711 0.088238448 76 9
1.654191 0.36642328 -0.3293364 100 2
1.6457342 0.36424789 0.14746763 100 10
1.6934 0.37479773 -0.27469888 2 3
1.7211771 0.38063052 0.21643993 1 11
1.6844147 0.37219319 -0.21180904 8 4
1.6673898 0.36782011 -0.14938499 32 5
1.6637276 0.36670771 -0.08928512 4 6
1.6678382 0.36700338 -0.029808618 100 7
1.6586443 0.36224988 0.029634148 3 8
1.686887 0.36810881 -0.39861318 27 1
1.6430898 0.3582519 0.088133782 87 9
1.6400517 0.35758945 -0.32628345 100 2
1.6508265 0.35963699 0.14781605 100 10
1.6869774 0.36720338 -0.27344742 2 3
1.7108566 0.37208927 0.2149775 1 11
1.6667166 0.36157557 -0.14921069 45 5
1.6610936 0.3600522 -0.089075774 27 6
1.6671546 0.36075673 -0.029773712 100 7
1.6735849 0.35939652 0.029878484 5 8
1.6423776 0.35209516 0.088029116 85 9
1.6413513 0.35157561 -0.32628345 100 2
1.640444 0.35108262 0.14677019 100 10
1.6805851 0.35936594 -0.27219597 3 3
1.700498 0.36362398 0.21351507 2 11
1.6718657 0.35658619 -0.1495593 77 5
1.6586242 0.35285416 -0.02959919 100 7
1.6990123 0.3580375 -0.40086269 100 1
1.6475658 0.34689656 0.088238455 76 9
1.6540953 0.34827134 -0.32857317 100 2
1.6494583 0.34699446 0.14746743 100 10
1.6972945 0.35674754 -0.27469891 8 3
1.6630259 0.34893945 -0.20864023 100 4
1.6614003 0.34829485 -0.14851344 83 5
1.6812217 0.35183847 -0.090017818 88 6
1.6657786 0.34799978 -0.029703906 100 7
1.6487004 0.34173021 0.029389814 30 8
1.665903 0.34499261 -0.39276448 94 1
1.6526781 0.34195226 0.088447794 76 9
1.6553007 0.3424949 -0.32857314 100 2
1.6526105 0.34163755 0.14764193 58 10
1.6681222 0.34393355 -0.20912771 100 4
1.6645572 0.34289655 -0.14868775 82 5
1.6609201 0.34154215 -0.088866428 100 6
1.6806954 0.34499723 -0.029948238 100 7
1.6753566 0.34115982 0.029843578 5 8
1.6785549 0.34150603 -0.39546388 100 1
1.6479902 0.33498806 0.08813379 87 9
1.6603343 0.33749726 -0.3293364 100 2
1.6978074 0.34449744 -0.27438602 100 3
1.6556348 0.33563942 0.2074216 82 11
1.657639 0.33574459 -0.20766528 88 4
1.6755083 0.3390595 -0.14955932 69 5
1.6542712 0.33416089 -0.088447735 97 6
1.6760086 0.33794218 -0.029843524 100 7
1.6765373 0.33530924 0.029843578 2 8
1.6892915 0.33755434 -0.39771339 100 1
1.6530664 0.33001584 0.088343121 78 9
1.6538008 0.33016247 -0.3278099 100 2
1.6627711 0.3316507 0.14833899 4 10
1.687376 0.33625293 -0.27250883 70 3
1.6723715 0.33295944 0.20937152 100 11
1.6510131 0.32840675 -0.20669033 88 4
1.6805897 0.33398589 -0.14990793 74 5
1.6652232 0.33032709 -0.088971108 94 6
1.6693314 0.33053726 -0.029703906 100 7
1.681622 0.330226 0.029913388 2 8
1.686635 0.33090472 -0.3968136 100 1
1.6502323 0.32376277 0.08813379 87 9
1.6510901 0.32363191 -0.32704666 100 2
1.6482767 0.32278174 0.14694451 4 10
1.7079258 0.33415326 -0.27563754 90 3
1.6696272 0.32635769 0.20888405 89 11
1.6657875 0.32530531 -0.2083967 93 4
1.6700122 0.32582781 -0.14886205 72 5
1.6742076 0.32603979 -0.089389786 84 6
1.6704185 0.3249993 -0.029703906 100 7
1.6630729 0.32085994 0.029564342 2 8
1.695377 0.32678548 -0.39861318 100 1
1.6631196 0.32026601 0.088761814 78 9
1.6560657 0.3186087 -0.32780993 100 2
1.6454802 0.3162744 0.14659588 4 10
1.6896256 0.32475954 -0.27250883 92 3
1.6707002 0.32081872 0.20888403 24 11
1.6707561 0.32052794 -0.20888399 96 4
1.6711395 0.31999594 -0.14886205 72 5
1.6831264 0.32198757 -0.089808479 61 6
1.6715429 0.31916603 -0.029703906 100 7
1.672042 0.31654015 0.029703956 2 8
1.6850187 0.31869301 -0.39591381 100 1
1.6661898 0.31482983 0.08886648 76 9
1.6609713 0.31384379 -0.32857314 100 2
1.6582668 0.31303307 0.14764175 4 10
1.690749 0.31885919 -0.27250883 92 3
1.6757666 0.31542793 -0.20937146 93 4
1.7782766 0.33440199 0.28658801 1 12
1.6780657 0.31555748 -0.14938501 65 5
1.6805086 0.31480238 -0.029843524 100 7
1.6849332 0.31289259 0.029913386 1 8
1.6918688 0.31387517 -0.39726368 100 1
1.6554956 0.30682835 0.088238448 76 9
1.6736391 0.31019101 -0.33086288 100 2
1.6789403 0.31087047 0.14938486 4 10
1.6899093 0.3125965 -0.27219597 88 3
1.6904675 0.31239462 0.21107771 2 11
1.671001 0.30849567 -0.20864023 85 4
1.728925 0.31887743 0.27845344 2 12
1.6850349 0.31078246 -0.14990793 69 5
1.6774764 0.30878222 -0.089389786 3 6
1.6815974 0.30893397 -0.029843524 100 7
1.6781458 0.30557582 0.029773766 2 8
1.6910369 0.30761829 -0.39681357 100 1
1.6565043 0.30133641 0.088238455 74 9
1.6631219 0.30224118 -0.32857317 100 2
1.6721737 0.30358392 0.14868779 4 10
1.7026521 0.30881035 -0.27407315 85 3
1.6837344 0.30507657 0.21010272 2 11
1.6661546 0.30189127 -0.20790921 82 4
1.7144225 0.31032708 0.27595046 10 12
1.6841487 0.3045437 -0.1497336 65 5
1.6903369 0.30505347 -0.090017818 3 6
1.6767086 0.30229184 -0.02973881 100 7
1.6948979 0.30282325 0.030053005 2 8
1.6997215 0.30337891 -0.39861318 91 1
1.6594604 0.29619285 0.088343121 40 9
1.664115 0.29672396 -0.32857314 100 2
1.6574792 0.29524228 0.14729311 4 10
1.6997772 0.30247071 -0.27344742 85 3
1.6925547 0.3008807 0.21107771 3 11
1.6749647 0.29775378 -0.20888397 45 4
1.6871114 0.29930481 -0.14990793 67 5
1.6952726 0.30014315 -0.090227157 3 6
1.677702 0.29672956 -0.029738812 100 7
1.704904 0.29908732 -0.46380377 1 0
1.6801356 0.29443917 0.029773768 2 8
1.6911205 0.29606006 -0.39636368 63 1
1.6728766 0.29226434 -0.33009964 100 2
1.6859266 0.29454431 0.14973348 4 10
1.6929871 0.29547337 -0.27219597 60 3
1.6974542 0.29594857 0.21156515 3 11
1.726226 0.30034325 0.27751482 100 12
1.6744049 0.29102677 -0.14868775 65 5
1.700246 0.29490596 -0.090436511 3 6
1.6806974 0.29121399 -0.029773712 100 7
1.7002766 0.29185641 -0.46225086 4 0
1.689087 0.28963143 0.029913386 2 8
1.6772866 0.28700614 0.089180499 3 9
1.677807 0.28679299 -0.33086288 100 2
1.6869948 0.28836349 0.14973348 4 10
1.6862699 0.28793672 -0.27094448 21 3
1.6867869 0.28772119 0.21010272 3 11
1.6907506 0.28809446 -0.21059015 2 4
1.6981045 0.28904262 0.27282175 81 12
1.691174 0.28755841 -0.15008223 40 5
1.6737478 0.28399509 -0.088971108 3 6
1.6837256 0.28538495 -0.02980862 97 7
1.7356287 0.29137859 -0.47156838 36 0
1.6901371 0.28343904 0.029913386 2 8
1.6817135 0.28172457 -0.39366427 3 1
1.6447916 0.27553934 0.087401077 15 9
1.6826704 0.28158218 -0.33162609 100 2
1.6801797 0.28086475 0.14903623 4 10
1.6995782 0.28349686 0.21156515 5 11
1.6917462 0.28219044 -0.21059017 2 4
1.7146913 0.28571108 0.27532473 100 12
1.700029 0.28296304 -0.1507795 6 5
1.6865504 0.28011385 -0.089599133 3 6
1.6945747 0.28114352 -0.029983141 38 7
1.6989607 0.27912983 0.030053005 2 8
1.6903306 0.27740818 -0.39546388 3 1
1.673908 0.27441302 -0.32971802 100 2
1.6811018 0.27529189 0.14903623 4 10
1.7194304 0.28125951 -0.2759504 2 3
1.6926726 0.2765792 -0.21059017 2 4
1.7058812 0.27843267 0.27376038 100 12
1.6891593 0.27539986 -0.14973362 2 5
1.8020841 0.29348826 0.35490486 1 13
1.68747 0.27452061 -0.08959914 3 6
1.6757597 0.27231458 -0.029634092 57 7
1.6993774 0.27371693 -0.46121556 75 0
1.7038258 0.27412921 0.030122817 2 8
1.7104816 0.27489385 -0.3999629 3 1
1.656489 0.26591924 0.087924436 52 9
1.6662676 0.26719156 0.14764175 4 10
1.7320567 0.27743101 -0.27782759 2 3
1.6818662 0.26878968 -0.20912771 2 4
1.7107441 0.27309868 0.27438611 100 12
1.6724029 0.26667786 -0.14816482 2 5
1.7603951 0.28070891 0.34650904 1 13
1.7041501 0.27143607 -0.090436511 3 6
1.6964494 0.26960155 -0.029983144 100 7
1.704186 0.26808736 -0.46225086 100 0
1.7205756 0.27066565 0.030402053 2 8
1.7114309 0.26892096 -0.3999629 3 1
1.6791112 0.2635431 0.089075826 76 9
1.6751093 0.26231509 0.148339 6 10
1.7135454 0.2680285 -0.27469891 2 3
1.6847097 0.26351807 0.20937152 79 11
1.7024072 0.26598108 -0.21156509 2 4
1.7097355 0.2668204 0.27407324 100 12
1.6930095 0.2639083 -0.14990795 3 5
1.7303737 0.26942256 0.34040317 3 13
1.7090807 0.26580164 -0.09064585 3 6
1.6835482 0.26152983 -0.029738812 100 7
1.7070205 0.26243094 -0.46276844 92 0
1.7057438 0.2619299 0.030122815 2 8
1.7162573 0.26323774 -0.40086269 3 1
1.6839693 0.25828543 0.089285173 77 9
1.6844521 0.25805858 -0.33124447 4 2
1.6838925 0.25767213 0.14903623 11 10
1.7261868 0.26383576 -0.27657613 2 3
1.6935135 0.25853863 0.21034645 96 11
1.7033254 0.2600365 -0.21156509 2 4
1.7106562 0.260851 0.27407321 100 12
1.7293743 0.26339647 -0.15304554 9 5
1.7020996 0.25863442 -0.090227157 3 6
1.7061985 0.25895256 -0.030122763 91 7
1.7078816 0.25676909 -0.46276847 93 0
1.7066031 0.25627235 0.030122817 2 8
1.7132665 0.25696641 -0.3999629 1 1
1.6729658 0.25092185 0.088657148 76 9
1.7085975 0.25596204 -0.33582389 4 2
1.7153304 0.25635776 -0.27469891 2 3
1.6943614 0.25292245 0.21034646 96 11
1.7002516 0.25380167 -0.21107763 2 4
1.7154195 0.25575894 0.27469897 100 12
1.7085613 0.25443164 -0.15112811 32 5
1.6831924 0.25005329 -0.089180447 3 6
1.7011137 0.25241223 -0.030018048 100 7
1.7087237 0.2511037 -0.46276847 88 0
1.6955724 0.24886876 0.029913386 2 8
1.710253 0.25071862 -0.39906311 3 1
1.6737887 0.24537304 0.088657148 76 9
1.6822416 0.24631234 -0.33048126 4 2
1.6816216 0.24592181 0.1486876 100 10
1.7239895 0.25181037 -0.2759504 2 3
1.6991197 0.24787502 0.21083397 96 11
1.6853695 0.24586909 -0.20912771 2 4
1.7084395 0.24893013 0.27344754 100 12
1.7074238 0.24847782 -0.15095378 48 5
1.7368979 0.25245762 0.34116659 100 13
1.6919183 0.24561834 -0.089599133 3 6
1.6960043 0.24590926 -0.029913334 100 7
1.7057225 0.24488728 -0.46173322 90 0
1.7082651 0.24494807 0.030122817 2 8
1.7072169 0.24449284 -0.39816329 1 1
1.6785473 0.24038702 0.088866487 76 9
1.6830491 0.24073279 -0.33048126 4 2
1.6784831 0.23977998 0.14833899 100 10
1.7326373 0.24720763 -0.27720186 3 3
1.6999321 0.24223951 0.21083395 96 11
1.7097584 0.24363971 -0.21205258 2 4
1.7131668 0.24381956 0.27407324 100 12
1.7161288 0.24393556 -0.15165105 77 5
1.7046815 0.24200571 0.33467907 72 13
1.7124982 0.24280971 -0.090645842 3 6
1.6928505 0.23972255 -0.029843524 100 7
1.7027822 0.23809914 -0.46069795 90 0
1.707171 0.2384083 0.030087911 4 8
1.7158217 0.2393111 -0.3999629 3 1
1.6794577 0.2339405 0.08886648 76 9
1.687809 0.23510379 -0.33124447 4 2
1.6773773 0.23335227 0.14816469 100 10
1.7296184 0.24031226 -0.27657613 17 3
1.704741 0.23655254 0.21132141 100 11
1.6988835 0.23543754 -0.21059015 2 4
1.7140903 0.23724003 0.27407324 100 12
1.6972755 0.23491277 -0.14990793 83 5
1.7172259 0.2373686 0.3369686 85 13
1.7015059 0.23489307 -0.090017825 3 6
1.7016826 0.23431215 -0.029983144 100 7
1.7074312 0.23267509 -0.46173322 90 0
1.6644014 0.22651471 0.029320005 13 8
1.7011987 0.23122102 -0.39636368 3 1
1.6881806 0.22915161 0.089285173 76 9
1.7080735 0.23185186 -0.33506066 6 2
1.6900277 0.22910111 0.14921056 100 10
1.6996551 0.22980291 0.21059023 100 11
1.7114985 0.23109923 -0.21205258 2 4
1.7227387 0.23231086 0.27532473 100 12
1.6941361 0.2284538 -0.1495593 76 5
1.7024783 0.22927701 0.33391565 17 13
1.7102332 0.23001671 -0.090436511 3 6
1.7024897 0.22837114 -0.029983139 100 7
1.7178081 0.22798401 -0.46432137 96 0
1.7058593 0.2257923 -0.3972635 3 1
1.6810502 0.22220998 0.088866487 76 9
1.710819 0.22614498 -0.3354423 9 2
1.6848911 0.22241934 0.1486876 100 10
1.7371294 0.22900593 -0.27751473 90 3
1.6945425 0.22309081 0.209859 91 11
1.718199 0.22590102 -0.21278399 5 4
1.7235391 0.22629631 0.27532473 100 12
1.7107658 0.22431548 -0.15095378 72 5
1.6951827 0.22197212 -0.089599133 4 6
1.7151741 0.22398008 -0.030192571 100 7
1.7167164 0.22143966 -0.46380377 85 0
1.695691 0.21872759 0.029843578 49 8
1.7317634 0.22307242 -0.40311226 4 1
1.6798345 0.21608621 0.088761814 78 9
1.6916238 0.21700172 0.14921056 100 10
1.7183633 0.22012784 -0.27438602 66 3
1.6913729 0.21667029 0.20937152 100 11
1.7203997 0.21977754 0.274699 100 12
1.7154914 0.21884708 -0.15130244 74 5
1.7293932 0.22031383 0.33887672 2 13
1.7177793 0.21852879 -0.090750523 22 6
1.7514818 0.22250655 0.40761134 1 14
1.7040428 0.21647994 -0.029983141 100 7
1.717479 0.2154454 -0.46380377 88 0
1.6984656 0.21276003 0.029878484 51 8
1.7325691 0.2167241 -0.40311244 27 1
1.686524 0.2109644 0.089075826 74 9
1.6948602 0.21170676 -0.33200771 99 2
1.6884166 0.21060345 0.14886212 100 10
1.7328427 0.21583694 -0.2765761 85 3
1.6980654 0.21120425 0.21010272 85 11
1.7191957 0.2135286 0.27438611 100 12
1.7043812 0.21138574 -0.15025654 72 5
1.7262549 0.21379271 0.33811346 2 13
1.7067729 0.21077505 -0.030018048 100 7
1.7143853 0.2089818 -0.4627685 90 0
1.6971767 0.2068841 0.029843578 29 8
1.6912156 0.20555758 0.089285173 74 9
1.7053336 0.20697238 -0.3339158 100 2
1.6891415 0.20470802 0.14886212 92 10
1.727666 0.20937684 -0.27563751 97 3
1.7026979 0.20604861 0.21059021 42 11
1.7145581 0.20718107 -0.21205278 98 4
1.7120861 0.20657921 0.27313465 45 12
1.7011527 0.20495795 -0.14990793 76 5
1.7152596 0.20665756 0.33582374 2 13
1.715261 0.20635487 -0.090541184 70 6
1.7055126 0.2045774 -0.029983144 100 7
1.7189056 0.20375068 -0.46380377 88 0
1.7301335 0.20446925 -0.40221244 100 1
1.6918879 0.19994935 0.089285173 76 9
1.70991 0.20177661 -0.33467904 100 2
1.7016834 0.20050393 0.1499078 17 10
1.7303481 0.20357606 -0.2759504 100 3
1.7231574 0.20211947 -0.21302754 92 4
1.7097385 0.200243 -0.15060517 76 5
1.7159703 0.20067011 0.33582374 2 13
1.7169031 0.20017093 0.39906317 58 14
1.7101542 0.19938406 -0.030052952 100 7
1.727283 0.19863167 -0.46587428 90 0
1.7144383 0.1971546 0.030122815 2 8
1.7114419 0.19650736 -0.39771339 91 1
1.688607 0.1935869 0.089075826 74 9
1.710604 0.19580624 -0.33467904 100 2
1.7221678 0.19682541 0.15165091 4 10
1.7329764 0.19806074 -0.27626327 97 3
1.6941994 0.19332939 0.20937151 2 11
1.7080394 0.19460675 -0.21107762 80 4
1.7370055 0.19759992 0.27688909 3 12
1.7143861 0.19472374 -0.15095378 74 5
1.7244291 0.19586444 0.33735022 2 13
1.7067031 0.19354935 -0.090017818 3 6
1.7194939 0.19469598 0.3995131 70 14
1.7267359 0.19521077 -0.030332187 100 7
1.7298522 0.19311658 -0.46639195 96 0
1.7310153 0.1929414 0.030402053 2 8
1.7276115 0.19225676 -0.4013128 96 1
1.6853025 0.18724982 0.088866487 74 9
1.703439 0.18926494 -0.33315256 100 2
1.7168703 0.19045477 0.15112796 4 10
1.7356204 0.19222811 -0.27657613 88 3
1.7165675 0.18981384 0.21205263 2 11
1.704762 0.18820807 -0.21059035 63 4
1.7180495 0.18937154 0.27376038 3 12
1.7189832 0.18947446 -0.15130241 69 5
1.744617 0.19199094 0.34116659 2 13
1.7232509 0.18933609 -0.090855196 3 6
1.7162887 0.18826801 0.39861327 64 14
1.7174679 0.1880932 -0.030157667 100 7
1.7247536 0.18645453 -0.46483901 93 0
1.7316781 0.18689738 0.030402051 2 8
1.7321472 0.18664218 -0.40221241 97 1
1.6978607 0.18264799 0.089494526 43 9
1.7001853 0.18289806 -0.33238935 100 2
1.701677 0.18275811 0.14973348 4 10
1.7461016 0.18722104 -0.27814046 83 3
1.7172198 0.18382111 0.21205264 2 11
1.7152779 0.18331046 -0.21180904 27 4
1.7108432 0.18253455 0.27250889 3 12
1.715672 0.18304972 -0.1509538 76 5
1.7374679 0.18506853 0.33963993 2 13
1.7358176 0.18458638 -0.091483228 3 6
1.7227491 0.18289261 0.39996299 61 14
1.7081711 0.18104351 -0.029983141 100 7
1.7215514 0.18003142 -0.46380377 93 0
1.716409 0.17919083 0.030122817 2 8
1.7366648 0.1809991 -0.40311244 100 1
1.7047188 0.17736888 -0.33315259 100 2
1.6983409 0.17640488 0.14938486 4 10
1.7329905 0.17969902 -0.27595037 88 3
1.7217999 0.17823493 0.2125401 2 11
1.7271897 0.17818354 0.27501187 3 12
1.7163004 0.17706016 -0.15095378 74 5
1.738103 0.17900287 0.33964011 2 13
1.7443986 0.1793427 -0.091901921 3 6
1.7233769 0.17687838 0.39996299 61 14
1.7167498 0.17589542 -0.030122761 100 7
1.7298573 0.17479821 -0.46587425 93 0
1.717024 0.1731979 0.030122815 2 8
1.7372861 0.17493546 -0.40311244 100 1
1.7130048 0.17218933 0.090227216 2 9
1.7170479 0.17259572 -0.3354423 100 2
1.7108408 0.17166938 0.15043072 4 10
1.7375383 0.17404197 -0.27657613 85 3
1.7224115 0.17222401 0.2125401 2 11
1.7224416 0.17192256 -0.21254024 2 4
1.7494233 0.17430735 0.27845344 4 12
1.7169082 0.17106764 -0.15095381 69 5
1.7269958 0.17176835 0.33735022 2 13
1.7171891 0.17049032 -0.090436511 3 6
1.7278624 0.1712455 0.40086278 63 14
1.7273033 0.17088568 -0.030297283 100 7
1.7343028 0.16913339 -0.46690959 90 0
1.7454821 0.16991611 0.030611482 2 8
1.7301276 0.16811661 -0.40131283 100 1
1.7076027 0.16592787 0.089913197 2 9
1.723502 0.16716918 -0.3365871 100 2
1.7114296 0.16569674 0.15043072 4 10
1.7381352 0.16797613 -0.27657613 88 3
1.7230023 0.16621016 0.21254012 2 11
1.7269833 0.16628999 -0.21302754 2 4
1.7637556 0.16983075 0.28064349 5 12
1.7254276 0.16583629 -0.15165104 74 5
1.7393105 0.16686425 0.33964011 2 13
1.7058448 0.1633524 -0.089808479 3 6
1.7245698 0.16484262 0.39996299 63 14
1.729851 0.16534743 -0.030332187 100 7
1.7558072 0.1675192 0.47260362 10 15
1.7387292 0.16343963 -0.46794486 93 0
1.7340906 0.16300361 0.030402053 2 8
1.7384365 0.16310687 -0.40311244 91 1
1.7161258 0.16071065 0.09033189 2 9
1.7123468 0.16005529 -0.33429742 49 2
1.7318355 0.16157286 0.15217385 4 10
1.7426163 0.16257869 -0.27720186 79 3
1.7314501 0.16123131 0.21351506 2 11
1.7156658 0.15945944 -0.21156509 2 4
1.7407345 0.16148382 0.27688909 28 12
1.7259963 0.15981197 -0.15165105 67 5
1.7359446 0.16073309 0.33887669 3 13
1.7421751 0.16100334 -0.091692567 3 6
1.721226 0.15876518 0.3990632 61 14
1.7045312 0.15692444 -0.029878428 76 7
1.7277179 0.15662675 -0.46483904 90 0
1.7346488 0.15694986 0.030402051 2 8
1.7428769 0.15738767 -0.40401223 91 1
1.7087196 0.15400252 0.089913204 3 9
1.7244244 0.15511455 0.15147661 4 10
1.7412059 0.15631773 -0.276889 82 3
1.735957 0.15554029 0.21400255 3 11
1.7399383 0.15559176 -0.21449016 2 4
1.7185787 0.15337937 -0.15095381 67 5
1.7364951 0.15467207 0.33887669 3 13
1.7347687 0.15421399 -0.091273874 3 6
1.729534 0.15344442 0.40086278 63 14
1.7396147 0.15372682 0.46794489 44 15
1.7321032 0.15093069 -0.46587428 88 0
1.7391706 0.15123987 0.030471865 2 8
1.745357 0.15147179 -0.40446192 85 1
1.7251654 0.1494161 0.090750583 3 9
1.7368678 0.15042964 -0.33887684 2 2
1.7051054 0.14737807 0.14973348 4 10
1.7397728 0.15006946 -0.27657613 85 3
1.7364891 0.14948091 0.21400253 3 11
1.7246484 0.14815757 -0.21254024 2 4
1.7595326 0.15084501 0.27970487 83 12
1.7230737 0.14771938 -0.15130243 67 5
1.7409366 0.14894553 0.33963993 5 13
1.7392769 0.14849693 -0.091483228 3 6
1.7339426 0.1477367 0.4017626 60 14
1.7414503 0.14807111 -0.030506715 14 7
1.7574655 0.14912303 0.47260368 63 15
1.74032 0.14552708 -0.46794486 88 0
1.7396878 0.1451693 0.030471865 2 8
1.7245131 0.14359917 -0.39951301 52 1
1.723686 0.14322738 0.090645909 9 9
1.7295563 0.14371517 -0.33735037 2 2
1.7274505 0.14323747 0.15165091 8 10
1.7265055 0.14285488 -0.27438602 40 3
1.7389789 0.14358141 0.21424629 6 11
1.7211983 0.14181171 -0.21205258 2 4
1.7423301 0.14324583 0.27688909 88 12
1.7354931 0.1426837 -0.15234829 34 5
1.7434026 0.14302769 0.34002155 15 13
1.7318221 0.14177418 -0.091064543 3 6
1.7422168 0.14231822 0.40356222 61 14
1.7367948 0.14126423 0.46690965 63 15
1.7465944 0.1399145 -0.46949777 82 0
1.7481573 0.13973264 0.030611482 2 8
1.7172335 0.13695844 -0.39771339 8 1
1.7496181 0.13923481 -0.34116656 2 2
1.7289629 0.13698295 -0.27469888 8 3
1.7058513 0.13455354 -0.21010266 2 4
1.7487274 0.13762757 0.27782771 100 12
1.7161183 0.13506119 -0.15060519 42 5
1.7323062 0.13572767 -0.091064535 3 6
1.7349318 0.13562791 0.4017626 61 14
1.7444351 0.13606536 -0.030541617 100 7
1.7430552 0.13565169 0.46846253 61 15
1.7509247 0.13411148 -0.47053307 79 0
1.7366712 0.1327149 0.030402053 2 8
1.7390749 0.13259415 -0.40266249 3 1
1.7007458 0.12937242 0.089389846 47 9
1.7226869 0.13104144 -0.33582389 2 2
1.7550371 0.13288698 -0.27876621 3 3
1.7458999 0.13158143 -0.21497762 2 4
1.7511668 0.13167185 0.27814054 100 12
1.7344601 0.13041565 -0.15217398 72 5
1.7521898 0.1314404 0.34154803 86 13
1.7367529 0.12997761 -0.091273874 3 6
1.7315079 0.12928203 0.40086278 61 14
1.7269517 0.12863797 -0.030227473 100 7
1.7550777 0.13042501 0.47156841 67 15
1.7475287 0.12771755 -0.46949777 53 0
1.7530791 0.12781562 0.030681292 2 8
1.7434146 0.1268051 -0.40356234 3 1
1.7230995 0.12502436 0.090541244 76 9
1.7348827 0.12587935 -0.33811361 2 2
1.7228944 0.12470806 0.15112798 100 10
1.7751929 0.12818216 -0.28189492 7 3
1.7265271 0.1243644 0.2125401 62 11
1.7344688 0.12463301 -0.21351519 2 4
1.7476752 0.1252754 0.27751482 100 12
1.7329173 0.12421755 -0.15199967 69 5
1.7643874 0.12616301 0.34383774 70 13
1.7332118 0.1236306 -0.091064543 3 6
1.7319486 0.12323669 0.40086278 61 14
1.7413533 0.1235996 -0.030471809 100 7
1.7401057 0.12320668 0.46742728 70 15
1.7475299 0.12127963 0.030576577 5 8
1.7593992 0.1217957 -0.40716153 3 1
1.7215326 0.11887249 0.090436563 81 9
1.7588146 0.1214468 -0.34269303 2 2
1.7153685 0.11814521 0.15043072 100 10
1.7421267 0.11968354 -0.2765761 40 3
1.7388335 0.1191524 0.21400255 85 11
1.746776 0.11938953 -0.21497762 2 4
1.7559849 0.11971106 0.27876627 100 12
1.729365 0.1178963 -0.15165105 74 5
1.7315185 0.11773951 0.33735022 71 13
1.7455887 0.11839022 -0.091692567 3 6
1.7401454 0.11771595 0.4026624 63 14
1.7437693 0.11765538 -0.030506715 100 7
1.7443802 0.1173908 0.46846253 67 15
1.7520356 0.11514187 -0.40536174 3 1
1.7199444 0.1127314 0.090331897 69 9
1.7396373 0.11402214 -0.33887684 4 2
1.7157704 0.1121571 0.15043072 100 10
1.7425339 0.11360119 -0.27657613 88 3
1.7332962 0.11269514 0.21327133 96 11
1.7590678 0.1140625 -0.21644007 2 4
1.7563921 0.11358117 0.2787663 100 12
1.729766 0.11185933 -0.15165105 69 5
1.7358371 0.11194775 0.33811364 40 13
1.72606 0.11101469 -0.09064585 3 6
1.7483248 0.11214032 0.40446201 60 14
1.7481605 0.11182344 -0.030576522 100 7
1.7486355 0.11154657 0.46949786 67 15
1.7104136 0.10671163 0.029913388 42 8
1.7543716 0.10914594 -0.40581161 4 1
1.7163404 0.10647999 0.090122551 72 9
1.7557006 0.10892186 -0.34192982 4 2
1.7241057 0.10665888 0.15112796 100 10
1.7685513 0.1090986 -0.28064343 69 3
1.7316976 0.10652263 0.2130276 88 11
1.7356788 0.10646264 -0.21351519 2 4
1.7587497 0.10756966 0.27907917 100 12
1.7381004 0.10630671 -0.15234828 69 5
1.7423857 0.10595836 -0.091483228 3 6
1.7370346 0.10532869 0.4017626 61 14
1.7525324 0.10596229 -0.030646332 100 7
1.749014 0.10544235 0.46949783 67 15
1.7307379 0.10191557 0.030262435 49 8
1.7508514 0.10279334 -0.40491185 27 1
1.7167015 0.10048774 0.090122551 69 9
1.7482306 0.10233331 -0.34040335 4 2
1.7264566 0.10075644 0.15130228 100 10
1.7551169 0.1021217 -0.27845335 65 3
1.7360222 0.10070668 0.21351506 92 11
1.7479305 0.10109141 -0.21497743 2 4
1.7531981 0.10108905 0.27814054 100 12
1.7503955 0.10092746 -0.15339416 74 5
1.7522565 0.10072795 0.34116659 2 13
1.7467327 0.10010457 -0.091692567 4 6
1.7373916 0.099265024 0.4017626 63 14
1.7389163 0.099047661 -0.030401999 100 7
1.7628728 0.10010356 0.47312132 65 15
1.7470224 0.09736751 0.030541673 69 8
1.719003 0.095204845 0.090227224 67 9
1.7485433 0.096840918 -0.34040332 4 2
1.7207967 0.095002145 0.15077935 100 10
1.7692358 0.097366683 -0.28064343 69 3
1.7422768 0.095578864 0.2142463 85 11
1.7522038 0.095815897 -0.21546492 2 4
1.7554796 0.09568774 0.27845344 100 12
1.7427464 0.094993681 -0.15269692 69 5
1.7682472 0.096075036 0.34421954 2 13
1.7510273 0.094832078 -0.091901913 21 6
1.7454787 0.094226047 0.40356222 66 14
1.7352254 0.093369663 -0.030332193 100 7
1.7554621 0.094150484 0.47105074 55 15
1.7333727 0.090539709 0.030297339 68 8
1.7748479 0.092394643 -0.41031066 83 1
1.7253087 0.089513838 0.090541244 72 9
1.7449495 0.090532847 -0.33964008 4 2
1.7211177 0.088996038 0.15077935 100 10
1.7557555 0.090479024 -0.27845332 76 3
1.748547 0.089801572 0.2149775 43 11
1.7445977 0.089294322 -0.21448997 2 4
1.7558028 0.089559771 0.27845341 100 12
1.7390876 0.088707164 -0.15234829 74 5
1.7568077 0.089303613 0.34192964 2 13
1.7535819 0.088526003 0.40536183 63 14
1.7435293 0.087713458 -0.030471809 100 7
1.7461329 0.087538943 0.46846253 36 15
1.7416675 0.084877446 0.030436957 67 8
1.7479094 0.084875017 -0.40401205 76 1
1.7276053 0.083587714 0.090645909 65 9
1.7491767 0.084631406 -0.34040332 4 2
1.7253979 0.083179094 0.15112796 100 10
1.7560607 0.08434929 -0.27845332 76 3
1.7607615 0.083959922 -0.21643987 2 4
1.7580777 0.083523586 0.27876627 97 12
1.7433667 0.0828247 -0.15269691 69 5
1.7649529 0.083542332 0.34345609 2 13
1.7636169 0.083170637 -0.092529945 81 6
1.749987 0.082220934 0.40446201 59 14
1.75581 0.082188256 -0.030681239 100 7
1.7464277 0.081443623 0.4684625 7 15
1.7459489 0.078977644 0.030506773 66 8
1.7481948 0.078774355 -0.40401223 36 1
1.7219008 0.077287607 0.09033189 69 9
1.753384 0.078700729 -0.34116653 6 2
1.7296587 0.077333346 0.15147661 100 10
1.764238 0.078571722 -0.27970478 76 3
1.7451651 0.077416293 0.21449003 2 11
1.7570773 0.077637464 -0.21595238 12 4
1.7701994 0.07790859 0.28064349 97 12
1.7555882 0.077265531 -0.15374279 72 5
1.7887703 0.078412272 0.34803551 2 13
1.7499291 0.076403648 -0.09179724 100 6
1.7502633 0.076113038 0.40446201 59 14
1.7580839 0.076144882 -0.030716142 100 7
1.7542055 0.073216595 0.030646387 58 8
1.7281468 0.071523897 0.090645909 65 9
1.753648 0.072579332 -0.34116653 19 2
1.7358902 0.071541734 0.15199952 100 10
1.7704228 0.072655432 -0.28064343 74 3
1.751375 0.071566746 0.21522124 2 11
1.758618 0.071248703 0.27876627 45 12
1.7558471 0.071136437 -0.15374278 67 5
1.7694166 0.071376026 0.34421936 2 13
1.7481894 0.070215009 -0.091692574 49 6
1.7505182 0.070002548 0.40446198 60 14
1.7503465 0.069688879 -0.030576522 100 7
1.7684379 0.067627251 0.030890718 24 8
1.7443525 0.066097304 0.09148328 28 9
1.7421023 0.06570673 0.15252247 48 10
1.7746136 0.066622801 -0.28126916 74 3
1.7635163 0.065898828 0.21668367 2 11
1.7476581 0.064999975 -0.21473369 13 4
1.7521027 0.064859085 -0.15339416 69 5
1.7696546 0.065200403 0.34421954 2 13
1.754647 0.064033359 0.40536183 61 14
1.7445841 0.063362077 -0.030471811 100 7
1.7669383 0.060159344 -0.28001767 70 3
1.7756395 0.060145341 0.21814612 2 11
1.7728926 0.059432786 0.28095636 4 12
1.7443535 0.058476072 -0.15269694 67 5
1.7659472 0.058891419 0.34345609 2 13
1.7685986 0.058669992 -0.092739284 2 6
1.7587552 0.058037005 0.40626162 63 14
1.752789 0.057533905 -0.030611428 100 7
1.7688669 0.055280428 0.03089072 2 8
1.7707233 0.054719791 0.092844017 2 9
1.7641236 0.054515839 -0.34307465 100 2
1.7624329 0.054155722 0.15426558 3 10
1.7671375 0.053990744 -0.28001767 70 3
1.7559965 0.053344451 0.2157087 2 11
1.7659268 0.053337641 -0.21692735 2 4
1.7770381 0.053361978 0.28158212 4 12
1.7564956 0.052745119 -0.15374278 69 5
1.766142 0.052727118 0.34345609 2 13
1.7568141 0.052141774 -0.092111245 2 6
1.7667385 0.052126873 0.40806124 61 14
1.7609744 0.051650047 -0.030751046 100 7
1.7690492 0.049105126 0.03089072 1 8
1.7509385 0.047990791 0.0917973 2 9
1.7662655 0.048410885 -0.34345627 100 2
1.7506613 0.047677435 0.1532197 4 10
1.7712647 0.047929198 -0.28064343 74 3
1.744266 0.046893995 0.21424629 2 11
1.7661024 0.047172606 -0.21692736 2 4
1.8068337 0.047944993 0.28627515 5 12
1.7606527 0.046719559 -0.1540914 67 5
1.7859411 0.047078688 0.34727249 2 13
1.7489994 0.04579943 -0.091692574 3 6
1.7513251 0.045554474 0.40446201 58 14
1.7511488 0.045244072 -0.03057652 91 7
1.7772064 0.043124102 0.031030342 1 8
1.7630756 0.042164631 0.092425331 2 9
1.7487596 0.041822258 -0.3400217 100 2
1.7587847 0.041755721 0.15391697 3 10
1.7733963 0.041792948 -0.2809563 68 3
1.7722027 0.04145452 0.21765864 2 11
1.7583179 0.040823542 -0.21595238 2 4
1.7635432 0.040636919 0.27939203 26 12
1.7687725 0.040757414 -0.15478866 67 5
1.7782437 0.040664304 0.34574583 2 13
1.7531421 0.039785001 -0.091901921 3 6
1.7514734 0.039441302 0.40446201 59 14
1.7813444 0.037002806 0.03110015 1 8
1.7512308 0.035765763 0.091797292 2 9
1.746932 0.035677969 -0.33964005 100 2
1.7429838 0.035293017 0.15252247 4 10
1.777481 0.035681203 -0.28158203 68 3
1.7683672 0.035189506 0.21717115 2 11
1.7822664 0.035154928 -0.21887726 2 4
1.7569519 0.034348857 -0.15374279 63 5
1.7940779 0.034761455 0.34879875 2 13
1.7692453 0.033971418 -0.092739284 2 6
1.7632906 0.033549234 0.40716138 60 14
1.7474235 0.032942269 -0.030506715 4 7
1.7654678 0.030508511 0.030820915 1 8
1.7553393 0.029720606 0.092006646 2 9
1.756861 0.029746372 -0.34154817 38 2
1.7470804 0.029275781 0.15287107 6 10
1.7696944 0.029345786 -0.28033057 68 3
1.7962667 0.029472847 0.22058347 2 11
1.7704691 0.028740495 -0.21741503 2 4
1.793411 0.028799845 0.28408507 83 12
1.7610453 0.028280098 -0.1540914 45 5
1.7824103 0.028312033 0.34650904 2 13
1.7853292 0.028045887 -0.093576662 2 6
1.7653457 0.027424641 0.40761134 55 14
1.7735208 0.027241206 -0.030960474 4 7
1.7615643 0.024290074 0.030751102 2 8
1.7634163 0.024007799 0.092425331 2 9
1.7651018 0.023414534 0.15443988 18 10
1.7697861 0.023167752 -0.28033057 68 3
1.7606301 0.022741409 0.21619621 2 11
1.7665888 0.022509174 -0.21692735 2 4
1.7796702 0.022675855 0.28189501 81 12
1.7785721 0.022041807 0.34574583 3 13
1.7574568 0.021472527 -0.092111252 2 6
1.7751737 0.021379139 0.40986085 46 14
1.7736013 0.021360202 -0.030960472 4 7
1.7656345 0.018490618 0.030820914 2 8
1.7634894 0.01785255 0.092425331 2 9
1.7777542 0.017376382 -0.28158203 66 3
1.7646658 0.016940448 0.21668367 3 11
1.7547437 0.016538927 -0.21546492 2 4
1.7836891 0.016499577 0.28252074 94 12
1.7512383 0.015894575 -0.15321985 2 5
1.7923776 0.016267963 0.34841716 3 13
1.7695013 0.015751494 -0.092739284 2 6
1.7499021 0.015270771 0.40401211 14 14
1.773665 0.01516942 -0.030960472 4 7
1.7896838 0.01249434 0.031239768 2 8
1.7675331 0.012032053 0.092634663 2 9
1.7532662 0.011322103 0.15339401 84 10
1.7857056 0.01122078 -0.28283352 68 3
1.7766246 0.010852799 0.2181461 3 11
1.7746415 0.010530959 -0.21790232 1 4
1.7837342 0.010584915 0.28252074 93 12
1.7652278 0.010167856 -0.15444002 2 5
1.8042027 0.01007661 0.35070685 10 13
1.7655511 0.0095526017 -0.092529945 2 6
1.7657071 0.009246124 -0.030820858 6 7
1.7877158 0.0065533472 0.031204863 4 8
1.7695618 0.005868291 0.092739344 5 9
1.7592725 0.005220098 0.15391697 100 10
1.7956096 0.0053279176 -0.28439781 63 3
1.7965016 0.005017031 0.22058348 10 11
1.782607 0.0046662716 -0.21887726 2 4
1.7837601 0.0043588327 0.28252074 93 12
1.7791994 0.0040371763 -0.15566021 3 5
1.7855456 0.0037391055 -0.093576662 2 6
1.7657286 0.0030821282 -0.030820858 20 7
1.75131 -0.0012226453 0.1532197 100 10
1.783765 -0.0015566286 -0.28252065 60 3
1.7746718 -0.0018584324 -0.21790232 2 4
1.7877146 -0.0021841065 0.28314644 93 12
1.7851795 -0.0024925822 -0.15618315 25 5
1.7806696 -0.0027970714 0.34612745 49 13
1.7775577 -0.0031024264 -0.093157969 2 6
1.7592648 -0.0073692342 0.15391697 100 10
1.7817743 -0.0074635223 -0.28220776 47 3
1.782596 -0.0077780928 0.21887733 58 11
1.7825947 -0.0080892146 -0.21887726 2 4
1.7876962 -0.0084243827 0.28314644 93 12
1.8042094 -0.0088170981 0.35070685 70 13
1.7695489 -0.0089565683 -0.092739291 2 6
1.7976999 -0.0097265886 -0.031379331 100 7
1.7736868 -0.01238287 0.030960532 62 8
1.7595378 -0.012898317 0.092215985 74 9
1.7691922 -0.013277887 0.15478852 100 10
1.7935894 -0.013774049 -0.28408498 12 3
1.7607226 -0.013828966 0.21619619 72 11
1.7785856 -0.014279705 -0.21838978 2 4
1.7975327 -0.014745574 0.28471082 90 12
1.7811365 -0.014611074 -0.15583453 66 5
1.7864988 -0.014966888 0.34727249 76 13
1.7974672 -0.015372518 -0.094204687 5 6
1.7896565 -0.015930476 -0.031239711 100 7
1.7836307 -0.018678818 0.031135056 70 8
1.7634765 -0.019083396 0.092425331 77 9
1.7691351 -0.019453438 0.15478852 100 10
1.7646334 -0.020019989 0.21668366 71 11
1.7864646 -0.020579502 -0.21936473 2 4
1.7954947 -0.020996945 0.28439793 93 12
1.7950202 -0.020991396 -0.15705471 69 5
1.7883989 -0.021226143 0.34765393 76 13
1.7935894 -0.022227002 -0.031309523 100 7
1.7835548 -0.024904739 0.031135056 60 8
1.7633991 -0.025238961 0.092425331 69 9
1.7590957 -0.02548445 0.15391697 100 10
1.780432 -0.026415179 0.21863359 55 11
1.7863818 -0.026815303 -0.21936473 2 4
1.7914603 -0.027204277 0.2837722 93 12
1.7869676 -0.027136052 -0.15635747 72 5
1.8020549 -0.027679753 0.35032544 70 13
1.7735063 -0.028170077 -0.030960474 100 7
1.7794579 -0.031060552 0.031065244 59 8
1.7692909 -0.03150088 0.092739344 65 9
1.7649719 -0.031732127 0.15443988 100 10
1.8160489 -0.033601623 -0.22302082 7 4
1.8012295 -0.033641912 0.28533652 90 12
1.7808856 -0.033261947 -0.15583453 67 5
1.7940956 -0.033821914 0.34879875 70 13
1.7972077 -0.034194369 -0.094204687 90 6
1.7833939 -0.034554288 -0.031135 100 7
1.7793386 -0.037271827 0.031065244 59 8
1.7751609 -0.037804246 0.093053371 69 9
1.7708261 -0.038021144 0.15496282 100 10
1.8139356 -0.039896954 -0.22277728 33 4
1.8030761 -0.039972961 0.28564942 93 12
1.7847428 -0.039566521 -0.15618315 72 5
1.7978922 -0.040171977 0.34956199 68 13
1.801071 -0.040557515 -0.09441404 94 6
1.7912591 -0.040962148 -0.031274617 100 7
1.7831962 -0.043580379 0.031135056 56 8
1.7690279 -0.043851994 0.092739344 59 9
1.7766581 -0.04435141 0.15548575 100 10
1.7979176 -0.045510121 0.22082722 2 11
1.8018786 -0.045925058 -0.22131485 51 4
1.8009509 -0.046215948 0.28533655 88 12
1.788577 -0.045898411 -0.15653177 69 5
1.8036288 -0.046599675 0.35070702 63 13
1.7849457 -0.046428706 -0.093576662 82 6
1.797102 -0.047372639 -0.031379331 100 7
1.7910285 -0.050027959 0.031274673 62 8
1.7808429 -0.050365571 0.093367383 23 9
1.7784837 -0.050609507 0.15566027 100 10
1.805685 -0.052014381 0.22180219 2 11
1.7798806 -0.051581968 -0.21863352 63 4
1.7968293 -0.052387018 0.28471079 90 12
1.800355 -0.05248981 -0.15757762 64 5
1.797568 -0.052722555 0.34956199 37 13
1.7927583 -0.052894656 -0.093995348 82 6
1.7889304 -0.053406715 -0.031239711 100 7
1.7948405 -0.056405138 0.031344481 59 8
1.7703309 -0.056562763 0.15496282 100 10
1.8015244 -0.058188904 0.22131471 2 11
1.7955618 -0.058310032 -0.22058362 40 4
1.8005844 -0.058787737 0.28533655 90 12
1.788213 -0.058383822 -0.15653177 72 5
1.7973732 -0.058996931 0.34956199 5 13
1.7885706 -0.059020493 -0.093786016 79 6
1.7867347 -0.059584282 -0.031204809 100 7
1.7906358 -0.062530376 0.031274673 59 8
1.8024039 -0.063571282 0.094518766 2 9
1.772114 -0.062812597 0.15513714 100 10
1.8211485 -0.065187149 0.2237521 2 11
1.8082645 -0.065357991 0.28658801 82 12
1.7840163 -0.064481549 -0.15618315 69 5
1.7923454 -0.065409087 -0.093995348 79 6
1.788514 -0.065894417 -0.031239711 100 7
1.7844119 -0.068550192 0.031169958 48 8
1.7981799 -0.069707721 0.094309434 2 9
1.78582 -0.069540732 0.15635732 56 10
1.8090085 -0.071076147 0.22228967 2 11
1.8080251 -0.071669608 0.28658798 80 12
1.7997066 -0.071339868 -0.15757762 64 5
1.7841235 -0.071345925 -0.093576662 59 6
1.7922692 -0.072298281 -0.031309523 31 7
1.7961496 -0.075280964 0.031379391 13 8
1.813889 -0.076658763 0.09514679 2 9
1.8127159 -0.077560037 0.22277713 2 11
1.8136848 -0.07823576 0.28752664 77 12
1.7954658 -0.077449858 -0.15722902 62 5
1.7858589 -0.077660002 -0.093681328 19 6
1.8096203 -0.08280737 0.094937459 2 9
1.8032036 -0.08282911 0.15792611 3 10
1.8243318 -0.084437795 0.22423956 2 11
1.8094542 -0.084382176 0.28690091 85 12
1.8031455 -0.084087968 -0.15792628 60 5
1.7957158 -0.08499793 -0.031379331 3 7
1.8155532 -0.088795364 0.031728435 1 8
1.8053459 -0.088612005 0.094728112 2 9
1.7969337 -0.088827871 0.15740317 5 10
1.8160957 -0.090410583 0.22326462 2 11
1.8091644 -0.090382077 0.28690091 77 12
1.7988611 -0.090182088 -0.15757763 56 5
1.8112047 -0.091434747 -0.095042065 2 6
1.8114011 -0.091761634 -0.031658567 3 7
1.8112547 -0.094606854 0.031658627 2 8
1.8090147 -0.095123045 0.094937459 2 9
1.7747269 -0.093941323 0.15548596 18 10
1.8157858 -0.096432485 0.22326462 2 11
1.8167284 -0.097118489 0.2881524 85 12
1.8025144 -0.096674167 -0.15792628 53 5
1.8268466 -0.098298922 -0.09587945 1 6
1.8230501 -0.098732874 -0.031867992 1 7
1.8109136 -0.10092873 0.031658627 2 8
1.8006953 -0.10098976 0.094518773 2 9
1.819402 -0.10299457 0.2237521 2 11
1.8242667 -0.10390879 0.28940383 77 12
1.8061621 -0.10287756 -0.15827487 42 5
1.7945883 -0.10284682 -0.094204687 1 6
1.8147091 -0.10463547 -0.031728376 1 7
1.8265198 -0.10819536 0.031937867 3 8
1.8083065 -0.10774992 0.094937459 2 9
1.7879683 -0.10685122 0.15670593 96 10
1.8111053 -0.10886838 0.22277713 2 11
1.8238931 -0.11027605 0.28940386 77 12
1.8038033 -0.10906138 -0.15810058 12 5
1.7982059 -0.10935294 -0.09441404 2 6
1.8303006 -0.11194599 -0.032007616 1 7
1.808169 -0.1134435 0.031623721 12 8
1.7999463 -0.11355842 0.094518773 2 9
1.8054799 -0.11422389 0.15827473 100 10
1.8226007 -0.11594582 0.22423957 2 11
1.8156116 -0.11613755 0.28815237 63 12
1.8137583 -0.11665469 -0.095251411 2 6
1.8259077 -0.11807615 -0.031937808 3 7
1.8075101 -0.12037157 0.094937451 2 9
1.7951308 -0.11986183 0.15740319 100 10
1.826146 -0.12257305 0.22472703 3 11
1.817166 -0.12260749 0.28846523 31 12
1.8213106 -0.12352581 -0.095670104 2 6
1.8214942 -0.12417701 -0.031868 3 7
1.8053381 -0.1259249 0.031588815 44 8
1.8150487 -0.1272389 0.095356151 2 9
1.7986763 -0.12640664 0.1577518 100 10
1.8554095 -0.13104458 0.22838312 5 11
1.8447746 -0.13158785 -0.09692616 5 6
1.8170602 -0.13024852 -0.031798184 3 7
1.806882 -0.13237208 0.031623725 50 8
1.8225611 -0.13416034 0.095774844 5 9
1.8021979 -0.13297766 0.15810043 100 10
1.8144288 -0.13579066 -0.095356084 26 6
1.8365353 -0.13808981 -0.032147232 6 7
1.8143843 -0.13929072 0.031763341 61 8
1.8136417 -0.14018896 0.15914629 100 10
1.8109087 -0.14061363 0.22302088 46 11
1.8300616 -0.14402898 -0.032042518 32 7
1.8298331 -0.14690344 0.032042578 57 8
1.8171132 -0.14683984 0.15949492 100 10
1.828214 -0.14837927 0.22521454 52 11
1.8174179 -0.14878024 -0.095565431 56 6
1.8155971 -0.14926925 -0.031798191 56 7
1.8253238 -0.1529559 0.03197277 56 8
1.8130951 -0.15256855 0.095356144 55 9
1.8007069 -0.15184258 0.15810044 100 10
1.8177949 -0.15392257 0.22399585 67 11
1.8367876 -0.15682241 -0.096612148 41 6
1.8230343 -0.15628918 -0.031937808 68 7
1.8207946 -0.15897864 0.031902961 60 8
1.8224998 -0.15976857 0.09587951 58 9
1.8120742 -0.15917334 0.15914629 100 10
1.8350431 -0.16183645 0.22618946 76 11
1.8503625 -0.16514045 -0.032426473 97 7
1.8202285 -0.16533345 0.031902958 59 8
1.8060187 -0.16467841 0.095042124 27 9
1.8174601 -0.16604151 0.15966924 100 10
1.8226063 -0.16715321 0.22472705 65 11
1.8338459 -0.17012073 -0.032147236 100 7
1.8276036 -0.17243758 0.032042578 59 8
1.8188528 -0.17257279 0.15984353 100 10
1.8239877 -0.17370246 0.22497077 59 11
1.8372216 -0.17690432 -0.032217044 87 7
1.8349514 -0.17959522 0.032182198 57 8
1.8227144 -0.1790399 0.095984183 2 9
1.8222049 -0.17931096 0.16019216 100 10
1.825346 -0.18026339 0.22521454 57 11
1.8286338 -0.18252191 -0.032077424 87 7
1.8382922 -0.18640277 0.032252006 60 8
1.8220783 -0.18540128 0.095984183 2 9
1.8136396 -0.18486242 0.15949492 100 10
1.8345796 -0.18764386 0.22643323 50 11
1.8319637 -0.18931504 -0.032147232 87 7
1.8296752 -0.19198374 0.03211239 59 8
1.8373103 -0.19343331 0.096821561 2 9
1.8169458 -0.19160998 0.15984353 100 10
1.8358876 -0.19425553 0.22667697 27 11
1.8412335 -0.19677109 -0.032321759 76 7
1.8289939 -0.19836937 0.03211239 57 8
1.8207396 -0.19811717 0.095984183 2 9
1.8281499 -0.1992463 0.1608894 96 10
1.8464984 -0.20385531 -0.032426473 61 7
1.8362755 -0.20532227 0.03225201 56 8
1.8280119 -0.20504439 0.096402869 2 9
1.8314389 -0.20575248 0.16123803 93 10
1.8395207 -0.21218908 0.032321818 33 8
1.8272849 -0.21142408 0.096402869 2 9
1.8346679 -0.21260278 0.16158664 96 10
1.8288401 -0.21742857 0.032147296 5 8
1.8305023 -0.21827416 0.096612215 2 9
1.824023 -0.21782446 0.16071509 99 10
1.8776919 -0.22988628 0.033019911 5 8
1.8614472 -0.22855699 0.098286964 2 9
1.8291841 -0.22491965 0.16123804 93 10
1.8646011 -0.23555388 0.09849631 2 9
1.8362943 -0.23230353 0.16193527 93 10
1.8518838 -0.24051765 0.097868279 2 9
1.8433752 -0.23973979 0.16263252 87 10
1.8533772 -0.24663492 0.032635961 43 8
1.8510329 -0.24698052 0.097868279 2 9
1.8504264 -0.24722829 0.16332977 82 10
1.852505 -0.25310284 0.032635961 26 8
1.854117 -0.25398245 0.098077618 2 9
