# .PCD v0.7 - Point Cloud Data file format
VERSION 0.7
FIELDS x y z intensity ring
SIZE 4 4 4 4 2
TYPE F F F F U
COUNT 1 1 1 1 1
WIDTH 654
HEIGHT 1
VIEWPOINT 0 0 0 1 0 0 0
POINTS 654
DATA ascii
2.4622836 -0.5884155 0.044189442 47 8
2.4959838 -0.59739 0.13450347 1 9
2.4394171 -0.58430141 0.21945804 55 10
2.490015 -0.59779984 -0.31442308 42 4
2.4700048 -0.59345162 -0.22224724 58 5
2.4719501 -0.59483176 -0.13324732 4 6
2.4689255 -0.59501576 -0.044328976 57 7
2.4563279 -0.59606373 0.044119626 47 8
2.4802976 -0.60279721 0.13377075 1 9
2.4489784 -0.59563822 0.22050393 57 10
2.4763412 -0.6036669 -0.31296036 6 4
2.4659824 -0.60159767 -0.2220729 51 5
2.4784875 -0.60648203 -0.044538401 57 7
2.4542322 -0.60463428 0.044119626 47 8
2.4936914 -0.61527902 0.13460813 1 9
2.4584899 -0.60704881 0.22154978 55 10
2.4677351 -0.61115974 -0.22242153 51 5
2.4821775 -0.61657608 -0.044643119 54 7
2.4618063 -0.61562318 0.044294152 41 8
2.4760292 -0.62009811 0.13377076 1 9
2.4640865 -0.61756426 0.22224702 52 10
2.4733162 -0.62171298 -0.2231188 48 5
2.4791431 -0.62409788 -0.13398002 1 6
2.4858272 -0.62670326 -0.044747833 50 7
2.4815919 -0.63070512 0.13418943 1 9
2.4735007 -0.62910831 0.22329316 52 10
2.4865754 -0.63428229 -0.22451328 46 5
2.4885604 -0.63571399 -0.13460805 1 6
2.4739382 -0.63289845 -0.044573307 41 7
2.4871116 -0.64135873 0.13460813 1 9
2.4635732 -0.63574737 0.22259563 55 10
2.4766309 -0.64096141 -0.22381604 47 5
2.4747255 -0.64139014 -0.13398001 1 6
2.4803767 -0.64793921 0.044747915 1 8
2.519753 -0.6586951 0.13649222 1 9
2.4690487 -0.64636111 0.22329287 51 10
2.4782329 -0.65061462 -0.22416468 45 5
2.5188308 -0.66221261 -0.13649213 1 6
2.5014119 -0.66230291 0.045166772 1 8
2.4981329 -0.66236788 0.13544551 1 9
2.4744804 -0.65702105 0.22399013 51 10
2.4855731 -0.66182435 -0.22503622 38 5
2.4857423 -0.66233408 -0.13481739 1 6
2.5097959 -0.66968161 -0.045341212 2 7
2.4836342 -0.66688174 0.044887535 2 8
2.4765179 -0.66589767 0.13439879 1 9
2.47806 -0.66677618 0.22451307 41 10
2.502696 -0.67621666 -0.13586409 1 6
2.4920011 -0.67426026 -0.045061979 22 7
2.4973016 -0.68084258 0.13565485 2 9
2.4964681 -0.68389308 -0.13565476 1 6
2.4904838 -0.68739671 0.045096964 45 8
2.5045357 -0.69221598 0.13617823 4 9
2.5056119 -0.69580972 -0.13628279 1 6
2.4872332 -0.69164103 -0.045061979 42 7
2.4996238 -0.69931847 0.045306392 49 8
2.5299594 -0.71256906 -0.1377482 2 6
2.513674 -0.70845592 -0.045585543 48 7
2.493196 -0.70738381 0.045236584 48 8
2.5140131 -0.7175588 -0.13701551 7 6
2.5131083 -0.71777493 -0.045620445 48 7
2.4985244 -0.71785623 0.0453762 47 8
2.4971497 -0.71840489 0.13617823 41 9
2.5144298 -0.72765493 -0.045690265 48 7
2.5113635 -0.73104465 0.045655437 48 8
2.4927087 -0.72655839 0.13607353 45 9
2.5014031 -0.73240936 -0.13659681 24 6
2.5080364 -0.73530215 -0.045620449 48 7
2.5126321 -0.74093777 0.045725245 36 8
2.5016508 -0.73864859 0.13670157 46 9
2.5131221 -0.74632955 -0.045760069 48 7
2.5086248 -0.75023794 0.13722494 43 9
2.5162466 -0.75682545 -0.045864783 45 7
2.5117252 -0.76072687 0.13753895 41 9
2.5231543 -0.76851749 -0.046039313 48 7
2.5735681 -0.78829235 0.046981819 1 8
2.5033259 -0.76773292 0.13722493 31 9
2.5242777 -0.77849859 -0.046109118 45 7
2.5555215 -0.79253238 0.046702582 1 8
2.5177276 -0.7861135 -0.046039313 22 7
2.568002 -0.80623996 0.046981819 1 8
2.5149679 -0.7948972 -0.046039309 47 7
2.5461142 -0.80914271 0.04663277 1 8
2.5350337 -0.81098276 -0.046458166 28 7
2.5394676 -0.81680077 0.046562966 6 8
2.5443504 -0.84688604 0.0468073 47 8
2.5413785 -0.85576224 0.046807297 47 8
2.5459476 -0.86720717 0.046946913 47 8
2.5429051 -0.87608886 0.046946917 20 8
2.3357196 0.07952477 -0.20446745 1 5
2.294162 0.070092753 -0.2008069 3 5
2.2804515 0.061707441 -0.19958675 19 5
2.3047225 0.046667453 -0.20167847 63 5
2.2769883 0.037757933 -0.19923811 45 5
2.3600621 0.031719919 -0.28980523 1 4
2.2926643 0.023209615 -0.28151807 1 4
2.319031 0.022667006 -0.20289865 2 5
2.3086119 0.015311293 -0.28346828 4 4
2.3210855 0.014988923 -0.20307295 1 5
2.3447385 0.014323214 -0.12288479 1 6
2.3330781 0.0069226893 -0.20411883 1 5
2.3068266 0.0060385033 -0.12089603 3 6
2.3205724 -0.00081003271 -0.28493065 46 4
2.3211336 -0.0012153428 -0.20307295 1 5
2.3106301 -0.0088722268 -0.28371197 56 4
2.3211153 -0.009317603 -0.20307295 1 5
2.3008206 -0.010039288 -0.12058201 32 6
2.3165402 -0.016981432 -0.28444317 66 4
2.3330197 -0.017916659 -0.20411885 1 5
2.3207436 -0.018227451 -0.12162873 59 6
2.3005877 -0.024895724 -0.28249305 53 4
2.3488805 -0.026238343 -0.2055133 1 5
2.2827158 -0.026296157 -0.11963996 55 6
2.3123899 -0.033500165 -0.28395545 50 4
2.3487749 -0.034437303 -0.20551333 1 5
2.3025806 -0.034563944 -0.12068669 42 6
2.3063045 -0.041464649 -0.28322449 47 4
2.3127832 -0.041984916 -0.2023757 1 5
2.2984519 -0.042527329 -0.12047733 42 6
2.4391949 -0.045983188 -0.042583738 1 7
2.3160686 -0.049727961 -0.28444317 53 4
2.3205903 -0.05023025 -0.20307295 1 5
2.3122668 -0.0508576 -0.12121005 45 6
2.3550627 -0.052210122 -0.041117743 1 7
2.3317671 -0.057801597 -0.28639314 53 4
2.3403184 -0.05883101 -0.20481606 2 5
2.3040988 -0.058322918 -0.12079135 40 6
2.3368745 -0.059968807 -0.040803596 6 7
2.3097239 -0.065323316 -0.283712 47 4
2.3440816 -0.067113921 -0.20516466 2 5
2.3038812 -0.066365376 -0.12079135 39 6
2.3870389 -0.075432763 -0.37825853 1 3
2.3174183 -0.073637545 -0.28468668 47 4
2.347816 -0.075423807 -0.2055133 6 5
2.3136034 -0.075133204 -0.1213147 42 6
2.3709681 -0.083210371 -0.37575561 2 3
2.3151486 -0.082060464 -0.28444317 44 4
2.3093355 -0.083065145 -0.12110537 42 6
2.3301089 -0.084626772 -0.040698893 69 7
2.3232734 -0.090063334 -0.3682467 22 3
2.3247662 -0.090527572 -0.28566188 47 4
2.3292985 -0.091518402 -0.2039445 37 5
2.3150024 -0.091766044 -0.12141939 40 6
2.3198085 -0.092362083 -0.04052436 32 7
2.322979 -0.097361654 -0.3682467 36 3
2.3304031 -0.098487727 -0.28639311 44 4
2.3289824 -0.099242121 -0.20394453 55 5
2.3087163 -0.098782226 -0.12110536 42 6
2.3522067 -0.10722446 -0.37293977 48 3
2.3161643 -0.10598658 -0.28468668 41 4
2.3286216 -0.10737116 -0.2039445 37 5
2.3163192 -0.1076142 -0.12152404 42 6
2.345094 -0.10936122 -0.040978123 1 7
2.3648729 -0.11442041 0.041327246 1 8
2.3735209 -0.1164998 -0.37638131 63 3
2.3217282 -0.11436383 -0.28541791 44 4
2.3361924 -0.1158938 -0.20464174 8 5
2.3139348 -0.11559935 -0.12141939 39 6
2.3247263 -0.11654523 -0.040629081 1 7
2.3524985 -0.12164242 0.041117817 5 8
2.3593128 -0.12364636 -0.37419122 54 3
2.3272834 -0.12237505 -0.28614938 40 4
2.3235111 -0.12380335 -0.12194275 42 6
2.3522828 -0.12574811 -0.041117743 1 7
2.3510008 -0.13102973 -0.37293977 50 3
2.3387339 -0.131165 -0.28761154 20 4
2.3492742 -0.13257878 -0.20586194 1 5
2.333035 -0.13247931 -0.12246611 40 6
2.3478365 -0.13373092 -0.041047934 1 7
2.3056779 -0.13536723 0.04031501 39 8
2.3544486 -0.13988003 -0.3735655 50 3
2.3447943 -0.14094928 -0.20551328 1 5
2.3285468 -0.14078838 -0.12225678 35 6
2.3513227 -0.14257735 -0.041117743 1 7
2.3390954 -0.14593384 0.040908389 49 8
2.3539202 -0.14850856 -0.3735655 50 3
2.3555396 -0.14943625 -0.2898052 1 4
2.3562191 -0.14989226 -0.2065592 1 5
2.3507843 -0.15119436 -0.041117743 1 7
2.3325856 -0.15370348 0.040803675 51 8
2.3533874 -0.15672439 -0.3735655 42 3
2.3431196 -0.15686214 -0.28834274 1 4
2.3517051 -0.15784918 -0.20621055 1 5
2.3354776 -0.15757895 -0.12267545 16 6
2.346252 -0.15912864 -0.041047934 1 7
2.3420091 -0.16253699 0.040978197 47 8
2.3547964 -0.16507638 -0.37387839 12 3
2.3504782 -0.16559821 -0.28931797 1 4
2.3511398 -0.16605724 -0.20621055 1 5
2.3608127 -0.16756861 -0.12403619 35 6
2.3576498 -0.16817126 -0.041257363 1 7
2.3294616 -0.16983871 0.040768776 52 8
2.3620861 -0.17387524 -0.37512985 4 3
2.3459268 -0.17350909 -0.28883052 1 4
2.362468 -0.17514706 -0.20725645 2 5
2.3522465 -0.17521492 -0.1236175 51 6
2.35306 -0.17610148 -0.041187547 2 7
2.3328419 -0.17827374 0.040838581 54 8
2.3877201 -0.18288668 0.12550168 1 9
2.3470361 -0.18018252 -0.45756009 1 2
2.3571815 -0.18261681 -0.29029292 1 4
2.3658147 -0.18370101 -0.20760505 2 5
2.3476379 -0.18311408 -0.12340815 55 6
2.3684123 -0.18515037 -0.041466791 2 7
2.3481848 -0.18728061 0.041117817 55 8
2.3472493 -0.18803057 0.12340823 12 9
2.3561773 -0.18915965 -0.45946819 6 2
2.3667548 -0.19042458 -0.37606844 48 3
2.3526061 -0.19011274 -0.2898052 2 4
2.3830318 -0.19340871 -0.20917384 9 5
2.3370645 -0.19008856 -0.1228848 39 6
2.3677514 -0.19341654 -0.041466791 2 7
2.3594735 -0.19647177 0.041327246 55 8
2.3975711 -0.20132965 -0.38107437 69 3
2.3677526 -0.19965808 -0.29175508 2 4
2.344347 -0.19892074 -0.12330349 40 6
2.3611195 -0.20075895 -0.041362077 4 7
2.3588085 -0.20429499 0.041327242 57 8
2.3319867 -0.20279206 0.12267553 42 9
2.3431001 -0.20417055 -0.45717841 39 2
2.3732755 -0.20721729 -0.37731996 57 3
2.361145 -0.20698866 -0.29102388 9 4
2.3499048 -0.20682991 -0.20638488 55 5
2.3476536 -0.20704469 -0.12351283 40 6
2.3501153 -0.21180956 0.041187625 57 8
2.3392215 -0.21165094 0.12309422 42 9
2.3521869 -0.21282403 -0.45908654 38 2
2.3705702 -0.21532163 -0.37700704 54 3
2.366339 -0.21577014 -0.29175511 34 4
2.3630569 -0.21630265 -0.20760505 52 5
2.354872 -0.21596788 -0.1239315 39 6
2.3497043 -0.21632105 -0.041187551 3 7
2.3533437 -0.22038461 0.041257441 57 8
2.3583534 -0.22168422 0.12414096 14 9
2.3689826 -0.22310047 -0.46252114 47 2
2.369765 -0.22400874 -0.37700704 57 3
2.3853331 -0.22590041 -0.29419273 36 4
2.368238 -0.22511557 -0.20812799 52 5
2.3540647 -0.22459748 -0.1239315 45 6
2.3807847 -0.22756608 -0.041746028 1 7
2.3644619 -0.23017101 0.041466869 55 8
2.3623273 -0.23079571 -0.46137628 45 2
2.3768325 -0.23305047 -0.37825853 59 3
2.3548563 -0.2317256 -0.2905364 39 4
2.3733864 -0.23396724 -0.20865093 50 5
2.3473039 -0.23222344 -0.12361749 42 6
2.3839145 -0.23668572 -0.041815836 1 7
2.3676229 -0.23882453 0.041536674 54 8
2.3785644 -0.24076693 0.12529232 1 9
2.3556471 -0.23844714 -0.46023136 47 2
2.4222794 -0.24561906 0.21300854 1 10
2.3838658 -0.24214423 -0.37951002 57 3
2.3599579 -0.24054809 -0.29126763 35 4
2.3804834 -0.24306004 -0.20934817 48 5
2.3564134 -0.24143347 -0.12414086 40 6
2.3830738 -0.24500568 -0.041815836 1 7
2.3707526 -0.24750285 0.041606482 52 8
2.3777533 -0.24865323 0.12529233 2 9
2.3528483 -0.24646397 -0.4598498 44 2
2.3738506 -0.24908285 0.20882504 2 10
2.3869352 -0.25087699 -0.38013574 59 3
2.3697135 -0.25032145 -0.20847663 52 5
2.3555562 -0.24965741 -0.12414086 39 6
2.3544087 -0.24995138 -0.041327171 1 7
2.3699186 -0.25536326 0.041606482 25 8
2.3728991 -0.2565223 0.12508297 2 9
2.359781 -0.25552082 -0.46137628 42 2
2.3821621 -0.25836495 -0.37950999 59 3
2.3701062 -0.25789449 -0.29273006 1 4
2.3648641 -0.25815937 -0.20812802 32 5
2.3666277 -0.2587699 -0.12476888 28 6
2.3734002 -0.2603488 -0.041676223 1 7
2.3640497 -0.26391736 0.12466429 2 9
2.3608716 -0.26356256 -0.46175787 25 2
2.3871353 -0.26733822 -0.38044861 63 3
2.4165359 -0.271485 -0.29857975 1 4
2.3843985 -0.26998183 -0.041885644 1 7
2.3710504 -0.27308181 0.12508297 2 9
2.3793931 -0.2744635 -0.46557403 3 2
2.359237 -0.27255574 0.20777918 49 10
2.3822145 -0.27563164 -0.37982288 48 3
2.4037423 -0.27854759 -0.29711735 1 4
2.3966484 -0.27857342 -0.21109128 1 5
2.3567801 -0.27477318 -0.12435019 2 6
2.4072764 -0.28108633 -0.042304508 1 7
2.3740001 -0.28224197 0.12529232 2 9
2.3920672 -0.28438991 -0.46824539 1 2
2.3681633 -0.28196719 0.20865074 53 10
2.3930068 -0.28534877 -0.38170007 50 3
2.3869367 -0.28547004 -0.29516745 1 4
2.4074805 -0.28877944 -0.21213716 1 5
2.3796027 -0.28585678 -0.12560627 2 6
2.3824055 -0.28703716 -0.041885644 1 7
2.3779819 -0.29029444 0.041815914 54 8
2.4275951 -0.29678106 -0.56462705 1 1
2.3809307 -0.29149792 0.12571102 3 9
2.3988032 -0.29411101 -0.4697718 1 2
2.3671136 -0.29064503 0.20865071 51 10
2.3801813 -0.2926712 -0.37982288 13 3
2.3938062 -0.29477069 -0.29614264 1 4
2.3827291 -0.29425102 -0.21004541 2 5
2.3943958 -0.29654038 -0.12644364 2 6
2.3972652 -0.29732054 -0.042164888 1 7
2.3729861 -0.2980949 0.04174611 58 8
2.3705451 -0.29862884 -0.46442923 1 2
2.3582296 -0.2974956 0.20795374 52 10
2.3948765 -0.30254322 -0.38232586 2 3
2.3927631 -0.30312487 -0.29614237 1 4
2.4015057 -0.30465826 -0.21178852 4 5
2.3894367 -0.30397472 -0.12623429 11 6
2.3962662 -0.30526859 -0.042164888 2 7
2.381901 -0.3072415 0.041920632 59 8
2.4042594 -0.31055215 -0.55967814 56 1
2.3928521 -0.30992791 -0.46900865 1 2
2.3729839 -0.30777565 0.20934798 54 10
2.3977776 -0.31099135 -0.38295156 7 3
2.4292014 -0.31549811 0.3007735 1 11
2.4232411 -0.31515414 -0.30004221 1 4
2.3530118 -0.3068558 -0.20760505 25 5
2.3991511 -0.31415042 -0.042234693 2 7
2.3927076 -0.31713033 0.042130053 61 8
2.4128196 -0.32022461 -0.56192791 63 1
2.3679585 -0.3142707 0.12518767 47 9
2.3995955 -0.31889567 -0.47053507 2 2
2.3719504 -0.3156431 0.20934798 52 10
2.4005382 -0.32030019 0.29736117 5 11
2.4181914 -0.32308516 -0.29955477 1 4
2.3816032 -0.31861988 -0.21021973 33 5
2.3754351 -0.31863877 -0.12560627 38 6
2.404042 -0.32290313 -0.042339407 6 7
2.3876801 -0.32452452 0.042060245 59 8
2.3982282 -0.32638451 -0.55877841 63 1
2.3688257 -0.32280412 0.12529233 55 9
2.3906868 -0.3262082 -0.46900862 2 2
2.382678 -0.32553899 0.21039383 51 10
2.424963 -0.33131629 -0.38764459 69 3
2.4053059 -0.32948589 -0.29809231 2 4
2.4081106 -0.3307265 -0.2126601 37 5
2.3901944 -0.32869104 -0.12644362 47 6
2.394455 -0.33396202 0.042199869 61 8
2.4067242 -0.3361015 -0.56102812 57 1
2.3736186 -0.3319006 0.12560634 38 9
2.4109795 -0.33712479 -0.4732064 5 2
2.3697469 -0.33178097 0.20934798 49 10
2.4100981 -0.33785936 -0.38545451 65 3
2.3962779 -0.33677492 -0.29711762 2 4
2.3951628 -0.33704454 -0.21161422 52 5
2.3830998 -0.33619535 -0.12612963 42 6
2.3997493 -0.33939859 -0.042304505 47 7
2.3853559 -0.34118563 0.042060241 61 8
2.4132526 -0.34560558 -0.56282747 59 1
2.3553739 -0.33773619 -0.46252114 17 2
2.3784347 -0.34146655 0.2102198 32 10
2.4108596 -0.34655112 -0.3857674 63 3
2.395148 -0.34471935 0.29711744 60 11
2.4068768 -0.34683627 -0.29857978 2 4
2.3959439 -0.34568766 -0.21178852 45 5
2.3917949 -0.34594136 -0.12665299 47 6
2.3965707 -0.34748623 -0.042269599 38 7
2.3841505 -0.34951001 0.042060241 61 8
2.4004629 -0.35232928 -0.56012803 45 1
2.3716619 -0.34852487 -0.46595567 26 2
2.4096348 -0.35496449 -0.38576737 63 3
2.3841112 -0.3516297 0.29589874 34 11
2.4233255 -0.35784557 -0.30077341 20 4
2.3946605 -0.35446686 -0.21178851 50 5
2.3866215 -0.35370252 -0.12644364 45 6
2.3834753 -0.35408664 -0.04206017 4 7
2.3947814 -0.35961181 0.042269677 63 8
2.4011452 -0.36099604 -0.56057793 49 1
2.3956878 -0.36060315 0.12696707 2 9
2.4053125 -0.36248118 -0.47282481 47 2
2.4102712 -0.36408895 -0.38608024 56 3
2.3867319 -0.36095929 -0.29638642 24 4
2.401288 -0.36401817 -0.21248576 50 5
2.387284 -0.36274764 -0.12654832 42 6
2.4514182 -0.37293062 -0.043281838 1 7
2.3974001 -0.36899519 0.042339489 61 8
2.4075105 -0.37098145 -0.56237763 49 1
2.4102066 -0.37139687 0.12780446 2 9
2.400152 -0.37027639 -0.47206157 50 2
2.4061699 -0.37163475 0.21300854 1 10
2.4148421 -0.37340575 -0.38701886 52 3
2.41096 -0.37323633 0.29955485 2 11
2.4069712 -0.37304899 -0.29906756 2 4
2.4118159 -0.37423095 -0.21353163 48 5
2.3879764 -0.37138557 -0.12665299 33 6
2.4263906 -0.37779352 -0.042862978 1 7
2.4040649 -0.37818623 0.042479105 61 8
2.4178171 -0.38078207 -0.56507701 47 1
2.4088953 -0.37980783 0.12780446 1 9
2.3852699 -0.37650949 -0.46939015 39 2
2.4048581 -0.38003159 0.21300854 2 10
2.4174926 -0.38202822 -0.38764459 52 3
2.4057872 -0.38060892 0.29906735 4 11
2.4174848 -0.38289201 -0.30052969 1 4
2.4426553 -0.38731566 0.39171195 1 12
2.4026239 -0.38139799 -0.2128344 48 5
2.4408555 -0.38877732 -0.043142214 1 7
2.3987815 -0.38594037 0.042409297 41 8
2.4183972 -0.38952929 -0.5655269 43 1
2.4114981 -0.38884991 0.12801379 2 9
2.3975763 -0.38660505 -0.4720616 48 2
2.3957164 -0.38673422 0.21231125 2 10
2.4161446 -0.39046457 -0.38764462 50 3
2.4474862 -0.39640629 -0.3044298 1 4
2.4471383 -0.39678827 0.3926506 6 12
2.4052794 -0.39000109 -0.21318302 48 5
2.4473784 -0.39858094 -0.043281838 1 7
2.3974199 -0.39431131 0.042409297 30 8
2.4112542 -0.39701894 -0.56417722 40 1
2.4061852 -0.39661562 0.12780446 2 9
2.4000859 -0.39561033 -0.47282475 48 2
2.4179416 -0.39898697 0.21440299 3 10
2.4108694 -0.39825228 -0.38701889 38 3
2.4421709 -0.40429875 -0.30394202 1 4
2.4117661 -0.39969769 -0.21388029 48 5
2.3958473 -0.39791888 -0.12728101 1 6
2.4341369 -0.40515146 -0.043072406 2 7
2.4058886 -0.40433455 0.042583816 49 8
2.4127347 -0.40591812 0.12822312 2 9
2.3986905 -0.40398577 -0.47282475 47 2
2.40167 -0.40578091 0.29906735 58 11
2.4485738 -0.4141452 -0.30491698 1 4
2.4463284 -0.41376543 0.39296347 61 12
2.4103563 -0.4081139 -0.21388029 30 5
2.4141347 -0.40962058 -0.12832773 1 6
2.4485514 -0.41589993 -0.043351647 2 7
2.4143894 -0.41400033 0.042758342 61 8
2.4034297 -0.41298476 0.12780446 2 9
2.3972659 -0.41235641 -0.47282481 48 2
2.4140046 -0.41610321 0.30077353 60 11
2.4276247 -0.41888729 -0.30247986 1 4
2.429297 -0.41961247 0.39046052 64 12
2.4226596 -0.41890138 -0.21510047 8 5
2.3930831 -0.4142175 -0.12728101 1 6
2.4313226 -0.42171055 -0.043072402 2 7
2.4129295 -0.42242563 0.042758342 61 8
2.4098423 -0.42275217 0.12822314 2 9
2.417156 -0.42403528 -0.47702256 25 2
2.3980064 -0.42110735 0.21300854 42 10
2.4591699 -0.43229038 -0.3954663 1 3
2.4066722 -0.42349511 0.3000423 53 11
2.445698 -0.43080238 -0.30491698 1 4
2.4375439 -0.4298048 0.39202484 74 12
2.3977115 -0.42278129 -0.21300872 29 5
2.4270248 -0.42882356 -0.1291651 2 6
2.433774 -0.43089211 -0.043142214 2 7
2.4114404 -0.43084574 0.042758342 61 8
2.4181819 -0.43292129 0.12874649 5 9
2.4082882 -0.43158397 0.21405438 56 10
2.4459801 -0.43877921 -0.39358911 1 3
2.4129946 -0.43329671 0.30101722 56 11
2.4363644 -0.43793207 -0.30394202 1 4
2.4321408 -0.43761119 0.39139915 69 12
2.4197519 -0.43538204 -0.21510045 37 5
2.4373066 -0.43941903 -0.12979314 2 6
2.4263518 -0.43831855 -0.043037504 9 7
2.4138565 -0.43997779 0.042828154 59 8
2.4431067 -0.44619045 -0.48274687 4 2
2.4087269 -0.44034606 0.21422896 56 10
2.4580355 -0.44980362 -0.39577922 2 3
2.4075623 -0.44100168 0.30052978 55 11
2.4426308 -0.4478659 -0.30491698 1 4
2.4383702 -0.44752461 0.3926506 66 12
2.4476125 -0.44922093 -0.21771514 72 5
2.4121861 -0.44358951 -0.12853707 5 6
2.4162378 -0.44913188 0.042897962 64 8
2.4169683 -0.45057714 0.21510024 60 10
2.4409151 -0.45548213 -0.39327621 2 3
2.4099112 -0.45013192 0.30101725 55 11
2.4410527 -0.45638964 -0.30491698 2 4
2.4348514 -0.45566997 0.39233774 64 12
2.422529 -0.4533639 -0.21562341 58 5
2.4645042 -0.46300042 -0.043770503 73 7
2.4264436 -0.45979717 0.043107387 61 8
2.4095914 -0.45747516 0.12853716 8 9
2.4283595 -0.46103844 -0.48045716 47 2
2.4232104 -0.46049911 0.21579748 65 10
2.4625976 -0.46842936 -0.39703068 4 3
2.4200249 -0.46076894 0.30247965 56 11
2.4335949 -0.46379289 -0.30418605 10 4
2.4332457 -0.46416643 0.39233768 64 12
2.4307168 -0.46368399 -0.21649495 49 5
2.4325719 -0.46491799 -0.12979315 36 6
2.4235928 -0.46407881 -0.04307241 69 7
2.428751 -0.46902269 0.043177199 61 8
2.4190249 -0.46802041 -0.47893065 16 2
2.4078958 -0.46630323 0.2145773 56 10
2.4145048 -0.46845758 0.30199224 45 11
2.4335501 -0.4730342 0.3926506 55 12
2.4173486 -0.46988505 -0.21544906 49 5
2.4505384 -0.47722417 -0.13083987 61 6
2.4278462 -0.4736847 -0.043177128 57 7
2.4231746 -0.47672564 0.043107387 61 8
2.4670851 -0.48625901 0.13178198 2 9
2.4082088 -0.47509122 0.21475168 33 10
2.4556131 -0.48577911 -0.30735436 69 4
2.4338217 -0.48190966 0.3929635 25 12
2.4196026 -0.47909424 -0.21579768 51 5
2.4253485 -0.48111179 -0.12958379 41 6
2.4379458 -0.48449525 -0.043386552 50 7
2.4214954 -0.48518121 0.043107387 59 8
2.4653728 -0.4948678 0.13178198 1 9
2.4556208 -0.4938021 -0.39671785 57 3
2.4422266 -0.49199566 -0.30589193 68 4
2.4257278 -0.48911256 -0.21649495 51 5
2.4314854 -0.49115676 -0.13000248 10 6
2.4381998 -0.49339896 -0.043421458 36 7
2.4256654 -0.49482992 0.043212101 54 8
2.4362352 -0.49787208 0.13031659 2 9
2.4497283 -0.50107491 0.21876079 1 10
2.4674287 -0.50514412 -0.3989079 57 3
2.438637 -0.49969324 0.3056483 2 11
2.426882 -0.49772599 -0.30418605 47 4
2.4279091 -0.49837819 -0.21684356 48 5
2.4297972 -0.50451374 0.043316819 31 8
2.4423037 -0.50799996 0.13073526 1 9
2.4382119 -0.50759274 0.21788925 2 10
2.4733853 -0.51536572 -0.40015933 57 3
2.4446507 -0.50982356 0.30662319 2 11
2.4329028 -0.50781679 -0.30516073 41 4
2.4495578 -0.51173931 -0.21893527 51 5
2.4592757 -0.51466542 -0.13167724 1 6
2.4738383 -0.51861447 -0.044119548 1 7
2.4406056 -0.51609612 0.13073526 1 9
2.4403231 -0.51692629 0.21823785 2 10
2.4754364 -0.52481574 -0.40078506 54 3
2.4485912 -0.5200175 -0.30735436 9 4
2.4360642 -0.51780146 -0.21788946 47 5
2.4769986 -0.5274061 -0.13272394 1 6
2.468194 -0.52598172 -0.044049744 1 7
2.4478133 -0.52565944 0.04370077 2 8
2.4544101 -0.52797246 0.13157263 2 9
2.4640272 -0.53094119 -0.39922076 39 3
2.445926 -0.52882785 -0.2189353 43 5
2.4557154 -0.53139311 -0.13167723 1 6
2.4702511 -0.53544116 -0.044119548 2 7
2.4361951 -0.53206736 0.043526247 13 8
2.4759657 -0.54165876 0.1328287 1 9
2.42507 -0.53096807 0.21719198 34 10
2.4470274 -0.53667086 0.30759817 46 11
2.4721398 -0.54263073 -0.31076699 1 4
2.4772527 -0.54511267 -0.1329333 1 6
2.4761784 -0.54578245 -0.044259168 2 7
2.393328 -0.53146464 0.042793248 28 8
2.4584627 -0.5468291 0.13199131 2 9
2.4484844 -0.54505807 0.21945804 47 10
2.4432018 -0.54477727 0.30735445 57 11
2.4586062 -0.54866254 -0.30930457 1 4
2.4694927 -0.55154443 -0.22137569 2 5
2.4753349 -0.55375648 -0.1329333 1 6
2.4820635 -0.55617166 -0.044398785 3 7
2.4324212 -0.54906207 0.043526247 39 8
2.4682279 -0.5580501 0.13261937 2 9
2.4465668 -0.55360162 0.21945804 48 10
2.4432213 -0.55374104 0.3075982 51 11
2.4682915 -0.55987608 -0.3107667 2 4
2.4694951 -0.56060231 -0.22154999 27 5
2.4655962 -0.56062233 -0.1325146 1 6
2.4597266 -0.56425625 0.044049826 49 8
2.4740508 -0.5684514 0.13303804 2 9
2.4349108 -0.55990577 0.21858647 47 10
2.4490111 -0.56404823 0.3085731 49 11
2.4585845 -0.56670511 -0.30979201 2 4
2.4908686 -0.57552022 -0.13398002 1 6
2.4480038 -0.57056922 0.043875296 46 8
2.4292622 -0.5670951 0.13073526 12 9
2.4426425 -0.57066816 0.21945804 55 10
2.4547591 -0.57440269 0.30954811 30 11
2.4662554 -0.57754672 -0.31101042 12 4
2.4655211 -0.57782871 -0.22154999 65 5
2.4810667 -0.58238578 -0.13356133 2 6
2.4761031 -0.58213276 -0.044398785 69 7
2.4440513 -0.57865006 0.04384039 48 8
2.4641919 -0.58432704 0.13272403 4 9
2.4522667 -0.58195126 0.2205039 58 10
2.4654274 -0.58689296 -0.2217243 55 5
2.4712472 -0.58918995 -0.13314262 2 6
2.474056 -0.59077239 -0.044398785 54 7
2.4575708 -0.59091789 0.044119626 48 8
2.4834967 -0.59806877 0.13387543 2 9
2.4540942 -0.59144139 0.22085252 58 10
2.469882 -0.59661478 -0.3119857 39 4
2.467237 -0.59643167 -0.2220729 49 5
2.482764 -0.60110247 -0.13387534 19 6
2.4855824 -0.60270345 -0.044643119 57 7
2.463264 -0.60139 0.044259254 48 8
2.4891543 -0.60863173 0.13429412 1 9
2.4597559 -0.60189843 0.22154978 57 10
2.4767497 -0.60788971 -0.22311878 49 5
2.4884088 -0.61167234 -0.13429403 16 6
2.4756966 -0.60946405 -0.044503499 50 7
2.4689133 -0.61190891 0.044398867 47 8
2.4792604 -0.61539215 0.13387541 1 9
2.4537725 -0.60952026 0.22120114 55 10
2.4707463 -0.61556816 -0.22277015 51 5
2.4735541 -0.61810219 -0.044503499 50 7
2.4628839 -0.61954767 0.044329058 38 8
2.488718 -0.62697011 0.13450347 1 9
2.4554939 -0.61905593 0.22154978 57 10
2.4724455 -0.62516582 -0.22311878 46 5
2.5053754 -0.63442278 -0.1354454 1 6
2.4791348 -0.62869889 -0.044643119 49 7
2.4943657 -0.63719702 0.13492215 1 9
2.4687598 -0.6315738 0.22294424 52 10
2.4818277 -0.63676333 -0.22416465 48 5
2.5031455 -0.64316422 -0.1354454 1 6
2.4712265 -0.63542265 -0.044538405 27 7
2.4959931 -0.6469022 0.13513149 1 9
2.4742544 -0.6421898 0.22364153 49 10
2.4795902 -0.6454227 -0.22416468 46 5
2.4816713 -0.64642698 -0.1343987 1 6
2.4950569 -0.65503138 0.045027155 1 8
2.5014462 -0.65764219 0.13555019 1 9
2.475965 -0.6514051 0.22399014 51 10
2.4889946 -0.65669143 -0.22521052 48 5
2.5025718 -0.66120797 -0.13565476 1 6
2.4821954 -0.65675133 -0.044817641 2 7
2.5043492 -0.6668238 0.045236584 1 8
2.5068545 -0.66842824 0.13596886 1 9
2.4775262 -0.66107112 0.22433877 46 10
2.4886117 -0.66589057 -0.22538483 29 5
2.5002487 -0.66993964 -0.13565478 1 6
2.5127215 -0.67422187 -0.045411028 4 7
2.4923539 -0.67295521 0.045062061 4 8
2.4930553 -0.67361176 0.13534082 2 9
2.480973 -0.67127639 0.22486168 32 10
2.513314 -0.68285221 -0.13649213 1 6
2.5060997 -0.6865316 0.13617823 2 9
2.5110354 -0.69118291 -0.13649212 1 6
2.515785 -0.69343501 -0.045550641 60 7
2.4819341 -0.68830127 0.04495734 45 8
2.4863679 -0.69046557 0.13523616 11 9
2.4970653 -0.69672334 -0.13586411 2 6
2.5017936 -0.69898397 -0.045341212 45 7
2.5045426 -0.70399523 0.045411106 45 8
2.5098693 -0.71022147 -0.13670149 2 6
2.5147305 -0.71207118 -0.045620449 48 7
2.4980993 -0.71207368 0.045341294 47 8
2.4891696 -0.70999813 0.13565485 38 9
2.4920156 -0.71457398 -0.13586411 12 6
2.5064633 -0.71919036 -0.045515735 48 7
2.4938033 -0.71979928 0.045306396 47 8
2.4981883 -0.72200972 0.13628286 41 9
2.5203209 -0.73174393 -0.13753885 34 6
2.5116186 -0.73016798 -0.045655359 48 7
2.4989529 -0.73074478 0.045446012 45 8
2.5015311 -0.73197281 0.1365969 46 9
2.5196674 -0.74110055 -0.13764353 21 6
2.5187752 -0.74131578 -0.045829877 46 7
2.5022678 -0.74073052 0.045550723 19 8
2.4913013 -0.73843008 0.13617823 42 9
2.5238373 -0.75238872 -0.045969497 47 7
