# .PCD v0.7 - Point Cloud Data file format
VERSION 0.7
FIELDS x y z intensity ring
SIZE 4 4 4 4 2
TYPE F F F F U
COUNT 1 1 1 1 1
WIDTH 1288
HEIGHT 1
VIEWPOINT 0 0 0 1 0 0 0
POINTS 1288
DATA ascii
-4.3081388 1.1858511 0.86856228 7 13
-4.2627277 1.174951 1.020828 10 14
-4.2293057 1.1665339 1.1755562 40 15
-4.3547349 1.2084936 0.078884773 1 8
-4.3094001 1.198343 0.3913295 4 10
-4.402204 1.2258052 0.56108636 1 11
-1.0612966 0.29572037 -0.13527493 2 4
-4.2737169 1.192439 0.86245686 10 13
-4.3840795 1.2240566 -0.23854725 2 6
-4.2304468 1.1819588 1.0140793 10 14
-4.3254461 1.2093136 -0.078395978 1 7
-4.236165 1.1851496 1.1786622 40 15
-4.5139399 1.2713621 0.24576974 1 9
-4.2532053 1.1995281 0.38662264 9 10
-4.3214788 1.2195975 0.55133677 5 11
-4.2429414 1.1982312 -0.54134339 2 4
-4.2334251 1.1979395 0.85520566 12 13
-4.2642603 1.2074678 -0.23226689 2 6
-4.1942134 1.1884239 1.0064311 9 14
-4.29811 1.2178628 -0.077977099 1 7
-4.2245674 1.1978225 1.1765915 40 15
-4.2032251 1.2004936 0.38243914 13 10
-4.3057451 1.2313991 0.54987442 8 11
-1.0401213 0.29766071 -0.13283753 2 4
-4.3965063 1.2581871 0.72429174 1 12
-4.1973457 1.2027768 0.84871817 12 13
-4.2947907 1.2315115 -0.23415099 2 6
-4.1584053 1.193189 0.99878263 9 14
-4.3132696 1.2376249 -0.078326151 1 7
-4.2187152 1.211291 1.1760739 43 15
-4.1683874 1.2062968 0.37965021 13 10
-4.2615962 1.2340755 0.54475594 7 11
-1.0391285 0.30110803 -0.13283753 2 4
-4.1725931 1.2106713 0.84452039 6 13
-4.2101245 1.2223576 -0.22975475 2 6
-4.1151266 1.195555 0.98933464 10 14
-4.2397962 1.2325772 -0.077069581 1 7
-4.220027 1.2276287 1.1776268 40 15
-4.4489799 1.3009735 0.08090926 9 8
-4.1280351 1.2094692 0.37633824 14 10
-4.2229753 1.2388852 0.54036862 3 11
-0.98854846 0.29019597 -0.12650034 2 4
-4.2665353 1.2524741 0.70426816 16 12
-4.1721087 1.2263352 0.84528399 9 13
-4.1445174 1.2190121 -0.22640526 2 6
-4.0716701 1.1983579 0.97988671 10 14
-4.1915631 1.2336444 -0.076266773 4 7
-4.2251978 1.2443438 1.1802149 43 15
-4.102778 1.2176359 0.3744213 47 10
-4.1427259 1.2302775 0.53061903 5 11
-0.98758072 0.29347256 -0.12650034 2 4
-4.2223754 1.2555363 0.69769794 12 12
-4.4208388 1.3153887 -0.40353122 26 5
-4.1548476 1.2362449 0.84261227 18 13
-4.1174812 1.2259102 -0.2251492 2 6
-4.0508652 1.2068461 0.97583771 10 14
-4.1948977 1.2505525 -0.076406389 40 7
-4.2152748 1.2574295 1.1786621 40 15
-4.4572601 1.3363942 0.081223391 49 8
-4.0739117 1.223783 0.37215477 42 10
-4.1384068 1.2447311 0.53061908 7 11
-0.98655027 0.29691809 -0.12650034 2 4
-4.1668968 1.2548864 0.68925029 16 12
-4.4085903 1.328513 -0.40283403 42 5
-4.141108 1.2479082 0.8407042 19 13
-4.0749326 1.2287433 -0.22305575 4 6
-4.0111809 1.2102824 0.96728951 12 14
-4.2096491 1.2709686 -0.076755442 45 7
-4.2090106 1.2715774 1.1781445 43 15
-4.4449143 1.3496209 0.081083775 47 8
-4.077023 1.2410263 0.372852 63 10
-4.1397324 1.2609054 0.53135026 11 11
-0.98550785 0.30035979 -0.12650034 2 4
-4.1813855 1.2751863 0.69237906 63 12
-4.4058313 1.3444765 -0.40300831 42 5
-4.0933199 1.2498909 0.831927 6 13
-4.0474811 1.2366663 -0.22179972 2 6
-3.9806271 1.2170004 0.96099085 14 14
-4.2027001 1.2856959 1.177627 48 15
-4.0840907 1.2587705 0.37389836 61 10
-4.1369805 1.2766541 0.53159398 15 11
-0.98440033 0.30396986 -0.12650034 2 4
-4.1559229 1.2840887 0.68893749 45 12
-4.4049177 1.3610227 -0.40335688 48 5
-3.9973464 1.2366217 -0.21928759 6 6
-3.9502928 1.2228194 0.95469224 16 14
-4.0915685 1.2673341 -0.074765876 1 7
-4.1518273 1.2867942 1.1646858 34 15
-3.908195 1.2172675 0.071450055 19 8
-4.0663586 1.2688658 0.37267774 19 10
-4.0642862 1.2697762 0.52281934 15 11
-0.99470133 0.31095803 -0.12796277 2 4
-4.1589565 1.3009468 0.69018894 48 12
-4.4096484 1.3793647 -0.40422845 48 5
-3.9625096 1.2410156 -0.21761282 6 6
-3.9218259 1.2290256 0.9488436 18 14
-4.0413256 1.2672491 -0.07392817 1 7
-3.8984714 1.2232013 1.0948046 19 15
-3.9077368 1.232105 0.071519867 16 8
-4.0220075 1.27045 0.36901718 14 10
-4.0314393 1.274977 0.51916337 12 11
-0.95954317 0.30364791 -0.12357546 2 4
-4.1527362 1.3141354 0.68987608 48 12
-4.4200025 1.3995606 -0.40562296 48 5
-3.9391155 1.2488043 -0.21656612 4 6
-3.8915064 1.2344584 0.94254488 15 14
-3.9761062 1.261295 -0.072811209 1 7
-3.8741395 1.2296937 1.0891107 19 15
-3.9226806 1.2511332 0.071868904 9 8
-3.9871838 1.2747737 0.36622819 14 10
-3.9950473 1.2780553 0.51501977 8 11
-0.9812181 0.31409043 -0.12650034 2 4
-4.1500053 1.329226 0.690189 48 12
-4.4112954 1.4137638 -0.40527433 48 5
-3.9159338 1.2557613 -0.2155194 2 6
-3.8558471 1.2372348 0.93489659 12 14
-3.9145598 1.2568278 -0.071764067 1 7
-3.8293591 1.2302099 1.0777225 18 15
-3.9163871 1.2642045 0.07183402 9 8
-4.1012216 1.3254485 0.22588207 1 9
-3.9431241 1.2751151 0.36256766 13 10
-3.9660096 1.2840451 0.51185113 10 11
-0.98389274 0.31873724 -0.12698781 7 4
-4.1566148 1.3473577 0.69206613 48 12
-4.4065828 1.4283844 -0.40527433 48 5
-3.9343228 1.2768211 -0.21677545 2 6
-3.8422372 1.2476765 0.93264699 10 14
-3.9329708 1.2778999 -0.072182931 1 7
-3.8066697 1.2375966 1.0725462 19 15
-3.8967433 1.2728992 0.071554773 11 8
-4.4458599 1.4539907 0.24514167 4 9
-3.9159262 1.2814347 0.36047637 13 10
-3.9275479 1.2867568 0.50746387 11 11
-0.96391094 0.31598583 -0.12455054 4 4
-4.1913033 1.3747883 0.69863647 49 12
-4.4072499 1.4456208 -0.4057973 48 5
-3.9108672 1.2843146 -0.21572876 2 6
-3.8211963 1.2556068 0.92859787 11 14
-3.9284861 1.2916209 -0.072182931 1 7
-3.77847 1.2430278 1.0658169 20 15
-3.9169588 1.2946517 0.072008535 8 8
-4.4635115 1.4770293 0.24639775 18 9
-3.8925154 1.2888336 0.35873282 11 10
-3.8985367 1.2923374 0.50429523 10 11
-0.95526534 0.31684878 -0.12357557 2 4
-4.2652211 1.4155444 0.71177697 49 12
-4.4116311 1.4641351 -0.40666884 46 5
-3.891197 1.2929201 -0.21489137 2 6
-3.783504 1.2578714 0.92049968 11 14
-3.8366704 1.2762898 -0.070577316 6 7
-3.7484467 1.2476683 1.05857 20 15
-3.8744867 1.2956332 0.071310438 8 8
-3.8634334 1.2941862 0.35646677 13 10
-3.8714178 1.298364 0.50137043 12 11
-0.94662577 0.31765559 -0.12260053 2 4
-4.3520136 1.4612325 0.72710752 21 12
-4.4159374 1.4826955 -0.40754038 48 5
-3.9677331 1.3329769 0.8136093 1 13
-3.820399 1.2842225 -0.21122785 12 6
-3.7439964 1.2592661 0.91195148 15 14
-3.8265066 1.2877612 -0.070472606 32 7
-3.7330835 1.2570472 1.0554641 22 15
-3.8150074 1.2905667 0.070298195 14 8
-4.3471551 1.4722766 0.24053612 1 9
-3.8230391 1.2955148 0.35315484 17 10
-3.8349042 1.301028 0.49722683 8 11
-0.93047333 0.31585309 -0.12065061 2 4
-3.9204273 1.3315687 0.6557734 6 12
-4.4107347 1.4981011 -0.40754038 46 5
-3.9258792 1.3341846 0.80597693 1 13
-3.7340431 1.2704445 0.91060179 13 14
-3.7898066 1.2901561 -0.069879226 9 7
-3.693928 1.2582347 1.045629 32 15
-3.766963 1.2889855 0.069495395 17 8
-3.8318341 1.3126763 0.21227467 4 9
-3.7883377 1.2985156 0.35036591 17 10
-3.8190739 1.3105407 0.4957644 13 11
-0.95189494 0.32683483 -0.12357557 2 4
-3.826082 1.3144385 0.64075571 10 12
-4.4111314 1.5154303 -0.40806332 46 5
-3.803786 1.3082634 -0.21080916 4 6
-3.6982603 1.272691 0.90295351 10 14
-3.7682631 1.2975178 -0.06956508 11 7
-3.6840341 1.2692327 1.0440761 59 15
-3.7227566 1.2883928 0.068762399 13 8
-3.7651792 1.3038095 0.20882054 13 9
-3.7574275 1.3025953 0.34792551 17 10
-3.7694671 1.308243 0.48991469 15 11
-0.95824939 0.33276039 -0.12455054 2 4
-3.7843804 1.3141589 0.63449824 24 12
-4.4359279 1.5412809 -0.41085234 34 5
-4.0611115 1.4118448 0.83574319 4 13
-3.7671275 1.3103783 -0.20902975 4 6
-3.6974759 1.2868748 0.9038533 9 14
-3.7526083 1.3060631 -0.069355652 13 7
-3.6834538 1.2827142 1.0451114 35 15
-3.6958132 1.2928077 0.068343535 15 8
-3.7115946 1.2997823 0.20609908 16 9
-3.7096133 1.3005414 0.34391633 19 10
-3.731391 1.3089086 0.48552746 15 11
-0.95714062 0.33593628 -0.12455054 2 4
-3.7667239 1.3227786 0.63230824 21 12
-4.063817 1.4279078 0.83726972 7 13
-3.7363827 1.3135896 -0.20756435 4 6
-3.6895118 1.2978339 0.90295351 13 14
-3.7178462 1.3085309 -0.068797171 13 7
-3.6844203 1.2974892 1.0466644 37 15
-3.6535735 1.2923628 0.067645438 30 8
-3.6712637 1.3000633 0.20411031 19 9
-3.6771107 1.3028549 0.34130168 21 10
-3.711832 1.3166167 0.48357752 19 11
-0.97092831 0.34458661 -0.12650034 2 4
-3.7211306 1.3213774 0.62542516 9 12
-4.4588523 1.5842195 -0.4139899 1 5
-4.0754566 1.448 0.8407042 7 13
-3.6753182 1.3065534 -0.20442419 6 6
-3.6610904 1.3022161 0.8971048 19 14
-3.6736932 1.3074211 -0.068064183 10 7
-3.685329 1.3122857 1.0482173 40 15
-3.650923 1.3057818 0.067680344 42 8
-3.6554208 1.3088298 0.20348226 47 9
-3.6310484 1.3015343 0.33746687 24 10
-3.6773171 1.3188424 0.47967768 15 11
-0.99587774 0.35736033 -0.12991267 2 4
-3.6886075 1.3243458 0.62073207 5 12
-4.4457951 1.5970789 -0.41329265 24 5
-4.06458 1.4609345 0.83955932 7 13
-3.6141222 1.2997395 -0.20128405 8 6
-3.6452909 1.3116671 0.89440536 18 14
-3.6314747 1.3066957 -0.067366078 7 7
-3.6770899 1.3238339 1.047182 33 15
-3.6442323 1.3184742 0.067645445 54 8
-3.6602201 1.324981 0.20400564 42 9
-3.6021318 1.3053756 0.33520079 19 10
-3.6537974 1.3255426 0.47724029 16 11
-4.510046 1.6370662 -0.58911616 2 4
-3.6802492 1.3358648 0.6201064 6 12
-4.4458113 1.6146284 -0.41381559 45 5
-4.0594549 1.4751147 0.83955932 7 13
-3.5907927 1.3055228 -0.20023732 15 6
-3.6333652 1.3217181 0.89260584 8 14
-3.540448 1.2879174 -0.065760471 10 7
-3.6760771 1.337983 1.0482173 32 15
-3.5008576 1.2797464 0.065062493 16 8
-3.6743288 1.3446133 0.20505236 27 9
-3.5844579 1.313144 0.33398062 4 10
-3.6102414 1.3233045 0.4721218 16 11
-4.4430895 1.6294578 -0.58107334 8 4
-3.6440377 1.3371351 0.61478764 9 12
-4.4532404 1.6349441 -0.41503575 45 5
-4.0545411 1.4885672 0.83955979 9 13
-3.5620716 1.3084705 -0.19887659 20 6
-3.4927633 1.2843951 -0.064957656 10 7
-3.6822622 1.354809 1.0513231 33 15
-3.4719841 1.2829485 0.064608723 31 8
-3.6548631 1.3512498 0.20421498 32 9
-3.6137168 1.3374715 0.33711824 1 10
-3.5888469 1.3296924 0.46992815 14 11
-4.435513 1.6442671 -0.58082956 19 4
-3.6303222 1.3457788 0.61322325 13 12
-4.45153 1.6510884 -0.41538435 52 5
-4.0419583 1.4999804 0.83803296 7 13
-3.5237801 1.3083819 -0.19699247 30 6
-3.4678657 1.2883097 -0.064573713 24 7
-3.6795602 1.3676858 1.0518408 32 15
-3.4620905 1.2923571 0.064504012 33 8
-3.6519952 1.3646978 0.20431964 56 9
-3.5658269 1.334626 0.46749073 14 11
-4.4244595 1.6568786 -0.58009785 36 4
-3.5830569 1.342502 0.60602725 8 12
-4.4438739 1.6659191 -0.4152101 48 5
-4.04983 1.5181999 0.8407042 9 13
-3.4988513 1.3123447 -0.19584109 26 6
-3.440882 1.2919726 -0.064154848 28 7
-3.6783805 1.3818796 1.052876 31 15
-3.4554596 1.3043305 0.064469106 24 8
-3.6619151 1.3837227 0.20515703 55 9
-3.5442021 1.3413637 0.46529713 12 11
-4.3979359 1.6653501 -0.57741666 6 4
-3.5504036 1.3451277 0.60133421 5 12
-4.4398947 1.6821258 -0.41538441 48 5
-4.0424023 1.5323361 0.84032249 7 13
-3.4790785 1.3194938 -0.19500373 26 6
-3.4230375 1.2996062 -0.063910522 42 7
-3.675097 1.3960391 1.0533937 27 15
-3.4378071 1.3113956 0.06422478 31 8
-3.6719897 1.4021959 0.2059944 55 9
-3.5135407 1.3437984 0.46188477 11 11
-3.5272384 1.3504497 0.59820545 9 12
-4.4488811 1.7033128 -0.41677889 48 5
-3.9361949 1.5078117 0.81933361 7 13
-3.4558015 1.3244824 -0.19395702 26 6
-3.4203472 1.3122634 -0.06394542 42 7
-3.6828265 1.4137045 1.0570171 30 15
-3.4294767 1.3219503 0.064154968 42 8
-3.6710467 1.4158025 0.20620374 55 9
-3.4866092 1.3474678 0.45895991 14 11
-4.419827 1.708128 -0.58180451 2 4
-3.5043168 1.3550152 0.59507686 12 12
-4.4466257 1.72027 -0.41712755 45 5
-3.8631654 1.4953203 0.80521369 12 13
-3.4213572 1.3249967 -0.19228223 24 6
-3.4159765 1.3235985 -0.06394542 39 7
-3.6889255 1.4300994 1.060123 31 15
-3.4213476 1.3318641 0.064085156 43 8
-3.6700535 1.4294181 0.20641308 43 9
-3.4525337 1.3474747 0.45506009 15 11
-4.4104404 1.7213322 -0.58131707 6 4
-3.4869237 1.3615988 0.59288681 16 12
-3.8728137 1.513841 0.80826664 12 13
-3.3909037 1.3261508 -0.19081683 24 6
-3.4134305 1.3356477 -0.063980326 36 7
-3.7021525 1.4493663 1.0652994 45 15
-3.415051 1.3424709 0.06405025 46 8
-3.6576073 1.4392951 0.20599438 56 9
-3.427731 1.3509101 0.45237896 20 11
-3.4545863 1.3628882 0.58819371 22 12
-4.4573588 1.7584976 -0.41921929 1 5
-3.8732507 1.528838 0.80941153 10 13
-3.3623381 1.3278513 -0.18945611 17 6
-3.3975902 1.3431432 -0.063770905 42 7
-3.7024593 1.464413 1.0668523 45 15
-3.4122026 1.3551208 0.064085156 43 8
-3.6692648 1.4586942 0.20693645 52 9
-3.410085 1.3577269 0.45067281 19 11
-3.4167781 1.3617736 0.58256209 19 12
-4.3697577 1.7415884 -0.41154954 2 5
-3.7201774 1.4834473 0.77850044 7 13
-3.3502624 1.3366197 -0.18903743 14 6
-3.3891666 1.3535115 -0.063701086 43 7
-3.6955309 1.4766114 1.0663346 36 15
-3.3981717 1.3633014 0.063910633 48 8
-3.6882453 1.4811689 0.20829719 13 9
-3.3813822 1.3599925 0.44750419 18 11
-4.3111439 1.7348169 -0.57059258 2 4
-3.3936794 1.3663146 0.57943338 15 12
-3.6710124 1.4794598 0.76934206 9 13
-3.3305223 1.3429141 -0.18820006 8 6
-3.555057 1.4334497 0.88495749 1 14
-3.3881302 1.3668309 -0.063770905 42 7
-3.6778145 1.48444 1.0627111 26 15
-3.389446 1.3742437 0.063840821 49 8
-4.3231153 1.7545564 0.24451366 3 9
-3.3487902 1.3611645 0.4438481 19 11
-4.3378553 1.7640667 -0.57497931 2 4
-3.3868189 1.3779995 0.57912052 19 12
-3.520107 1.4336629 0.73881227 6 13
-3.3144801 1.3505901 -0.18757202 5 6
-3.4667647 1.4126432 0.86426204 1 14
-3.3812461 1.3784841 -0.063735992 46 7
-3.6258404 1.4789406 1.0492525 6 15
-3.3973391 1.3919654 0.064085156 49 8
-3.533406 1.4484352 0.20013276 1 9
-3.321744 1.3643788 0.44092324 21 11
-3.3545816 1.3785508 0.57442749 41 12
-3.4951086 1.4377259 0.73461485 9 13
-3.2857349 1.3522699 -0.18621127 3 6
-3.5804927 1.4743105 0.89395547 1 14
-3.3801119 1.3918014 -0.063805804 49 7
-3.5920765 1.4798136 1.0409703 5 15
-3.3945522 1.4039881 0.064120062 49 8
-4.3070707 1.7831657 0.24430431 1 9
-3.3263702 1.3791875 0.44214195 39 11
-3.3460999 1.3887377 0.57380176 41 12
-4.4695106 1.8559031 -0.42340273 1 5
-3.4866955 1.4478028 0.73385119 16 13
-3.3144324 1.376951 -0.18809536 1 6
-3.5791833 1.487672 0.89485532 5 14
-3.3604615 1.397449 -0.063526563 46 7
-3.3282621 1.3847404 0.96591276 9 15
-3.3142107 1.3877242 0.44116697 40 11
-4.4619565 1.8692229 -0.59399092 8 4
-3.3378325 1.3982999 0.57317603 34 12
-4.4706817 1.873794 -0.42409998 12 5
-3.3603163 1.4090977 0.70828283 3 13
-3.5721719 1.4994015 0.89440536 7 14
-3.3558095 1.4085845 -0.063526563 34 7
-3.2470622 1.3636059 0.94365436 21 15
-3.2061815 1.3517078 0.060734302 1 8
-3.3205621 1.403343 0.44262943 37 11
-4.4593906 1.8855555 -0.59447843 6 4
-3.26016 1.3791569 0.56066126 6 12
-3.2507617 1.375851 0.686149 2 13
-3.5653856 1.5104789 0.89395547 9 14
-3.2244973 1.3673899 0.93847805 17 15
-3.1720052 1.350358 0.060175817 12 8
-3.2882562 1.403239 0.43897334 13 11
-4.5787516 1.9548918 -0.61129689 8 4
-3.2555685 1.3899606 0.56066126 8 12
-4.5347772 1.9370527 -0.43142104 5 5
-3.2062225 1.3702167 0.67775345 4 13
-3.5636747 1.5244483 0.89485532 9 14
-3.1769977 1.3590378 -0.06031533 12 7
-3.2092888 1.3735145 0.93537223 5 15
-3.1564863 1.3561335 0.059966397 20 8
-3.2977331 1.4195458 0.31410912 1 10
-3.2088335 1.3819427 0.42898005 6 11
-4.497498 1.9378591 -0.60130304 4 4
-3.2434409 1.3981885 0.5594098 11 12
-4.5682364 1.9702305 -0.43525589 1 5
-3.1980555 1.3792864 0.67699015 4 13
-3.5550215 1.5347128 0.89395547 9 14
-3.1667271 1.3677416 -0.060210619 19 7
-3.1443946 1.3639603 0.059826773 22 8
-3.4405398 1.4938477 0.19657391 1 9
-3.2783885 1.4241233 0.31271464 1 10
-3.2094517 1.3955092 0.42971128 11 11
-4.6781983 2.0351093 -0.6264081 8 4
-3.2186167 1.4008304 0.55596823 16 12
-4.7202568 2.0553653 -0.45042107 15 5
-3.1731806 1.3823729 0.67279243 6 13
-3.5532153 1.548671 0.89485532 9 14
-3.1454365 1.3715929 -0.059896473 19 7
-3.1320481 1.3722651 0.059687149 24 8
-3.4628944 1.5193835 0.33084303 1 10
-3.2061327 1.4080611 0.42995501 22 11
-4.7143259 2.0714073 -0.63225788 8 4
-3.2152689 1.4134127 0.55628109 39 12
-4.7491674 2.0886943 -0.45390725 45 5
-3.1896563 1.4034822 0.67737174 19 13
-3.5582166 1.5663939 0.8975547 9 14
-3.1202574 1.3742461 -0.059512522 20 7
-3.0977392 1.3707892 0.059128679 24 8
-3.5228779 1.5611247 0.33711821 4 10
-3.2136526 1.4254372 0.43166119 25 11
-3.2139268 1.4262301 0.55690688 23 12
-4.740027 2.1044509 -0.45373294 33 5
-3.1685898 1.4074351 0.6739372 9 13
-3.556289 1.5803877 0.89845449 9 14
-3.093514 1.3753815 -0.059093662 20 7
-3.0785685 1.3745321 0.058849439 16 8
-3.0782251 1.3750224 0.17668624 1 9
-3.5267756 1.5768647 0.33798978 6 10
-3.1527381 1.4109485 0.42410523 16 11
-3.1983621 1.4320368 0.55502963 9 12
-4.7512054 2.1283019 -0.45547608 46 5
-3.1280735 1.4018764 0.66630518 8 13
-3.547472 1.5905776 0.8975547 9 14
-3.0779898 1.3807206 -0.058884241 15 7
-3.0557609 1.3765204 0.05850039 15 8
-3.058841 1.3791915 0.17584889 2 9
-3.5251596 1.5901899 0.3383384 6 10
-3.0702457 1.3862695 0.41362453 20 11
-4.7379718 2.1402724 -0.63835192 40 4
-3.1933444 1.4431916 0.55502963 11 12
-4.7510085 2.1481586 -0.45617333 46 5
-3.1321046 1.4168329 0.66821331 5 13
-3.5365729 1.6005399 0.89620507 9 14
-3.0658646 1.388158 -0.058744624 16 7
-3.0470548 1.3860544 0.058430582 11 8
-3.0392237 1.3837726 0.1750115 2 9
-3.5319998 1.60888 0.33955857 6 10
-3.0398574 1.3859831 0.41021216 25 11
-4.7626057 2.1724517 -0.64273864 63 4
-3.1574819 1.4409449 0.54971081 13 12
-4.7467279 2.1672111 -0.4565219 46 5
-3.1340339 1.4315661 0.66973984 8 13
-3.5235922 1.6102521 0.89440536 9 14
-3.0352955 1.3877449 -0.058255959 13 7
-3.0198562 1.3877014 0.17417412 2 9
-3.5097885 1.6143218 0.33798978 6 10
-3.0293472 1.3946259 0.40948096 29 11
-4.7279449 2.1766121 -0.63908309 48 4
-3.1291087 1.4412141 0.54564351 17 12
-4.7463722 2.1871026 -0.45721912 45 5
-3.1094055 1.4334558 0.66554159 11 13
-3.5285676 1.6274391 0.8971048 9 14
-3.0122757 1.3899525 -0.057906903 20 7
-3.0064595 1.3930017 0.057837207 5 8
-3.0188618 1.3993882 0.17438346 2 9
-3.5080304 1.6276292 0.3383384 6 10
-3.0067019 1.3963022 0.40704358 21 11
-4.7351055 2.1989667 -0.64103246 53 4
-3.1117716 1.4457573 0.54345345 9 12
-4.7535477 2.209549 -0.45861369 45 5
-3.0850527 1.4346529 0.66134417 16 13
-3.5284519 1.6415976 0.89845449 9 14
-3.0312178 1.410904 -0.058360666 57 7
-3.0181286 1.4105835 0.058151349 2 8
-2.9888752 1.3975477 0.17291805 2 9
-3.5098317 1.6426315 0.33903563 7 10
-2.9679 1.3902658 0.40241253 4 11
-4.7385731 2.2197094 -0.64249486 53 4
-3.0926507 1.4493623 0.54095048 13 12
-4.7552137 2.2295289 -0.4594852 42 5
-3.0074043 1.4106916 0.64569747 9 13
-3.522989 1.6532894 0.89845449 9 14
-3.0265226 1.4209484 -0.05836067 45 7
-2.9989641 1.4137628 0.057872113 2 8
-2.9517088 1.3921163 0.17103396 2 9
-3.5151761 1.6593639 0.34008151 7 10
-4.7383657 2.2388034 -0.64347053 51 4
-3.0699689 1.4511667 0.53782183 11 12
-4.7622032 2.2521 -0.46087971 41 5
-2.9885128 1.4139398 0.64264452 9 13
-3.517487 1.6649631 0.89845449 9 14
-3.0127568 1.4266976 -0.058186144 31 7
-3.1407523 1.4879812 0.93123102 0 15
-3.0082071 1.4316204 0.058151349 2 8
-2.9427352 1.401722 0.17082462 3 9
-3.5126672 1.6739516 0.34043011 6 10
-4.7351089 2.2595456 -0.6442011 48 4
-2.9930682 1.4289021 0.52530706 7 12
-2.9797668 1.4231914 0.64188129 11 13
-3.5128264 1.6792966 0.89890438 7 14
-3.0931921 1.4800183 0.91880769 0 15
-2.9486253 1.4171767 0.17145267 5 9
-3.5029173 1.6850877 0.34008151 6 10
-4.7432904 2.2838113 -0.64639473 46 4
-2.9809432 1.435913 0.5240556 10 12
-2.9656885 1.4298403 0.63997316 12 13
-3.5066481 1.6921606 0.89890438 7 14
-3.1993492 1.5445596 0.95193654 0 15
-2.9472549 1.429203 0.171662 2 9
-3.4970138 1.6973048 0.34008151 7 10
-4.7545271 2.3107259 -0.64907587 48 4
-2.968806 1.4428558 0.52280408 10 12
-2.9536173 1.4367487 0.63844675 23 13
-3.5147369 1.7112153 0.90250361 7 14
-3.174834 1.5464127 0.94624257 7 15
-2.9373574 1.435819 0.057069298 5 8
-2.9709527 1.4535259 0.17333674 2 9
-3.4982255 1.7130064 0.34077877 6 10
-4.7557502 2.3308477 -0.65029454 51 4
-2.9548836 1.448862 0.52123982 23 12
-4.7849374 2.347223 -0.46628335 26 5
-2.927686 1.4361593 0.63386738 15 13
-3.5020456 1.7194259 0.90070403 7 14
-2.954339 1.4511533 -0.057453148 1 7
-3.1780856 1.5617456 0.94883078 16 15
-2.9879248 1.4734821 0.058151346 1 8
-2.9515333 1.4568158 0.17249939 2 9
-3.4960985 1.726362 0.34112737 7 10
-4.7618203 2.3544731 -0.65224504 53 4
-2.9427257 1.4556634 0.51998824 16 12
-4.7985573 2.3736784 -0.46837509 44 5
-2.9508076 1.4603032 0.63997316 17 13
-3.4995151 1.7333689 0.90160376 7 14
-2.9277539 1.4508032 -0.057034288 1 7
-3.1587679 1.5659653 0.94468963 12 15
-2.9643085 1.4760129 0.17354611 2 9
-3.5007515 1.7438844 0.34217367 6 10
-4.7624555 2.37551 -0.65346378 55 4
-2.9340913 1.4641626 0.51936251 16 12
-4.7955909 2.3930833 -0.46889809 38 5
-2.9579878 1.4767332 0.64264452 16 13
-3.4794977 1.7386059 0.89800465 7 14
-2.8940532 1.4467081 -0.056475814 1 7
-3.1653779 1.5830301 0.94831324 12 15
-3.0347576 1.5230074 0.059268299 1 8
-2.9698467 1.4917294 0.17417412 2 9
-3.4839616 1.7507265 0.34112737 7 10
-4.763001 2.3965812 -0.65468186 46 4
-2.9377844 1.4788374 0.52092689 15 12
-4.7925463 2.412497 -0.46942097 49 5
-2.9528155 1.4870489 0.64264452 16 13
-3.4838481 1.7560046 0.90070403 7 14
-3.146034 1.5871086 0.94417197 10 15
-2.9717481 1.505698 0.17459281 2 9
-3.4796064 1.763778 0.34130168 6 10
-4.7758474 2.4239736 -0.65760666 51 4
-2.950218 1.4980259 0.52405554 15 12
-4.7894263 2.431917 -0.46994394 46 5
-2.9528575 1.5000144 0.64378935 15 13
-3.4898574 1.7743363 0.9038533 9 14
-3.1473613 1.601586 0.94624251 12 15
-2.9738531 1.5191789 0.1750115 2 9
-3.4858458 1.7822623 0.34252188 6 10
-4.7761922 2.445153 -0.65882605 48 4
-2.9628172 1.5168028 0.52718425 15 12
-4.7950945 2.4558861 -0.47133839 46 5
-2.9580872 1.5156845 0.64607906 15 13
-3.4784405 1.7838397 0.90250361 9 14
-3.1489089 1.6155412 0.94831324 10 15
-2.9720829 1.5313799 0.17522085 2 9
-3.483145 1.7962461 0.3428705 6 10
-4.7715859 2.4627979 -0.65931284 48 4
-2.9680362 1.5325739 0.5290615 15 12
-4.8041935 2.4817536 -0.4730815 46 5
-2.9530447 1.5254856 0.64607906 15 13
-3.4655817 1.791785 0.90070403 7 14
-3.1432502 1.626523 0.94831318 12 15
-3.1022065 1.6107802 0.061013542 1 8
-2.9879866 1.5527965 0.17647691 2 9
-3.4824727 1.8105439 0.34339342 6 10
-4.7717628 2.4840229 -0.66053212 51 4
-2.9626684 1.542925 0.5290615 15 12
-4.7977047 2.4985914 -0.47325581 45 5
-2.9581487 1.5412266 0.64836884 16 13
-3.459306 1.8038714 0.90070403 7 14
-3.1375535 1.6374853 0.94831318 12 15
-2.9790096 1.5613626 0.17626755 2 9
-3.4690731 1.8189881 0.34269616 6 10
-4.7771239 2.5080466 -0.66248143 44 4
-2.9607625 1.5550936 0.52968723 15 12
-4.7924824 2.5171757 -0.47360447 46 5
-2.9614396 1.5561098 0.65027726 13 13
-3.4633367 1.821377 0.90340334 7 14
-3.1266899 1.6457281 0.94676024 11 15
-2.9841356 1.5773526 0.17689559 2 9
-3.4644642 1.8320171 0.3428705 6 10
-4.7753582 2.5284212 -0.66345704 44 4
-2.967535 1.5718915 0.53187728 13 12
-4.7977519 2.5413501 -0.47499895 46 5
-2.9525206 1.5645993 0.64951366 15 13
-3.4604008 1.8352824 0.90430319 7 14
-3.1260455 1.6593488 0.94831318 12 15
-2.9821372 1.5896382 0.17710495 2 9
-3.4650803 1.8478494 0.34356773 6 10
-4.7805123 2.5525551 -0.66540635 44 4
-2.9707417 1.5868951 0.5334416 12 12
-4.7958803 2.5618382 -0.47569618 44 5
-2.9591622 1.5813727 0.65218496 13 13
-3.4574103 1.8491886 0.90520304 7 14
-3.1202343 1.6702508 0.94831318 10 15
-4.887063 2.6270127 0.2907787 6 9
-3.4638731 1.8627645 0.34409067 7 10
-4.7733207 2.5701678 -0.66565007 42 4
-2.9686627 1.5991282 0.53406739 12 12
-4.7974334 2.5842314 -0.47674206 44 5
-2.9622653 1.5963494 0.65409309 13 13
-3.4475043 1.859395 0.90430319 7 14
-3.1296844 1.6893917 0.95297182 13 15
-4.883131 2.6469116 0.29109269 12 9
-3.4661069 1.8795934 0.34496224 6 10
-4.7730422 2.5915501 -0.66686934 38 4
-2.9665346 1.6113671 0.53469318 12 12
-4.8111444 2.6133251 -0.47900811 41 5
-2.9653001 1.6113667 0.65600115 13 13
-3.4409928 1.8714178 0.90430319 7 14
-3.1186779 1.6975355 0.95141894 12 15
-4.895359 2.6745813 0.29234874 22 9
-3.4542801 1.8888131 0.34443927 1 10
-4.7813797 2.6177287 -0.66930681 44 4
-2.9681053 1.6249901 0.53594458 12 12
-4.8019924 2.6301033 -0.47900811 42 5
-2.9785957 1.6320859 0.66019893 13 13
-3.4395654 1.886229 0.90565288 10 14
-3.1011753 1.7013637 0.94779545 11 15
-4.9069862 2.7032163 0.29360479 28 9
-3.5453732 1.9547299 0.35420072 1 10
-2.7220418 1.5014076 0.38169479 1 11
-4.7935295 2.6450791 -0.67223108 46 4
-2.9693325 1.6391596 0.5371961 12 12
-4.803247 2.6526272 -0.48005396 42 5
-2.9680121 1.6391058 0.6590541 13 13
-3.4349966 1.8985673 0.90610278 4 14
-2.8314795 1.5656415 -0.056475814 1 7
-3.098599 1.7140481 0.94883078 12 15
-4.9097428 2.7271178 0.29433754 40 9
-2.6820865 1.4916043 0.37682 1 11
-4.8050828 2.6733768 -0.67515588 46 4
-2.9601409 1.6475925 0.53657037 12 12
-4.8200688 2.683918 -0.4826687 45 5
-2.967418 1.6523222 0.66019899 13 13
-3.4743099 1.9361584 0.91825008 1 14
-2.8259974 1.575515 -0.056475814 1 7
-3.1010327 1.7295588 0.95141894 11 15
-4.903677 2.746192 0.29454684 40 9
-2.791141 1.5650347 0.39290673 1 11
-4.7991848 2.6920745 -0.67564398 46 4
-2.7373157 1.5361093 0.49714884 17 12
-4.821095 2.7065792 -0.48371452 45 5
-2.9750364 1.6708777 0.66325194 13 13
-2.8204806 1.5853702 -0.056475814 1 7
-3.0966606 1.74132 0.9519366 12 15
-4.9040136 2.7700391 0.2951749 41 9
-2.9236188 1.65343 0.41240585 2 11
-4.7996516 2.7155128 -0.67710578 44 4
-2.5906999 1.4663447 0.47149363 30 12
-4.8289566 2.7332053 -0.48545763 45 5
-2.9862697 1.6909258 0.66706812 13 13
-2.8146515 1.5956964 -0.056475818 1 7
-3.0868967 1.7507521 0.95090133 10 15
-4.9116697 2.7970238 0.29622158 41 9
-2.9161048 1.6626428 0.4121621 5 11
-4.8108349 2.7440526 -0.68003064 46 4
-2.5666933 1.4646093 0.46805206 31 12
-4.8228478 2.7520187 -0.48580623 45 5
-2.9888735 1.7062067 0.66897655 15 13
-3.0908287 1.7672702 0.95400715 12 15
-4.9122696 2.8201184 0.29684964 40 9
-2.9188881 1.677758 0.41338074 6 11
-4.8167157 2.7697337 -0.68222427 42 4
-2.5495789 1.4666648 0.46586195 37 12
-4.8270283 2.7767849 -0.48720074 46 5
-2.989706 1.7205466 0.67050266 16 13
-3.0812941 1.7761184 0.95297188 12 15
-4.9196815 2.8472524 0.29789633 40 9
-2.9061439 1.683955 0.41240582 7 11
-4.8190393 2.793499 -0.68393105 44 4
-2.5376084 1.4715925 0.46461052 33 12
-4.8310943 2.8016152 -0.48859528 46 5
-2.9887767 1.7339271 0.67164749 16 13
-3.0817568 1.7907456 0.95504248 12 15
-4.9205651 2.8695889 0.29852441 39 9
-2.9022582 1.694584 0.41264954 6 11
-4.8114638 2.8104658 -0.68417418 42 4
-2.5190701 1.4720256 0.46210751 14 12
-4.8389792 2.8276708 -0.49033833 44 5
-2.9948747 1.7507645 0.67431879 16 13
-3.0741343 1.7999792 0.95452482 13 15
-2.8929038 1.7026906 0.4121621 6 11
-4.8170185 2.8363087 -0.68636847 44 4
-2.5105126 1.4788049 0.46148178 3 12
-4.8462467 2.8546574 -0.49208146 45 5
-3.0022767 1.7691818 0.6773718 17 13
-3.0661688 1.8097173 0.95400715 12 15
-2.8988929 1.7198684 0.41386822 6 11
-4.8173318 2.8591852 -0.68783027 38 4
-2.5121293 1.4915932 0.46273327 1 12
-4.8396788 2.8735912 -0.49243009 44 5
-2.9977705 1.7806538 0.67775345 16 13
-3.0581725 1.8194214 0.95348948 12 15
-2.8962796 1.7320141 0.41435573 6 11
-4.831171 2.8902516 -0.69124258 12 4
-2.9999592 1.7961489 0.67966151 16 13
-3.0468326 1.8271048 0.9519366 11 15
-2.8868155 1.7400649 0.41386825 6 11
-2.9953513 1.8076247 0.68004304 12 13
-3.0556383 1.8461899 0.9565953 13 15
-2.8759396 1.7465365 0.41313702 6 11
-3.0027611 1.8257068 0.68309605 11 13
-3.049499 1.8563124 0.95659524 13 15
-2.8785985 1.7612441 0.41435573 6 11
-3.3168068 2.0301545 -0.4774839 4 4
-3.3384821 2.0450225 -0.34252217 2 5
-3.0097611 1.8443846 0.686149 8 13
-3.251353 1.9932119 0.88045847 1 14
-3.0479407 1.8699769 0.95814824 12 15
-2.8771923 1.7749096 0.41508693 6 11
-3.0063217 1.8574665 0.68691218 6 13
-3.2274487 1.9948704 0.87595946 1 14
-3.0279238 1.8730048 0.95400721 12 15
-4.9510307 3.0745566 0.30543271 2 9
-2.8790958 1.7906851 0.41630563 6 11
-3.3440607 2.0814941 -0.34461391 1 5
-2.9998193 1.8679494 0.68691218 9 13
-2.1987367 1.3696579 -0.13575943 2 6
-3.023006 1.8845855 0.95452482 13 15
-4.9746723 3.1121433 0.30752614 11 9
-2.8630488 1.7938989 0.41484323 6 11
-3.3121872 2.0753152 -0.47992125 2 4
-2.9919457 1.8768438 0.68653059 9 13
-2.1738818 1.3642021 -0.13450338 2 6
-3.9895966 2.5036397 1.0874134 1 14
-3.0265563 1.9007639 0.95763069 13 15
-4.951952 3.1220336 0.30679348 22 9
-2.8604417 1.8055025 0.41533068 6 11
-4.869781 3.0761693 -0.50393468 4 5
-3.0006421 1.8961943 0.68996513 9 13
-2.1727226 1.3735375 -0.13471271 2 6
-3.931422 2.4863026 1.0739163 2 14
-3.0199029 1.9113171 0.95763069 12 15
-4.9730544 3.1596494 0.30878225 32 9
-3.1241982 1.9857377 0.32387057 1 10
-2.8557973 1.8165412 0.4155744 6 11
-4.8724594 3.1017087 -0.50532919 31 5
-3.0055974 1.9140376 0.69263649 9 13
-2.1544387 1.3725289 -0.13387534 2 6
-3.896426 2.4832532 1.066718 2 14
-2.4044516 1.532984 -0.04977411 1 7
-3.0295002 1.9322352 0.962807 12 15
-1.9859786 1.2705752 0.041152723 4 8
-2.2850866 1.463623 0.23741211 1 10
-2.8611374 1.8339976 0.41728061 6 11
-4.8867579 3.1348333 -0.50794381 39 5
-3.0005493 1.9255792 0.69301808 8 13
-2.1328273 1.3692508 -0.13282861 2 6
-3.9041312 2.507369 1.0712169 1 14
-2.3116014 1.4851617 -0.047959071 2 7
-3.0048604 1.9313087 0.95711297 12 15
-1.9344721 1.24716 0.040175386 12 8
-2.2471933 1.4498837 0.14015575 5 9
-2.2414625 1.4467396 0.23340294 11 10
-2.863055 1.8493599 0.41849929 6 11
-4.8975377 3.1659338 -0.51020992 41 5
-2.9971061 1.9381735 0.69378173 8 13
-2.1414506 1.3853661 -0.13366599 3 6
-3.8920829 2.5188639 1.070317 1 14
-2.2912955 1.4834406 -0.047644924 6 7
-3.0013442 1.943885 0.95814824 14 15
-1.9317837 1.2549944 0.040210295 22 8
-2.2354209 1.4533638 0.13973705 12 9
-2.2430792 1.4589 0.23410018 9 10
-2.8515913 1.8560932 0.41776806 6 11
-4.8931332 3.187361 -0.51090711 17 5
-3.0034814 1.9571975 0.69683462 6 13
-2.1466405 1.3993771 -0.13429403 2 6
-3.9028537 2.5452096 1.0757159 2 14
-2.2559574 1.4717622 -0.047016643 23 7
-2.9961581 1.9554064 0.95866591 9 15
-1.9775838 1.2945876 0.041257437 36 8
-2.2136276 1.4502132 0.13869034 16 9
-2.2396395 1.4678131 0.23427449 5 10
-2.8367953 1.8605925 0.41654941 6 11
-4.5061541 2.9566131 -0.6617502 2 4
-3.0064781 1.9741356 0.6991244 4 13
-3.8939459 2.5588181 1.075716 1 14
-2.041934 1.3423202 -0.042653553 36 7
-1.9797301 1.3058867 0.041397057 30 8
-2.1954701 1.4487457 0.13785297 17 9
-2.2178764 1.4646426 0.23253138 6 10
-2.8435321 1.8792392 0.41849929 6 11
-4.5223002 2.9898412 -0.66565007 2 4
-3.3020148 2.1838984 -0.34635705 2 5
-3.0257661 2.0019512 0.70522988 1 13
-2.1334875 1.4121252 -0.13408469 36 6
-3.8817406 2.5702422 1.0748161 2 14
-2.0041244 1.327004 -0.041955449 37 7
-3.026264 2.0045595 0.97264212 0 15
-1.9887135 1.3212976 0.041676298 32 8
-2.1870732 1.4541889 0.13764362 17 9
-2.1828933 1.4525084 0.22939378 6 10
-2.8455474 1.8941586 0.41971803 6 11
-4.5288839 3.0158229 -0.66808742 2 4
-3.2811079 2.1865726 -0.34496257 5 5
-3.0485172 2.0315711 0.71209896 1 13
-2.1105127 1.4070057 -0.1329333 30 6
-3.8699534 2.5809379 1.0739163 2 14
-1.9878362 1.3262231 -0.041711122 38 7
-1.9824272 1.3271191 0.041641388 30 8
-2.1703691 1.4540323 0.13691092 18 9
-2.1697893 1.4541932 0.22852223 9 10
-2.8455126 1.908502 0.42069289 6 11
-4.9060483 3.294241 -0.51700807 4 5
-4.0943279 2.7491989 0.95862412 1 13
-2.0641401 1.3865218 -0.1303165 20 6
-3.8770952 2.6052999 1.0784154 2 14
-2.0014501 1.3454251 -0.042095073 34 7
-1.9810978 1.3362678 0.0417112 37 8
-2.1553478 1.454895 0.13628288 18 9
-2.1545391 1.455444 0.22747634 9 10
-2.8306096 1.9128655 0.41947421 6 11
-4.9258723 3.3325596 -0.52031994 1 5
-2.0391982 1.380641 -0.12906042 33 6
-3.8739743 2.6238639 1.080215 2 14
-2.0232322 1.3703463 -0.042653553 33 7
-1.989417 1.3525138 0.041990437 37 8
-2.1304376 1.4489317 0.13502681 18 9
-2.1379161 1.4551088 0.22625618 18 10
-2.8235793 1.9232274 0.41947421 6 11
-4.4948788 3.0627501 -0.6678443 6 4
-2.1006804 1.4319131 -0.22242153 7 5
-5.0542574 3.4464889 1.189122 6 13
-2.0294168 1.3843739 -0.12874642 30 6
-3.8454757 2.6241896 1.0748161 2 14
-2.0266955 1.3830364 -0.042828076 32 7
-2.0063708 1.3737906 0.042444199 37 8
-2.1121867 1.4473274 0.13418944 27 9
-2.1459684 1.4715773 0.22765067 43 10
-2.825371 1.9381952 0.42069289 6 11
-4.4994292 3.0877485 -0.67003739 4 4
-2.2090578 1.5171087 0.52090847 14 13
-2.0346923 1.3978819 -0.12937444 32 6
-3.8335407 2.6347201 1.0739164 3 14
-2.0284462 1.394634 -0.042967692 25 7
-2.0509436 1.4148511 0.043491341 39 8
-2.1106632 1.4565926 0.13439879 33 9
-2.1214039 1.4650983 0.22555892 37 10
-2.8316522 1.957075 0.42264286 7 11
-4.5147486 3.1214986 -0.67393786 2 4
-2.2601373 1.5626596 0.43520081 1 12
-2.0990782 1.4518455 -0.22329308 20 5
-2.1972907 1.5203415 0.51938224 34 13
-2.0396533 1.4117967 -0.13000248 33 6
-3.8339334 2.654742 1.0766158 4 14
-2.0123019 1.3933843 -0.042723361 18 7
-2.1184993 1.4718471 0.045027152 36 8
-2.1219642 1.475353 0.13544551 34 9
-2.1244538 1.4781848 0.22643048 33 10
-2.821888 1.9641863 0.42215535 6 11
-3.4487371 2.4014006 -0.51599467 2 4
-2.2546685 1.5705402 0.43520081 1 12
-2.0972674 1.4614419 -0.22364174 36 5
-2.1761296 1.5163956 0.51556575 32 13
-2.0710063 1.4436792 -0.13230523 16 6
-2.051708 1.4312909 -0.043665789 29 7
-2.1163666 1.4818958 0.04509696 34 8
-2.1214502 1.4865578 0.13575952 32 9
-2.1258073 1.4901656 0.22712773 40 10
-2.8065453 1.9688153 0.42093667 3 11
-2.2327299 1.5674428 0.4320721 1 12
-2.0644319 1.4492918 -0.2206784 24 5
-2.062433 1.4489642 -0.13209592 13 6
-2.1298764 1.4974575 -0.04544593 30 7
-2.114449 1.4915798 0.045166768 37 8
-2.1129842 1.4916514 0.13555019 32 9
-2.1205926 1.4975772 0.22712773 37 10
-2.2433729 1.586633 0.43520081 1 12
-2.0561068 1.4541885 -0.22032979 4 5
-2.0622532 1.4596162 -0.13240993 20 6
-2.0397813 1.4447801 -0.043630883 25 7
-2.11901 1.5059013 0.0453762 38 8
-2.1110196 1.5013331 0.13575952 7 9
-2.1218457 1.5095901 0.22782497 34 10
-2.2348318 1.5911494 0.3368468 1 11
-2.0583122 1.4660128 -0.31027925 1 4
-2.2378204 1.5944545 0.43520075 1 12
-2.0558863 1.4648252 -0.22085273 1 5
-2.1326842 1.5201061 0.50907826 1 13
-2.0636501 1.471444 -0.13282861 18 6
-2.0379813 1.4542146 -0.043700691 23 7
-2.1997299 1.5702108 0.72417575 1 15
-2.118618 1.5167811 0.045480911 36 8
-2.099272 1.50404 0.13534084 2 9
-2.1117055 1.5135052 0.22730203 6 10
-2.1486108 1.5410922 0.32465991 1 11
-2.0467315 1.4685589 -0.30930457 1 4
-4.8072276 3.4505281 -0.51770526 4 5
-2.0568793 1.4774735 -0.13272396 12 6
-2.0962179 1.5068402 -0.045061979 11 7
-2.1165545 1.5265069 0.045550723 15 8
-2.0891509 1.5078516 0.13502681 1 9
-2.1432183 1.5485822 0.32465988 1 11
-2.0759804 1.5022073 -0.13429403 7 6
-2.0806439 1.5127859 0.13481747 1 9
-2.129266 1.5532569 -0.046004403 1 7
-2.0463469 1.4987972 0.13293338 1 9
-1.9800251 1.4507517 0.21475165 1 10
-2.0056298 1.4711267 -0.30540445 1 4
-2.2153404 1.6255436 0.43520075 1 12
-2.0384459 1.4957443 -0.22120133 2 5
-2.0718822 1.5213917 -0.13471271 1 6
-2.123831 1.56068 -0.046004403 1 7
-2.12467 1.5618668 0.70657605 1 15
-2.0057452 1.4798439 0.1306306 1 9
-2.0166278 1.4884166 0.21928373 1 10
-2.0228343 1.4946342 -0.30881679 1 4
-2.0556436 1.5194317 -0.22364174 1 5
-2.0537131 1.5191128 -0.13387534 1 6
-2.1183708 1.5680835 -0.046004403 1 7
-2.1409407 1.5853691 0.71382302 1 15
-2.0005672 1.486836 0.13063058 1 9
-1.9698486 1.4645395 0.21475165 1 10
-2.0016804 1.4898336 -0.30637941 1 4
-2.0663078 1.5384959 -0.22538482 1 5
-2.1066799 1.5691268 0.51060474 1 13
-2.0483975 1.5262729 -0.13387534 1 6
-2.1663632 1.6159345 0.72417581 1 15
-1.995365 1.4938104 0.1306306 1 9
-1.9679136 1.4737952 0.21510024 1 10
-2.0187035 1.5134828 -0.30979174 1 4
-2.044986 1.5337452 -0.22364174 1 5
-2.0917675 1.5694017 0.50831509 1 13
-5.1569767 3.8747807 1.7283938 2 15
-1.9451798 1.4657984 0.042514008 1 8
-1.9904001 1.500419 0.13063058 1 9
-1.9691194 1.485455 0.21579748 1 10
-2.086277 1.5755504 -0.321004 1 4
-2.045979 1.5456778 -0.22433898 1 5
-1.9498665 1.4794933 0.04272344 1 8
-1.9533378 1.483201 0.12853716 1 9
-1.9131584 1.4537461 0.21021953 1 10
-2.0873616 1.5872668 -0.32197869 2 4
-2.0516431 1.5618018 -0.1351314 1 6
-3.8278816 2.9150085 1.1108083 1 14
-2.0965493 1.5971417 -0.046004403 1 7
-1.9415129 1.4838622 0.042653635 1 8
-1.8862776 1.4426895 0.12445496 3 9
-1.8845917 1.4419222 0.20760486 4 10
-2.0282264 1.5535029 -0.31369156 1 4
-1.9911281 1.5256385 -0.21945825 2 5
-1.9843655 1.5215571 -0.1310492 4 6
-2.090961 1.6044508 -0.046004403 1 7
-1.8843939 1.4517032 0.12466429 3 9
-1.8905942 1.4570048 0.20882504 3 10
-1.9020257 1.4668738 0.29492378 1 11
-1.9850708 1.5314714 -0.30784187 4 4
-2.3785517 1.8357021 0.47587377 5 12
-1.9826357 1.5301448 -0.21910961 2 5
-2.1381204 1.6531228 0.72417581 1 15
-1.8836976 1.4606191 0.041606482 12 8
-1.909296 1.4815356 0.12665306 3 9
-1.8949399 1.4709256 0.2098709 2 10
-1.8843526 1.4637616 0.29297388 1 11
-2.0173318 1.5676241 -0.31369185 1 4
-2.3892846 1.8573302 0.47931534 10 12
-5.1243782 3.9877839 1.4990736 32 14
-1.8899503 1.4771221 0.12571102 4 9
-1.8835152 1.4726223 0.20917392 3 10
-1.8479631 1.4458655 0.28809911 1 11
-2.3796761 1.8632227 0.47868958 10 12
-4.8928971 3.8310077 -0.54367769 1 5
-5.1303654 4.0212755 1.5049225 8 14
-1.8970301 1.4922795 0.042130053 7 8
-1.8737972 1.4750625 0.12497832 4 9
-1.8846248 1.4841189 0.2098709 1 10
-1.8429049 1.4523076 0.28809911 1 11
-2.3824646 1.8788577 0.48056686 10 12
-4.8982677 3.8628688 -0.54576939 2 5
-5.3661523 4.2394538 1.8324389 38 15
-1.8839726 1.4926831 0.041955531 10 8
-1.928108 1.5287467 0.12895586 1 9
-1.9200183 1.5228794 0.21440299 1 10
-1.8378237 1.4587319 0.28809911 1 11
-2.3666103 1.8797907 0.47868958 10 12
-4.8785138 3.8749869 -0.5450722 13 5
-5.358881 4.264173 1.8350273 41 15
-1.9477302 1.5554094 0.1306306 1 9
-1.8368578 1.4673945 0.20568743 1 10
-1.8637314 1.4899287 0.29297388 1 11
-2.3600345 1.8880396 0.47868958 10 12
-4.8696256 3.8957253 -0.54559511 2 5
-5.3620534 4.2973509 1.8412391 53 15
-1.942289 1.5621988 0.1306306 1 9
-1.8441434 1.483789 0.20708193 1 10
-1.8585192 1.4964254 0.29297388 1 11
-4.846622 3.9037507 -0.76412112 14 4
-2.3595819 1.9012244 0.47994104 10 12
-5.3500261 4.3184681 1.8422741 56 15
-1.8902661 1.5312532 0.12749043 1 9
-1.8544323 1.5027614 0.20882505 1 10
-1.8224479 1.4778966 0.28809911 1 11
-4.8591733 3.9419057 -0.768264 34 4
-2.3621342 1.916918 0.48181826 10 12
-2.0993652 1.7036759 -0.23654076 1 5
-2.1795523 1.7706425 0.64830899 1 14
-5.3574038 4.3553967 1.8500386 57 15
-1.9003848 1.5504682 0.12853716 1 9
-1.8646103 1.5218235 0.21056816 1 10
-1.7773039 1.4516004 0.28176185 1 11
-4.8576818 3.9688928 -0.77021396 36 4
-2.3554287 1.9251517 0.48181826 10 12
-2.0934055 1.7109936 -0.23654076 1 5
-5.3630943 4.3912053 1.8572857 56 15
-1.9287261 1.5837096 0.043561153 1 8
-1.9258236 1.5824521 0.1306306 1 9
-1.8377389 1.5106108 0.20812781 1 10
-1.8120856 1.4905843 0.28809911 1 11
-4.8652573 4.0034838 -0.77362627 36 4
-2.3456442 1.9308507 0.48119253 10 12
-1.9084648 1.5726571 0.57092577 2 14
-5.3656192 4.4246488 1.8634974 33 15
-1.8648949 1.5433241 0.12686242 1 9
-1.8324549 1.5170161 0.20812781 1 10
-1.7854702 1.4791707 0.28468677 1 11
-4.9597726 4.1103754 -0.7909317 36 4
-2.3419316 1.9415483 0.48181826 10 12
-5.057044 4.1924777 -0.57470518 4 5
-1.8729718 1.5544193 0.56192774 9 14
-1.8566984 1.546942 0.12665306 1 9
-1.8240874 1.5208513 0.20777942 1 10
-1.7559086 1.4650457 0.2807869 1 11
-5.0170226 4.1874475 -0.80238742 38 4
-2.3415463 1.9543668 0.48306969 10 12
-5.0332012 4.2024436 -0.5736593 34 5
-1.8376299 1.5359526 0.5529297 13 14
-1.8084472 1.5174675 0.12372225 1 9
-1.809613 1.5195223 0.2067333 1 10
-1.7449608 1.4657536 0.27981201 1 11
-5.0091877 4.2091699 -0.80336314 14 4
-2.3437829 1.9701552 0.484947 10 12
-5.0566249 4.2520432 -0.57801706 39 5
-2.1428442 1.8025255 -0.14674997 1 6
-1.8355083 1.5445474 0.55382949 21 14
-2.0082142 1.6910731 0.70347023 1 15
-1.8455949 1.558544 0.042164966 1 8
-1.8153433 1.5340842 0.12455963 1 9
-1.7893484 1.5126522 0.20499019 1 10
-1.7337718 1.4667076 0.27883705 1 11
-5.0187087 4.2471466 -0.8072629 27 4
-2.3399065 1.9808769 0.48557267 10 12
-5.0774713 4.2983966 -0.58202618 41 5
-1.8375396 1.5572443 0.55607903 37 14
-1.9993526 1.695574 0.70243502 1 15
-1.82491 1.5520216 0.04181591 1 8
-1.7886834 1.522289 0.12309422 1 9
-1.79316 1.5266378 0.20603605 1 10
-1.7497958 1.4907734 0.28224936 1 11
-2.3194489 1.9774985 0.48275688 8 12
-5.0654693 4.3186798 -0.58237487 49 5
-1.8202344 1.5535284 0.55247986 32 14
-1.9816699 1.6925058 0.69829392 1 15
-1.8194811 1.558383 0.041815914 1 8
-1.7924577 1.5363216 0.12372225 1 9
-1.7878197 1.5328885 0.20603606 1 10
-1.7807387 1.5278953 0.28809911 1 11
-5.0579209 4.3428245 -0.58324641 41 5
-1.8192339 1.5636834 0.55382949 34 14
-1.925953 1.6565809 0.6806941 1 15
-1.8503716 1.5960716 0.042653635 1 8
-1.7719649 1.5295186 0.12267553 1 9
-1.7734101 1.531307 0.20499019 1 10
-1.7753942 1.5341023 0.28809911 1 11
-5.0653386 4.3800011 -0.58586109 37 5
-1.9243393 1.6645651 0.49457681 1 13
-1.8049244 1.5623714 0.55113006 27 14
-1.9464422 1.6860611 0.69001162 1 15
-1.829693 1.5894066 0.042304587 1 8
-1.7726442 1.5409365 0.12309422 1 9
-1.7800819 1.5479469 0.20638469 1 10
-1.7400787 1.514228 0.28322431 1 11
-1.9185169 1.671272 0.49457708 1 13
-1.7994593 1.568663 0.55113012 14 14
-1.937634 1.6903051 0.68897641 1 15
-1.7732657 1.5523767 0.12351291 1 9
-1.7356968 1.5200227 0.20185259 1 10
-1.7198532 1.5072088 0.2807869 1 11
-5.0900593 4.4638638 -0.59231061 4 5
-1.9953182 1.7504628 0.5159474 1 13
-1.7807925 1.5633636 0.54708099 5 14
-1.9520401 1.7149085 0.69622326 1 15
-1.7825409 1.5704156 0.041466866 1 8
-1.6945176 1.4944438 0.1976691 1 10
-1.6996986 1.5000681 0.27834958 1 11
-5.0477114 4.4564242 -0.82676202 6 4
-2.2964287 2.0281382 0.48525983 3 12
-5.1028218 4.5066619 -0.59562254 26 5
-2.0186217 1.7834145 0.52357978 3 13
-2.1370752 1.888731 -0.14947146 1 6
-1.7811645 1.5747328 0.54888058 2 14
-1.943148 1.7191525 0.69518799 1 15
-1.7920066 1.5898998 0.041815914 1 8
-1.7683591 1.5700226 0.12393159 1 9
-1.7041874 1.5135803 0.19941224 1 10
-1.6944517 1.5059919 0.27834955 1 11
-5.0677309 4.5056725 -0.83261102 42 4
-2.2922871 2.0387676 0.48588559 10 12
-5.1004581 4.5363641 -0.59719139 39 5
-2.0197175 1.7969748 0.52548814 4 13
-1.8062215 1.6081537 0.55832851 1 14
-1.9457902 1.7336354 0.69829392 1 15
-1.750957 1.5655357 0.12309422 1 9
-1.6899832 1.5115502 0.19836634 1 10
-1.6743928 1.4986583 0.27591214 1 11
-5.0623245 4.5326042 -0.83431798 40 4
-2.2939851 2.0546644 0.48776278 12 12
-5.0964651 4.5647745 -0.59858578 38 5
-2.0119705 1.802704 0.52510619 6 13
-1.91672 1.7197742 0.69001162 1 15
-1.7336073 1.5609471 0.12225685 1 9
-1.6639709 1.4987723 0.195926 1 10
-1.6838967 1.5177847 0.27834955 1 11
-5.0700607 4.5715165 -0.83821702 42 4
-2.2823992 2.0586898 0.48682421 10 12
-5.0982552 4.5985498 -0.60067761 45 5
-2.0042083 1.8084012 0.5247246 9 13
-1.9336398 1.7471774 0.69829392 1 15
-1.7011667 1.5414418 0.040070675 1 8
-1.6630462 1.5079584 0.11765126 1 9
-1.6469235 1.4938624 0.1945315 1 10
-1.6580099 1.5049744 0.27493718 1 11
-5.0628905 4.5971918 -0.83968019 36 4
-2.2605765 2.0533633 0.48369554 5 12
-5.1042929 4.6364136 -0.60329223 44 5
-2.0036952 1.8206671 0.52625108 9 13
-1.9075253 1.7357135 0.69104695 1 15
-1.6957755 1.5473704 0.040070672 1 8
-1.6577727 1.513754 0.11765126 1 9
-1.6475832 1.5049771 0.19522876 1 10
-1.6263732 1.4866446 0.27054989 3 11
-5.0731812 4.6389503 -0.84406668 36 4
-2.2665129 2.0732408 0.48651129 2 12
-5.1145387 4.6784077 -0.60642982 44 5
-1.9987767 1.8289752 0.52663273 10 13
-1.9043033 1.7449725 0.69208229 1 15
-1.6609148 1.5262203 0.039372578 1 8
-1.6201349 1.4897901 0.1153485 2 9
-1.6144586 1.4850913 0.19191682 4 10
-1.6357794 1.5057572 0.27298731 1 11
-5.0847025 4.6821799 -0.8486985 36 4
-5.1157641 4.7124305 -0.60852164 51 5
-1.9880488 1.8319501 0.52548784 10 13
-1.9038794 1.7568494 0.69415277 1 15
-1.6438359 1.5211431 0.039093342 1 8
-1.6075974 1.4886513 0.11482514 12 9
-1.6282666 1.508319 0.19418287 1 10
-1.6770988 1.5546427 0.2807869 1 11
-5.0901623 4.7201457 -0.85235381 36 4
-5.1124287 4.7424536 -0.61009037 46 5
-1.975885 1.8335371 0.52396137 9 13
-1.9005656 1.7661147 0.69518805 1 15
-1.6619234 1.5486844 0.039651815 1 8
-1.6870952 1.5737921 0.20185259 1 10
-1.64264 1.5333959 0.27591217 1 11
-5.093967 4.7568531 -0.85576618 36 4
-2.2533395 2.1049521 0.48838851 1 12
-5.1176825 4.7806716 -0.61270505 48 5
-1.9709073 1.8417637 0.52434331 10 13
-1.866178 1.746338 0.68483531 1 15
-1.6885877 1.5845805 0.040419724 1 8
-1.6815914 1.5796717 0.20185259 1 10
-1.6719902 1.5717512 0.28176185 1 11
-5.0889001 4.7854848 -0.85771608 36 4
-2.2689984 2.1344614 0.49339443 1 12
-5.1256332 4.8217158 -0.61566842 45 5
-1.9616073 1.8459411 0.52357978 9 13
-1.8600707 1.7528416 0.68483531 1 15
-1.7063007 1.6124398 0.040978193 1 8
-1.6760674 1.5855316 0.20185259 1 10
-1.6607273 1.5721195 0.28078693 1 11
-5.0909009 4.8209643 -0.86088467 34 4
-1.9651268 1.8622298 0.52625138 10 13
-2.2669866 2.1490359 -0.16370682 1 6
-1.8567431 1.7619839 0.68587059 1 15
-1.6629977 1.5825449 0.040070672 1 8
-1.6705223 1.5913731 0.2018526 1 10
-1.6983346 1.6189979 0.28809911 1 11
-1.9642959 1.8744999 0.52777755 11 13
-2.2074635 2.1072874 -0.15993865 1 6
-1.8310285 1.7497685 0.67862368 1 15
-1.6401384 1.5717378 0.039651822 2 8
-1.7272569 1.6558006 0.125397 1 9
-1.664957 1.5971944 0.20185259 1 10
-2.1724062 2.0854475 -0.36975178 1 4
-2.2313871 2.1435642 -0.27070582 1 5
-1.9506623 1.8745432 0.52586973 10 13
-2.169857 2.0859129 -0.15774052 11 6
-1.8280002 1.7585094 0.67965889 1 15
-1.6780926 1.6188184 0.040698964 1 8
-1.6872751 1.6305207 0.28809911 1 11
-2.2368526 2.1616125 -0.38193837 1 4
-2.2596152 2.1843729 0.49777457 1 12
-2.155519 2.084471 -0.26233891 28 5
-1.9500804 1.8864614 0.52739626 10 13
-2.1657987 2.095875 -0.15794986 7 6
-1.8027297 1.7457467 0.67241198 1 15
-1.6927998 1.6438777 0.041187625 1 8
-1.6818587 1.636107 0.28809911 1 11
-2.1485674 2.0901198 -0.36804527 8 4
-2.1571605 2.099946 -0.26338476 8 5
-1.9508462 1.8997662 0.52930433 11 13
-2.1588366 2.1030457 -0.15794988 2 6
-1.8052309 1.759806 0.6755178 1 15
-1.7130781 1.674644 0.041815914 1 8
-1.7274827 1.6916757 0.29687369 1 11
-2.1402061 2.0958443 -0.36780185 3 4
-2.1459157 2.1029043 -0.26286182 3 5
-1.9473397 1.9089738 0.53006727 9 13
-2.1803708 2.1381612 -0.16004331 1 6
-1.7773238 1.7441334 0.66723561 1 15
-1.6841317 1.6584619 0.041257441 1 8
-1.6703953 1.647809 0.28809911 1 11
-2.1801836 2.1514542 -0.37608868 1 4
-1.94452 1.9202373 0.53121209 10 13
-2.0901091 2.0647278 -0.15397234 2 6
-1.7348994 1.7156273 0.65377706 1 15
-1.6470942 1.6333531 0.040489532 1 8
-1.6880074 1.6762637 0.20812781 1 10
-2.1360502 2.1226707 -0.36975148 1 4
-2.069695 2.0581675 -0.25536641 4 5
-1.9263346 1.9162743 0.52815914 10 13
-2.0938528 2.0836456 -0.15480971 1 6
-1.7083668 1.7012252 0.64601243 1 15
-1.6184608 1.6167669 0.039931055 1 8
-1.7018691 1.7018691 0.21056814 1 10
-1.6585613 1.6597195 0.28809911 1 11
-2.0609145 2.0630739 -0.35805231 3 4
-2.0624986 2.0653791 -0.25536641 7 5
-1.9224076 1.9257655 0.52892268 10 13
-1.6993921 1.7047389 0.64497709 1 15
-1.5902506 1.5997157 0.039372582 2 8
-1.743651 1.7558668 0.21649474 1 10
-1.7394507 1.7528602 0.30321091 1 11
-2.055099 2.0716648 -0.35829574 3 4
-2.0777223 2.0952017 -0.25815538 1 5
-1.9281131 1.9450128 0.53235728 9 13
-1.6390673 1.6557437 0.62427157 3 15
-1.573418 1.593872 0.039093338 6 8
-1.6787548 1.7023599 0.20917365 1 10
-1.6859477 1.710848 0.29492378 1 11
-1.9185575 1.9489334 0.53159374 9 13
-1.586159 1.6129605 0.60615432 8 15
-1.5667237 1.5976532 0.039058436 10 8
-1.7539668 1.7904671 0.21928373 1 10
-1.7108153 1.7476374 0.30028605 1 11
-1.9162018 1.9594958 0.53273857 9 13
-2.1096025 2.1580193 -0.15815921 2 6
-1.5544403 1.5956781 0.038883913 19 8
-1.7050108 1.7533007 0.30028605 1 11
-1.9066147 1.9633558 0.53197563 9 13
-2.1048396 2.1682358 -0.15836857 2 6
-1.5684175 1.6167866 0.60356617 37 15
-1.5541427 1.607114 0.039023533 29 8
-1.7414247 1.802668 0.21928373 1 10
-4.6578255 4.8266883 -0.82359266 2 4
-1.9034939 1.9745705 0.53312051 9 13
-1.5531011 1.6127838 0.59994268 35 15
-1.545472 1.6099141 0.038953722 35 8
-1.7348058 1.8090385 0.21928373 1 10
-1.9020199 1.9868761 0.53464663 9 13
-1.5434562 1.6140065 0.59838969 54 15
-1.7287973 1.8147815 0.21928373 1 10
-4.7706194 5.0148978 -0.60555828 50 5
-1.8927149 1.9903275 0.53388375 9 13
-1.5314426 1.6121129 0.59580153 39 15
-1.4990045 1.5823839 0.038046196 20 8
