# .PCD v0.7 - Point Cloud Data file format
VERSION 0.7
FIELDS x y z intensity ring
SIZE 4 4 4 4 2
TYPE F F F F U
COUNT 1 1 1 1 1
WIDTH 1215
HEIGHT 1
VIEWPOINT 0 0 0 1 0 0 0
POINTS 1215
DATA ascii
-4.2111607 -1.580356 0.71240264 43 12
-4.0870075 -1.533764 -0.38191652 41 5
-4.2094889 -1.5788894 0.87390494 34 13
-4.0919232 -1.5339783 -0.22902207 55 6
-4.2263613 -1.5835364 1.0419732 38 14
-4.114305 -1.5407312 -0.076685637 47 7
-4.2445602 -1.5886648 1.2143791 45 15
-4.1392055 -1.542647 0.077104636 45 8
-4.1272125 -1.536536 0.23080164 46 9
-4.1603656 -1.548053 0.38836575 48 10
-4.1754379 -1.5520011 0.54694951 41 11
-4.0882497 -1.5187827 -0.53549373 6 4
-4.199985 -1.5594583 0.70958692 43 12
-4.0923371 -1.5194883 -0.38191655 41 5
-4.2186561 -1.5655519 0.87466818 33 13
-4.0935068 -1.5182971 -0.22881272 48 6
-4.2208996 -1.5647085 1.0392737 38 14
-4.1196585 -1.5263602 -0.076685645 47 7
-4.2591376 -1.5771939 1.2169672 48 15
-4.1445651 -1.5281891 0.077104636 48 8
-4.141655 -1.5262949 0.23132499 49 9
-4.1545258 -1.5293912 0.38731983 50 10
-4.1733766 -1.5346769 0.54597455 40 11
-4.0953889 -1.5051872 -0.5357374 6 4
-4.2088413 -1.5468847 0.71021259 43 12
-4.082655 -1.4996973 -0.38052213 41 5
-4.216723 -1.548111 0.87314177 34 13
-4.1025324 -1.5053749 -0.22902207 53 6
-4.2281661 -1.5506364 1.0397238 38 14
-4.1078005 -1.5064936 -0.076371498 50 7
-4.2443919 -1.555748 1.2112732 46 15
-4.127068 -1.5062097 0.076685771 45 8
-4.1413293 -1.5097765 0.23101099 46 9
-4.1560946 -1.5135164 0.38697124 50 10
-4.185905 -1.5235448 0.54694951 40 11
-4.092896 -1.4888835 -0.53476298 4 4
-4.2105021 -1.5308335 0.7095868 45 12
-4.0878644 -1.4854376 -0.3805221 41 5
-4.218143 -1.532778 0.87237847 33 13
-4.1037474 -1.4903984 -0.22881274 53 6
-4.2314529 -1.5359416 1.0392737 34 14
-4.1186724 -1.494192 -0.076476201 47 7
-4.2479806 -1.5402642 1.2107556 48 15
-4.1322999 -1.4917941 0.076685764 47 8
-4.1503315 -1.4966663 0.23122035 46 9
-4.1592169 -1.4990503 0.38679695 48 10
-4.1762557 -1.5035446 0.54499966 40 11
-4.1092758 -1.4786202 -0.5362249 4 4
-4.2121034 -1.5147898 0.70896113 45 12
-4.0965171 -1.4732219 -0.3808707 41 5
-4.2160769 -1.515388 0.87085247 33 13
-4.0976472 -1.4720132 -0.22818473 48 6
-4.242291 -1.5231383 1.0406237 36 14
-4.1276278 -1.4811568 -0.076546021 47 7
-4.2533317 -1.5254265 1.2107556 48 15
-4.1412482 -1.4787062 0.076755576 47 8
-4.1423616 -1.4774725 0.2304876 46 9
-4.1681771 -1.4858615 0.38714555 48 10
-4.187089 -1.4909551 0.54573089 38 11
-4.0994501 -1.4589422 -0.53427541 2 4
-4.2192259 -1.5007395 0.70927399 46 12
-4.0978813 -1.4575782 -0.38052213 41 5
-4.2287412 -1.5032924 0.87237847 34 13
-4.0989957 -1.456363 -0.22797532 53 6
-4.2328906 -1.5031036 1.0370244 36 14
-4.1327729 -1.4667395 -0.076546021 45 7
-4.2586303 -1.510569 1.2107555 48 15
-4.1463852 -1.4642404 0.076755576 47 8
-4.1434722 -1.4623986 0.23027828 46 9
-4.1714597 -1.4706392 0.38697124 48 10
-4.1885228 -1.4750125 0.54524338 37 11
-4.0932832 -1.4406693 -0.53281254 4 4
-4.2129998 -1.4828048 0.70739681 43 12
-4.0973053 -1.4412813 -0.37999916 44 5
-4.230258 -1.4872209 0.87161517 34 13
-4.1078238 -1.4433705 -0.22818473 55 6
-4.2344337 -1.4870273 1.0361245 37 14
-4.1244068 -1.4483886 -0.076301679 48 7
-4.2581477 -1.494519 1.2092025 44 15
-4.1512175 -1.4504834 0.076755576 47 8
-4.1523223 -1.4492433 0.23048761 48 9
-4.1652794 -1.4521337 0.38592538 48 10
-4.1858931 -1.4585019 0.54426843 37 11
-4.1167855 -1.433616 -0.53525001 2 4
-4.212553 -1.4661415 0.70645815 45 12
-4.0966659 -1.4250076 -0.37947625 41 5
-4.2314582 -1.4718945 0.87085199 34 13
-4.1144738 -1.4303958 -0.22828937 57 6
-4.2393417 -1.472977 1.0361245 36 14
-4.1275487 -1.4333279 -0.07626678 47 7
-4.2487378 -1.4745799 1.2050616 44 15
-4.1411357 -1.4307588 0.076476343 48 8
-4.1573558 -1.4347401 0.23048761 48 9
-4.168189 -1.4376636 0.3857511 48 10
-4.1984658 -1.4464679 0.54524338 38 11
-4.1105022 -1.4153589 -0.53378749 2 4
-4.2251167 -1.454 0.70770967 45 12
-4.0865421 -1.4055146 -0.37808171 42 5
-4.2272878 -1.4539223 0.86894387 36 13
-4.1213298 -1.4166739 -0.22839402 51 6
-4.2481441 -1.4594375 1.0370245 37 14
-4.1344185 -1.4195596 -0.076301686 48 7
-4.2648234 -1.4635024 1.2081674 42 15
-4.1423197 -1.4150031 0.076406531 47 8
-4.1623387 -1.4202181 0.2304876 46 9
-4.1677718 -1.4204493 0.38522813 50 10
-4.1922159 -1.4279624 0.54378098 38 11
-4.1229343 -1.4035616 -0.53476298 4 4
-4.2320366 -1.4398789 0.70802259 48 12
-4.1121736 -1.3982959 -0.37999916 44 5
-4.2307301 -1.4377871 0.8685624 34 13
-4.1170392 -1.3983485 -0.22787069 55 6
-4.2460837 -1.4413508 1.0352249 37 14
-4.1317739 -1.402548 -0.07616207 48 7
-4.2625875 -1.4461234 1.2060968 45 15
-4.1474781 -1.3998111 0.076406531 47 8
-4.1504831 -1.3992118 0.22954559 45 9
-4.1802573 -1.4084368 0.38592538 48 10
-4.1936574 -1.4113219 0.54329342 38 11
-4.1017098 -1.3795801 -0.53135055 2 4
-4.2372856 -1.424358 0.70802259 46 12
-4.1056981 -1.380125 -0.37895328 44 5
-4.2338619 -1.422385 0.86818069 36 13
-4.1162157 -1.3820608 -0.22755669 55 6
-4.2400036 -1.4228003 1.0325253 36 14
-4.1482615 -1.3912106 -0.076371491 48 7
-4.267859 -1.4304904 1.2060968 44 15
-4.1561332 -1.3865908 0.07647635 48 8
-4.1534472 -1.3840839 0.2294409 46 9
-4.1870384 -1.3944658 0.38609967 48 10
-4.1947918 -1.3954216 0.54280597 37 11
-4.1065001 -1.3652549 -0.53135055 4 4
-4.2291093 -1.4051982 0.70583242 45 12
-4.1123815 -1.3664132 -0.37912762 41 5
-4.238801 -1.4075972 0.86818069 36 13
-4.1172237 -1.3664255 -0.22734731 55 6
-4.2412448 -1.4067651 1.0316255 36 14
-4.1379089 -1.3716874 -0.076092266 48 7
-4.2764945 -1.4167992 1.2071322 46 15
-4.1647463 -1.3733271 0.076546155 45 8
-4.1580143 -1.3703029 0.22944093 46 9
-4.1710634 -1.3729894 0.3841823 48 10
-4.2034087 -1.3820093 0.54329342 38 11
-4.1112413 -1.3509123 -0.53135014 4 4
-4.2318697 -1.3905495 0.70551962 46 12
-4.1095538 -1.3495634 -0.37843034 39 5
-4.2324967 -1.389118 0.86589098 40 13
-4.1257634 -1.3532912 -0.22755668 53 6
-4.2405744 -1.3901308 1.0302758 33 14
-4.1386337 -1.3567128 -0.076022446 48 7
-4.2664833 -1.3977983 1.2029911 44 15
-4.1502657 -1.3533094 0.07619711 48 8
-4.1627717 -1.3557811 0.2294409 46 9
-4.1720414 -1.3571885 0.38383365 48 10
-4.2041926 -1.3668374 0.54280603 38 11
-4.1270256 -1.3409517 -0.53281301 2 4
-4.2366982 -1.375769 0.70551968 46 12
-4.1104493 -1.3339809 -0.37808171 41 5
-4.2277422 -1.3720464 0.86398286 40 13
-4.1302285 -1.339602 -0.22755668 53 6
-4.2544298 -1.3790652 1.0325253 37 14
-4.1433444 -1.3422569 -0.076022446 50 7
-4.2713361 -1.382898 1.2029911 44 15
-4.158771 -1.3400402 0.076266915 47 8
-4.1691461 -1.3425815 0.22954559 45 9
-4.1803126 -1.344566 0.3841823 48 10
-4.1994882 -1.3491164 0.54158723 40 11
-4.1279011 -1.3253238 -0.53232551 2 4
-4.2412372 -1.3617121 0.70551968 46 12
-4.1186447 -1.3215601 -0.37843034 42 5
-4.2287679 -1.3560805 0.86321974 37 13
-4.1234679 -1.3215193 -0.22692864 55 6
-4.2629294 -1.3653948 1.0334252 36 14
-4.1515822 -1.3297307 -0.076092266 50 7
-4.2722187 -1.367548 1.2019558 46 15
-4.1593814 -1.3250279 0.07619711 45 8
-4.1604843 -1.3237811 0.22881289 46 9
-4.1906767 -1.3317769 0.38470519 47 10
-4.2020469 -1.3345829 0.54134351 37 11
-4.139842 -1.3140301 -0.53329998 2 4
-4.2497296 -1.3480943 0.70614535 48 12
-4.1194344 -1.30597 -0.37808171 42 5
-4.2407265 -1.3444227 0.86474657 40 13
-4.1278276 -1.3078382 -0.22692867 53 6
-4.2525711 -1.3465444 1.0298259 37 14
-4.1523848 -1.3140239 -0.076022446 50 7
-4.2806501 -1.3537916 1.202991 44 15
-4.1680241 -1.310975 0.076266915 47 8
-4.1595926 -1.3067275 0.22849888 48 9
-4.1952996 -1.3171405 0.38470519 48 10
-4.2144866 -1.3215473 0.5423184 37 11
-4.140841 -1.2976615 -0.53281301 2 4
-4.2357917 -1.3266042 0.7030167 43 12
-4.1241937 -1.2908627 -0.37808171 42 5
-4.249373 -1.3300436 0.86550927 39 13
-4.1344986 -1.2932972 -0.2270333 55 6
-4.2611976 -1.3321117 1.0307256 37 14
-4.1533556 -1.2976032 -0.075952642 48 7
-4.2818952 -1.3369417 1.2019558 46 15
-4.172575 -1.2964177 0.076266915 45 8
-4.1698508 -1.2939755 0.22881289 46 9
-4.1848745 -1.2970353 0.38331068 45 10
-4.2171779 -1.3062416 0.54207474 41 11
-4.1301765 -1.2785025 -0.53086269 2 4
-4.2385087 -1.3112265 0.70270377 43 12
-4.1229639 -1.2746941 -0.37755877 44 5
-4.2542191 -1.3144598 0.86550927 40 13
-4.14112 -1.2787229 -0.22713798 55 6
-4.2586031 -1.3141873 1.0289261 36 14
-4.1502161 -1.2807395 -0.07581301 50 7
-4.2828431 -1.320848 1.2009205 46 15
-4.1696515 -1.2787703 0.076127291 47 8
-4.1819806 -1.2817531 0.22923157 48 9
-4.181756 -1.2800877 0.38261345 47 10
-4.2257347 -1.2919359 0.54256225 41 11
-4.1538186 -1.2691575 -0.53330004 2 4
-4.2506166 -1.2987331 0.70395523 45 12
-4.1197658 -1.2579669 -0.37686151 44 5
-4.2437601 -1.2950177 0.86245638 37 13
-4.1455574 -1.2642606 -0.22713797 55 6
-4.2706208 -1.3015852 1.0307256 36 14
-4.1584873 -1.2674096 -0.07588283 50 7
-4.2800355 -1.3036383 1.1988498 46 15
-4.170042 -1.2637763 0.076057494 47 8
-4.1826067 -1.2659893 0.22902225 48 9
-4.1881061 -1.2660594 0.38278779 50 10
-4.2128925 -1.2727487 0.54036856 38 11
-4.0933919 -1.235868 -0.52501291 2 4
-4.2513413 -1.2827463 0.70332944 45 12
-4.0611835 -1.2245961 -0.37110928 31 5
-4.2423921 -1.2792372 0.86131155 42 13
-4.1210432 -1.2418625 -0.22556791 38 6
-4.2711821 -1.2862934 1.029826 38 14
-4.1628866 -1.2528862 -0.075882837 42 7
-4.2827106 -1.2881349 1.1983323 48 15
-4.1495228 -1.2417593 0.075603724 42 8
-4.173605 -1.2473788 0.22828954 48 9
-4.1999178 -1.2544447 0.38348502 50 10
-4.2097006 -1.2557664 0.53939366 38 11
-0.89791328 -0.2676796 -0.11504471 3 4
-4.2557936 -1.2678975 0.70332944 43 12
-4.0270324 -1.1997443 -0.36762303 12 5
-4.2524762 -1.2661023 0.86245638 39 13
-4.0449514 -1.2035468 -0.22117168 61 6
-4.2644391 -1.2680426 1.0271266 36 14
-4.0675578 -1.208728 -0.074067779 50 7
-4.2890325 -1.2737274 1.1988499 46 15
-4.0867114 -1.207437 0.074382059 56 8
-4.0917311 -1.2073663 0.22357927 52 9
-4.1526732 -1.2245611 0.37877864 40 10
-4.2026334 -1.2376993 0.5379312 28 11
-0.89884228 -0.26454365 -0.11504472 3 4
-4.2431374 -1.2480186 0.70051366 43 12
-4.0579553 -1.1935517 -0.37006336 2 5
-4.2512188 -1.2495896 0.86131155 36 13
-4.0548768 -1.1911085 -0.22148567 85 6
-4.265099 -1.2520523 1.0262268 37 14
-4.0621586 -1.1917075 -0.073893264 65 7
-4.300868 -1.260921 1.2009205 46 15
-4.0909009 -1.1931642 0.074382059 73 8
-4.0899596 -1.1921141 0.22326526 63 9
-4.1033583 -1.1944667 0.37389836 60 10
-4.1383052 -1.2030718 0.52915657 52 11
-0.89976019 -0.26140445 -0.11504472 3 4
-4.1637874 -1.2096919 0.68674737 51 12
-4.1876769 -1.2150475 0.8475737 36 13
-4.0455823 -1.1730535 -0.220753 61 6
-4.2039323 -1.2181733 1.01048 33 14
-4.0680084 -1.1787866 -0.073928162 68 7
-4.2512126 -1.2310696 1.1859089 30 15
-4.0909925 -1.1784847 0.074312255 76 8
-4.0940962 -1.1778301 0.22326526 73 9
-4.1055884 -1.1795849 0.3737236 66 10
-4.1384563 -1.1882465 0.52866912 68 11
-0.87772495 -0.25184953 -0.11211976 4 4
-4.164187 -1.1940612 0.6861217 61 12
-4.1671486 -1.1941234 0.84261227 55 13
-4.0532894 -1.1607319 -0.22096232 8 6
-4.1817198 -1.1967195 1.0041815 50 14
-4.0759435 -1.165679 -0.073997967 68 7
-4.1979022 -1.1997656 1.1698622 60 15
-4.08354 -1.160916 0.074102819 73 8
-4.096261 -1.1629874 0.22316059 76 9
-4.1037273 -1.1643322 0.37320065 71 10
-4.1215701 -1.1678414 0.52598798 57 11
-0.90151876 -0.25527394 -0.11504462 3 4
-4.1626277 -1.1779044 0.68518311 69 12
-4.1731806 -1.1801052 0.84299392 61 13
-4.1265087 -1.1661284 -0.22473051 2 6
-4.1896224 -1.1831744 1.0050813 59 14
-4.072289 -1.1492726 -0.073858351 68 7
-4.2206578 -1.1903485 1.1750386 82 15
-4.0952692 -1.1488141 0.074242443 76 8
-4.0887561 -1.1454488 0.22253256 74 9
-4.1116033 -1.1510743 0.37354973 71 10
-4.1256213 -1.1534473 0.52598798 60 11
-0.86799049 -0.2425105 -0.11065742 4 4
-4.1743245 -1.1654929 0.68643463 69 12
-4.181057 -1.1665851 0.84375709 58 13
-4.1880951 -1.1669744 1.0037316 61 14
-4.0801296 -1.1361225 -0.073928162 68 7
-4.2210646 -1.1745723 1.1740031 92 15
-4.0992541 -1.1345128 0.074242443 78 8
-4.09658 -1.1322323 0.22274189 79 9
-4.1232786 -1.1388379 0.37424654 71 10
-4.1257949 -1.1379822 0.52550054 57 11
-0.87265921 -0.24053434 -0.1111449 4 4
-4.1726532 -1.1493406 0.68549591 72 12
-4.1794252 -1.1504201 0.84261227 60 13
-4.1883855 -1.151315 1.0028319 64 14
-4.0821424 -1.1213434 -0.073893249 69 7
-4.2120986 -1.1562524 1.1703798 84 15
-4.1031895 -1.1201967 0.074242443 78 8
-4.1005073 -1.1179266 0.22274189 74 9
-4.108005 -1.1192006 0.3725034 71 10
-4.1278272 -1.1230534 0.52525681 61 11
-0.91180474 -0.2479028 -0.11601957 3 4
-4.167109 -1.1321777 0.68393165 54 12
-4.1815205 -1.1353106 0.84223068 45 13
-4.192379 -1.1366867 1.0028319 61 14
-4.0802412 -1.1055192 -0.073788546 68 7
-4.2011914 -1.137503 1.1662388 86 15
-4.0877657 -1.1006678 0.073893398 76 8
-4.1082425 -1.1046436 0.22295126 74 9
-4.111887 -1.1048541 0.3725034 76 10
-4.1413083 -1.1112099 0.52647549 60 11
-0.87815195 -0.23546442 -0.11163228 4 4
-4.1925554 -1.1210397 1.001932 54 14
-4.0879393 -1.0923021 -0.073858358 47 7
-4.1995378 -1.121335 1.1646858 78 15
-4.1089768 -1.0910115 0.074207529 40 8
-4.1159348 -1.0913202 0.22316061 58 9
-4.1234231 -1.0925354 0.37320068 79 10
-4.1317291 -1.0931928 0.52476937 61 11
-0.88664514 -0.2344273 -0.11260723 4 4
-1.6267639 -0.42950588 0.32704672 3 13
-4.2165027 -1.1101117 1.1683092 17 15
-4.1696205 -1.0892135 0.3770355 16 10
-4.1412811 -1.0802677 0.52550048 22 11
-0.89129984 -0.23233229 -0.11309481 4 4
-1.6534506 -0.43099973 0.2706317 13 12
-4.1823726 -1.0870883 -0.075429074 40 7
-4.1395426 -1.0690174 0.074626401 22 8
-4.1812863 -1.078241 0.22630075 32 9
-4.221633 -1.0870728 0.38139328 13 10
-0.88437521 -0.22739798 -0.11211976 4 4
-1.6498376 -0.42299247 0.39321446 7 14
-4.1842041 -1.071987 -0.075394168 52 7
-1.7030596 -0.43600425 0.47105077 10 15
-4.1568136 -1.0580127 0.074870713 32 8
-4.1867752 -1.0648618 0.22640543 47 9
-4.2097669 -1.069144 0.37999883 40 10
-4.3967586 -1.1150014 0.55694282 1 11
-0.8890121 -0.22528477 -0.11260723 4 4
-1.6506015 -0.41827932 0.26969311 56 12
-1.6748757 -0.42380857 0.33582374 71 13
-4.1761036 -1.0551665 -0.07518474 53 7
-4.189393 -1.0515248 0.07539431 56 8
-4.188529 -1.0497549 0.22630075 43 9
-4.1999435 -1.0510577 0.37877864 27 10
-2.0182285 -0.50469798 0.25543809 6 11
-0.87434721 -0.21848544 -0.11065742 4 4
-1.6635504 -0.41538674 0.2715703 70 12
-1.6362699 -0.40827149 0.32780975 75 13
-1.6470059 -0.41033962 0.39186478 30 14
-4.17588 -1.0396163 -0.075114928 48 7
-1.6816167 -0.41833889 0.46432146 44 15
-4.1716838 -1.0316148 0.075010344 40 8
-4.1941071 -1.0356065 0.22640541 48 9
-4.1976023 -1.0356922 0.37825617 27 10
-1.9910663 -0.49052659 0.25178203 11 11
-0.88666975 -0.21827938 -0.11211985 8 4
-1.6611539 -0.40863359 0.27094457 86 12
-1.6453112 -0.40443143 0.32933623 88 13
-1.6635686 -0.40830401 0.39546397 23 14
-4.1756001 -1.0240799 -0.075045124 42 7
-1.6718086 -0.40970737 0.46121562 30 15
-4.1966314 -1.0222524 0.075394303 50 8
-4.187993 -1.0185999 0.22588207 52 9
-4.2168593 -1.0240619 0.37965021 27 10
-2.0024121 -0.48591456 0.25300074 18 11
-0.87199277 -0.21144065 -0.11016994 9 4
-1.6664097 -0.40376282 0.2715703 79 12
-1.6391494 -0.39655212 0.32780996 86 13
-1.6858908 -0.40723678 0.40041289 6 14
-4.1927552 -1.0127845 -0.075289451 39 7
-1.6826184 -0.40613595 0.46380383 10 15
-4.2003498 -1.0068651 0.075394303 50 8
-4.1878138 -1.0023134 0.22567271 50 9
-4.2184715 -1.0088726 0.37947595 27 10
-2.0099719 -0.4799552 0.25373194 24 11
-0.86890024 -0.2073216 -0.10968237 10 4
-1.6601925 -0.39581993 0.27031884 89 12
-1.6405238 -0.39082798 0.32780975 86 13
-1.810532 -0.43066189 0.42965651 7 14
-4.1750379 -0.99232489 -0.074905492 34 7
-1.8363408 -0.43612325 0.50573248 11 15
-4.1999474 -0.99127734 0.075324498 50 8
-4.1932306 -0.98814809 0.2257774 50 9
-4.2025728 -0.98957443 0.37773275 39 10
-1.9981081 -0.46975642 0.25202578 30 11
-0.89667338 -0.2106431 -0.11309471 8 4
-1.6442561 -0.38595957 0.26750299 82 12
-1.6457008 -0.38599527 0.3285732 88 13
-4.2976284 -1.0064173 1.0190283 25 14
-4.1667943 -0.97501045 -0.074696064 32 7
-4.3547869 -1.0181994 1.1983323 41 15
-4.1955905 -0.97480041 0.075184874 52 8
-4.2005458 -0.97440648 0.22598673 50 9
-4.2079425 -0.97534847 0.37790704 47 10
-1.997802 -0.46233079 0.25178206 36 11
-0.87806255 -0.20303956 -0.11065742 9 4
-1.6552166 -0.38244155 0.26906735 71 12
-1.6355608 -0.37759891 0.32628331 67 13
-4.3125086 -0.99403572 1.0217277 21 14
-4.1779675 -0.96225595 -0.074835688 39 7
-4.3244271 -0.99519342 1.1890148 36 15
-4.1950679 -0.95925826 0.075115055 52 8
-4.2039213 -0.95973778 0.22598673 52 9
-4.2152061 -0.96154112 0.3782557 47 10
-1.9839193 -0.45182782 0.24983214 35 11
-0.89037973 -0.20261613 -0.11211976 8 4
-1.6565416 -0.376661 0.26906735 43 12
-1.6349542 -0.37145242 0.32590187 52 13
-4.1891007 -0.94943404 -0.074975297 48 7
-4.1983914 -0.94460893 0.075115062 48 8
-4.1955533 -0.94243193 0.22535869 52 9
-4.222425 -0.94769394 0.37860429 47 10
-1.9912961 -0.44620207 0.25056338 37 11
-0.87558442 -0.19603738 -0.11016985 14 4
-2.0279701 -0.45367649 0.32913819 27 12
-1.6592325 -0.3708823 0.33048129 56 13
-2.0636232 -0.46051806 0.48814383 4 14
-4.1923895 -0.93480539 -0.074975297 48 7
-4.3425827 -0.96749949 1.1921206 3 15
-4.20752 -0.93124425 0.075219773 53 8
-4.1988182 -0.92778099 0.22535871 52 9
-4.2218161 -0.93208891 0.37825617 47 10
-1.9909021 -0.43882141 0.25031957 33 11
-0.89177251 -0.19639516 -0.11211976 8 4
-2.0353289 -0.44786832 0.33007678 32 12
-1.723793 -0.37900078 0.3430745 9 13
-2.0442803 -0.44871601 0.48319489 5 14
-4.1819544 -0.91716778 -0.07473097 47 7
-2.0701215 -0.45363081 0.5678491 6 15
-4.2205157 -0.91867715 0.07539431 48 8
-4.2059345 -0.91396683 0.22556804 50 9
-4.2172561 -0.91565531 0.37755841 48 10
-2.0040622 -0.43439227 0.25178203 28 11
-0.8788718 -0.19033983 -0.11041358 9 4
-2.0330186 -0.43992582 0.32945105 28 12
-4.3060479 -0.93099993 0.85635048 33 13
-4.1870856 -0.90298498 -0.074765876 48 7
-4.3171272 -0.93024129 1.1833208 21 15
-4.2080531 -0.90059209 0.075115062 52 8
-4.2090988 -0.89927864 0.22556803 52 9
-4.2204266 -0.90092969 0.37755841 48 10
-2.007508 -0.42780736 0.25202578 14 11
-0.88729709 -0.18892464 -0.11138865 9 4
-4.2893472 -0.91251171 0.69456917 34 12
-4.3035102 -0.91473866 0.85520566 49 13
-4.306325 -0.91376716 1.0163289 37 14
-4.1902118 -0.88836372 -0.074765876 48 7
-4.3449168 -0.92037135 1.1900501 41 15
-4.2072573 -0.88507444 0.07504525 52 8
-4.2122126 -0.88458157 0.22556804 52 9
-4.2215958 -0.8857829 0.3773841 48 10
-4.2472434 -0.88961673 0.53281271 28 11
-0.91126722 -0.19070569 -0.11431341 7 4
-4.2925062 -0.8975324 0.69456917 43 12
-4.2970676 -0.89770448 0.85329801 34 13
-4.3266573 -0.90230906 1.0203779 38 14
-4.1972027 -0.87454849 -0.074835688 48 7
-4.3726897 -0.9103176 1.1967794 59 15
-4.2103209 -0.87038374 0.075045243 53 8
-4.2133183 -0.86946905 0.22546338 53 9
-4.230516 -0.87224823 0.37790704 47 10
-4.2580996 -0.87638611 0.53378761 41 11
-0.89248323 -0.1835252 -0.11187602 4 4
-4.2956128 -0.88254416 0.69456917 43 12
-4.3059449 -0.88388371 0.85444248 39 13
-4.3164172 -0.88446337 1.0172287 37 14
-4.2061071 -0.86109525 -0.074940398 50 7
-4.3474507 -0.88924021 1.1890147 53 15
-4.2172527 -0.85647756 0.075115062 53 8
-4.2104554 -0.85356593 0.22514933 52 9
-4.2335348 -0.85747546 0.37790751 48 10
-4.2591882 -0.86112386 0.53354394 42 11
-0.91646802 -0.18512529 -0.11480089 3 4
-4.2928586 -0.86637187 0.69363052 43 12
-4.3070788 -0.86845946 0.85406119 40 13
-4.3232989 -0.87015975 1.0181284 37 14
-4.195364 -0.84364825 -0.074696071 48 7
-4.3524227 -0.87444097 1.1895325 51 15
-4.2280617 -0.84331489 0.075254679 52 8
-4.2134094 -0.83886445 0.22514936 52 9
-4.2267323 -0.84074903 0.37703556 48 10
-4.2641139 -0.84663862 0.53378761 41 11
-0.89374274 -0.17729002 -0.11187602 4 4
-4.2939191 -0.85099757 0.69331771 45 12
-4.3062329 -0.85265702 0.85329759 39 13
-4.2928028 -0.8492192 -0.22933608 2 6
-4.3224864 -0.85430747 1.0172286 38 14
-4.1982827 -0.82899833 -0.074696064 48 7
-4.3535523 -0.85886866 1.1890147 54 15
-4.2152801 -0.82547653 0.074975438 52 8
-4.2202325 -0.82491696 0.22535871 52 9
-4.229641 -0.82598966 0.3770355 48 10
-4.2709413 -0.83250755 0.53427517 41 11
-0.90994412 -0.1772048 -0.11382592 3 4
-4.3007412 -0.83675921 0.69394344 43 12
-4.3053279 -0.83687079 0.85253477 40 13
-4.2212372 -0.81976068 -0.22535858 4 6
-4.3273554 -0.83958614 1.0176786 38 14
-4.2070413 -0.81548011 -0.074800782 50 7
-4.3508344 -0.8425647 1.1874619 56 15
-4.2181354 -0.81075829 0.074975438 53 8
-4.2270088 -0.81093299 0.22556803 52 9
-4.2422819 -0.81309652 0.37790704 47 10
-4.2640719 -0.81572884 0.53305638 42 11
-0.92615545 -0.17700879 -0.11577594 6 4
-4.3152776 -0.82396346 0.69582063 43 12
-4.3062949 -0.82146931 0.85215318 40 13
-4.1907191 -0.79866523 -0.22357912 14 6
-4.3302603 -0.82447463 1.0176786 39 14
-4.2078967 -0.80041587 -0.074765868 48 7
-4.3575444 -0.82809466 1.1884972 62 15
-4.2209396 -0.79602921 0.074975438 53 8
-4.219861 -0.79506207 0.22504467 53 9
-4.2392211 -0.79717857 0.37738416 48 10
-4.2688446 -0.80120671 0.53330016 42 11
-0.89552093 -0.16807765 -0.11187602 13 4
-4.3043952 -0.80710143 0.69363046 43 12
-4.3168554 -0.80787808 0.85367918 42 13
-4.1954451 -0.78439802 -0.22368382 29 6
-4.3233924 -0.80831951 1.0154291 38 14
-4.2124944 -0.7868247 -0.074800782 45 7
-4.3602667 -0.81363976 1.1884972 53 15
-4.229455 -0.78311974 0.075080156 53 8
-4.2224741 -0.78106499 0.22504467 53 9
-4.2477183 -0.78420138 0.37790704 47 10
-4.2617164 -0.78524745 0.53208143 42 11
-0.88435996 -0.16294876 -0.11041369 4 4
-4.3070488 -0.79282308 0.69363064 48 12
-4.3156481 -0.79284865 0.85291636 40 13
-4.188201 -0.7686792 -0.22316045 36 6
-4.3298826 -0.79468268 1.0163289 38 14
-4.203279 -0.77068722 -0.074591354 47 7
-4.3629413 -0.79917598 1.1884972 56 15
-4.2339964 -0.76944745 0.075115062 53 8
-4.233036 -0.76774675 0.22546338 55 9
-4.2365723 -0.76762432 0.37668687 48 10
-4.2760177 -0.77323014 0.53354388 42 11
-0.92008603 -0.16621286 -0.11480089 3 4
-4.3020134 -0.7763803 0.69237906 48 12
-4.3240504 -0.77957809 0.85406077 40 13
-4.1946583 -0.7554943 -0.22336981 36 6
-4.3326306 -0.77956253 1.0163289 37 14
-4.2138157 -0.75742632 -0.07473097 47 7
-4.3542957 -0.7818929 1.1853913 62 15
-4.2327194 -0.75396192 0.07504525 53 8
-4.2356901 -0.75296587 0.22546338 56 9
-4.2452426 -0.75313538 0.37720981 48 10
-4.2865105 -0.75968498 0.53451896 41 11
-0.95193559 -0.16853727 -0.1187007 2 4
-4.3124785 -0.76273483 0.69363052 46 12
-4.3133445 -0.76133543 0.85138988 40 13
-4.207233 -0.74184889 -0.22389312 34 6
-4.3373771 -0.76401639 1.0167787 39 14
-4.210526 -0.74167192 -0.07462626 48 7
-4.3531933 -0.76601911 1.1843561 62 15
-4.2295446 -0.73741281 0.074940547 53 8
-4.2384214 -0.73743719 0.22546338 55 9
-4.2498088 -0.73865324 0.3773841 48 10
-4.2697058 -0.74057627 0.53208143 42 11
-0.95254695 -0.16504709 -0.1187007 2 4
-4.3132992 -0.7465868 0.69331777 43 12
-4.3140421 -0.7459389 0.85100788 37 13
-4.2019248 -0.72579855 -0.22347446 34 6
-4.3457789 -0.74986541 1.0181285 38 14
-4.2210989 -0.72759223 -0.074765876 48 7
-4.36549 -0.7516976 1.1869441 58 15
-4.2380056 -0.72365391 0.075045243 52 8
-4.229157 -0.72062385 0.22483537 53 9
-4.2583799 -0.72407484 0.37790704 48 10
-4.270308 -0.72533518 0.5318377 42 11
-0.94137448 -0.15972859 -0.11723825 2 4
-4.3217216 -0.7325173 0.69425637 43 12
-4.3225536 -0.73110527 0.85215318 42 13
-4.1966796 -0.70906085 -0.22305578 36 6
-4.3350472 -0.73166198 1.0149791 39 14
-4.2255845 -0.71318704 -0.074800774 45 7
-4.3680873 -0.73645443 1.1869441 60 15
-4.2445745 -0.7087757 0.075115062 53 8
-4.2316465 -0.7058568 0.22483535 55 9
-4.2628469 -0.7095319 0.37808135 47 10
-4.2866459 -0.71195656 0.53354388 43 11
-0.94584292 -0.1570923 -0.11772574 2 4
-4.3125596 -0.71548617 0.69237918 46 12
-4.3635864 -0.72316933 -0.38697165 1 5
-4.332828 -0.71729594 0.8536793 40 13
-4.2070107 -0.69571173 -0.22347446 38 6
-4.3336043 -0.71664637 1.0140793 39 14
-4.2162108 -0.69647717 -0.074591354 47 7
-4.3744445 -0.72183156 1.1879796 60 15
-4.2469015 -0.69469613 0.075115062 53 8
-4.241848 -0.69310838 0.22525403 55 9
-4.2553439 -0.69378972 0.37720981 48 10
-4.2889829 -0.69773746 0.53354388 41 11
-0.93460262 -0.15204239 -0.11626331 3 4
-4.3110085 -0.70054829 0.69175333 46 12
-4.2951603 -0.69720256 -0.38069639 2 5
-4.3351822 -0.7029236 0.85367918 40 13
-4.2092948 -0.68175673 -0.22347446 36 6
-4.351346 -0.70476401 1.0176785 38 14
-4.212575 -0.68153358 -0.074486643 50 7
-4.3691854 -0.70608842 1.1859089 60 15
-4.2393098 -0.67902756 0.07494054 53 8
-4.2442422 -0.67829829 0.22525404 56 9
-4.2536864 -0.67904627 0.37686118 48 10
-4.2951946 -0.6841352 0.53403145 41 11
-4.3306012 -0.68899989 -0.53841853 2 4
-4.3192801 -0.68642467 0.69269186 48 12
-4.2857614 -0.68033105 -0.3796505 2 5
-4.327795 -0.68700349 0.85177112 43 13
-4.2154779 -0.66842097 -0.22368382 40 6
-4.3460808 -0.68835115 1.0158789 39 14
-4.2228289 -0.66807455 -0.07462626 50 7
-4.3678074 -0.69023067 1.1848737 60 15
-4.2377024 -0.66360652 0.074870721 53 8
-4.2544765 -0.66471201 0.22567271 55 9
-4.2640219 -0.66467869 0.37755844 48 10
-4.2857876 -0.66730547 0.53256893 43 11
-4.2741342 -0.66472602 -0.53110635 2 4
-4.3294582 -0.67255634 0.69394344 45 12
-4.2959857 -0.6665898 -0.38034779 4 5
-4.3322239 -0.67143738 0.85215271 42 13
-4.2100043 -0.65174264 -0.22326511 42 6
-4.3562775 -0.67360955 1.0176785 39 14
-4.2271113 -0.65363657 -0.074661158 47 7
-4.3720994 -0.67527366 1.1853913 62 15
-4.2440605 -0.64867449 0.074940547 53 8
-4.2410898 -0.64670557 0.22483537 56 9
-4.2663155 -0.64979029 0.37755841 48 10
-4.2901669 -0.65188986 0.53281271 42 11
-0.96364504 -0.14625382 -0.11967565 2 4
-4.3279881 -0.65609235 0.69331771 45 12
-4.2904062 -0.65039527 -0.3796505 4 5
-4.336482 -0.65660477 0.85253429 40 13
-4.2102795 -0.63674533 -0.22316048 44 6
-4.3470416 -0.65665162 1.0149791 39 14
-4.2215691 -0.63694453 -0.074521542 47 7
-4.382185 -0.66039693 1.1874617 62 15
-4.2443204 -0.63356054 0.074905634 53 8
-4.2433209 -0.63189727 0.22483535 55 9
-4.2705288 -0.63518709 0.37773275 48 10
-4.3002706 -0.63807678 0.53378767 42 11
-0.94844049 -0.14056101 -0.11772574 2 4
-4.3243899 -0.64011198 0.69237918 46 12
-4.2926507 -0.63541389 -0.3796505 4 5
-4.3426313 -0.64203876 0.85329801 37 13
-4.2144518 -0.62233639 -0.22326511 42 6
-4.3493075 -0.64147347 1.0149791 38 14
-4.2237668 -0.62220556 -0.074521542 47 7
-4.3921099 -0.64622116 1.1895325 62 15
-4.2563996 -0.62018365 0.075080149 53 8
-4.253407 -0.61823052 0.22525404 56 9
-4.2648325 -0.61913222 0.3770355 48 10
-4.3005075 -0.62277758 0.53354394 42 11
-4.2966866 -0.62145972 -0.53305626 10 4
-4.3265977 -0.62501407 0.69237918 48 12
-4.3007588 -0.62128139 -0.3801735 4 5
-4.34096 -0.62631536 0.85253477 40 13
-4.2185755 -0.60790521 -0.22336981 44 6
-4.3553772 -0.62684369 1.0158788 39 14
-4.2278924 -0.60774249 -0.07455644 48 7
-4.375217 -0.62813938 1.1843562 65 15
-4.2525997 -0.60447693 0.074975438 53 8
-4.2476292 -0.60225898 0.22483537 55 9
-4.2689404 -0.60451961 0.37720981 48 10
-4.3105178 -0.60887265 0.5345189 42 11
-4.330709 -0.61018306 0.69269192 45 12
-4.2989554 -0.60570908 -0.37982485 4 5
-4.3411756 -0.61088508 0.85215318 42 13
-4.2246275 -0.59373266 -0.22357912 44 6
-4.3575392 -0.6116367 1.0158789 39 14
-4.2339492 -0.59353584 -0.074626267 48 7
-4.3754687 -0.61259615 1.1838384 60 15
-4.2524972 -0.59083974 0.07494054 53 8
-4.2574134 -0.59000707 0.22525403 55 9
-4.2708182 -0.59110618 0.37720981 48 10
-4.2986436 -0.5934273 0.53281271 42 11
-4.3345618 -0.59684402 0.69300485 46 12
-4.3048878 -0.5919925 -0.38017344 4 5
-4.3430738 -0.59724373 0.85215271 42 13
-4.2146001 -0.57882708 -0.22295111 51 6
-4.3633008 -0.59847355 1.0167787 39 14
-4.2357926 -0.58023131 -0.07462626 50 7
-4.3869419 -0.60015625 1.1864266 65 15
-4.2545338 -0.57599199 0.07494054 53 8
-4.2475705 -0.57353854 0.22462596 56 9
-4.2788806 -0.57624561 0.37773275 48 10
-4.2947869 -0.57762468 0.53208148 43 11
-4.3483653 -0.58328545 0.69488198 46 12
-4.3207507 -0.57881367 -0.38139364 2 5
-4.341341 -0.58080178 0.85138988 42 13
-4.2147136 -0.56311136 -0.22284645 55 6
-4.3577385 -0.58144623 1.0149791 39 14
-4.237792 -0.56544197 -0.07462626 48 7
-4.3928394 -0.58534944 1.1874617 65 15
-4.2566161 -0.56039345 0.07494054 55 8
-4.2575655 -0.55900764 0.2250447 55 9
-4.2788901 -0.56104684 0.37755841 48 10
-4.3008118 -0.56239426 0.53256893 43 11
-4.3348041 -0.56530148 0.69237918 46 12
-4.3781638 -0.57017791 -0.38627437 1 5
-4.3452892 -0.56589657 0.85177159 42 13
-4.2186341 -0.5486533 -0.22295111 55 6
-4.355876 -0.56573027 1.0140793 39 14
-4.2378531 -0.5496487 -0.074591354 50 7
-4.3968725 -0.56949317 1.1879797 60 15
-4.2664795 -0.54654878 0.075080149 55 8
-4.2594905 -0.54414135 0.22504467 55 9
-4.2769647 -0.5448575 0.37720981 48 10
-4.304718 -0.54762864 0.53281271 42 11
-4.3387103 -0.55041522 0.69269192 45 12
-4.3512297 -0.55046028 0.85253429 43 13
-4.2305236 -0.53443897 -0.22347446 57 6
-4.365654 -0.55073589 1.0158789 38 14
-4.2377615 -0.53460199 -0.074556433 50 7
-4.385416 -0.55245245 1.1843561 62 15
-4.2605171 -0.52991945 0.07494054 55 8
-4.2692924 -0.53025526 0.22546338 55 9
-4.2748857 -0.52943391 0.37686118 48 10
-4.3165464 -0.53306472 0.53403133 43 11
-4.3445272 -0.53574938 0.69331777 45 12
-4.3453302 -0.53430974 0.85100788 40 13
-4.2383103 -0.5203985 -0.22378846 53 6
-4.371418 -0.53596872 1.0167786 39 14
-4.2396016 -0.51980704 -0.074556433 50 7
-4.3834829 -0.53667146 1.1833208 65 15
-4.266221 -0.51626939 0.075010344 53 8
-4.2750835 -0.51582789 0.22567274 55 9
-4.2865992 -0.51569939 0.37773275 48 10
-4.3084364 -0.5175637 0.53281271 42 11
-4.3424473 -0.52011186 0.69269192 45 12
-4.3509769 -0.52036327 0.85177159 40 13
-4.2360468 -0.50586718 -0.22357912 23 6
-4.3693023 -0.52100813 1.0158789 39 14
-4.2493334 -0.50595051 -0.074696064 43 7
-4.3968387 -0.52273417 1.1864265 62 15
-4.2679973 -0.50137424 0.075010344 53 8
-4.2649555 -0.49950778 0.2250447 56 9
-4.2823486 -0.5007872 0.37720981 48 10
-4.3082447 -0.50229132 0.53256893 42 11
-4.3481603 -0.50540674 0.69331759 43 12
-4.3527665 -0.50517225 0.85177159 40 13
-4.3672223 -0.50530511 1.0149791 39 14
-4.2669659 -0.49294937 -0.074975304 26 7
-4.4043946 -0.50804824 1.1879796 60 15
-4.267735 -0.48624662 0.074975438 52 8
-4.2666731 -0.48461816 0.2250447 55 9
-4.29001 -0.48650941 0.37773275 48 10
-0.68895495 -0.078009285 -0.10981699 14 3
-4.3099718 -0.48724955 0.53256893 41 11
-4.3400836 -0.48911953 0.69175333 46 12
-4.3623075 -0.49085316 0.85329801 42 13
-4.3689594 -0.49005744 1.0149791 40 14
-4.2428255 -0.4751595 -0.074521542 14 7
-4.4099813 -0.49310014 1.1890148 60 15
-4.2773566 -0.47222412 0.075115062 53 8
-4.2762799 -0.4705945 0.22546338 55 9
-4.2857399 -0.47087857 0.37720981 48 10
-0.59104306 -0.064834245 -0.094173536 18 3
-4.3234863 -0.47349849 0.53403139 41 11
-4.3398004 -0.47375336 0.69144046 45 12
-4.3600907 -0.47519729 0.85253477 39 13
-4.3783922 -0.4756456 1.0167786 40 14
-4.2484345 -0.46077752 -0.074591354 11 7
-4.4001513 -0.47645548 1.1859089 58 15
-4.2710252 -0.45644137 0.074975438 53 8
-4.2778964 -0.45566452 0.22546338 55 9
-4.2853765 -0.45570591 0.3770355 48 10
-0.53626436 -0.056931447 -0.085413218 21 3
-4.3251128 -0.45840371 0.53403139 40 11
-4.3630366 -0.4608832 0.69488198 46 12
-4.3558655 -0.45935702 0.85138988 42 13
-4.3839035 -0.46076667 1.0176786 38 14
-4.2599611 -0.44698817 -0.074765876 11 7
-4.4037089 -0.46129543 1.1864266 65 15
-4.2686138 -0.44111869 0.074905626 53 8
-4.2813711 -0.44168079 0.22556804 53 9
-4.2988324 -0.4419668 0.37808183 48 10
-0.57183081 -0.058689449 -0.091044858 19 3
-4.302989 -0.44087639 0.53110647 41 11
-0.63390756 -0.064837061 -0.078240089 14 4
-4.362576 -0.44621119 0.69456917 45 12
-4.3554888 -0.44395122 0.85100824 37 13
-4.3854852 -0.44546106 1.0176786 38 14
-4.2753458 -0.43427354 -0.075010203 9 7
-4.4109812 -0.44727421 1.1879797 60 15
-4.2800026 -0.42795569 0.075080156 53 8
-4.2769246 -0.42614019 0.22525404 55 9
-4.2963848 -0.42656362 0.37773275 48 10
-0.56415939 -0.056012183 -0.089793384 20 3
-4.3123293 -0.42738774 0.53208148 42 11
-0.59065914 -0.058435142 -0.072877839 16 4
-4.3641071 -0.43098012 0.69456917 45 12
-4.3686609 -0.43066099 0.85329759 40 13
-0.88450807 -0.087038629 -0.046578985 7 6
-4.379179 -0.43015352 1.0158788 39 14
-4.2788262 -0.41954327 -0.075045116 8 7
-4.4144382 -0.43206123 1.1884973 62 15
-4.2834606 -0.41320494 0.075115055 50 8
-4.2744088 -0.410826 0.22504467 55 9
-4.3057079 -0.41307583 0.37843046 47 10
-0.5486204 -0.05253626 -0.087290429 20 3
-4.3256512 -0.41346547 0.53354388 41 11
-0.59481174 -0.056749918 -0.07336539 15 4
-4.353786 -0.4146212 0.69269192 45 12
-4.3760009 -0.41596615 0.85444248 42 13
-0.88679492 -0.084139004 -0.046683658 20 6
-4.3884149 -0.41560066 1.0176786 38 14
-4.2723007 -0.4038519 -0.074905492 8 7
-4.421689 -0.41719359 1.19005 58 15
-4.2888598 -0.3986204 0.075184874 50 8
-4.2877498 -0.39700776 0.22567271 55 9
-4.2991886 -0.39731017 0.37773275 48 10
-0.54880041 -0.05062088 -0.087290429 20 3
-4.3290443 -0.39854541 0.53378761 40 11
-0.60686684 -0.055763252 -0.074827753 15 4
-4.3571739 -0.3996014 0.69300485 46 12
-4.3793812 -0.40086734 0.85482407 39 13
-0.87912732 -0.08031635 -0.046264973 29 6
-4.387898 -0.40010259 1.0172287 38 14
-4.2736845 -0.38893515 -0.074905492 6 7
-4.417347 -0.40123212 1.1884973 62 15
-4.282258 -0.38293451 0.07504525 52 8
-4.2930884 -0.38239256 0.22588207 55 9
-4.2985649 -0.38212425 0.37755844 48 10
-0.52929741 -0.046959195 -0.084161751 21 3
-4.3363428 -0.38395706 0.53451896 41 11
-0.54773623 -0.048402406 -0.067515664 17 4
-4.3644457 -0.38491011 0.69394344 45 12
-4.369019 -0.38454399 0.85253477 39 13
-0.89730871 -0.078820013 -0.04720702 31 6
-4.3989744 -0.38563433 1.0194782 39 14
-4.2909536 -0.37540907 -0.07518474 6 7
-4.4110217 -0.38513899 1.1864265 62 15
-4.2835679 -0.36798415 0.075045243 52 8
-4.3003669 -0.36791521 0.22619608 53 9
-4.3058915 -0.36687499 0.37808135 47 10
-0.52946597 -0.045018904 -0.084161751 21 3
-4.3337002 -0.36848152 0.53403139 43 11
-0.54790175 -0.046490137 -0.067515656 17 4
-4.3716674 -0.37017179 0.69488198 46 12
-4.3743124 -0.36885911 0.85329759 40 13
-0.88166982 -0.074190669 -0.046369649 42 6
-4.3964739 -0.36918244 1.0185782 39 14
-4.2962227 -0.36076409 -0.075254537 6 7
-4.4219651 -0.37054583 1.1890148 60 15
-4.2848887 -0.35228157 0.07504525 53 8
-4.2916722 -0.35208523 0.22567271 55 9
-4.3091321 -0.35200348 0.3782557 48 10
-0.54537064 -0.044454314 -0.086664699 20 3
-4.3231502 -0.35163063 0.53256893 41 11
-0.52036828 -0.042233486 -0.064103253 18 4
-4.3709636 -0.35475069 0.69456905 43 12
-4.3775301 -0.35374671 0.85367918 42 13
-0.88192326 -0.071112797 -0.046369642 57 6
-4.389966 -0.35320833 1.0167786 39 14
-4.3094149 -0.34672734 -0.075463958 6 7
-4.430934 -0.35572523 1.1910853 58 15
-4.301981 -0.33932921 0.075324483 52 8
-4.2888927 -0.33679056 0.22546338 55 9
-4.3123202 -0.33711478 0.37843046 47 10
-0.51794392 -0.040490162 -0.082284532 22 3
-4.3322086 -0.33790991 0.53354388 41 11
-0.53633839 -0.041739803 -0.066053167 18 4
-4.374145 -0.33964384 0.69488198 46 12
-4.3884664 -0.33998644 0.8555873 39 13
-0.88016301 -0.068033881 -0.046264973 79 6
-4.3872271 -0.3383489 1.0158788 39 14
-4.2986364 -0.330762 -0.075254537 6 7
-4.4244442 -0.33966565 1.1890148 58 15
-4.307128 -0.32460988 0.07539431 52 8
-4.3019929 -0.32271379 0.22609141 56 9
-4.3054681 -0.32221785 0.37773275 48 10
-0.55747998 -0.041623667 -0.08854191 20 3
-4.3452387 -0.32367018 0.53500628 41 11
-0.5523178 -0.041044254 -0.068003066 17 4
-4.3654547 -0.32364285 0.69331771 45 12
-4.3857107 -0.32437602 0.85482407 43 13
-0.88238704 -0.065108068 -0.046369646 85 6
-4.4000425 -0.32389081 1.0185782 40 14
-4.2957764 -0.31546193 -0.075184733 6 7
-4.4236765 -0.32407814 1.1884973 56 15
-4.296267 -0.30871418 0.075184874 52 8
-4.299108 -0.30740902 0.22588207 55 9
-4.3065662 -0.30718791 0.37773275 48 10
-0.54579955 -0.038836215 -0.086664706 20 3
-4.3463421 -0.30849937 0.53500628 41 11
-0.57225913 -0.040518045 -0.070440456 16 4
-4.3803506 -0.30937767 0.69550776 48 12
-4.386816 -0.30906388 0.85482407 39 13
-0.87663174 -0.061607487 -0.046055622 82 6
-4.4011464 -0.30853075 1.0185782 40 14
-4.2968521 -0.30046487 -0.07518474 6 7
-4.4170718 -0.30809683 1.1864266 56 15
-4.2933278 -0.29344264 0.075115055 53 8
-4.3080745 -0.29369521 0.22630075 53 9
-4.3155637 -0.29269245 0.37842998 47 10
-0.526223 -0.035597518 -0.083535999 21 3
-4.3394709 -0.29279128 0.53403139 41 11
-0.57239705 -0.038520362 -0.070440456 16 4
-4.3912072 -0.29551321 0.69707209 48 12
-4.3859096 -0.2936179 0.85444248 40 13
-0.86687732 -0.057881977 -0.045532264 94 6
-4.4138637 -0.2939418 1.0212778 39 14
-4.3157821 -0.28741002 -0.075498879 6 7
-4.4142141 -0.29319134 1.1853913 53 15
-4.3102417 -0.28024167 0.07539431 53 8
-4.3110671 -0.2787832 0.22640543 55 9
-4.3165588 -0.27762643 0.37842998 48 10
-0.51845294 -0.033345137 -0.082284532 22 3
-4.3423996 -0.2785264 0.53427517 42 11
-0.53686291 -0.034341041 -0.066053167 18 4
-4.3902407 -0.2800574 0.69675922 46 12
-4.3868589 -0.2790719 0.85444248 40 13
-0.86905789 -0.05513341 -0.045636941 93 6
-4.4031444 -0.27856585 1.0185782 39 14
-4.3187547 -0.27246919 -0.075533777 6 7
-4.4325633 -0.27887374 1.1900501 48 15
-4.3111935 -0.26519424 0.075394303 52 8
-4.3079805 -0.26424295 0.22619608 55 9
-4.323422 -0.26367438 0.37895292 48 10
-0.53828347 -0.032734364 -0.085413218 21 3
-4.3532524 -0.26396856 0.53549385 41 11
-0.59642363 -0.036060922 -0.073365383 15 4
-4.3832574 -0.26502022 0.69550771 46 12
-4.3897657 -0.26387593 0.85482407 40 13
-0.88120711 -0.052816439 -0.046264973 79 6
-4.4001999 -0.2629607 1.0176786 39 14
-4.3096533 -0.25754952 -0.075359255 6 7
-4.4315352 -0.26405823 1.1895325 44 15
-4.3160415 -0.25112849 0.075464107 52 8
-4.3128643 -0.24943319 0.22640541 53 9
-4.3163595 -0.24812475 0.3782557 48 10
-0.54627758 -0.031402618 -0.086664699 20 3
-4.3600488 -0.24987175 0.53622502 40 11
-0.59653997 -0.034082893 -0.07336539 15 4
-4.3841562 -0.24971807 0.69550776 48 12
-4.4004173 -0.24987383 0.85673219 40 13
-0.87340111 -0.049442396 -0.045846283 91 6
-4.4166131 -0.24924693 1.0212778 38 14
-4.3085299 -0.24239306 -0.075324349 6 7
-4.4092841 -0.24728943 1.1833208 42 15
-4.3129401 -0.23509105 0.07539431 52 8
-4.3157439 -0.23373201 0.22651009 53 9
-4.3171997 -0.23305519 0.3782557 48 10
-0.54244405 -0.029187789 -0.086038969 21 3
-4.3589525 -0.23378326 0.53598118 42 11
-0.63630617 -0.034015577 -0.078240089 14 4
-4.3889871 -0.23385778 0.69613343 48 12
-0.82766008 -0.044100095 -0.07251361 36 5
-4.3875799 -0.2330149 0.85406077 40 13
-0.87756538 -0.046452019 -0.046055626 97 6
-4.4136043 -0.23285215 1.0203779 39 14
-4.3173766 -0.22701982 -0.075463966 6 7
-4.4005141 -0.23062131 1.1807326 38 15
-4.3097401 -0.21982974 0.075324483 52 8
-4.3185282 -0.21876778 0.22661476 55 9
-4.323956 -0.21828517 0.37877864 50 10
-0.51097649 -0.02570609 -0.081033066 22 3
-4.3597417 -0.21856716 0.53598118 41 11
-0.73555195 -0.036746599 -0.090427019 10 4
-4.393723 -0.21873227 0.69675922 46 12
-4.3844452 -0.21750331 0.85329759 40 13
-0.88370669 -0.043684267 -0.046369646 71 6
-4.4241228 -0.21792364 1.0226276 40 14
-4.3241353 -0.21224196 -0.075568691 8 7
-4.4148002 -0.21591978 1.1843562 37 15
-4.31847 -0.20516402 0.075464092 50 8
-4.3232555 -0.20387898 0.22682409 55 9
-4.332653 -0.20356433 0.37947589 50 10
-0.49527735 -0.023183484 -0.07853011 23 3
-4.3565135 -0.20316145 0.53549385 41 11
-4.3944597 -0.20339489 0.69675922 46 12
-4.396945 -0.20273986 0.8555873 40 13
-0.87188286 -0.040049389 -0.045741614 69 6
-4.4112287 -0.20185658 1.0194781 40 14
-4.3348384 -0.19760184 -0.075743221 8 7
-4.4135966 -0.20042013 1.1838384 35 15
-4.31916 -0.1900894 0.075464092 50 8
-4.3199501 -0.1886124 0.22661476 55 9
-4.3452797 -0.18895957 0.38052174 48 10
-4.3651285 -0.18829519 0.53646874 40 11
-4.3911953 -0.18788406 0.69613343 46 12
-4.4035101 -0.18764104 0.85673219 40 13
-0.89197195 -0.037852705 -0.046788331 47 6
-4.4138536 -0.18653841 1.019928 40 14
-4.3315053 -0.18230091 -0.075673401 9 7
-4.4200592 -0.18525618 1.1853912 36 15
-4.3277893 -0.17533526 0.075603724 48 8
-4.3285642 -0.17385332 0.22703342 55 9
-4.3419309 -0.17363119 0.38017309 48 10
-4.3697262 -0.17321506 0.53695619 41 11
-4.3957725 -0.17270978 0.69675922 46 12
-4.4100227 -0.17249988 0.85787737 42 13
-0.87812841 -0.034194876 -0.046055626 45 6
-4.4242148 -0.17150737 1.0221776 39 14
-4.322124 -0.16679536 -0.075498879 9 7
-4.407167 -0.16930591 1.1817681 33 15
-4.3183842 -0.15985741 0.075429201 48 8
-4.333137 -0.15888903 0.22724277 53 9
-4.3425107 -0.15847385 0.38017309 50 10
-4.3722892 -0.15803245 0.53720003 40 11
-4.4002967 -0.15750685 0.69738501 46 12
-4.3968644 -0.15661567 0.85520566 36 13
-0.8982026 -0.031836677 -0.047102351 26 6
-4.4286814 -0.15620124 1.0230774 39 14
-4.3366694 -0.15219817 -0.075743206 11 7
-4.4096608 -0.15398827 1.1822854 33 15
-4.3169174 -0.14471534 0.075394303 50 8
-4.3376579 -0.14389491 0.22745216 55 9
-4.3470201 -0.14344601 0.38052174 52 10
-4.3628926 -0.14244528 0.53598118 41 11
-4.4067426 -0.1423372 0.69832361 48 12
-4.4032712 -0.1414558 0.85635048 37 13
-0.89631188 -0.028637579 -0.046997674 26 6
-4.4369903 -0.14098875 1.024877 40 14
-4.3271804 -0.13674246 -0.075568683 11 7
-4.4159646 -0.13877772 1.1838384 35 15
-4.3253913 -0.12988557 0.075533919 48 8
-4.3241582 -0.12833788 0.22671941 52 9
-4.3554602 -0.12850611 0.38121897 50 10
-4.3574114 -0.12704143 0.53525013 40 11
-4.413136 -0.12712443 0.69926214 46 12
-4.4135504 -0.12636547 0.85825861 42 13
-0.90239578 -0.025679104 -0.047311693 19 6
-4.431612 -0.1253345 1.0235273 40 14
-4.3396249 -0.12197497 -0.075778112 11 7
-4.4125605 -0.12325428 1.1828032 33 15
-4.3298163 -0.11489231 0.075603731 48 8
-4.3265572 -0.11405126 0.22682409 55 9
-4.3558822 -0.11330181 0.38121897 47 10
-4.3756876 -0.11228864 0.5374437 40 11
-4.4036608 -0.11223744 0.69769794 48 12
-4.4100394 -0.11085972 0.85749537 40 13
-0.90447664 -0.022578817 -0.047416367 18 6
-4.4300551 -0.11058926 1.0230774 39 14
-4.3340087 -0.10743476 -0.075673401 11 7
-4.4129448 -0.10862086 1.1828032 35 15
-4.330173 -0.10053332 0.075603724 48 8
-4.3348985 -0.099887125 0.22724277 55 9
-4.3522501 -0.098765984 0.38087034 48 10
-4.3819909 -0.097910598 0.53817499 40 11
-4.405983 -0.097677357 0.69801068 48 12
-4.4123445 -0.096277542 0.85787737 39 13
-0.8885721 -0.01923353 -0.046578985 14 6
-4.430397 -0.095897876 1.0230772 39 14
-4.3283429 -0.092934161 -0.075568683 13 7
-4.4036226 -0.093780562 1.1802149 36 15
-4.3304825 -0.086173229 0.075603724 50 8
-4.3372178 -0.084793821 0.22734746 53 9
-4.3565383 -0.084409893 0.381219 45 10
-4.3783212 -0.083304204 0.53768748 40 11
-4.4181476 -0.082519278 0.69988799 48 12
-4.4126401 -0.08164499 0.85787696 37 13
-0.90061265 -0.016506378 -0.04720702 6 6
-4.4404473 -0.080610119 1.0253268 41 14
-4.3346395 -0.077931553 -0.075673401 14 7
-4.3961978 -0.078270815 1.1781445 36 15
-4.3307567 -0.071057409 0.075603724 48 8
-4.3474722 -0.069812775 0.22787084 53 9
-4.3528223 -0.069139853 0.38087037 48 10
-4.3845401 -0.068111837 0.53841871 40 11
-4.422359 -0.067156427 0.70051366 48 12
-4.4109349 -0.066211909 0.85749578 36 13
-0.89667064 -0.013303484 -0.046997674 6 6
-4.4523926 -0.065280862 1.0280263 40 14
-4.3368845 -0.062829204 -0.0757083 17 7
-4.3906493 -0.062842727 1.1765915 35 15
-4.3349786 -0.055991355 0.075673543 50 8
-4.3397012 -0.054537363 0.22745216 53 9
-4.3729591 -0.054192014 0.38261345 45 10
-4.3728409 -0.052664004 0.53695619 41 11
-4.4304671 -0.051810317 0.70176512 46 12
-4.4150662 -0.050860636 0.85825861 34 13
-0.89271724 -0.010128097 -0.046788327 6 6
-4.4447985 -0.049650453 1.0262266 40 14
-4.3370771 -0.047691181 -0.0757083 21 7
-4.3908415 -0.047515988 1.1765914 40 15
-4.3371468 -0.040877838 0.075708434 48 8
-4.3398657 -0.039388526 0.22745217 53 9
-4.3731279 -0.038163874 0.38261393 48 10
-4.3849077 -0.037501357 0.53841865 41 11
-4.4108686 -0.036183681 0.69863653 48 12
-4.4328923 -0.034815911 0.8616932 40 13
-4.4410539 -0.033330854 1.0253268 40 14
-4.3372173 -0.032551546 -0.0757083 27 7
-4.3909807 -0.032187637 1.1765915 45 15
-4.3412666 -0.025004083 0.075778246 48 8
-4.3459682 -0.024272669 0.22776617 53 9
-4.3612804 -0.022835862 0.38156757 47 10
-4.3909717 -0.021458643 0.53914988 38 11
-4.4228196 -0.020842385 0.70051366 46 12
-4.4290595 -0.019324763 0.86092997 37 13
-4.3559837 -0.018246727 -0.22828937 2 6
-4.4528356 -0.017875297 1.0280263 40 14
-4.331305 -0.017387429 -0.075603582 27 7
-4.3756118 -0.016800595 1.1724504 48 15
-4.3353271 -0.010592964 0.075673543 48 8
-4.3520179 -0.0091157267 0.22808017 53 9
-4.3573494 -0.0076049394 0.381219 47 10
-4.3989592 -0.0069108913 0.54012489 38 11
-4.4228654 -0.0054036127 0.70051366 46 12
-4.4290996 -0.0046371953 0.86092997 45 13
-4.3240647 -0.0037736096 -0.22661464 8 6
-4.4528704 -0.0031088921 1.0280263 41 14
-4.3373394 -0.0022702341 -0.075708307 35 7
-4.3679156 -0.0015249803 1.1703796 48 15
-4.3433361 0.004548714 0.075813152 48 8
-4.3620095 0.0060908096 0.22860354 53 9
-4.3653197 0.0068572792 0.3819167 48 10
-4.391016 0.0084303105 0.53914988 40 11
-4.4307585 0.010052096 0.70176512 48 12
-4.4231987 0.010807951 0.85978508 42 13
-4.3120675 0.011288962 -0.22598659 29 6
-4.4587011 0.012449933 1.0293761 40 14
-4.3373203 0.012869005 -0.0757083 45 7
-4.3814173 0.013764504 1.1740031 51 15
-4.3412933 0.019699767 0.075778238 47 8
-4.3459845 0.021239066 0.2277662 52 9
-4.3732386 0.022134466 0.38261345 50 10
-4.3909597 0.02375789 0.53914988 40 11
-4.4366231 0.025553584 0.70270383 48 12
-4.4329505 0.026306104 0.86169314 42 13
-4.329977 0.026450744 -0.22692864 57 6
-4.4527841 0.027978081 1.0280265 40 14
-4.341248 0.028034948 -0.075778112 50 7
-4.3755479 0.029020112 1.1724504 48 15
-4.3451982 0.034885827 0.075848065 48 8
-4.3498774 0.036441796 0.2279755 52 9
-4.3771195 0.037433982 0.38296208 48 10
-4.3948197 0.039119463 0.53963733 40 11
-4.4286056 0.040967163 0.70145231 48 12
-4.436758 0.041816957 0.86245638 40 13
-4.3158779 0.041430939 -0.22619593 48 6
-4.4526587 0.043521147 1.0280263 40 14
-4.3351254 0.043129005 -0.075673401 48 7
-4.3831468 0.044371787 1.174521 54 15
-4.3530478 0.050145444 0.075987682 47 8
-4.3577118 0.051720411 0.22839418 52 9
-4.3729773 0.052665927 0.38261393 45 10
-4.4025965 0.05455853 0.54061234 40 11
-9.1644487 0.11517092 -1.1253422 2 4
-4.4343605 0.056501251 0.70239085 48 12
-32.06292 0.40853581 -2.8053706 10 5
-4.4405107 0.057353657 0.86321968 39 13
-4.3177037 0.056522172 -0.2263006 53 6
-4.4602742 0.059167083 1.029826 40 14
-4.3269506 0.05815275 -0.075533777 48 7
-4.3713751 0.059513893 1.1714151 54 15
-4.3468485 0.065250196 0.075882971 48 8
-4.3655047 0.066292293 0.22881286 49 9
-4.3687835 0.067868382 0.38226485 48 10
-4.4043646 0.069957785 0.54085606 38 11
-9.163991 0.14716038 -1.1253422 2 4
-4.4420495 0.071332857 0.70364237 48 12
-32.035397 0.52002656 -2.8031039 10 5
-4.4343948 0.072758146 0.86207479 42 13
-4.3174806 0.071593553 -0.22630063 51 6
-4.4658856 0.074832991 1.0311756 40 14
-4.3407292 0.072735794 -0.075778112 52 7
-4.367291 0.07394433 1.1703799 48 15
-4.3446083 0.079628013 0.07584805 48 8
-4.3652472 0.081530467 0.22881289 49 9
-4.374496 0.083230652 0.38278779 48 10
-4.3981543 0.084448643 0.54012489 41 11
-4.4476991 0.086952977 0.70458096 48 12
-32.045338 0.63208449 -2.8041499 10 5
-4.4360919 0.087500557 0.86245638 42 13
-4.3212132 0.085990079 -0.22650996 48 6
-4.4714584 0.089759506 1.0325254 41 14
-4.3484464 0.088049382 -0.075917728 50 7
-4.3805256 0.089464799 1.1740032 51 15
-4.3543 0.095011286 0.07602258 48 8
-4.3589625 0.095874123 0.22849888 53 9
-4.3881392 0.098048262 0.38400799 50 10
-4.399817 0.09984675 0.54036862 38 11
-31.961557 0.73088932 -3.92541 13 4
-4.4493608 0.10174692 0.70489383 48 12
-32.02713 0.73798114 -2.8027551 10 5
-4.4377222 0.10303162 0.86283797 36 13
-4.3168926 0.10097906 -0.22630057 53 6
-4.4594278 0.1050919 1.0298259 39 14
-4.3561268 0.10265749 -0.076057352 50 7
-4.3763428 0.10389913 1.172968 51 15
-4.3599586 0.10960107 0.076127298 47 8
-4.3625937 0.11118999 0.22870818 53 9
-4.3877697 0.11336525 0.38400796 48 10
-4.4054146 0.11458944 0.54109979 40 11
-31.958958 0.8368749 -3.92541 13 4
-4.450953 0.11732965 0.70520675 49 12
-32.028343 0.84987879 -2.8031039 10 5
-4.4452066 0.11795449 0.8643645 40 13
-4.3165345 0.11529402 -0.2263006 55 6
-4.4668469 0.12008898 1.0316255 40 14
-4.3437476 0.11753919 -0.075847916 50 7
-4.3856087 0.11943682 1.1755562 54 15
-4.3675232 0.12580973 0.076266922 48 8
-4.3681464 0.12735471 0.22902222 49 9
-4.3753982 0.12833038 0.38296208 48 10
-4.4109182 0.13091312 0.54183102 38 11
