# .PCD v0.7 - Point Cloud Data file format
VERSION 0.7
FIELDS x y z intensity ring
SIZE 4 4 4 4 2
TYPE F F F F U
COUNT 1 1 1 1 1
WIDTH 1034
HEIGHT 1
VIEWPOINT 0 0 0 1 0 0 0
POINTS 1034
DATA ascii
1.7120986 0.068166062 -0.14990793 1 5
1.6983887 0.061684292 -0.14868775 3 5
1.7005848 0.055820346 -0.14886205 25 5
1.7328007 0.044770017 -0.15165105 77 5
1.6970924 0.037919562 -0.14851345 83 5
1.7332016 0.038121942 -0.090855196 1 6
1.6912384 0.031883072 -0.14799052 72 5
1.7413119 0.032219045 -0.091273881 3 6
1.713253 0.026315495 -0.14990793 63 5
1.7114581 0.025691228 -0.089703798 15 6
1.7153301 0.020059606 -0.15008225 65 5
1.6915665 0.019486452 -0.088657096 43 6
1.7153898 0.014071407 -0.15008225 65 5
1.6996152 0.013349541 -0.089075781 56 6
1.7134374 0.0077754343 -0.14990793 67 5
1.7216208 0.0075121028 -0.090227157 88 6
1.7746711 0.0024782962 -0.21790232 1 4
1.7034922 0.001783488 -0.14903638 65 5
1.7036618 0.0011898231 -0.089285128 100 6
1.7309966 -0.0036253957 -0.21254024 1 4
1.7134508 -0.0038877032 -0.14990795 61 5
1.6956673 -0.0044392557 -0.088866428 58 6
1.7409005 -0.0094192699 -0.21375874 3 4
1.7174114 -0.0098916898 -0.15025656 55 5
1.7616969 -0.011069213 -0.030751046 2 7
1.721351 -0.015923372 -0.15060517 28 5
1.7456509 -0.017062262 -0.030471809 2 7
1.7214898 -0.022535536 -0.090227157 3 6
1.7355829 -0.023022994 -0.030297283 19 7
1.7188685 -0.027602293 -0.21107763 96 4
1.7211981 -0.027940188 -0.15060519 2 5
1.7094188 -0.028345834 -0.089599133 3 6
1.7267004 -0.033757303 -0.21205258 92 4
1.7091378 -0.033712368 -0.1495593 2 5
1.7332717 -0.034793667 -0.090855196 3 6
1.7373731 -0.035482701 -0.030332187 100 7
1.7106957 -0.039418567 -0.21010268 77 4
1.7448632 -0.040510572 -0.15269692 2 5
1.7091792 -0.040279049 -0.089599133 3 6
1.7272431 -0.041308001 -0.030157667 100 7
1.7045941 -0.045231797 -0.20937164 82 4
1.724794 -0.046069052 -0.15095378 2 5
1.7170144 -0.046461042 -0.090017825 3 6
1.7290872 -0.047391742 -0.030192571 91 7
1.7183242 -0.051298842 -0.21107781 77 4
1.7405547 -0.05257063 -0.15234829 2 5
1.732812 -0.052942205 -0.090855189 3 6
1.7149293 -0.052695423 -0.029948236 100 7
1.7221127 -0.057128374 -0.21156529 77 4
1.7164757 -0.057541192 -0.15025656 2 5
1.7406116 -0.058958571 -0.091273874 3 6
1.7187424 -0.058518134 -0.030018048 100 7
1.7726058 -0.063139811 0.030960528 1 8
1.7219137 -0.062838785 -0.21156529 77 4
1.7322036 -0.063819766 -0.15165104 3 5
1.7124643 -0.063691087 -0.089808479 3 6
1.7305285 -0.064665392 -0.030227475 100 7
1.7404157 -0.067772664 0.030402051 6 8
1.8198681 -0.072139055 -0.28846514 1 3
1.713762 -0.068232618 -0.21059015 82 4
1.7479088 -0.070203274 -0.15304554 11 5
1.720226 -0.069692865 -0.090227157 3 6
1.7323027 -0.070484966 -0.030262379 100 7
1.6882108 -0.071937695 0.029494531 22 8
1.8038033 -0.078124918 -0.28596216 1 3
1.7154708 -0.07489907 -0.21083391 72 4
1.7239499 -0.076173671 -0.090436511 4 6
1.7240285 -0.076780125 -0.030122763 100 7
1.6979374 -0.078290746 0.029669058 39 8
1.7679875 -0.083066918 -0.28033057 2 3
1.7171816 -0.080980234 -0.21107762 82 4
1.7393867 -0.082635917 -0.15234829 77 5
1.7296438 -0.082778178 -0.090750515 9 6
1.7177577 -0.082509816 -0.030018048 100 7
1.7116195 -0.085209459 0.029913388 49 8
1.7637409 -0.089038625 -0.27970481 22 3
1.7248034 -0.087676562 -0.21205258 82 4
1.7231691 -0.087895028 -0.15095378 83 5
1.7274444 -0.089019969 -0.030192571 100 7
1.7133243 -0.090990968 0.02994829 56 8
1.7377932 -0.093507133 -0.27563754 47 3
1.724503 -0.093395747 -0.21205278 80 4
1.7288203 -0.094234809 -0.15147674 68 5
1.7250519 -0.094331376 -0.090541184 54 6
1.7311165 -0.095269106 -0.030262379 100 7
1.7169893 -0.097197078 0.030018102 43 8
1.7473167 -0.10013772 -0.27720186 74 3
1.7221847 -0.099300534 -0.21180902 75 4
1.7304697 -0.10038432 -0.15165104 69 5
1.7346814 -0.10093242 -0.091064535 88 6
1.7427511 -0.10201237 -0.030471809 100 7
1.7485769 -0.10510971 0.030576576 7 8
1.8002372 -0.10884578 0.094518766 1 9
1.76074 -0.10738302 -0.27939194 69 3
1.7238091 -0.10543269 -0.21205258 77 4
1.7400521 -0.10703582 -0.15252261 65 5
1.7203457 -0.10642642 -0.09033183 100 6
1.7224259 -0.10685688 -0.030122763 100 7
1.764145 -0.11253629 0.030855816 2 8
1.7639692 -0.11283417 0.09263467 2 9
1.7485269 -0.1127657 -0.27751473 59 3
1.7234112 -0.11175005 -0.21205258 80 4
1.731715 -0.11259203 -0.15182535 65 5
1.7379009 -0.11360342 -0.091273881 96 6
1.7260332 -0.1131302 -0.030192571 100 7
1.7537862 -0.11771616 0.030681292 1 8
1.737659 -0.11724301 0.091273934 9 9
1.7520851 -0.11883076 -0.27814049 69 3
1.7309531 -0.11800455 -0.21302754 77 4
1.733299 -0.11877234 -0.15199967 67 5
1.7315369 -0.11895522 -0.090959869 69 6
1.7316123 -0.11956773 -0.030297281 100 7
1.7334173 -0.12242847 0.030332243 1 8
1.7477188 -0.12466486 -0.27751473 70 3
1.7325106 -0.1241879 -0.21327128 72 4
1.7368703 -0.12480512 -0.15234829 61 5
1.7111903 -0.12356026 -0.089913145 31 6
1.7391624 -0.12619032 -0.030436903 100 7
1.7569102 -0.13025263 0.030751104 1 8
1.7089139 -0.12729412 0.089808539 47 9
1.747273 -0.13076477 -0.27751473 74 3
1.7281075 -0.12993705 -0.21278399 75 4
1.7403976 -0.13116664 -0.15269692 60 5
1.7407051 -0.13241202 -0.030471807 100 7
1.7524575 -0.13607499 0.030681295 1 8
1.718415 -0.13403516 0.09033189 76 9
1.7566527 -0.13763461 -0.27907911 68 3
1.7217064 -0.13550124 -0.21205278 65 4
1.7439014 -0.13755427 -0.15304554 63 5
1.7441335 -0.13818519 -0.091692574 3 6
1.7302653 -0.13769424 -0.030297281 100 7
1.7679169 -0.1434855 0.030960532 1 8
1.7119648 -0.13954595 0.090017878 65 9
1.7561616 -0.1437656 -0.27907911 68 3
1.7251799 -0.14183562 -0.21254005 31 4
1.7394395 -0.1433136 -0.15269692 57 5
1.7356787 -0.14361374 -0.091273881 3 6
1.7357529 -0.14422992 -0.030401999 100 7
1.7514647 -0.14830604 0.030681292 1 8
1.7194277 -0.14619781 0.090436563 41 9
1.7644888 -0.15002921 -0.34421951 2 2
1.7556489 -0.14989489 -0.27907908 66 3
1.7389286 -0.14938448 -0.15269692 63 5
1.7391466 -0.1500148 -0.091483228 1 6
1.737231 -0.15046051 -0.030436903 100 7
1.7509365 -0.15441889 0.030681295 1 8
1.7483094 -0.15480226 -0.34116653 2 2
1.8278116 -0.16216321 0.16054079 1 10
1.7492123 -0.1554976 -0.27814049 60 3
1.7439197 -0.15564069 -0.21497762 2 4
1.7463344 -0.15616341 -0.15339416 60 5
1.7425907 -0.15644179 -0.091692567 3 6
1.7347035 -0.15634418 -0.030401997 100 7
1.7583522 -0.16126038 0.030820914 1 8
1.7302982 -0.1592966 0.091064595 11 9
1.7614434 -0.16216393 -0.34383789 10 2
1.771683 -0.16341847 0.15566006 1 10
1.7309557 -0.1599665 -0.27532464 33 3
1.7235998 -0.15989353 -0.21254024 1 4
1.7457501 -0.162563 -0.15339415 37 5
1.7261251 -0.16103941 -0.090855196 3 6
1.7401205 -0.16295783 -0.030506715 61 7
1.7378715 -0.16550142 0.030471865 1 8
1.7038852 -0.16286498 0.089703865 32 9
1.755206 -0.16838877 0.15426558 15 10
1.7427908 -0.16781166 -0.21497743 1 4
1.7454025 -0.16929306 -0.091901913 3 6
1.7335699 -0.16845076 -0.030401999 19 7
1.753173 -0.17344488 0.030751102 1 8
1.7211937 -0.17058447 0.090645902 47 9
1.730933 -0.17185479 -0.33811358 89 2
1.7926674 -0.17861602 -0.28533646 2 3
1.742164 -0.1741982 -0.21497743 1 4
1.7287133 -0.17315798 -0.15199967 2 5
1.7487755 -0.17578411 -0.09211126 1 6
1.7605454 -0.18007153 0.030890718 1 8
1.7344956 -0.17801891 0.091378614 76 9
1.7420406 -0.17910056 -0.34040335 95 2
1.7242589 -0.17757656 0.15165091 84 10
1.7802752 -0.18334551 -0.28345925 2 3
1.7297293 -0.17875016 -0.21351519 1 4
1.7518793 -0.18165718 -0.1540914 3 5
1.7601023 -0.18282032 -0.092739284 1 6
1.7462742 -0.18200022 -0.030646332 100 7
1.7479746 -0.18495344 0.030681292 1 8
1.7338637 -0.18407239 0.091378614 77 9
1.7511984 -0.1859127 -0.34231141 100 2
1.7375294 -0.18476819 0.15287109 100 10
1.7599819 -0.18746646 -0.28033057 2 3
1.7606766 -0.18816204 -0.21741483 1 4
1.7671158 -0.18916215 -0.1554859 12 5
1.7634252 -0.18938971 -0.092948638 1 6
1.7674983 -0.19045128 -0.031030284 100 7
1.7671968 -0.19322741 0.031030338 1 8
1.7232839 -0.18903467 0.090855256 65 9
1.7505387 -0.19202437 -0.34231141 100 2
1.7368736 -0.19083218 0.15287107 100 10
1.7671705 -0.1944731 -0.28158203 2 3
1.7442243 -0.19256414 -0.21546493 2 4
1.7468725 -0.1937824 -0.092111252 2 6
1.758873 -0.19573514 -0.030890664 100 7
1.7665117 -0.19939491 0.03103034 2 8
1.7226133 -0.1950489 0.090855248 67 9
1.7479069 -0.19791286 -0.34192982 100 2
1.7361971 -0.19689386 0.15287109 100 10
1.7704066 -0.20108636 -0.28220776 3 3
1.7317076 -0.19730315 -0.21400249 2 4
1.7617931 -0.20104246 -0.15513727 70 5
1.7620599 -0.20169601 -0.09294863 2 6
1.7383125 -0.19959249 -0.030541617 100 7
1.7618324 -0.20509751 0.030960532 2 8
1.7298573 -0.20198727 0.091273941 67 9
1.7413555 -0.20332989 -0.34078494 100 2
1.7315413 -0.20249029 0.15252247 100 10
1.7932376 -0.21002243 -0.28596216 22 3
1.8118782 -0.21252619 0.22399583 1 11
1.7428375 -0.20473635 -0.21546493 2 4
1.7472297 -0.20556147 -0.1539171 74 5
1.7454771 -0.20597306 -0.092111252 2 6
1.7455487 -0.20659931 -0.030681239 100 7
1.7531639 -0.21029358 0.030820914 3 8
1.7370735 -0.20897862 0.091692634 63 9
1.7464826 -0.21011059 -0.34192979 100 2
1.7288456 -0.20829493 0.15234835 100 10
1.7993009 -0.21742068 0.22253342 2 11
1.7618192 -0.21320355 -0.2179023 2 4
1.7544129 -0.21261798 -0.15461434 68 5
1.7586262 -0.21375152 -0.092843957 2 6
1.7487867 -0.21317504 -0.030751046 100 7
1.7464652 -0.21567671 0.030716198 13 8
1.7462441 -0.21626827 0.092215993 72 9
1.7437901 -0.21596438 -0.34154814 100 2
1.7379944 -0.21555457 0.1532197 100 10
1.7819259 -0.22131898 -0.28439784 69 3
1.7847415 -0.22198498 0.22082724 13 11
1.7610643 -0.21935214 -0.2179023 2 4
1.7536602 -0.21874075 -0.15461436 65 5
1.7657965 -0.22088054 -0.093262643 2 6
1.7440637 -0.21878037 -0.030681238 100 7
1.7316481 -0.22029345 0.09148328 67 9
1.7547499 -0.22323234 -0.34383789 100 2
1.741223 -0.22182037 0.15356833 100 10
1.7674658 -0.22547705 -0.28220776 65 3
1.748513 -0.22367954 -0.21643987 2 4
1.7607906 -0.22587483 -0.15531158 65 5
1.7531685 -0.22520812 -0.092634611 4 6
1.7631618 -0.22711745 -0.031030284 100 7
1.7548712 -0.22885239 0.03089072 49 8
1.8125293 -0.23669328 -0.42200813 1 1
1.7308687 -0.22633667 0.09148328 65 9
1.74224 -0.22813295 -0.34154814 100 2
1.7423737 -0.22845978 0.15374264 100 10
1.7725033 -0.23272507 -0.28314635 66 3
1.7654755 -0.23180236 0.21863359 58 11
1.7851166 -0.23469809 -0.2210709 7 4
1.7599914 -0.23201974 -0.15531158 65 5
1.7562915 -0.23215576 -0.092843957 15 6
1.750464 -0.23169634 -0.030820858 100 7
1.7579845 -0.23581448 0.030960532 34 8
1.7884728 -0.24022189 -0.41660929 2 1
1.7379862 -0.23344068 0.09190198 67 9
1.741433 -0.23421313 -0.34154814 100 2
1.7435402 -0.23480628 0.15391716 60 10
1.7775532 -0.23970279 -0.28408498 66 3
1.7469087 -0.23588085 0.21643992 72 11
1.7492989 -0.23682539 -0.15444003 67 5
1.7516258 -0.23807441 -0.03085576 100 7
1.757193 -0.24164289 0.030960532 5 8
1.7818747 -0.24535385 -0.41525957 24 1
1.7430961 -0.24032433 0.092215985 69 9
1.7444946 -0.24082741 -0.34231141 100 2
1.7728348 -0.24505515 -0.28345925 68 3
1.746117 -0.24167252 0.21643993 71 11
1.7563552 -0.2440269 -0.15513726 63 5
1.7685179 -0.24603134 -0.093576662 13 6
1.7448424 -0.2433586 -0.030751046 100 7
1.7563387 -0.24777512 0.030960532 1 8
1.7501569 -0.24752618 0.09263467 72 9
1.7553498 -0.2482606 -0.34460109 100 2
1.7478194 -0.24750677 0.15444008 3 10
1.768057 -0.25068733 -0.28283349 68 3
1.7472281 -0.24804518 0.21668367 31 11
1.7688034 -0.25142303 -0.21936473 76 4
1.7495754 -0.24931297 -0.15461434 65 5
1.7578392 -0.25142977 -0.030995378 100 7
1.7712958 -0.25619441 0.031239768 1 8
1.7839756 -0.25834623 -0.41615939 83 1
1.7413759 -0.25248748 0.092215985 69 9
1.7544283 -0.25469267 -0.34460115 100 2
1.7607024 -0.25591725 0.15566006 3 10
1.7788552 -0.25887278 -0.28471074 66 3
1.7482716 -0.25473365 -0.21692735 42 4
1.8745443 -0.27346641 0.30004138 1 12
1.7684094 -0.25829822 -0.15635747 65 5
1.7607837 -0.25781214 -0.09326265 1 6
1.7589295 -0.25785428 -0.031030284 100 7
1.7782573 -0.26385882 0.031379391 1 8
1.7656684 -0.26230592 -0.41211027 79 1
1.7385087 -0.25827104 0.092111327 67 9
1.7515864 -0.26052633 -0.34421948 100 2
1.7597983 -0.26206172 0.15566006 1 10
1.7798942 -0.2653718 -0.28502357 63 3
1.7768216 -0.26523075 0.22058347 2 11
1.8110605 -0.27066475 0.29002959 2 12
1.7694674 -0.26476437 -0.15653178 69 5
1.7677735 -0.26514187 -0.093681328 1 6
1.7540635 -0.26339859 -0.030960472 100 7
1.7813265 -0.27035445 0.031449199 1 8
1.774422 -0.26962331 -0.41435978 88 1
1.7494437 -0.26614025 0.092739351 38 9
1.7448437 -0.26575214 -0.34307462 100 2
1.77463 -0.27060565 0.15705457 1 10
1.7868158 -0.27246383 -0.28627506 63 3
1.7602338 -0.26872483 0.21863359 2 11
1.7905782 -0.27399692 0.28690088 10 12
1.7645935 -0.27033594 -0.15618315 72 5
1.7510914 -0.2685802 -0.092843965 1 6
1.7570865 -0.27012753 -0.031030284 100 7
1.7685159 -0.27472901 0.03123977 1 8
1.7792469 -0.27671406 -0.4157095 63 1
1.757532 -0.27365103 -0.34574595 71 2
1.7658483 -0.27526155 0.15635732 1 10
1.7799987 -0.27778554 -0.28533646 66 3
1.7749753 -0.27731895 0.22058348 2 11
1.7651206 -0.27609488 -0.21936473 2 4
1.7583854 -0.27535582 0.28189498 28 12
1.7597505 -0.27556956 -0.15583453 67 5
1.7659278 -0.27716845 -0.093681328 2 6
1.7600836 -0.27688074 -0.031100092 100 7
1.7833455 -0.28341141 0.031519007 1 8
1.7686472 -0.28139204 -0.41345993 68 1
1.767267 -0.28148875 0.093786076 2 9
1.7648767 -0.28142387 0.15635732 3 10
1.7751169 -0.28337443 -0.28471074 68 3
1.7818373 -0.2847662 0.22155844 2 11
1.7759072 -0.28413633 -0.22082716 2 4
1.7788693 -0.28492862 0.28533655 75 12
1.7646798 -0.28265584 -0.15635745 65 5
1.7610054 -0.28269789 -0.093471982 2 6
1.7650294 -0.28397587 -0.031204809 100 7
1.7705027 -0.28771028 0.031309582 1 8
1.7676544 -0.2875641 -0.41345996 68 1
1.7682952 -0.28766835 0.093890741 2 9
1.7599505 -0.28694147 0.15600868 1 10
1.7780161 -0.29020539 -0.28533646 66 3
1.7651597 -0.28842333 0.21960856 3 11
1.7906281 -0.29258478 -0.22277707 1 4
1.8032576 -0.29497164 0.28940383 76 12
1.7676147 -0.28945801 -0.15670608 65 5
1.7836587 -0.29272464 -0.094728053 1 6
1.7601316 -0.289179 -0.031135 61 7
1.7813752 -0.29554364 0.031519007 1 8
1.7724583 -0.29438213 -0.41480967 66 1
1.7555096 -0.29156718 0.093262702 3 9
1.7623677 -0.29302227 -0.34727243 1 2
1.7589896 -0.29277611 0.15600869 3 10
1.7848378 -0.2973986 -0.28658792 66 3
1.7759415 -0.29623485 0.22107096 3 11
1.7778996 -0.29656145 -0.22131485 1 4
1.7788886 -0.29704553 0.28564939 94 12
1.7705755 -0.29597506 -0.15705472 65 5
1.7787386 -0.29797792 -0.094518706 1 6
1.7961582 -0.30411988 0.031798244 1 8
1.7791579 -0.30156082 -0.41660932 57 1
1.7741725 -0.30103442 0.094309434 9 9
1.7691287 -0.30017859 -0.3487989 1 2
1.758009 -0.29860747 0.15600869 3 10
1.7896842 -0.3043091 -0.28752655 63 3
1.7651647 -0.300457 0.21985228 13 11
1.7651125 -0.30076507 -0.21985222 1 4
1.775894 -0.30292112 0.28533655 90 12
1.7636923 -0.30083981 -0.15653178 56 5
1.7738034 -0.30320176 -0.094309367 1 6
1.7581224 -0.30115303 -0.031135 20 7
1.7950859 -0.31038779 0.031798247 1 8
1.7800144 -0.30810177 -0.41705918 62 1
1.7951522 -0.31104469 -0.35414156 1 2
1.7491037 -0.30338031 0.15531145 3 10
1.7827722 -0.3095406 -0.28658792 58 3
1.7992545 -0.3130495 -0.22423951 2 4
1.786502 -0.31115195 0.28721377 77 12
1.7626314 -0.30699444 -0.15653178 23 5
1.808364 -0.31528482 0.35681275 1 13
1.7687991 -0.30870485 -0.094100021 1 6
1.7708489 -0.30969965 -0.031379331 75 7
1.7782375 -0.3138712 0.031519007 1 8
1.7674139 -0.3122789 -0.41435996 57 1
1.7708017 -0.31351498 -0.34956214 1 2
1.777462 -0.31469417 0.15792611 7 10
1.7739006 -0.31438291 -0.28533646 31 3
1.7767063 -0.3152 0.22155844 52 11
1.7825148 -0.31655142 -0.22228959 1 4
1.7873499 -0.31773183 0.28752664 82 12
1.7713022 -0.31519803 -0.15740333 42 5
1.7994649 -0.32053348 0.35528645 3 13
1.7833859 -0.31799054 -0.094937399 1 6
1.7815684 -0.31798738 -0.031588756 100 7
1.8233086 -0.32839349 -0.49641496 1 0
1.7928188 -0.32322511 0.031798247 2 8
1.7720108 -0.31979305 -0.4157095 27 1
1.7630051 -0.31848553 0.093890741 77 9
1.7657769 -0.31930447 -0.3487989 1 2
1.786343 -0.32334542 -0.28752655 34 3
1.7579594 -0.31852463 0.21936479 80 11
1.7969683 -0.32591656 -0.22423951 2 4
1.7939477 -0.32569218 0.2887781 82 12
1.7799364 -0.32346928 -0.15827489 59 5
1.7704188 -0.32237807 -0.094309375 1 6
1.7902278 -0.32630792 -0.031763285 99 7
1.7935928 -0.32983312 -0.48865035 4 0
1.7837555 -0.32834587 0.031658627 2 8
1.7539696 -0.32349607 0.093472049 72 9
1.780097 -0.3283149 -0.35185185 1 2
1.7653111 -0.32590649 0.15705456 91 10
1.7832034 -0.32953149 -0.28721368 67 3
1.7665399 -0.32677102 0.22058347 76 11
1.7684349 -0.3274408 -0.22082716 2 4
1.7810882 -0.33010516 0.28690091 82 12
1.7885914 -0.33149582 -0.15914644 61 5
1.7810647 -0.33074388 -0.094937399 2 6
1.7772237 -0.33067247 -0.031553853 100 7
1.803823 -0.33822805 -0.49175617 31 0
1.8022521 -0.33825913 0.032007672 6 8
1.8098971 -0.34002098 -0.4251574 22 1
1.7606812 -0.33109304 0.093890741 74 9
1.7635046 -0.33162403 -0.3487989 1 2
1.7622048 -0.33169803 0.15688024 100 10
1.7956307 -0.33831429 -0.28940374 81 3
1.7731913 -0.33440694 0.22155842 69 11
1.7867877 -0.33729404 -0.22326456 2 4
1.7760429 -0.33558679 0.28627515 82 12
1.7698038 -0.33440787 -0.15757763 60 5
1.7978795 -0.34003785 0.35566807 70 13
1.7877489 -0.33844501 -0.095356092 2 6
1.7839174 -0.33836475 -0.031693473 100 7
1.7912464 -0.34234661 -0.48865038 37 0
1.7634968 -0.33768108 0.094100088 72 9
1.7854744 -0.3422125 -0.35337833 1 2
1.762993 -0.33822268 0.15705457 100 10
1.7905589 -0.34383512 -0.28877801 70 3
1.7739629 -0.34096926 0.22180219 73 11
1.7856593 -0.34321737 -0.22326456 2 4
1.7865593 -0.34371373 0.28815237 82 12
1.7725385 -0.34133708 -0.15792626 64 5
1.7716204 -0.34148103 0.35070702 76 13
1.7747899 -0.34241319 -0.094728053 2 6
1.7729685 -0.34238276 -0.031518951 100 7
1.8052717 -0.35123628 -0.4927915 54 0
1.7645772 -0.3436383 0.031379387 44 8
1.7960643 -0.3500956 -0.42245799 76 1
1.7702087 -0.34505576 0.094518773 72 9
1.7920371 -0.34963527 -0.35490477 1 2
1.7657725 -0.34483084 0.15740317 100 10
1.7874702 -0.34939194 -0.28846514 66 3
1.7669778 -0.34570655 0.22107096 67 11
1.7962002 -0.35142386 -0.22472697 2 4
1.7912252 -0.35077515 0.28909096 85 12
1.7753072 -0.34797966 -0.15827487 62 5
1.776258 -0.34848791 0.35185191 67 13
1.7932431 -0.35214531 -0.09577477 3 6
1.7835963 -0.35057423 -0.031728376 100 7
1.8040972 -0.35722086 -0.4927915 82 0
1.7791204 -0.35259801 0.031658627 62 8
1.7796015 -0.35301617 -0.4188588 77 1
1.7650753 -0.3504549 0.094309427 76 9
1.7870166 -0.35481134 -0.35414153 1 2
1.7724361 -0.35223788 0.15810044 100 10
1.7959887 -0.3572444 -0.29002947 70 3
1.7736095 -0.3531146 0.22204594 67 11
1.7677072 -0.35226029 -0.22131486 2 4
1.7919273 -0.35741192 0.28940386 82 12
1.7741437 -0.35386485 -0.15827489 66 5
1.7866441 -0.35668248 0.35414159 14 13
1.790107 -0.35769865 -0.095670111 21 6
1.788244 -0.3579756 -0.03183309 100 7
1.8066266 -0.36427981 -0.49382678 86 0
1.7915999 -0.36157531 0.031902958 70 8
1.7879092 -0.36115524 -0.42110831 85 1
1.7599261 -0.35582235 0.094100088 74 9
1.7973133 -0.36338133 -0.35643128 3 2
1.7751012 -0.35921302 0.15844904 100 10
1.7986029 -0.36429569 -0.29065523 70 3
1.7723662 -0.35930359 0.22204594 69 11
1.7937031 -0.36395502 -0.22472697 2 4
1.7867968 -0.36287844 0.2887781 68 12
1.7885178 -0.36322796 -0.15966937 62 5
1.7738447 -0.36057037 0.35185191 2 13
1.8331687 -0.37329558 0.43190601 0 14
1.7771865 -0.36221874 -0.031658567 100 7
1.7845278 -0.36631092 -0.48813275 58 0
1.7883681 -0.36742455 0.031868055 64 8
1.7942728 -0.36896408 -0.42290792 71 1
1.7704107 -0.36437929 0.094728112 74 9
1.788342 -0.36806983 -0.3549048 3 2
1.7660307 -0.36379907 0.15775201 100 10
1.8031244 -0.37176839 -0.29159382 76 3
1.7808217 -0.36749405 0.22326462 61 11
1.8099183 -0.37382784 -0.22692063 22 4
1.7932572 -0.37071294 0.29002956 27 12
1.7755322 -0.36704871 -0.15862352 64 5
1.7975682 -0.37193131 0.35681292 2 13
1.797345 -0.37221226 -0.09619347 68 6
1.8318547 -0.37969232 0.43190604 2 14
1.7759113 -0.36842006 -0.031658567 100 7
1.7832382 -0.37253788 -0.48813275 61 0
1.7772878 -0.37161857 0.031693533 56 8
1.802511 -0.37722084 -0.4251574 76 1
1.7730377 -0.37137586 0.094937459 74 9
1.7908894 -0.37511507 -0.35566801 3 2
1.7725502 -0.37159669 0.15844904 52 10
1.7960159 -0.37684327 -0.29065523 70 3
1.7814708 -0.37411603 0.22350837 13 11
1.783348 -0.37483519 -0.22375202 37 4
1.7742401 -0.37324426 -0.15862352 62 5
1.7962592 -0.37820378 0.35681275 2 13
1.7882177 -0.37683654 -0.095774785 63 6
1.7843975 -0.37668213 -0.031833094 100 7
1.7894855 -0.38036689 -0.49020332 61 0
1.770112 -0.37657183 0.031588815 19 8
1.7916533 -0.38148135 -0.42290792 67 1
1.7795442 -0.37922776 0.095356151 76 9
1.8087705 -0.385456 -0.35948423 6 2
1.7966214 -0.38352266 -0.29096809 76 3
1.7975582 -0.38437876 -0.22570214 40 4
1.8099419 -0.38735718 0.29315826 2 12
1.7846161 -0.38193706 -0.15966937 64 5
1.8026068 -0.38611636 0.35833922 2 13
1.7790796 -0.3814016 -0.095356084 35 6
1.7908921 -0.38458791 -0.03197271 100 7
1.797588 -0.38865227 -0.4927915 68 0
1.7922152 -0.38814551 -0.42335781 76 1
1.7723536 -0.38416791 0.095042124 51 9
1.7575279 -0.38095433 -0.34956214 17 2
1.7913308 -0.38860872 0.16036648 1 10
1.8010629 -0.39104912 -0.29190671 70 3
1.7943341 -0.38991597 0.22545826 2 11
1.7787482 -0.38685423 -0.2235083 33 4
1.8085787 -0.39367262 0.29315826 2 12
1.7910591 -0.38985917 -0.16036662 64 5
1.7935749 -0.39073467 0.35681292 2 13
1.7858917 -0.38971385 0.42200819 52 14
1.7895387 -0.39083695 -0.03197271 100 7
1.8037674 -0.39658394 -0.49486205 68 0
1.8064994 -0.39751521 0.032286912 1 8
1.800365 -0.39649481 -0.4256075 64 1
1.761939 -0.38835463 -0.35070699 29 2
1.7919093 -0.39528847 0.16054079 1 10
1.8074027 -0.39903703 -0.29315817 63 3
1.7813318 -0.39360726 0.22399583 2 11
1.8187658 -0.40254459 0.29503548 2 12
1.7974688 -0.39783096 -0.16106386 64 5
1.7960337 -0.39784217 0.35757595 2 13
1.7880731 -0.39640626 -0.095984124 2 6
1.7864228 -0.39636752 0.42245808 50 14
1.782307 -0.39578077 -0.031867996 100 7
1.7948308 -0.40119219 -0.4927915 65 0
1.797295 -0.4020724 0.032147296 1 8
1.8027735 -0.40362835 -0.42650712 64 1
1.7854775 -0.40008321 -0.35566804 8 2
1.78663 -0.40066895 0.16019215 3 10
1.8137084 -0.40707403 -0.29440963 63 3
1.8031892 -0.40504363 0.22692069 2 11
1.8089287 -0.40666461 -0.22765185 2 4
1.801932 -0.40542197 0.29253253 2 12
1.7844062 -0.40147883 -0.160018 62 5
1.8099562 -0.40755931 0.3606289 2 13
1.8061625 -0.40703627 -0.097030841 1 6
1.7907313 -0.40388715 0.42380777 55 14
1.7770134 -0.40111911 -0.031798188 99 7
1.7953031 -0.40788287 -0.49330911 61 0
1.7958804 -0.40834367 0.032147292 1 8
1.8127546 -0.41251323 -0.42920655 64 1
1.7740759 -0.40403712 0.095356144 2 9
1.7774503 -0.405132 0.15949513 3 10
1.798795 -0.41032732 -0.29221955 68 3
1.8056351 -0.41221911 0.2274082 2 11
1.8074982 -0.41297638 -0.22765185 2 4
1.8120599 -0.41435143 0.29440975 2 12
1.7829939 -0.40770516 -0.160018 64 5
1.8046954 -0.41299888 0.3598657 2 13
1.8164119 -0.41601384 -0.097658873 1 6
1.798808 -0.41231251 0.42605731 57 14
1.801398 -0.41588548 -0.49537969 47 0
1.8022376 -0.41641065 0.032286912 1 8
1.803709 -0.41708222 -0.42740691 64 1
1.7921131 -0.41473037 0.096402869 2 9
1.7979426 -0.41607949 -0.35872099 1 2
1.7876716 -0.41403127 0.16054079 3 10
1.8031249 -0.41794193 -0.29315817 66 3
1.8003175 -0.4176223 0.22692069 2 11
1.8331169 -0.42556801 -0.23106419 1 4
1.8144507 -0.42156824 0.29503548 3 12
1.8048484 -0.41933727 -0.16210975 56 5
1.7994182 -0.41840667 0.35910246 2 13
1.8032767 -0.41963559 -0.097030841 1 6
1.8163371 -0.4230091 0.4305563 58 14
1.8131011 -0.42525896 -0.49900317 7 0
1.7968795 -0.42178515 0.0322171 1 8
1.802242 -0.42337582 -0.42740691 60 1
1.7751731 -0.41701689 0.09556549 2 9
1.8117684 -0.42594743 -0.36177394 1 2
1.7978519 -0.42300674 0.16158664 3 10
1.8189601 -0.42830825 -0.29597399 68 3
1.7949845 -0.42299336 0.22643323 2 11
1.8122994 -0.42740756 -0.2286268 2 4
1.8341917 -0.43257055 0.29847702 9 12
1.793678 -0.42334646 -0.16123819 20 5
1.8151429 -0.42874709 0.36253703 5 13
1.7881951 -0.42271137 -0.096298136 1 6
1.8034712 -0.42665491 0.42785689 58 14
1.8078164 -0.42768285 -0.032426473 3 7
1.831005 -0.4335061 0.50417954 2 15
1.8110329 -0.43144888 0.032496341 2 8
1.812202 -0.43206167 -0.43010634 64 1
1.7853631 -0.4259921 0.096193522 2 9
1.8102707 -0.43226904 -0.36177394 1 2
1.8118672 -0.43298459 0.16298115 2 10
1.8079234 -0.43204215 -0.29440963 54 3
1.8090171 -0.43263724 0.22838314 3 11
1.810872 -0.43341506 -0.2286268 2 4
1.7828991 -0.42770717 -0.096088789 1 6
1.8058363 -0.433543 0.42875671 59 14
1.8179787 -0.43679368 -0.032635901 3 7
1.8172905 -0.43964881 0.032635961 2 8
1.8182588 -0.44021904 -0.43190593 64 1
1.7955121 -0.4350436 0.096821569 3 9
1.8088273 -0.43826976 -0.36177394 1 2
1.8065488 -0.43805152 0.16263254 6 10
1.8025653 -0.4374187 -0.29378396 14 3
1.8170636 -0.4416087 -0.22960196 1 4
1.8215299 -0.44303083 0.29691267 68 12
1.7965627 -0.43695834 -0.16176111 2 5
1.8202059 -0.44338179 -0.098182231 2 6
1.8156716 -0.44261301 0.43145609 60 14
1.7970159 -0.43839753 -0.032286853 3 7
1.8118609 -0.44503567 0.032566153 2 8
1.8148186 -0.44609803 -0.43145603 68 1
1.7920431 -0.44083127 0.096716896 15 9
1.8034734 -0.44364306 -0.3610107 1 2
1.8232205 -0.44985086 -0.23057671 1 4
1.8238078 -0.45033351 0.2975384 75 12
1.7911578 -0.44227159 -0.16141249 2 5
1.8087256 -0.44694433 0.36215538 61 13
1.8108916 -0.44781497 -0.097763546 2 6
1.817899 -0.44988447 0.43235594 58 14
1.814885 -0.44947481 -0.032635901 7 7
1.8151143 -0.44986781 0.50107372 46 15
1.8316394 -0.45667905 0.032950103 3 8
1.8132503 -0.45243028 -0.43145603 68 1
1.8171519 -0.45374066 -0.36406365 1 2
1.8205472 -0.45526367 -0.29722545 2 3
1.7986103 -0.45011142 0.22765192 74 11
1.8293417 -0.45814136 -0.23155166 1 4
1.8279732 -0.45813772 0.29847702 87 12
1.8089292 -0.45336479 -0.1631556 3 5
1.8185802 -0.45612094 0.36444509 74 13
1.8015686 -0.45218849 -0.097344853 2 6
1.8238776 -0.45812634 0.43415552 60 14
1.8191535 -0.45761487 0.50262666 61 15
1.8135489 -0.45923528 -0.43190613 60 1
1.8345879 -0.46490356 -0.36787981 1 2
1.7979999 -0.45596576 0.1622839 97 10
1.8266059 -0.46355939 -0.29847693 3 3
1.798952 -0.45687559 0.22789563 76 11
1.8161876 -0.46159032 -0.23008923 2 4
1.8244486 -0.46402887 0.29816419 86 12
1.8305069 -0.46556973 -0.16524735 19 5
1.8093663 -0.46052909 0.36291882 66 13
1.7961082 -0.45748845 -0.097135507 2 6
1.8166021 -0.46304607 0.43280581 55 14
1.8117031 -0.46213406 -0.032635901 63 7
1.8269043 -0.46635121 0.50521487 71 15
1.8119349 -0.46556294 -0.43190593 41 1
1.7892628 -0.46007037 0.096821561 62 9
1.8063345 -0.46446002 -0.36253721 1 2
1.8060451 -0.46472165 0.16315545 93 10
1.8402803 -0.47387341 -0.30097991 7 3
1.8031133 -0.46463838 0.22862689 73 11
1.8145654 -0.46792725 -0.23008923 2 4
1.8151665 -0.46842012 0.29691267 83 12
1.796074 -0.46349314 -0.16228403 29 5
1.8077477 -0.46684217 0.36291882 66 13
1.8293077 -0.47275046 -0.099019602 3 6
1.8130883 -0.46889651 0.43235594 59 14
1.8139507 -0.46945724 -0.032705709 97 7
1.8103039 -0.46885061 0.50107378 43 15
1.8093408 -0.47129798 0.032635961 48 8
1.7953764 -0.46832979 0.097240247 66 9
1.7971034 -0.46878028 -0.3610107 1 2
1.792845 -0.46800372 0.16210979 100 10
1.8014804 -0.47092965 0.22862689 76 11
1.8129209 -0.47425839 -0.23008923 2 4
1.8192536 -0.47625417 0.29785129 79 12
1.7983003 -0.4707689 -0.16263267 37 5
1.8099056 -0.47414461 0.36368185 66 13
1.8102585 -0.47457474 -0.098077558 19 6
1.8227501 -0.47818962 0.43505535 59 14
1.798762 -0.47223189 -0.032461379 100 7
1.8057512 -0.47710004 0.032601055 64 8
1.7975923 -0.47561571 0.097449586 64 9
1.8258232 -0.48308519 -0.3671166 2 2
1.7912008 -0.47425914 0.1621096 100 10
1.8273799 -0.48417959 -0.29941556 51 3
1.8094195 -0.47975886 0.22984557 79 11
1.8361975 -0.48720199 -0.23325783 8 4
1.8233078 -0.48412246 0.29878992 83 12
1.8216796 -0.48369017 -0.16489872 69 5
1.796855 -0.47743464 0.36139235 31 13
1.8286026 -0.48655361 0.43685493 58 14
1.8086966 -0.48159501 -0.032670803 99 7
1.8021431 -0.4828828 0.032566149 64 8
1.8036373 -0.48395801 0.097868286 64 9
1.8279184 -0.49047315 -0.36787984 2 2
1.7895341 -0.48050863 0.16210958 100 10
1.823771 -0.49004281 -0.29910269 58 3
1.8000658 -0.48401016 0.22887062 67 11
1.8273289 -0.49202487 0.29972851 76 12
1.8026652 -0.48538396 -0.16332991 62 5
1.8281137 -0.49292061 -0.099228948 66 6
1.8287747 -0.49344128 0.43730485 55 14
1.8070047 -0.48790559 -0.032670807 88 7
1.8120252 -0.49231637 0.032775581 64 8
1.7923859 -0.4873164 0.09734492 60 9
1.8394558 -0.50045866 -0.37055117 5 2
1.8032254 -0.49093944 0.16350409 99 10
1.8334846 -0.49952152 -0.30097991 68 3
1.7907045 -0.48820204 0.22789565 55 11
1.8289212 -0.4989641 -0.23277035 70 4
1.827593 -0.49860168 0.30004138 74 12
1.8048042 -0.4927229 -0.16367856 52 5
1.8162042 -0.49617594 0.36597177 2 13
1.7994101 -0.49192533 -0.097763553 69 6
1.8195224 -0.49776497 0.43550524 52 14
1.8188784 -0.49758881 -0.032915138 86 7
1.8142384 -0.49938384 0.032845385 64 8
1.7983757 -0.49569288 0.097763605 60 9
1.805342 -0.49829116 0.16385271 96 10
1.829914 -0.50507331 -0.30066705 66 3
1.8042964 -0.49868038 -0.22984549 84 4
1.8182257 -0.50287187 0.29878989 27 12
1.8107542 -0.5011456 -0.1643758 55 5
1.8296862 -0.50638521 0.36902452 1 13
1.8093176 -0.50108808 -0.09839157 58 6
1.8197397 -0.50431639 0.43595514 60 14
1.8132764 -0.50286609 -0.032845326 78 7
1.8221151 -0.50840086 0.033019911 62 8
1.7966346 -0.50196737 0.097763605 51 9
1.8000808 -0.50293022 -0.36330041 57 2
1.7998419 -0.50320232 0.16350409 86 10
1.835749 -0.51358658 -0.30191851 63 3
1.815925 -0.50872397 -0.23155187 69 4
1.8052455 -0.50607204 -0.16402717 52 5
1.8279072 -0.51276898 0.36902472 1 13
1.8152492 -0.50955987 -0.098810263 61 6
1.8292251 -0.51382744 0.43865457 56 14
1.8095849 -0.50865138 -0.032810424 81 7
1.8087838 -0.51149327 0.032810483 57 8
1.8198534 -0.51530975 0.099124342 12 9
1.8096482 -0.51241994 -0.36559016 56 2
1.7980746 -0.50948179 0.16350409 24 10
1.8244427 -0.51729721 -0.30035415 59 3
1.8275961 -0.51853591 0.2332579 2 11
1.8160479 -0.51560181 -0.2317954 60 4
1.8184716 -0.51663285 0.29941568 2 12
1.803468 -0.51237041 -0.16402717 55 5
1.8223293 -0.51807266 0.36826146 2 13
1.8153805 -0.51643968 -0.098914936 56 6
1.8292946 -0.52074301 0.43910447 55 14
1.8212608 -0.51879966 -0.033054758 74 7
1.8069874 -0.51780403 0.032810483 32 8
1.8323808 -0.52577287 -0.37055117 10 2
1.8245249 -0.52420795 -0.30066705 63 3
1.825775 -0.52491224 0.2332579 2 11
1.8180526 -0.52303559 -0.23228288 58 4
1.831843 -0.52734917 0.3019186 2 12
1.8074124 -0.52031612 -0.16455011 50 5
1.8280561 -0.52660447 0.36978772 1 13
1.8097285 -0.52166706 -0.09870559 47 6
1.8349552 -0.52928573 0.44090408 52 14
1.8175174 -0.52459943 -0.033019852 63 7
1.8162115 -0.52800202 0.099124335 1 9
1.8193439 -0.52925694 0.16577013 1 10
1.8321671 -0.5333342 -0.3022314 61 3
1.8086845 -0.52684104 0.231308 2 11
1.81431 -0.5288232 -0.23203914 54 4
1.8261983 -0.53263414 0.30129284 2 12
1.8132359 -0.52885354 -0.16524735 48 5
1.8375145 -0.53628266 0.37207747 2 13
1.8251513 -0.53302002 -0.099647649 30 6
1.8181324 -0.53131473 0.43730485 45 14
1.8359418 -0.53999883 0.033403866 1 8
1.8335165 -0.53998095 0.10017106 2 9
1.8213077 -0.53673095 0.16611876 2 10
1.8340833 -0.54084378 -0.3028571 61 3
1.8296818 -0.53989297 0.23423286 2 11
1.8124529 -0.53515291 -0.23203936 46 4
1.85085 -0.54684144 0.30567303 2 12
1.8266648 -0.5396958 -0.16664185 27 5
1.8356314 -0.54269344 0.37207747 2 13
1.8274782 -0.54097682 0.44000426 30 14
1.849377 -0.55097193 0.033683103 1 8
1.816309 -0.54181033 0.099333681 2 9
1.8232412 -0.5442248 0.16646737 2 10
1.8416482 -0.55006933 -0.30442145 63 3
1.823982 -0.54513943 0.23374538 2 11
1.8238868 -0.54545784 -0.23374531 19 4
1.845145 -0.55216622 0.3050473 4 12
1.8299643 -0.54797137 0.37131441 2 13
1.8328649 -0.54918855 -0.10027567 2 6
1.8176703 -0.54532719 -0.033124566 1 7
1.8474426 -0.55742389 0.033683103 1 8
1.8297021 -0.55276805 0.10017106 2 9
1.8175161 -0.54943281 0.16611874 2 10
1.8283724 -0.5530628 -0.30254427 54 3
1.8448677 -0.55840397 0.23667026 2 11
1.8545491 -0.5620411 0.30692449 25 12
1.8457333 -0.55936939 -0.16873357 1 5
1.8393129 -0.55777419 0.37360391 5 13
1.834759 -0.55674285 -0.10048501 1 6
1.8348891 -0.55748194 -0.033473611 2 7
1.8416609 -0.56270081 0.033613294 2 8
1.8392205 -0.56265718 0.10079908 2 9
1.8403538 -0.56335521 0.16838479 4 10
1.8264306 -0.55944169 -0.30254424 45 3
1.8239276 -0.55902326 0.23423284 2 11
1.8295237 -0.56108779 -0.234964 1 4
1.8361505 -0.56347066 -0.16803633 2 5
1.8366228 -0.56431717 -0.10069436 2 6
1.8367547 -0.56505948 -0.033543423 2 7
1.8358648 -0.56794399 0.033543482 2 8
1.8334299 -0.5678919 0.10058975 2 9
1.8263534 -0.56639886 -0.3028571 17 3
1.8257569 -0.56656325 0.23472032 4 11
1.8465118 -0.57335716 -0.23740138 2 4
1.8751035 -0.58259392 0.31099179 79 12
1.8417832 -0.57224131 -0.16873357 1 5
1.8308275 -0.56953824 -0.10048501 2 6
1.8424077 -0.5738461 -0.033683039 2 7
1.8510458 -0.57972783 0.033857629 6 8
1.8276247 -0.57309318 0.1003804 2 9
1.8293495 -0.57503706 -0.23545149 2 4
1.8372557 -0.5778746 0.3050473 54 12
1.8397747 -0.57866687 -0.16873358 1 5
1.8408619 -0.57936198 0.37513036 52 13
1.8402585 -0.57952511 -0.10111304 2 6
1.8403934 -0.58027381 -0.033683039 2 7
1.7899187 -0.56745178 0.032775577 20 8
1.825613 -0.5794692 0.1003804 8 9
1.8115666 -0.57535881 0.16629305 53 10
1.8311145 -0.58262289 -0.23593897 2 4
1.8502854 -0.58907843 0.30755022 63 12
1.8377435 -0.58508545 -0.16873358 1 5
1.8425696 -0.58697611 0.37589383 65 13
1.8686711 -0.59565032 -0.10278779 4 6
1.842167 -0.58791041 -0.033752851 2 7
1.8126799 -0.58163887 0.03322934 39 8
1.8133408 -0.58289832 0.16664168 66 10
1.8329515 -0.5899083 0.23642652 45 11
1.8574125 -0.59813845 -0.23959503 4 4
1.8482178 -0.59553343 0.30755022 64 12
1.8356899 -0.59149671 -0.16873357 2 5
1.8405095 -0.59340435 0.37589362 58 13
1.849618 -0.59741038 -0.033927374 5 7
1.8277559 -0.5935213 0.033543482 44 8
1.8234227 -0.59281772 0.10048507 42 9
1.828347 -0.59477162 0.16821049 67 10
1.8327686 -0.59691757 0.23667024 63 11
1.8573962 -0.60565579 0.30942744 64 12
1.848768 -0.60284227 -0.17012808 2 5
1.8365607 -0.5992164 0.37551203 52 13
1.8359876 -0.59938395 -0.10121772 36 6
1.8275729 -0.60052192 0.033578388 46 8
1.8175479 -0.59793085 0.10027574 47 9
1.8262595 -0.60114998 0.16821048 67 10
1.8269031 -0.60206884 0.23618276 58 11
1.8552707 -0.61213559 0.30942744 66 12
1.8466522 -0.60929185 -0.17012806 4 5
1.8437792 -0.60870093 0.3774201 48 13
1.8509523 -0.61142725 -0.10215976 59 6
1.8311583 -0.6087904 0.033683103 48 8
1.8135545 -0.60364085 0.10017106 46 9
1.8317113 -0.61003947 0.16890773 65 10
1.8285569 -0.60969812 0.23667026 60 11
1.8397485 -0.61378652 -0.2381326 52 4
1.8493755 -0.61735702 0.30880177 66 12
1.8416432 -0.61513323 0.3774201 31 13
1.8374412 -0.61408609 -0.10153174 66 6
1.845157 -0.61738086 -0.03396228 78 7
1.8366034 -0.61772853 0.033822723 50 8
1.8246861 -0.61442924 0.10090376 53 9
1.8220185 -0.61388493 0.16821049 65 10
1.839584 -0.62051839 0.23837639 36 11
1.8432376 -0.62210912 -0.23886383 18 4
1.850952 -0.62507272 0.30942744 66 12
1.840466 -0.62153155 -0.16995376 37 5
1.8711039 -0.63224185 0.38390759 4 13
1.8409625 -0.6224153 -0.10184575 50 6
1.8486731 -0.6257413 -0.034066994 66 7
1.8363293 -0.62477982 0.033857629 53 8
1.8338737 -0.6246587 0.10153179 47 9
1.8236362 -0.62152678 0.1685591 65 10
1.8543669 -0.63344562 0.31036606 62 12
1.8439417 -0.62988436 -0.1704767 59 5
1.8482277 -0.63206893 -0.10236911 52 6
1.83891 -0.62959963 -0.033927374 57 7
1.8454823 -0.63509017 0.034067057 52 8
1.8449005 -0.6356104 0.1022645 16 9
1.8289901 -0.63048601 0.16925636 65 10
1.8577455 -0.64184994 0.31130463 66 12
1.847381 -0.63826895 -0.17099963 55 5
1.8422348 -0.63721097 -0.10215975 55 6
1.8385907 -0.63666916 -0.03396228 60 7
1.8470311 -0.64284283 0.034136865 53 8
1.836185 -0.6401459 0.17012793 52 10
1.8498535 -0.64563549 0.24057007 2 11
1.8649317 -0.65126336 0.31286901 59 12
1.8489035 -0.6460281 -0.17134826 52 5
1.8456551 -0.64561599 -0.10247377 50 6
1.8383566 -0.64342314 -0.033997182 28 7
1.852435 -0.65161848 0.034276485 52 8
1.8518343 -0.65213382 0.10289253 1 9
1.8395761 -0.64853883 0.17065084 25 10
1.8701665 -0.6596905 0.24349493 2 11
1.8589215 -0.65645349 0.31224325 62 12
1.85603 -0.65579677 -0.1722198 50 5
1.8510362 -0.6543957 -0.10289246 50 6
1.8558011 -0.66009122 0.034381196 46 8
1.8758885 -0.66797388 0.10435796 1 9
1.8603734 -0.66354704 0.24251996 2 11
1.8547586 -0.66227418 0.31193042 57 12
1.8443483 -0.65891999 -0.17134824 46 5
1.8506216 -0.66152549 -0.10299714 50 6
1.8432339 -0.65961033 -0.034171704 1 7
1.8497223 -0.66521168 0.034311388 17 8
1.8472365 -0.66504604 0.10289253 2 9
1.8499987 -0.66677004 0.17204534 2 10
1.8879242 -0.68081135 0.24641979 2 11
1.8635836 -0.67276901 0.31380764 57 12
1.8476588 -0.66738456 -0.17187119 36 5
1.8556974 -0.67102045 -0.10341582 50 6
1.8597243 -0.67284358 -0.034520756 1 7
1.8674258 -0.67968732 0.1041486 2 9
1.8738678 -0.68277293 0.17448568 2 10
1.866767 -0.68092388 0.2439824 2 11
1.8649352 -0.68062443 0.31443337 57 12
1.8439645 -0.67406541 -0.10289246 35 6
1.8536083 -0.67795748 -0.034450945 1 7
1.8750643 -0.68914634 0.034869865 2 8
1.8762882 -0.69033962 0.10477662 1 9
1.8658642 -0.68724388 0.17396276 4 10
1.8756748 -0.69122916 0.24544485 2 11
1.8755208 -0.69191617 0.31662345 39 12
1.8323513 -0.67671674 -0.10236911 8 6
1.8474791 -0.68303663 -0.034381133 1 7
1.878271 -0.69777644 0.034974579 3 8
1.8514031 -0.68853062 0.10352056 2 9
1.8806913 -0.70054394 0.24641979 2 11
1.8508836 -0.69017667 0.31286901 9 12
1.8692722 -0.69777691 -0.10456723 2 6
1.8525765 -0.69228137 -0.034520756 1 7
1.871423 -0.70342165 0.10477662 2 9
1.874519 -0.7057057 0.24593231 3 11
1.8705623 -0.70570749 -0.10477655 4 6
1.8613728 -0.7029829 -0.034730181 1 7
1.8726903 -0.71136838 0.10498597 2 9
1.8382021 -0.69863468 0.17204534 51 10
1.8551712 -0.70804989 -0.034660373 1 7
1.8484553 -0.70881534 0.034555718 46 8
1.8664665 -0.71646941 0.10477662 2 9
1.8450519 -0.70861858 0.1729169 53 10
1.8639877 -0.71663785 0.24520107 41 11
1.8788091 -0.72459543 -0.035149038 2 7
1.8552929 -0.71887571 0.034730244 50 8
1.8509195 -0.71792424 0.10404391 14 9
1.8537116 -0.71937948 0.17396276 54 10
1.8744276 -0.72817194 0.24690725 47 11
1.8556252 -0.72235888 -0.10435789 34 6
1.8911742 -0.73695761 -0.035428282 2 7
1.8713932 -0.73263758 0.035079293 48 8
1.854899 -0.72730052 0.17431138 51 10
1.8533958 -0.72745758 0.24446987 48 11
1.8699833 -0.73622894 -0.03507923 3 7
1.8688245 -0.73916543 0.035079293 51 8
1.8495766 -0.73229909 0.10425326 42 9
1.852349 -0.73377079 0.17431138 49 10
1.8637625 -0.73904479 0.24617606 48 11
1.8729759 -0.74496901 -0.03518394 20 7
1.8625191 -0.74420047 0.035009485 51 8
1.8581356 -0.74320126 0.10488129 42 9
1.8534759 -0.74171275 0.17466001 49 10
1.8703853 -0.74923706 0.24739476 50 11
1.8740755 -0.75299358 -0.035253756 36 7
1.8636186 -0.75219417 0.035079293 51 8
1.8647892 -0.75342375 0.10540466 23 9
1.8545697 -0.74967122 0.17500885 52 10
1.8659182 -0.75501657 0.247151 45 11
1.8881116 -0.76629883 -0.035567895 42 7
1.8683883 -0.76171452 0.035218913 48 8
1.8630092 -0.76065934 0.17605451 52 10
1.857759 -0.75927234 0.24641982 28 11
1.8872756 -0.77364343 -0.035602801 53 7
1.8805108 -0.77432281 0.03549815 51 8
1.8742567 -0.77251279 0.10624205 1 9
1.8677102 -0.77019596 0.17675173 52 10
1.8753256 -0.77640182 -0.035428278 38 7
1.885182 -0.78395367 0.035637766 49 8
1.8715484 -0.77905041 0.10624204 2 9
1.8613319 -0.77517879 0.17640312 51 10
1.8652241 -0.77985758 -0.035288658 26 7
1.871372 -0.78588378 0.035428345 49 8
1.8798647 -0.79022235 0.10687006 1 9
1.8586147 -0.78167135 0.17640312 51 10
1.8686171 -0.79241115 0.035428341 48 8
1.884449 -0.79990113 0.10728876 1 9
1.8632102 -0.79126954 0.17710036 56 10
1.8713542 -0.80129039 0.035533048 30 8
1.8817863 -0.80614573 0.10728877 1 9
1.8714237 -0.80247986 0.17814623 52 10
1.8925506 -0.81780356 0.035986818 10 8
1.8754359 -0.81079638 0.10707942 1 9
1.8760663 -0.81184638 0.17884347 47 10
1.8799161 -0.82053387 0.10749809 1 9
1.8660604 -0.81487393 0.17814623 46 10
1.8832794 -0.82905513 0.035917006 40 8
1.888007 -0.83192307 0.10812615 1 9
1.8667071 -0.82331592 0.17849486 46 10
1.8710921 -0.83189023 0.035742484 18 8
1.89969 -0.84500206 0.1089635 2 9
1.8747425 -0.83468914 0.17954072 37 10
1.8785086 -0.84344721 0.10791678 2 9
1.8864683 -0.85494602 0.10854483 4 9
1.8732004 -0.86474663 0.10812615 32 9
1.8991369 -0.88477498 0.10980088 40 9
1.8888071 -0.88799983 0.10938219 33 9
