# .PCD v0.7 - Point Cloud Data file format
VERSION 0.7
FIELDS x y z intensity ring
SIZE 4 4 4 4 2
TYPE F F F F U
COUNT 1 1 1 1 1
WIDTH 1262
HEIGHT 1
VIEWPOINT 0 0 0 1 0 0 0
POINTS 1262
DATA ascii
-1.9507993 5.3164268 1.3074155 73 14
-1.938198 5.2849445 -0.098256744 58 7
-0.86563432 2.3616235 0.67396492 1 15
-1.9329022 5.2933445 -1.5099503 2 0
-0.84120095 2.3049216 0.04282815 1 8
-1.7382505 4.7654438 -1.1710949 2 1
-0.61567652 1.6888064 0.094204754 1 9
-1.5708153 4.3087611 -0.89145976 6 2
-0.72779053 1.9974195 0.18599024 62 10
-1.8297789 5.0245404 -0.84693611 3 3
-1.9268354 5.2939396 0.69173038 46 11
-1.8288692 5.0275092 -0.65687543 4 4
-1.9297429 5.307683 0.89449239 88 12
-1.7135344 4.7130098 -0.43874213 26 5
-1.9290466 5.308661 1.0979153 56 13
-1.9219722 5.2920694 -0.29506999 38 6
-1.9322314 5.3232036 1.3074155 70 14
-1.9183756 5.2879181 -0.09818694 56 7
-1.8960348 5.2491856 -1.4954566 2 0
-0.81278026 2.2514174 0.041781012 1 8
-1.7216042 4.7714829 -1.1710949 2 1
-0.62061864 1.7210066 0.09587951 1 9
-1.5517702 4.3031363 -0.88917005 6 2
-0.72081423 1.9999477 0.18599024 60 10
-1.8175831 5.0457654 -0.84943902 3 3
-1.9056561 5.2931623 0.69075543 46 11
-1.8153429 5.0450702 -0.65833795 2 4
-1.9105339 5.3125286 0.89417958 96 12
-1.674821 4.657093 -0.43298984 33 5
-1.9105054 5.315362 1.0979153 53 13
-1.8940356 5.2724304 -0.29360464 15 6
-1.9123191 5.3262482 1.3065157 69 14
-1.8985564 5.2908168 -0.098117128 58 7
-0.84912604 2.3676093 0.67396492 1 15
-1.8959005 5.3067098 -1.5099503 2 0
-0.80760694 2.2617733 0.041920628 1 8
-1.7317913 4.8527141 -1.1895415 7 1
-0.60953742 1.7080065 0.095042124 1 9
-1.5281667 4.2844872 -0.88420892 6 2
-0.71382916 2.0024514 0.18599024 62 10
-1.7946533 5.0371933 -0.84693611 2 3
-1.8851713 5.2941699 0.69002408 45 11
-1.7910668 5.0326724 -0.65590107 4 4
-1.8935704 5.3206949 0.89449233 93 12
-1.6578858 4.6610351 -0.43281558 34 5
-1.8906229 5.3182988 1.0971514 53 13
-1.8013984 5.0701075 -0.28198606 9 6
-1.8898021 5.3218727 1.3038162 73 14
-1.8816688 5.2989688 -0.098152027 58 7
-0.84126931 2.3704119 0.67396486 1 15
-1.8632039 5.2732229 -1.4985622 2 0
-0.79477161 2.2493556 0.041641388 1 8
-1.7163396 4.8602676 -1.1899909 12 1
-0.61021924 1.728958 0.096088856 1 9
-1.5099353 4.280539 -0.88230097 10 2
-0.70683444 2.0049312 0.18599024 60 10
-1.775314 5.0356641 -0.84568465 2 3
-1.8682632 5.3022652 0.6902678 46 11
-1.7770033 5.0460744 -0.65687603 4 4
-1.8684269 5.3086405 0.8913638 88 12
-1.6389623 4.6592755 -0.43211836 34 5
-1.8703716 5.3171306 1.0956249 50 13
-1.7779497 5.0572114 -0.28093931 49 6
-1.8695605 5.3207555 1.3020166 70 14
-1.8578604 5.2904105 -0.097872794 60 7
-1.8559089 5.3085504 -1.5068445 2 0
-0.79615033 2.2785447 0.042130053 1 8
-1.7038616 4.879107 -1.1931407 12 1
-0.60418063 1.7310773 0.096088849 1 9
-1.4873229 4.261426 -0.8773399 13 2
-0.69755781 1.9997392 0.185293 60 10
-1.7616253 5.0530233 -0.8475619 2 3
-1.8458252 5.2975073 0.6888054 45 11
-1.7567688 5.0447474 -0.65590048 4 4
-1.8485848 5.311399 0.89073801 93 12
-1.6174531 4.6499128 -0.43072379 30 5
-1.8505114 5.3199172 1.0948622 56 13
-1.7563494 5.0520678 -0.28031126 15 6
-1.8509742 5.3272495 1.3020166 67 14
-1.8374158 5.2911959 -0.097768076 63 7
-0.82470036 2.3762276 0.67396492 1 15
-1.8238236 5.2787981 -1.4964917 2 0
-0.7842741 2.2699697 0.041920628 1 8
-0.59943706 1.7369519 0.096298203 1 9
-1.4755338 4.2779846 -0.87962961 21 2
-0.68762565 1.9947481 0.18459575 64 10
-1.7469549 5.0706511 -0.84943902 2 3
-1.8292606 5.3095489 0.68953663 46 11
-1.731392 5.028326 -0.65297627 4 4
-1.8300337 5.3178191 0.89073801 88 12
-1.5999142 4.651763 -0.43037519 42 5
-1.8284466 5.3192391 1.0933353 53 13
-1.733929 5.0471373 -0.27968323 13 6
-1.8314384 5.3339977 1.3020166 69 14
-1.8202317 5.3013611 -0.097837888 61 7
-1.8103803 5.299757 -1.5006328 2 0
-0.76561093 2.2425497 0.041362152 1 8
-1.7186185 5.0368776 -1.2286824 2 1
-0.59337068 1.7390337 0.096298203 1 9
-1.4586923 4.277534 -0.87848479 25 2
-0.68001628 1.9952506 0.18442146 66 10
-1.727972 5.0729775 -0.84881324 2 3
-1.804032 5.2993045 0.687343 45 11
-1.7219031 5.0609493 -0.65638804 4 4
-1.81337 5.3297853 0.89167666 85 12
-1.587514 4.6686373 -0.43142104 28 5
-1.8067105 5.3162942 1.0914278 52 13
-1.7137321 5.0455952 -0.27926457 15 6
-1.8140595 5.3440495 1.3029165 70 14
-1.7997855 5.302002 -0.09773317 60 7
-0.77705944 2.2904549 0.64808297 1 15
-0.76584721 2.2678115 0.041781008 1 8
-1.7131244 5.0757842 -1.2367806 5 1
-0.57708234 1.7108144 0.094623439 1 9
-1.4418688 4.277019 -0.8773399 30 2
-0.66477782 1.9730664 0.1821554 58 10
-1.7035725 5.0562162 -0.84505886 2 3
-1.7858133 5.3033772 0.68709928 46 11
-1.6949786 5.0365291 -0.65248817 4 4
-1.7928637 5.3304658 0.89073801 88 12
-1.5737482 4.681705 -0.43211836 19 5
-1.7878177 5.3185353 1.0906639 52 13
-1.6969892 5.05125 -0.27926454 11 6
-1.7882648 5.3260193 1.2970678 66 14
-1.7838128 5.3158345 -0.097872786 60 7
-0.7997722 2.3847332 0.67396492 1 15
-0.7528615 2.2552967 0.041501775 1 8
-1.6984786 5.0909762 -1.2390301 15 1
-0.57363456 1.7203971 0.095042124 1 9
-1.4258159 4.2761889 -0.87619495 33 2
-0.64374328 1.9317855 0.17814623 73 10
-1.6859105 5.0621324 -0.8450588 2 3
-1.7679181 5.311461 0.68734294 46 11
-1.6824014 5.0574832 -0.65443808 4 4
-1.7692616 5.3216953 0.88823503 79 12
-1.5812702 4.7590175 -0.43874213 5 5
-1.7704811 5.3284693 1.0914278 51 13
-1.6755712 5.0457702 -0.27863654 15 6
-1.7702781 5.3340783 1.2975177 67 14
-1.7564337 5.2954564 -0.097384125 52 7
-0.68339139 2.0712316 -0.58441335 2 0
-0.74498487 2.2579107 0.041501772 1 8
-1.6788651 5.0913219 -1.237681 31 1
-0.56637484 1.7185954 0.094832785 1 9
-1.4082916 4.2757921 -0.87505019 37 2
-0.62544495 1.9000671 0.17500862 51 10
-1.6698138 5.0757842 -0.84631038 2 3
-1.7481252 5.3138294 0.68685555 45 11
-1.6572981 5.0406957 -0.65151322 2 4
-1.7506732 5.3278389 0.88823503 88 12
-1.6398647 4.9935532 -0.45983383 2 5
-1.7497133 5.3311915 1.0906645 52 13
-1.6614225 5.0651622 -0.27936924 15 6
-1.7488927 5.3349752 1.2961679 63 14
-1.7348224 5.2920547 -0.097209595 30 7
-0.6725632 2.0625849 -0.58130759 3 0
-0.74413878 2.2834415 0.041920628 1 8
-1.6607978 5.0992942 -1.2381303 42 1
-0.55883604 1.7168612 0.094623439 1 9
-1.3939645 4.2825484 -0.87543178 39 2
-0.59538823 1.8302416 0.16838479 78 10
-1.6044481 4.9350514 -0.82190663 1 3
-1.7274113 5.3164244 0.68636805 45 11
-1.6424892 5.0580645 -0.65297568 4 4
-1.7299156 5.330462 0.88760936 88 12
-1.6240113 5.0071106 -0.46053106 2 5
-1.7292775 5.3316646 1.089519 56 13
-1.6498911 5.0899296 -0.28041595 56 6
-1.7326635 5.3484631 1.2979676 65 14
-1.7172636 5.3040848 -0.097314328 9 7
-0.7743386 2.3931127 0.67396492 1 15
-0.66855234 2.0760691 -0.58441341 3 0
-0.73248625 2.2746043 0.0417112 1 8
-1.6382128 5.0902195 -1.234531 42 1
-0.55650854 1.7302096 0.095251478 1 9
-1.3770578 4.2838912 -0.8746686 39 2
-0.57344133 1.7849888 0.16402701 66 10
-1.6237881 5.0575099 -0.84130448 1 3
-1.7039875 5.3073015 0.68441808 46 11
-1.6199725 5.048646 -0.65102577 4 4
-1.7119 5.3383493 0.88792217 85 12
-1.6077381 5.0165439 -0.46087971 4 5
-1.706133 5.3267484 1.0872294 56 13
-1.6257434 5.078824 -0.27947393 33 6
-1.7124538 5.3529224 1.2975177 67 14
-1.6932538 5.2929053 -0.097000167 3 7
-0.76598078 2.3958006 0.67396486 1 15
-0.65968084 2.0707967 -0.58234292 3 0
-0.73585832 2.3113191 0.042339485 1 8
-1.6183683 5.0863395 -1.2322823 42 1
-0.5450148 1.7129169 0.094204754 1 9
-1.3612118 4.2807121 -0.87314206 39 2
-0.56360632 1.7734901 0.16280684 96 10
-1.5995207 5.0362282 -0.83692437 1 3
-1.6857786 5.3110309 0.68417436 46 11
-1.5972177 5.035068 -0.64858902 4 4
-1.6951216 5.3437004 0.88792217 85 12
-1.5931756 5.0253687 -0.46122834 4 5
-1.6905737 5.335825 1.0879931 56 13
-1.6742933 5.2876425 -0.29067379 74 6
-1.6926892 5.3489852 1.2952681 65 14
-1.6868742 5.3306093 -0.097593553 1 7
-0.73747885 2.3318858 0.65532988 1 15
-0.65940827 2.0951996 -0.58855456 3 0
-0.72939086 2.3175616 0.042409297 1 8
-1.6003239 5.0879593 -1.2313823 42 1
-0.54023051 1.7186195 0.0944141 1 9
-1.3468502 4.2873106 -0.87352365 40 2
-0.54249251 1.7279236 0.15844904 74 10
-1.585179 5.0490432 -0.83817583 1 3
-1.6693443 5.3203807 0.68466187 46 11
-1.581701 5.0441256 -0.64907587 4 4
-1.6705524 5.3307352 0.88479352 85 12
-1.5756233 5.030899 -0.46122831 4 5
-1.6722826 5.3395281 1.0876114 52 13
-1.6627159 5.3122258 -0.29172051 38 6
-1.6731985 5.348989 1.2939184 60 14
-1.6694485 5.3402829 -0.097663365 1 7
-0.64442229 2.0715494 -0.58130759 3 0
-0.72604519 2.3353701 0.04268853 1 8
-1.5756145 5.0711846 -1.2259831 18 1
-0.53541237 1.7243096 0.094623439 2 9
-1.3279674 4.2767539 -0.87047076 40 2
-0.53262568 1.7163932 0.15722908 94 10
-1.5710543 5.0658665 -0.84005302 1 3
-1.6495885 5.3223834 0.68417442 27 11
-1.5640829 5.0496163 -0.64907587 4 4
-1.6513495 5.3346472 0.88448066 79 12
-1.5568758 5.0325613 -0.46087971 4 5
-1.6530551 5.3434582 1.0872294 53 13
-1.6441613 5.3179984 -0.29172054 42 6
-1.6539396 5.3529363 1.2934686 64 14
-1.6413585 5.3155065 -0.097104885 1 7
-0.71263659 2.309288 0.64756531 1 15
-0.63342345 2.0628169 -0.57820177 3 0
-0.73432535 2.3914149 0.043665864 1 8
-1.5550455 5.067338 -1.2237334 31 1
-0.52470547 1.7108922 0.093786068 2 9
-1.3117085 4.2797155 -0.87008917 40 2
-0.52166343 1.7030935 0.15583438 91 10
-1.5466959 5.052701 -0.83692425 1 3
-1.6339059 5.3375983 0.68539304 3 11
-1.5522548 5.0740266 -0.65151381 4 4
-1.6321409 5.3384895 0.88416773 82 12
-1.5387177 5.0360599 -0.4607054 4 5
-1.6305932 5.3400927 1.0853219 52 13
-1.6258262 5.3278084 -0.29192984 42 6
-1.6320363 5.3515062 1.291669 61 14
-1.627462 5.3365045 -0.097384125 1 7
-0.73273206 2.4041586 0.67344731 1 15
-0.62958336 2.0761075 -0.58130759 3 0
-1.6140833 5.325942 0.097139977 1 8
-1.5404153 5.0860591 -1.2268828 55 1
-0.52567697 1.7356516 0.095042124 2 9
-1.2950565 4.2786312 -0.86894441 37 2
-0.51571512 1.7049042 0.15583438 100 10
-1.5233319 5.0391612 -0.83379561 2 3
-1.6074439 5.3207483 0.68246824 8 11
-1.5302042 5.0682807 -0.65005082 4 4
-1.6152076 5.3498278 0.88510633 73 12
-1.4986823 4.96701 -0.45390725 5 5
-1.6102407 5.3401127 1.084177 50 13
-1.5732172 5.2206254 -0.28575423 27 6
-1.6122212 5.3534379 1.2907691 64 14
-1.6036333 5.3249211 -0.097069986 9 7
-0.70429176 2.3401058 0.65481234 1 15
-0.62454849 2.0856955 -0.5833782 3 0
-1.5946931 5.3255181 0.097035259 5 8
-1.5224242 5.0874052 -1.225983 7 1
-0.51503742 1.7221677 0.094204754 2 9
-1.2834852 4.2944117 -0.871234 40 2
-0.51090127 1.7105122 0.156183 98 10
-1.4862621 4.9760456 -0.8225323 2 3
-0.63648355 2.1323221 0.27323103 7 11
-1.4157882 4.7461376 -0.60812831 2 4
-1.5970894 5.3573256 0.88541919 82 12
-1.5914036 5.34166 1.0834131 50 13
-1.5872438 5.3310952 -0.29151121 72 6
-1.5922372 5.351284 1.2889695 61 14
-1.5810469 5.3170691 -0.096825652 6 7
-0.70162237 2.361068 0.6599887 1 15
-0.61872512 2.0914598 -0.58441341 3 0
-1.5783602 5.3387227 0.097174868 11 8
-0.50902337 1.7239548 0.094204754 2 9
-1.2647913 4.2835813 -0.86818111 37 2
-0.50748116 1.7198406 0.15688024 94 10
-1.3973672 4.7386799 -0.78248513 32 3
-1.5762377 5.3487043 0.68466187 8 11
-1.385751 4.7053494 -0.60227853 40 4
-1.5733601 5.3458128 0.88260341 79 12
-1.3933991 4.7343564 -0.43176967 42 5
-1.5721933 5.3452992 1.0830315 48 13
-1.5641173 5.3212748 -0.29067382 31 6
-1.5735493 5.3568087 1.2889695 61 14
-0.70751524 2.4117 0.67344731 1 15
-0.60708773 2.0787721 -0.58027232 3 0
-1.5574757 5.3365207 0.097035252 20 8
-0.50300187 1.7257215 0.094204754 2 9
-1.2476317 4.2804308 -0.86665457 39 2
-0.49701759 1.7062986 0.15548576 100 10
-1.3763999 4.7283568 -0.77998221 28 3
-1.5570036 5.3522673 0.68441808 25 11
-1.3709823 4.7158766 -0.60300928 53 4
-1.5535864 5.3474784 0.88197768 79 12
-1.3818656 4.756412 -0.43333852 4 5
-1.5568107 5.3620667 1.0853219 51 13
-1.5488733 5.3382101 -0.29130182 74 6
-1.5532115 5.3566546 1.2876197 59 14
-1.5450019 5.3318181 -0.096895456 53 7
-0.67222536 2.3213735 0.64756531 1 15
-0.60196865 2.0883036 -0.58234292 3 0
-1.5355176 5.3303957 0.096825831 33 8
-1.4070702 4.8877101 -1.1742443 7 1
-0.49587089 1.7236277 0.093995407 2 9
-1.2315985 4.2809863 -0.8658914 39 2
-0.49050823 1.706108 0.15531144 100 10
-1.3653399 4.7521181 -0.78311092 47 3
-1.5421482 5.371026 0.68612438 51 11
-1.3545133 4.720633 -0.60300922 8 4
-1.5349095 5.35287 0.88197774 76 12
-1.424564 4.968049 -0.45216414 1 5
-1.5321355 5.3467078 1.0811235 50 13
-1.5313309 5.347424 -0.29151121 100 6
-1.5339661 5.3601704 1.2871699 61 14
-1.5252793 5.3333344 -0.096825652 63 7
-0.67155099 2.3497109 0.65481234 1 15
-0.59256041 2.0829597 -0.58027232 3 0
-1.5158067 5.3318768 0.096756026 35 8
-1.3543168 4.7669964 -1.1441008 45 1
-0.48766896 1.7176633 0.093576737 2 9
-1.2187911 4.2928133 -0.86741775 13 2
-0.48618087 1.7135602 0.15583438 100 10
-1.3385068 4.7207456 -0.77716637 11 3
-1.5141889 5.3439078 0.68198079 43 11
-1.4164461 5.0022826 -0.63835192 2 4
-1.5162162 5.3581944 0.88197768 79 12
-1.5043203 5.316155 -0.48336592 20 5
-1.5139959 5.3539128 1.0815057 51 13
-1.5039643 5.3219848 -0.28983641 78 6
-1.5163072 5.3692422 1.2880696 61 14
-1.5099128 5.3501725 -0.097035073 61 7
-0.6622954 2.3483222 0.65377706 1 15
-0.58737487 2.0924554 -0.58234292 3 0
-1.4955665 5.3313589 0.096651308 46 8
-1.3255713 4.7285371 -1.1337531 17 1
-0.47628272 1.7001226 0.092530005 2 9
-0.48019686 1.7152468 0.15583438 97 10
-1.4901816 5.3300433 0.67954338 46 11
-1.469487 5.259563 -0.67052484 6 4
-1.4985669 5.36726 0.88260341 79 12
-1.4942442 5.3553829 1.0807419 52 13
-1.486449 5.3310513 -0.29004577 74 6
-1.4933717 5.3594847 1.2844704 61 14
-1.4901567 5.3515577 -0.096965268 58 7
-0.64787883 2.3282859 0.64756531 1 15
-0.58161443 2.1000776 -0.5838958 3 0
-1.4774801 5.3384743 0.096686207 58 8
-0.47673061 1.7248757 0.093786068 2 9
-1.3284363 4.8064637 -0.96930987 1 2
-0.47473654 1.7188331 0.15600869 100 10
-1.4174631 5.1355648 -0.84380746 2 3
-1.4752604 5.348608 0.68124956 50 11
-1.4761493 5.359128 0.88041341 82 12
-1.4729894 5.3476562 -0.48528329 60 5
-1.4744977 5.356781 1.0799792 48 13
-1.4667727 5.3323555 -0.28983644 74 6
-1.4725871 5.3571491 1.2826709 61 14
-1.4682875 5.3451571 -0.09675584 60 7
-0.63974822 2.3305333 0.64756536 1 15
-0.57224327 2.094641 -0.58182526 4 0
-1.4588374 5.3435988 0.096686207 61 8
-0.47205874 1.7303009 0.093995407 3 9
-1.368453 5.0194259 -1.0112879 5 2
-0.46611556 1.710868 0.15513712 100 10
-1.4571035 5.3556399 0.68149328 46 11
-1.4509612 5.3367381 -0.67905629 51 4
-1.4573346 5.3601799 0.87978756 85 12
-1.4527476 5.3469968 -0.48476034 67 5
-1.4563051 5.36379 1.0803603 50 13
-1.4471056 5.3335876 -0.28962708 76 6
-1.4528569 5.3584957 1.2817712 61 14
-1.4505527 5.3499975 -0.09675584 60 7
-0.6380794 2.3550174 0.65377706 1 15
-0.56341976 2.0910299 -0.58027232 4 0
-1.4390262 5.3406844 0.096546598 61 8
-1.3528112 5.0241942 -1.2012389 5 1
-0.46394056 1.7242234 0.093576722 3 9
-1.3713135 5.100009 -1.0265526 2 2
-0.46117523 1.7163327 0.15548596 95 10
-1.438349 5.353034 -0.87791014 48 3
-1.4393343 5.3604436 0.68149334 47 11
-1.4373695 5.3568587 -0.68100619 65 4
-1.4386165 5.3652339 0.87978756 85 12
-1.4278851 5.3289423 -0.4826687 59 5
-1.4359679 5.359108 1.0784521 50 13
-1.4304425 5.342216 -0.28983644 74 6
-1.4365921 5.3689308 1.2831206 59 14
-1.4318701 5.3550282 -0.096755847 60 7
-0.6238699 2.3348339 0.64756536 1 15
-0.55747581 2.0966206 -0.58130759 4 0
-1.4198626 5.3437419 0.096511684 61 8
-1.347267 5.0740895 -1.212036 5 1
-0.4548454 1.7142498 0.092948698 3 9
-1.3493599 5.0855522 -1.0227364 1 2
-0.45445919 1.7140012 0.15513712 95 10
-1.4216771 5.3656607 -0.87916166 57 3
-1.4160422 5.3481631 0.67929959 50 11
-1.4166325 5.354167 -0.68003124 65 4
-1.4198776 5.370224 0.87978768 85 12
-1.4112253 5.3374991 -0.48301724 56 5
-1.414746 5.3545971 1.076544 47 13
-1.4097477 5.3394523 -0.28941777 72 6
-1.4163516 5.3682599 1.2817711 61 14
-1.4131707 5.359993 -0.09675584 61 7
-0.62752885 2.3818319 0.6599887 1 15
-0.5486846 2.092948 -0.57975471 4 0
-1.4006959 5.3467307 0.096476778 61 8
-1.3601432 5.1956449 -1.2399305 2 1
-0.45138663 1.7254881 0.093472049 3 9
-1.384269 5.2915602 -1.0631878 1 2
-0.44847405 1.715577 0.15513712 86 10
-1.3979454 5.3514781 -0.87603295 54 3
-1.3953581 5.3453913 0.67832464 52 11
-1.3919225 5.33603 -0.67710578 65 4
-1.4011217 5.3751473 0.87978756 85 12
-1.3935893 5.3462501 -0.48336592 60 5
-1.3970345 5.3633022 1.0773078 48 13
-1.3900959 5.3404746 -0.28920841 72 6
-1.3956412 5.3656273 1.2799715 64 14
-1.392941 5.3590879 -0.096651137 60 7
-0.61338353 2.3615701 0.65377706 1 15
-0.54475856 2.1079433 -0.5833782 4 0
-1.3810222 5.3477154 0.096406959 61 8
-1.3663474 5.2947068 -1.2624249 2 1
-0.44486168 1.7251194 0.093367383 4 9
-0.44447088 1.7248497 0.15583439 82 10
-1.3782721 5.3525 -0.87540728 47 3
-1.3766917 5.3502288 0.67832464 52 11
-1.3732868 5.3408561 -0.67710638 65 4
-1.3779273 5.3627863 0.87697172 93 12
-1.3749198 5.3510814 -0.48336589 59 5
-1.3783059 5.3681464 1.0773072 48 13
-1.3714441 5.3452945 -0.28920838 74 6
-1.3759357 5.3666911 1.2790717 64 14
-1.3707528 5.3503571 -0.096406795 60 7
-0.58788741 2.2963228 0.63514203 1 15
-0.53262943 2.0911109 -0.57820177 4 0
-1.3638271 5.3583174 0.096511684 61 8
-0.44031319 1.7324687 0.093681388 4 9
-0.43795639 1.7244595 0.15566006 73 10
-1.359581 5.3572774 -0.87540722 47 3
-1.3584968 5.3569264 0.67856842 8 11
-1.3546335 5.3456182 -0.67710578 65 4
-1.3601702 5.3713937 0.87759757 93 12
-1.3532991 5.3442593 -0.48232001 59 5
-1.3590785 5.3710208 1.0769262 13 13
-1.3517966 5.3461766 -0.28899905 74 6
-1.3562403 5.367682 1.2781718 66 14
-1.3510883 5.3512316 -0.096336983 61 7
-0.58648366 2.3245857 0.64238894 1 15
-0.52391613 2.0873361 -0.57664883 3 0
-1.3431673 5.3552866 0.09637206 61 8
-1.3487732 5.3816185 -1.280871 100 1
-0.4313522 1.7223706 0.093053371 4 9
-1.3387971 5.3457589 -1.0712018 46 2
-0.42999983 1.7182465 0.15496282 69 10
-1.3389544 5.3543248 -0.87415564 50 3
-1.3359666 5.3503137 -0.67710578 65 4
-1.341411 5.3761091 0.87759757 76 12
-1.3327059 5.341218 -0.48162276 60 5
-1.3340967 5.3547378 -0.28920838 74 6
-1.3393772 5.3799481 1.2799715 64 14
-1.3324013 5.3559151 -0.096336983 56 7
-0.59234768 2.3828623 0.6579181 1 15
-0.51662624 2.0891526 -0.57664889 3 0
-1.3225479 5.3521771 0.096232429 63 8
-1.319701 5.3446717 -1.2709732 82 1
-0.42772913 1.7335613 0.093576722 4 9
-1.3196571 5.3484936 -1.0708202 46 2
-0.42447674 1.7216715 0.15513712 61 10
-1.3202543 5.3589668 -0.87415576 50 3
-0.51390606 2.0875292 0.26396897 5 11
-1.3172835 5.3549442 -0.67710578 65 4
-1.3140514 5.3458381 -0.48162276 57 5
-0.51091778 2.0800829 0.41634518 9 13
-1.3115866 5.3438458 -0.28837106 74 6
-1.320588 5.3845911 1.2799715 64 14
-1.3141745 5.3624749 -0.096371882 58 7
-0.56840378 2.3211176 0.64031845 1 15
-0.50795835 2.0853121 -0.57509595 4 0
-1.3052747 5.3625903 0.096337155 67 8
-1.2973558 5.334096 -1.2673739 81 1
-0.41931665 1.7253401 0.093053363 4 9
-1.3009785 5.3530679 -1.0708202 46 2
-0.42128509 1.7347597 0.15618302 47 10
-1.3006121 5.3597031 -0.87353003 47 3
-1.2943748 5.3421469 -0.67491215 61 4
-0.51177794 2.1138186 0.34446877 3 12
-1.2953867 5.3503914 -0.48162276 60 5
-1.2948008 5.3561563 -0.28878969 76 6
-1.2999576 5.3815899 1.2781719 64 14
-1.2949775 5.3650866 -0.096336983 56 7
-0.56663871 2.3493793 0.64756536 1 15
-0.49842432 2.0776796 -0.57250774 3 0
-1.286549 5.3671136 0.096337155 69 8
-1.2814506 5.3499637 -1.270074 85 1
-0.41236109 1.7229086 0.092844017 5 9
-1.2795411 5.3461218 -1.0685306 45 2
-0.41522741 1.7362195 0.156183 38 10
-1.2828121 5.368053 -0.87415576 50 3
-0.50254583 2.1045816 0.2656751 58 11
-1.2784847 5.3582172 -0.67637455 68 4
-1.2776252 5.3587575 -0.48197141 57 5
-0.5027523 2.1103363 0.42168775 44 13
-1.2760975 5.3606439 -0.28878972 74 6
-1.2784573 5.3747201 1.2754724 66 14
-1.2743911 5.361793 -0.096197374 56 7
-0.56289881 2.3701386 0.65274173 1 15
-0.48583919 2.0568454 -0.5662961 3 0
-1.2687237 5.3754649 0.096406966 69 8
-1.2618746 5.3506107 -1.2691736 82 1
-0.40726188 1.7282254 0.093053363 5 9
-1.2581742 5.3390884 -1.0662407 45 2
-0.40596727 1.7240829 0.15496282 35 10
-1.2631625 5.3686523 -0.87352997 47 3
-0.49837813 2.1198497 0.26738134 47 11
-1.258864 5.3587837 -0.67588711 68 4
-0.49294448 2.1000321 0.34165293 42 12
-1.2570891 5.3554258 -0.48127413 57 5
-0.49179775 2.0967872 0.41863486 39 13
-1.2564647 5.361176 -0.28858036 76 6
-1.2623528 5.3905349 1.2781719 64 14
-1.2543041 5.3603668 -0.096092656 56 7
-0.55022305 2.3532779 0.64756531 1 15
-0.46771768 2.0114875 -0.5533551 2 0
-1.2463353 5.3642774 0.096127726 69 8
-1.2431884 5.3549838 -1.2691737 85 1
-0.40212896 1.7335277 0.093262702 7 9
-1.2413025 5.3510995 -1.0677674 45 2
-0.39949793 1.7235482 0.15478851 20 10
-1.2417389 5.3614821 -0.87165272 50 3
-0.48381391 2.0906332 0.2634815 42 11
-1.2401518 5.3631444 -0.67588705 68 4
-0.49183726 2.1286855 0.34603313 61 12
-1.2374917 5.3558993 -0.48092556 59 5
-0.48359168 2.0946651 0.4178718 40 13
-1.2359483 5.3577447 -0.2881617 76 6
-1.2417791 5.3873129 1.2763724 64 14
-1.2355837 5.3647127 -0.096092649 56 7
-0.53593916 2.3288276 0.64031845 1 15
-0.45103773 1.9677546 -0.54093182 2 0
-1.2303656 5.372066 0.096197538 69 8
-1.2237517 5.347465 -1.2664742 81 1
-0.39623606 1.7328353 0.093158029 9 9
-1.2231119 5.353272 -1.0673857 45 2
-0.3976303 1.7403342 0.15618302 8 10
-1.2257698 5.3692088 -0.87227857 50 3
-0.47636101 2.0882719 0.26299402 50 11
-1.2232952 5.3670144 -0.67588705 70 4
-0.47988397 2.1071074 0.34227869 49 12
-1.2197253 5.3599734 -0.48092556 57 5
-0.47620708 2.0943432 0.41749001 45 13
-1.2172908 5.3579183 -0.28795233 76 6
-1.2274394 5.4025879 1.2790715 61 14
-1.2191675 5.3705173 -0.096127555 56 7
-0.51836449 2.2852838 0.62789512 3 15
-0.42683458 1.894011 -0.52022636 2 0
-1.2097903 5.3726373 0.096127726 69 8
-1.2028594 5.3462105 -1.2651244 76 1
-0.38681534 1.7206358 0.092425331 9 9
-1.2039144 5.3596344 -1.0677674 45 2
-0.38862935 1.7301157 0.15513712 5 10
-1.206081 5.3736653 -0.87227857 47 3
-0.46653143 2.0803187 0.26177534 53 11
-1.2005789 5.3579025 -0.67418098 65 4
-0.4725889 2.11078 0.34259158 51 12
-1.1992003 5.3605189 -0.4805769 57 5
-0.46981302 2.1018224 0.41863486 47 13
-1.1959021 5.3545475 -0.28753364 76 6
-1.2033808 5.3880329 1.2745727 64 14
-1.1994747 5.3749495 -0.096127555 58 7
-0.51040596 2.2890539 0.62841278 4 15
-0.40902647 1.846523 -0.50676769 2 0
-1.1892276 5.3731308 0.096057929 73 8
-1.1845199 5.3562913 -1.2664741 81 1
-0.38007492 1.7200918 0.092320658 10 9
-1.1822319 5.3503852 -1.065096 45 2
-0.38486314 1.7432017 0.156183 5 10
-1.1868042 5.3799791 -0.87259144 54 3
-0.46061209 2.0897689 0.26275027 55 11
-1.1809342 5.3622656 -0.67418158 65 4
-0.46400076 2.1086395 0.34196585 51 12
-1.1804824 5.3646717 -0.4805769 59 5
-0.46247286 2.1034498 0.41863486 50 13
-1.1772056 5.3586884 -0.28753364 76 6
-1.1819545 5.3847928 1.272773 64 14
-1.1780509 5.3714972 -0.095987931 56 7
-0.50408089 2.3003445 0.63100094 4 15
-0.38612941 1.7724369 -0.4860622 3 0
-1.172165 5.3850646 0.096197538 69 8
-1.1641605 5.3527765 -1.2646747 81 1
-0.37661344 1.7331183 0.092948698 13 9
-1.1627154 5.3506417 -1.0643327 45 2
-0.3779301 1.7406403 0.15583438 3 10
-1.1675997 5.3821583 -0.87227857 50 3
-0.45373562 2.0933042 0.26299399 49 11
-1.1613674 5.3624754 -0.67369342 65 4
-0.45621902 2.1083155 0.34165293 53 12
-1.1583767 5.3531818 -0.47918242 57 5
-0.4559578 2.1088889 0.41939807 47 13
-1.1593347 5.3666701 -0.287743 76 6
-1.1643828 5.3946004 1.2741226 68 14
-1.1580303 5.3697124 -0.095883228 56 7
-0.49482673 2.2964249 0.62944806 5 15
-0.3767035 1.7586616 -0.48192108 5 0
-1.1508499 5.3773904 0.09598811 71 8
-1.147912 5.3682408 -1.2673739 78 1
-0.37056181 1.7344223 0.092948698 18 9
-1.1452631 5.3604279 -1.0654776 46 2
-0.36852446 1.726361 0.15443988 3 10
-1.1467434 5.3765407 -0.87071413 54 3
-0.44725385 2.0987582 0.2634815 51 11
-1.1418163 5.3626137 -0.67320597 65 4
-0.44967934 2.1137593 0.34227869 53 12
-1.1392701 5.3552442 -0.47900811 59 5
-0.44614494 2.0989454 0.41710836 47 13
-1.1405954 5.3706841 -0.28774297 76 6
-1.1459507 5.4005384 1.2745726 66 14
-1.1396927 5.375679 -0.095918134 55 7
-0.48640665 2.2962477 0.62893033 3 15
-0.36777651 1.7467331 -0.47829765 7 0
-1.1304244 5.373548 0.095848493 69 8
-1.1259583 5.3569593 -1.2637748 81 1
-0.36614755 1.7435236 0.093367383 20 9
-1.1257387 5.3605499 -1.0647143 46 2
-0.36331394 1.731537 0.15478852 3 10
-1.1279675 5.3805118 -0.87071419 54 3
-0.43626288 2.0828204 0.26128787 48 11
-1.1259351 5.380168 -0.67491215 68 4
-0.44189346 2.1133831 0.34196585 51 12
-1.1197528 5.3552876 -0.47865948 60 5
-0.43921748 2.1024113 0.41749021 50 13
-1.1185752 5.3589921 -0.28690562 76 6
-1.1270909 5.4045057 1.2745726 66 14
-1.1213325 5.3815804 -0.095953025 58 7
-0.47996378 2.3054972 0.63100094 4 15
-0.36128518 1.7461146 -0.47778001 12 0
-1.1132807 5.385294 0.09598811 67 8
-1.106465 5.3570399 -1.2628756 81 1
-0.35723323 1.7310987 0.092634663 19 9
-1.1070187 5.3644471 -1.0647143 45 2
-0.35807255 1.7366972 0.15513712 3 10
-1.1091802 5.3844161 -0.87071419 54 3
-0.4317905 2.0979409 0.26299402 49 11
-1.103548 5.3665657 -0.67271847 65 4
-0.43530911 2.118782 0.34259155 48 12
-1.1042614 5.3747764 -0.48005396 55 5
-0.43345451 2.1116245 0.41901645 47 13
-1.1010643 5.3687339 -0.28721964 76 6
-1.1062641 5.3988619 1.272323 68 14
-1.1029402 5.3874211 -0.095987931 56 7
-0.47423556 2.3185143 0.63410676 4 15
-0.35595787 1.7511511 -0.47881526 16 0
-1.0936809 5.3852282 0.095918305 69 8
-1.0881447 5.3627796 -1.2633255 76 1
-0.34801334 1.7166758 0.091797292 22 9
-1.0859447 5.3567338 -1.0624247 45 2
-0.35042641 1.7301253 0.15444008 3 10
-1.0911604 5.392127 -0.8713398 54 3
-0.42407063 2.0974894 0.26275027 45 11
-1.0824538 5.3587103 -0.67125601 65 4
-0.42595607 2.1106074 0.3410272 53 12
-1.0839151 5.3707867 -0.47935671 59 5
-0.4268564 2.1169736 0.4197799 47 13
-1.0831099 5.3764601 -0.28742898 76 6
-1.0874103 5.4026904 1.272323 70 14
-1.0817611 5.3794761 -0.095778503 55 7
-0.46576041 2.3182616 0.63358915 2 15
-0.34984255 1.752383 -0.47881523 21 0
-1.075657 5.3929353 0.09598811 69 8
-1.0698037 5.3684554 -1.2637748 78 1
-0.3473942 1.7432837 0.093158029 15 9
-1.0664741 5.3566413 -1.0616615 45 2
-0.3420524 1.7196136 0.15339401 4 10
-1.0723355 5.3959026 -0.87133992 57 3
-0.41790673 2.1047983 0.2634815 51 11
-1.0648992 5.3682976 -0.67198724 68 4
-0.4181864 2.1081328 0.34040147 53 12
-1.0628355 5.3628111 -0.47831085 57 5
-0.41870201 2.114599 0.41901645 57 13
-1.0639468 5.3782492 -0.28732434 78 6
-1.066277 5.3949833 1.2696238 70 14
-1.0639153 5.3830338 -0.095778503 58 7
-0.45994103 2.3292696 0.63617724 1 15
-0.34297985 1.7498021 -0.47777998 21 0
-1.0554582 5.3846984 0.095778681 67 8
-1.0523678 5.3738866 -1.2642245 76 1
-0.33862197 1.7307652 0.092425324 22 9
-1.0485213 5.3641853 -1.0624247 47 2
-0.33604813 1.7207971 0.15339401 6 10
-1.052163 5.3877969 -0.86946267 57 3
-0.40940458 2.0983791 0.26250654 51 11
-1.0470899 5.3717999 -0.67198724 68 4
-0.41233587 2.1173353 0.34165293 53 12
-1.043352 5.3625765 -0.47796226 59 5
-0.41018814 2.1082675 0.41749001 60 13
-1.0457236 5.379787 -0.28721964 76 6
-1.0301801 5.3047523 1.2475786 66 14
-1.0447408 5.3847518 -0.095743611 58 7
-0.45548287 2.3498266 0.64135373 1 15
-0.33827168 1.7566209 -0.47933289 26 0
-1.0351483 5.3804946 0.095639065 69 8
-1.0310267 5.3641315 -1.261076 78 1
-0.33446121 1.741744 0.09294869 20 9
-1.0299885 5.3637762 -1.0616615 48 2
-0.33334336 1.7375555 0.15478851 7 10
-1.0326046 5.387557 -0.868837 54 3
-0.40133011 2.0958962 0.26201907 51 11
-1.0290821 5.3793201 -0.67247534 68 4
-0.40531287 2.1207025 0.34196585 66 12
-1.0263098 5.3699207 -0.47831085 57 5
-0.40393054 2.1154721 0.41863486 61 13
-1.0250707 5.3735943 -0.28669626 81 6
-1.0112907 5.3064022 1.2471287 69 14
-1.0263106 5.3903298 -0.095778503 56 7
-0.44727921 2.3514018 0.64135367 1 15
-0.3307035 1.7501978 -0.47726235 27 0
-1.0163591 5.3840756 0.095639065 67 8
-1.0130171 5.3715281 -1.2619752 78 1
-0.32616091 1.7311243 0.092320658 13 9
-1.0112597 5.3673391 -1.0616615 45 2
-0.32616997 1.7328345 0.15426578 7 10
-1.0145209 5.3950114 -0.86946267 54 3
-0.39401209 2.0972843 0.26201907 49 11
-1.0088323 5.3750758 -0.67150038 70 4
-0.39899933 2.127929 0.34290448 66 12
-1.0082921 5.3773875 -0.47865948 57 5
-0.39799002 2.1245875 0.42016131 63 13
-1.0063057 5.3771405 -0.28669629 78 6
-0.99204385 5.3060684 1.2462288 69 14
-1.008224 5.3978105 -0.095848307 58 7
-0.44332045 2.3757379 0.64756536 1 15
-0.32529581 1.7551405 -0.47829765 30 0
-0.99974453 5.3993878 0.095848493 69 8
-0.99532777 5.3807793 -1.2633255 76 1
-0.32011569 1.7322524 0.092320658 13 9
-0.99180293 5.3669753 -1.0608982 45 2
-0.32156569 1.7417998 0.15496282 7 10
-0.99568623 5.398519 -0.86946261 57 3
-0.38776737 2.1045034 0.26275027 53 11
-0.98754668 5.3648987 -0.66979426 65 4
-0.39014134 2.121537 0.34165293 66 12
-0.99023986 5.3847933 -0.47900811 59 5
-0.38986138 2.122102 0.41939807 63 13
-0.98824936 5.3845491 -0.28690562 78 6
-0.97140855 5.297998 1.2435293 73 14
-0.98757321 5.3914628 -0.0956738 58 7
-0.4329378 2.365869 0.64445949 1 15
-0.31847674 1.7524638 -0.47726235 32 0
-0.98160404 5.4067802 0.095918305 69 8
-0.97340804 5.3669648 -1.2592758 18 1
-0.31442353 1.7353245 0.092425331 19 9
-0.97376394 5.3742685 -1.0616615 12 2
-0.31299996 1.729188 0.15374264 8 10
-0.97472543 5.3902993 -0.86758542 11 3
-0.37971359 2.1019373 0.26226282 46 11
-0.97234046 5.3878493 -0.67223102 27 4
-0.38238242 2.1209424 0.34134012 68 12
-0.96931481 5.3764524 -0.47796226 59 5
-0.38245088 2.12345 0.41939807 61 13
-0.96874166 5.3840351 -0.28669629 78 6
-0.95497888 5.3128648 1.2462288 73 14
-0.96768564 5.3889723 -0.095569074 58 7
-0.42194843 2.352154 0.64031845 1 15
-0.31235796 1.753565 -0.47726238 35 0
-0.96062154 5.3983622 0.095708884 71 8
-0.3086676 1.7363577 0.092425331 16 9
-0.3069616 1.73027 0.15374264 8 10
-0.37375781 2.1110685 0.26323771 46 11
-0.37534639 2.1221986 0.34134009 71 12
-0.94984943 5.3758783 -0.4776136 59 5
-0.37435433 2.1209056 0.41863486 58 13
-0.95098102 5.3932848 -0.28701034 76 6
-0.93667734 5.3121648 1.245329 73 14
-0.9505074 5.3960905 -0.095638886 58 7
-0.41548461 2.3611507 0.64238888 2 15
-0.3065407 1.754591 -0.47726235 41 0
-0.94134039 5.3936377 0.09556926 73 8
-0.91777509 5.2640386 -1.2336314 2 1
-0.30427966 1.7452421 0.092844024 10 9
-0.91829526 5.27246 -1.0402908 1 2
-0.30190551 1.7352042 0.15409127 9 10
-0.93327647 5.3695626 -0.86320531 1 3
-0.3647182 2.1005619 0.26177537 46 11
-0.37033281 2.1351094 0.34321728 68 12
-0.93201554 5.3789992 -0.4776136 57 5
-0.36664975 2.1182659 0.4178718 61 13
-0.93105036 5.3846002 -0.28638229 78 6
-0.91972148 5.3190813 1.2462288 70 14
-0.93294698 5.4011836 -0.0956738 58 7
-0.40699595 2.3587081 0.64135373 3 15
-0.30039477 1.7536938 -0.47674471 45 0
-0.91973782 5.3750482 0.09518531 63 8
-0.91706032 5.3650169 -1.2565763 47 1
-0.3022202 1.7699187 0.09410008 3 9
-0.29849428 1.749944 0.15531144 7 10
-0.35774988 2.1017597 0.26177537 46 11
-0.36353973 2.1402843 0.34384307 68 12
-0.91256571 5.3782911 -0.47726497 57 5
-0.35990906 2.1234047 0.41863486 63 13
-0.91158307 5.3838778 -0.28617293 78 6
-0.8998487 5.3145738 1.2444292 70 14
-0.91508657 5.4103222 -0.095778503 58 7
-0.40133417 2.3753536 0.64549482 2 15
-0.29460308 1.7585937 -0.47777998 46 0
-0.88452017 5.2856865 0.093544789 67 8
-0.89739156 5.3683419 -1.2565763 55 1
-0.33619216 2.0133226 0.10697474 3 9
-0.89701676 5.3776574 -1.0597533 38 2
-0.29109541 1.7451305 0.15478852 9 10
-0.90226048 5.414917 -0.86946267 74 3
-0.35232607 2.1167638 0.2634815 49 11
-0.35310292 2.1260126 0.34134009 68 12
-0.89545721 5.3973246 -0.47865951 57 5
-0.35244536 2.126646 0.41901666 56 13
-0.89216888 5.389154 -0.28627759 81 6
-0.8790893 5.3101463 1.2426296 31 14
-0.87991768 5.3209133 -0.094137989 55 7
-0.39199623 2.3729966 0.64445961 2 15
-0.28721935 1.7539423 -0.47622707 48 0
-0.86578798 5.2928391 0.093614578 65 8
-0.885562 5.4196773 -1.2678238 94 1
-0.35648012 2.184062 0.11597651 3 9
-0.87729204 5.3749423 -1.0586084 42 2
-0.28469762 1.7461858 0.15478852 7 10
-0.87954867 5.4006405 -0.86664683 36 3
-0.34520334 2.1219594 0.26396897 49 11
-0.87147528 5.3628502 -0.66711307 8 4
-0.3446748 2.1233931 0.34071437 71 12
-0.87341774 5.3807507 -0.47691637 63 5
-0.34690464 2.1394911 0.42130637 69 13
-0.86728579 5.3547754 -0.28428882 72 6
-0.8530708 5.2786989 -0.093335181 60 7
-0.37960213 2.351531 0.63824785 1 15
-0.27987251 1.7473038 -0.4741565 48 0
-0.84667408 5.2918806 0.093544789 67 8
-0.86172152 5.3919458 -1.2606254 73 1
-0.35389113 2.2168496 0.11765125 4 9
-0.8572852 5.3702173 -1.0570819 43 2
-0.27734512 1.7392987 0.15409127 9 10
-0.85945243 5.3958745 -0.86539543 40 3
-0.336546 2.1153097 0.26299399 49 11
-0.86676902 5.4540815 -0.67808133 2 4
-0.33881059 2.1343377 0.34227869 74 12
-0.85400909 5.3798308 -0.47656778 59 5
-0.33759001 2.1290545 0.41901666 74 13
-0.83671451 5.2828083 -0.28031126 76 6
-0.83557695 5.28757 -0.093439892 58 7
-0.37259567 2.3604748 0.64031839 1 15
-0.27377114 1.7482703 -0.4741565 48 0
-0.82696176 5.286901 0.093405157 65 8
-0.84108853 5.3833685 -1.257926 42 1
-0.34992975 2.2397177 0.11880267 4 9
-0.84065211 5.3867564 -1.0597533 45 2
-0.27219316 1.7461623 0.15461423 11 10
-0.8430419 5.4144564 -0.86789834 50 3
-0.32824439 2.1105871 0.26226282 48 11
-0.33142728 2.133498 0.34196585 83 12
-0.82086504 5.2902441 -0.46837509 59 5
-0.32895285 2.1224599 0.41749021 54 13
-0.81582576 5.269907 -0.2794739 76 6
-0.36539319 2.3630209 0.55202991 1 14
-0.81803924 5.2903118 -0.093439892 61 7
-0.26912916 1.7587633 -0.47674471 50 0
-0.80972874 5.2915902 0.093440063 65 8
-0.8238194 5.3899813 -1.2588258 68 1
-0.34391743 2.2527719 0.1194307 5 9
-0.82184744 5.389657 -1.0597533 30 2
-0.26489577 1.739223 0.15391716 11 10
-0.82121402 5.3918347 -0.86383098 22 3
-0.32154286 2.1136265 0.26250654 62 11
-0.32486659 2.140501 0.34290448 66 12
-0.80119789 5.2851987 -0.46767789 59 5
-0.32132465 2.1196568 0.41672671 39 13
-0.79894465 5.2765322 -0.27968323 76 6
-0.79986483 5.2951121 -0.093474798 60 7
-0.27697381 1.8357323 0.49745029 1 15
-0.26415256 1.765378 -0.47829765 47 0
-0.79243368 5.3022962 0.093579687 65 8
-0.80529118 5.3947506 -1.2592764 81 1
-0.3352671 2.2459979 0.119012 6 9
-0.80252105 5.3826437 -1.0578452 46 2
-0.25942069 1.7420627 0.15409128 9 10
-0.78959966 5.3086987 -0.85006481 45 3
-0.31503823 2.1206262 0.26323771 48 11
-0.78667045 5.3017035 -0.65809417 4 4
-0.3166073 2.13375 0.34165293 57 12
-0.78424978 5.2917681 -0.46802649 59 5
-0.31449911 2.12465 0.41749001 23 13
-0.7805199 5.2792892 -0.27968323 78 6
-0.26845065 1.8179483 0.4242577 0 14
-0.78171557 5.2937799 -0.093404993 56 7
-0.26637423 1.8060621 0.48916811 1 15
-0.25659209 1.7567313 -0.47570938 51 0
-0.77484477 5.3048944 0.09357968 65 8
-0.78795826 5.4012485 -1.2601756 81 1
-0.28998813 1.9902245 0.10540466 20 9
-0.77580941 5.3310146 -1.0471599 40 2
-0.25276536 1.7390139 0.15374264 12 10
-0.76943737 5.293694 -0.84724903 22 3
-0.30800465 2.1216593 0.26323771 46 11
-0.30830839 2.1289778 0.3407144 39 12
-0.76406562 5.2826414 -0.46698058 57 5
-0.76386398 5.2877793 -0.27999729 81 6
-0.27132607 1.8805491 0.43865457 0 14
-0.76180959 5.2865791 -0.093230464 56 7
-0.26171902 1.8184537 0.4922739 1 15
-0.25073215 1.7595289 -0.47622707 52 0
-0.7542702 5.2997794 0.093440063 63 8
-0.76760656 5.4002414 -1.2592764 78 1
-0.32126433 2.2601485 0.11964005 7 9
-0.74864286 5.2734337 -1.0353298 28 2
-0.24669306 1.7398857 0.15374264 10 10
-0.30133775 2.1306362 0.2642127 34 11
-0.74506307 5.2813306 -0.46663198 56 5
-0.25720239 1.8254654 0.35833922 1 13
-0.74475771 5.292521 -0.28010193 74 6
-0.74501979 5.3010879 -0.093439892 58 7
-0.25322199 1.8040514 0.4881328 1 15
-0.24405655 1.7565664 -0.47519177 62 0
-0.73255104 5.279222 -1.2304827 36 1
-0.24280025 1.7565254 0.15513714 7 10
-0.71325517 5.1600065 -0.82503527 1 3
-0.72771066 5.2917943 -0.46732923 59 5
-0.24526368 1.7835193 0.34994361 1 13
-0.72611701 5.2870464 -0.27968323 76 6
-0.72515517 5.2937503 -0.093265377 55 7
-0.26211074 1.9159375 0.51815581 1 15
-0.23952729 1.7669379 -0.47777998 65 0
-0.6801762 5.0306945 -1.1719947 7 1
-0.29024389 2.1495166 0.11367375 1 9
-0.68829834 5.0974669 -0.99983937 1 2
-0.23937073 1.7750914 0.15670593 1 10
-0.6947127 5.1585488 -0.82440954 1 3
-0.241088 1.7972984 0.28721377 1 12
-0.71121591 5.3020773 -0.46802646 60 5
-0.2395574 1.7882564 0.35070685 1 13
-0.70712638 5.2855906 -0.27947393 74 6
-0.256264 1.9180555 0.44675279 1 14
-0.70561278 5.2883205 -0.093125746 29 7
-0.24266249 1.8210946 0.4922739 1 15
-0.2331056 1.7658478 -0.47726235 72 0
-0.23626845 1.7922182 0.031553909 5 8
-0.66439325 5.0465622 -1.1751446 5 1
-0.23275228 1.7703145 0.093576722 1 9
-0.67254901 5.1154094 -1.0028921 1 2
-0.22876413 1.7423337 0.15374263 8 10
-0.68132555 5.1961975 -0.83004123 1 3
-0.22963913 1.7537465 0.21717115 2 11
-0.22867425 1.7511189 0.27970487 1 12
-0.6921891 5.3005767 -0.46767789 59 5
-0.23382106 1.7929753 0.35147008 1 13
-0.68918884 5.2919869 -0.27968323 69 6
-0.24956761 1.9189383 0.44675279 1 14
-0.23630458 1.8219304 0.49227387 1 15
-0.22644749 1.7628187 -0.47622707 72 0
-0.22644843 1.7652638 0.031065244 9 8
-0.64925063 5.0681801 -1.1796435 5 1
-0.22505024 1.7592297 0.092948698 9 9
-0.65269458 5.1021481 -0.99983937 1 2
-0.22318536 1.7470744 0.15409127 16 10
-0.66218442 5.1907053 -0.82878965 1 3
-0.22652672 1.7781676 0.22009604 2 11
-0.231025 1.818534 0.29034245 1 12
-0.6731813 5.2990074 -0.46732923 55 5
-0.23052633 1.8171523 0.35604951 1 13
-0.2374865 1.8772646 0.43685496 0 14
-0.22506419 1.781567 -0.031344429 1 7
-0.21933527 1.7559303 -0.4741565 76 0
-0.63010889 5.0588131 -1.1769443 5 1
-0.21816881 1.7540585 0.09263467 22 9
-0.63585109 5.1121879 -1.0013658 2 2
-0.21684042 1.7458658 0.15391697 28 10
-0.64308763 5.1851444 -0.82753819 1 3
-0.22227064 1.7947079 0.22204594 2 11
-0.22322257 1.8075664 0.28846523 1 12
-0.2227397 1.8062549 0.35375997 1 13
-0.21884353 1.7823418 -0.031344429 1 7
-0.22357935 1.8235357 0.49227387 1 15
-0.21413602 1.7643566 -0.47622707 76 0
-0.61338168 5.0687208 -1.178744 5 1
-0.21228465 1.7567921 0.092739351 13 9
-0.61611927 5.0987835 -0.99831283 1 2
-0.21146038 1.752546 0.15443988 15 10
-0.21126278 1.756055 0.21717115 2 11
-0.22208691 1.8514837 0.29534835 1 12
-0.21409981 1.7875282 0.34994361 1 13
-0.22622354 1.8943568 0.44045419 0 14
-0.21167476 1.775152 -0.031204807 3 7
-0.21355771 1.7936124 0.48399168 1 15
-0.20797549 1.7650933 -0.47622707 76 0
-0.5929575 5.0476055 -1.1733451 2 1
-0.20521984 1.7495879 0.092320658 14 9
-0.60380518 5.1477003 -1.0074717 1 2
-0.20511019 1.7512946 0.15426558 30 10
-0.21203804 1.8159326 0.22448331 1 11
-0.21562305 1.8522476 0.29534835 1 12
-0.21284518 1.8311675 0.35833922 1 13
-0.20308146 1.7498374 -0.092320599 1 6
-0.20973991 1.8099604 0.4206585 0 14
-0.20773847 1.7981851 0.48502696 1 15
-0.20181327 1.7658085 -0.47622707 72 0
-0.57709789 5.0651336 -1.1769441 2 1
-0.20001474 1.7582312 0.092739344 13 9
-0.60158914 5.2882743 -1.0345665 17 2
-0.20034526 1.7638777 0.15531144 11 10
-0.20525078 1.8127167 0.22399583 1 11
-0.20915568 1.852989 0.29534835 1 12
-0.20157123 1.7857953 -0.15722902 1 5
-0.20425281 1.8123904 0.35452306 1 13
-0.1985366 1.7644286 -0.093053304 12 6
-0.21386315 1.9036361 0.44225377 0 14
-0.20920186 1.8680139 0.50366193 1 15
-0.19522241 1.7626619 -0.47519177 76 0
-0.19516644 1.7649719 0.030995436 100 8
-0.58678931 5.3150496 -1.2345316 13 1
-0.19278158 1.7489928 0.092215993 11 9
-0.19762364 1.8015828 0.22253342 1 11
-0.19882201 1.8154303 -0.22423953 1 4
-0.19925216 1.8222888 0.29034242 1 12
-0.19468793 1.7805459 -0.15670606 4 5
-0.1970733 1.8052855 0.35299656 1 13
-0.19497269 1.7889371 -0.094309375 44 6
-0.20426522 1.877249 0.43595517 0 14
-0.19156183 1.7633554 -0.030960474 100 7
-0.21184488 1.9532387 0.52643806 1 15
-0.18947983 1.7671746 -0.47622707 72 0
-0.18815334 1.757689 0.030855816 100 8
-0.18802619 1.7652334 0.15531144 1 10
-0.19426715 1.8298974 0.22594573 1 11
-0.18934578 1.7865025 -0.22058362 2 4
-0.19112566 1.803296 0.28721374 1 12
-0.19118246 1.8098673 0.3537598 1 13
-0.19689628 1.8701981 0.43415552 0 14
-0.18696986 1.775913 -0.031169903 100 7
-0.2237419 2.1287658 0.57354307 6 15
-0.1837098 1.771668 -0.47726235 72 0
-0.18189858 1.7601976 0.092739344 2 9
-0.19002721 1.8451552 0.1622839 1 10
-0.18638092 1.8097501 -0.28815228 1 3
-0.18291983 1.7791901 0.21960856 2 11
-0.18159677 1.7693481 -0.21838999 11 4
-0.1836213 1.7921617 0.28533655 1 12
-0.18184635 1.7778981 -0.15635747 21 5
-0.18597908 1.8183035 0.35528645 1 13
-0.18076332 1.7703533 -0.09326265 8 6
-0.21598689 2.1189942 0.49174306 2 14
-0.21396747 2.1064703 0.56733137 23 15
-0.17860475 1.7799563 -0.47933289 46 0
-0.1765471 1.7687715 0.093158036 1 9
-0.18875051 1.8910338 -0.36940628 1 2
-0.17600624 1.7664725 0.15531144 5 10
-0.17712946 1.7809043 -0.28345922 4 3
-0.18102327 1.8232757 0.22497077 1 11
-0.17444012 1.7600942 -0.21717107 18 4
-0.17930867 1.8124493 0.28846523 1 12
-0.17496835 1.7685775 -0.1554859 30 5
-0.19082206 1.9322592 0.3774201 1 13
-0.17399424 1.7650106 -0.09294863 11 6
-0.1733942 1.7652345 -0.030960474 4 7
-0.19945009 2.0341446 0.54766119 20 15
-0.17056279 1.7713648 0.093262695 7 9
-0.16935238 1.7587943 -0.34345627 2 2
-0.16945818 1.7631096 0.15496282 5 10
-0.17129041 1.7854447 -0.28408501 4 3
-0.17390037 1.8159925 0.22399583 1 11
-0.16791694 1.7567403 -0.21668361 13 4
-0.1752336 1.8366616 0.29221964 1 12
-0.16841656 1.7652107 -0.15513727 7 5
-0.20064045 2.1068559 0.41138431 7 13
-0.19124848 2.0156887 0.46744829 13 14
-0.16741939 1.7678196 -0.030995378 18 7
-0.18362127 1.942511 0.52281457 19 15
-0.16742358 1.7979467 0.031519007 5 8
-0.16844228 1.8123124 -0.42020869 1 1
-0.16216506 1.748085 0.092006646 22 9
-0.16284969 1.7554651 -0.34269303 2 2
-0.16660872 1.7994004 0.15810043 1 10
-0.16596542 1.7958666 -0.28564933 3 3
-0.16646671 1.8047283 0.2225334 2 11
-0.16160214 1.7553389 -0.21643987 6 4
-0.19123395 2.081181 0.33101541 3 12
-0.16276024 1.7781159 -0.093576662 5 6
-0.17800628 1.9484209 0.45170173 17 14
-0.16215496 1.7783505 -0.031169901 3 7
-0.16948618 1.862336 0.50107378 19 15
-0.16738369 1.8644661 -0.50159138 1 0
-0.15968549 1.7857155 -0.41390988 1 1
-0.15730532 1.762566 0.092739351 28 9
-0.15679085 1.7602805 0.1546142 7 10
-0.15829673 1.7806939 -0.28314635 2 3
-0.16963865 1.912074 0.23569529 2 11
-0.16090095 1.8171902 -0.22399597 1 4
-0.18709846 2.117255 0.33664709 24 12
-0.15608896 1.7663435 -0.15513727 2 5
-0.1743712 1.977176 0.38581568 19 13
-0.15602666 1.7727046 -0.09326265 1 6
-0.16506553 1.8791448 0.43550524 15 14
-0.15608065 1.784012 0.47985059 17 15
-0.15921375 1.8457918 -0.49641496 1 0
-0.15143742 1.7592254 0.030820914 32 8
-0.15278356 1.7784957 -0.41211027 2 1
-0.15132198 1.7650942 0.092844017 19 9
-0.15495035 1.8074174 -0.35261512 1 2
-0.15472184 1.8084605 0.15879767 3 10
-0.15947343 1.8678371 -0.29691261 1 3
-0.15152997 1.7821379 -0.21960847 2 4
-0.17386067 2.0490041 0.32569662 17 12
-0.15093258 1.7787892 -0.15618315 1 5
-0.16200256 1.9132162 0.37322229 18 13
-0.14866102 1.7593071 -0.092529945 17 6
-0.1526098 1.809803 0.41930875 15 14
-0.15158109 1.8013583 -0.031553853 94 7
-0.14532644 1.7306439 0.46535674 19 15
-0.15085852 1.8232329 -0.49020329 1 0
-0.14545971 1.761736 0.030855816 33 8
-0.14529394 1.763481 -0.40851107 1 1
-0.14712392 1.7894981 0.09410008 3 9
-0.14864072 1.8079472 -0.35261512 1 2
-0.16763064 2.0433042 0.17936641 6 10
-0.15101793 1.8447571 -0.29315817 1 3
-0.16614547 2.0339005 0.25056335 19 11
-0.1443401 1.7707847 -0.21814604 1 4
-0.15998079 1.9669061 0.31255615 18 12
-0.14488356 1.781291 -0.15635745 3 5
-0.14992383 1.8472383 0.36024728 18 13
-0.14064026 1.7403979 0.40311229 15 14
-0.14239965 1.7659984 -0.030925568 8 7
-0.13479097 1.6752973 0.45034522 16 15
-0.14235675 1.7967873 -0.48295638 1 0
-0.14009839 1.7722003 0.03103034 11 8
-0.14526711 1.8416855 -0.42650712 1 1
-0.1637547 2.0807018 0.10938219 7 9
-0.16205834 2.0637395 0.18110952 17 10
-0.14426941 1.8413343 -0.29253244 1 3
-0.15316519 1.9592637 0.24130127 19 11
-0.13939334 1.7871104 -0.22009596 2 4
-0.14667721 1.884737 0.29941565 21 12
-0.13815485 1.7792426 0.34689066 20 13
-0.12915803 1.6709323 0.38691583 13 14
-0.13715641 1.7784474 -0.031134998 43 7
-0.12390347 1.610268 0.43274549 12 15
-0.13316715 1.7587461 -0.47260356 1 0
-0.15168539 2.0079725 0.035149105 3 8
-0.1537956 2.0454113 0.10749809 12 9
-0.13513201 1.7971942 -0.35032538 1 2
-0.14814618 1.9748864 0.17326552 15 10
-0.13695604 1.8300076 -0.29065526 1 3
-0.14100464 1.8885214 0.23252669 21 11
-0.13123773 1.7618511 -0.21692735 13 4
-0.13394842 1.8024998 0.28627515 22 12
-0.13155836 1.7703376 -0.15531158 22 5
-0.1278794 1.7248931 0.33620554 22 13
-0.13008274 1.7587756 -0.092425272 19 6
-0.11959577 1.6208433 0.37521839 10 14
-0.13094717 1.7789155 -0.031135 11 7
-0.11460354 1.5605974 0.41928691 12 15
-0.14912857 2.0703204 0.036231156 12 8
-0.13156904 1.8309922 -0.42380771 1 1
-0.14271793 1.9861466 0.10435796 17 9
-0.13194543 1.8407364 -0.35872099 1 2
-0.13613538 1.9038483 0.16699031 21 10
-0.12691431 1.7792448 -0.28252065 2 3
-0.12933899 1.8177191 0.2237521 21 11
-0.12694383 1.7840576 -0.21960847 10 4
-0.12433439 1.751703 0.27814054 27 12
-0.12523842 1.7687986 -0.15513727 19 5
-0.11632449 1.6469941 0.32094064 22 13
-0.12520549 1.77715 -0.093367316 9 6
-0.11038578 1.5668011 0.3626211 9 14
-0.14425442 2.0526237 -0.035916943 6 7
-0.10645526 1.5185723 0.40789887 14 15
-0.13773896 2.0049684 0.035079293 16 8
-0.12762761 1.8625255 -0.43100613 1 1
-0.13080522 1.9088979 0.10027573 16 9
-0.12155702 1.7784857 -0.34650919 1 2
-0.12521331 1.8367049 0.16106372 28 10
-0.12556934 1.8466637 -0.29315817 1 3
-0.11874381 1.7507997 0.21546499 23 11
-0.12116168 1.7864494 -0.21985222 9 4
-0.11479131 1.6969212 0.26938021 27 12
-0.11950582 1.7711921 -0.1553116 9 5
-0.10769881 1.6003591 0.31178182 16 13
-0.13897331 2.0704935 -0.10875409 3 6
-0.10231787 1.5243825 0.35272327 9 14
-0.13891564 2.0750389 -0.036300898 16 7
-0.098458998 1.4745829 0.39599317 13 15
-0.12665592 1.9375693 0.033892535 16 8
-0.11764764 1.8046 -0.41750908 1 1
-0.11953733 1.833586 0.096298203 18 9
-0.11438442 1.7592878 -0.342693 2 2
-0.11422328 1.7615578 0.15443988 33 10
-0.12122992 1.8746676 -0.29753834 1 3
-0.10833757 1.6798687 0.2066904 24 11
-0.11370335 1.7630696 -0.21692735 5 4
-0.10561379 1.6420962 0.26061988 19 12
-0.13072148 2.0380113 -0.17866933 2 5
-0.099508308 1.5556446 0.30300459 19 13
-0.13325129 2.0888817 -0.10969613 17 6
-0.093540803 1.4663697 0.33922622 10 14
-0.12771769 2.0076354 -0.035114132 17 7
-0.090632685 1.4286301 0.38356987 13 15
-0.11791664 1.8953456 -0.50883824 1 0
-0.11651576 1.8781025 0.032845385 18 8
-0.11069963 1.7894202 -0.41390988 2 1
-0.10802963 1.7462605 0.091692626 20 9
-0.11604469 1.8811485 -0.36635333 1 2
-0.1048348 1.7042564 0.14938486 36 10
-0.11186774 1.8237962 -0.28940377 2 3
-0.099009849 1.6187953 0.19913447 19 11
-0.12591341 2.0586641 -0.25324443 2 4
-0.095959403 1.5734273 0.24966946 18 12
-0.12892038 2.119971 -0.18581611 18 5
-0.091022186 1.5010957 0.2923193 19 13
-0.12138098 2.0075738 -0.10540459 15 6
-0.08608982 1.4238777 0.32932836 10 14
-0.11516237 1.9102404 -0.033403803 21 7
-0.082997024 1.3807135 0.37062892 11 15
-0.10532507 1.7993377 -0.48295638 1 0
-0.10520288 1.802658 0.031519007 18 8
-0.10210319 1.7547957 -0.40581161 1 1
-0.098432437 1.6968149 0.089075834 19 9
-0.10323731 1.7796432 -0.34650922 1 2
-0.094330087 1.6310341 0.14293534 40 10
-0.11928303 2.0687344 -0.32819951 2 3
-0.090570033 1.5755473 0.19377223 15 11
-0.11993811 2.0928237 -0.25738797 16 4
-0.087889329 1.5382851 0.24403782 22 12
-0.11603569 2.0309176 -0.17797208 17 5
-0.083287224 1.4622177 0.28468695 21 13
-0.10994621 1.9362196 -0.1016364 18 6
-0.078420103 1.3852853 0.32033032 11 14
-0.10433435 1.8487763 -0.032321759 25 7
-0.075415775 1.3405172 0.3597585 13 15
-0.099043079 1.7996944 -0.48295638 1 0
-0.094638288 1.7251431 0.030157721 19 8
-0.099168852 1.8135165 -0.41930869 1 1
-0.089355931 1.6393136 0.08604034 21 9
-0.10108458 1.8544859 -0.36101073 1 2
-0.085717969 1.577638 0.13822894 27 10
-0.11483799 2.1204226 -0.33633408 17 3
-0.082822248 1.5342275 0.18865371 17 11
-0.11007267 2.0456562 -0.25153822 23 4
-0.079344966 1.4794065 0.23465176 23 12
-0.10446364 1.9477501 -0.170651 19 5
-0.074723765 1.3978046 0.27209356 17 13
-0.099467859 1.8667865 -0.097972885 18 6
-0.071310051 1.3427386 0.31043246 10 14
-0.094391622 1.7832315 -0.031169901 33 7
-0.069209635 1.3118347 0.35199395 14 15
-0.094948024 1.8424734 -0.49434435 1 0
-0.085334122 1.661557 0.029040769 19 8
