# .PCD v0.7 - Point Cloud Data file format
VERSION 0.7
FIELDS x y z intensity ring
SIZE 4 4 4 4 2
TYPE F F F F U
COUNT 1 1 1 1 1
WIDTH 1311
HEIGHT 1
VIEWPOINT 0 0 0 1 0 0 0
POINTS 1311
DATA ascii
5.3795166 1.5781794 1.5021858 1 15
4.0926394 1.1952204 -1.1424271 5 0
5.2904501 1.5440314 0.096197538 1 8
4.5310588 1.321543 -1.0896626 9 1
5.2922125 1.5425386 0.28889456 1 9
5.0400138 1.4690295 -1.0204465 5 2
5.3140097 1.5478884 0.48423702 1 10
5.0507865 1.4702595 -0.83316988 1 3
5.3865771 1.5669841 0.6888054 1 11
5.391108 1.566264 0.88917363 1 12
5.4714198 1.5885587 1.107455 1 13
5.2940931 1.5360723 -0.28889439 2 6
5.4633384 1.5841476 1.3132644 1 14
5.33566 1.5461141 -0.096965268 1 7
5.5297313 1.6013038 1.5425617 1 15
4.0930743 1.1798579 -1.141392 5 0
5.4264741 1.5631942 0.098571077 1 8
4.5300264 1.3041 -1.0883129 7 1
5.370502 1.5450405 0.29287213 1 9
5.0413375 1.4503431 -1.0196834 5 2
5.487885 1.5777735 0.49957642 1 10
5.3368764 1.5333501 -0.87947452 1 3
5.5255737 1.5865213 0.70586717 1 11
5.3064198 1.5225946 -0.67783701 2 4
5.559844 1.5942608 0.91608036 1 12
5.3376832 1.5305572 -0.48580623 1 5
5.5939436 1.6029817 1.1311153 1 13
5.3915868 1.5439771 -0.29391867 2 6
5.6262107 1.6101037 1.351056 1 14
5.4794531 1.56707 -0.099478416 1 7
5.6801696 1.6234007 1.5829374 2 15
4.089736 1.1634499 -1.1393216 3 0
5.5280714 1.5715827 0.10031631 1 8
4.5383 1.2893455 -1.0892134 7 1
5.5372529 1.5721068 0.30166453 1 9
5.0407033 1.4311292 -1.0185386 5 2
5.5546951 1.5760086 0.50515437 1 10
5.4106126 1.5341113 -0.89073777 1 3
5.7182479 1.6202593 0.72975349 1 11
5.4377623 1.5397561 -0.69392377 2 4
5.7212358 1.6189489 0.94173563 3 12
5.492528 1.5542312 -0.49940255 1 5
5.7733083 1.6325957 1.1662248 5 13
5.4853544 1.5501305 -0.29873356 2 6
5.7443199 1.622233 1.3780501 2 14
5.5580206 1.5685735 -0.10080478 1 7
5.7136927 1.6114277 1.5907022 3 15
4.0788922 1.1449887 -1.1351804 3 0
5.6875529 1.5954863 0.10310868 1 8
4.5427737 1.273495 -1.0892129 4 1
5.7004108 1.5969473 0.31024763 1 9
5.0437789 1.4129944 -1.018157 4 2
5.8057456 1.6253637 0.52746624 24 10
5.5605121 1.5556623 -0.91451579 1 3
5.5501676 1.5506794 -0.70757377 2 4
5.8029571 1.6202153 0.9542504 6 12
5.6360874 1.5736247 -0.51195294 1 5
5.7562809 1.6061 1.1616448 2 13
5.6715755 1.5813993 -0.30857268 2 6
5.7386847 1.5990319 1.3753506 3 14
5.7175756 1.5920746 -0.10359716 1 7
5.7285886 1.594064 1.5932902 2 15
4.0975609 1.1355847 -1.1393216 3 0
5.7621899 1.5958325 0.10436526 1 8
4.5469718 1.2584244 -1.0892129 4 1
5.8500495 1.6179665 0.31809804 5 9
5.056004 1.3983548 -1.0196834 5 2
5.8226256 1.6092879 0.52851206 16 10
5.687501 1.5708731 -0.93453938 3 3
5.807601 1.6029503 0.73974681 11 11
5.6433063 1.5565469 -0.71878576 2 4
5.7968726 1.597815 0.95237333 6 12
5.7375908 1.5803945 -0.52066863 1 5
5.7805033 1.5922148 1.1654611 1 13
5.8077321 1.5986274 -0.3156904 2 6
5.8642092 1.6130693 1.4041444 1 14
5.8847904 1.617626 -0.10652915 3 7
5.8679681 1.6119031 1.6305603 0 15
4.1016955 1.1205579 -1.1393216 5 0
5.8873243 1.6083807 0.10652935 3 8
4.5400567 1.2394664 -1.0865134 4 1
5.8498812 1.5959574 0.31778401 3 9
5.0629907 1.3803296 -1.0200651 5 2
5.8457851 1.5926509 0.53008091 11 10
5.7122817 1.5552045 -0.93766814 3 3
5.8054991 1.5805836 0.73877186 5 11
5.8747315 1.5983316 -0.74754626 2 4
5.8939099 1.602448 0.96739089 1 12
5.9353404 1.6125964 -0.53809977 1 5
5.9378724 1.6121718 1.1959904 1 13
5.9253521 1.6076621 -0.32176137 2 6
5.9979787 1.6262431 1.4347378 1 14
5.9483008 1.6127739 -0.1075763 1 7
6.071209 1.644961 1.6854298 1 15
4.1130424 1.1082445 -1.141392 5 0
5.9086256 1.5909524 0.10680859 1 8
4.5483327 1.2238294 -1.0874138 7 1
5.8595495 1.5755447 0.3179934 2 9
5.0545068 1.3590809 -1.0173938 4 2
5.71386 1.5342296 -0.93704236 3 3
6.0317383 1.6184579 0.76680177 1 11
5.976418 1.6024958 -0.75973314 2 4
5.9832721 1.6032115 -0.54193455 2 5
6.1482801 1.6462781 1.237206 1 13
5.9540801 1.5931656 -0.32301745 4 6
6.1768184 1.6516063 1.4761288 1 14
5.927125 1.5837359 -0.10708763 1 7
6.2078485 1.6575851 1.7216644 0 15
4.0982156 1.0889186 -1.1362156 5 0
6.0842237 1.6154754 0.10988021 1 8
4.545043 1.2059473 -1.0856137 7 1
5.0440383 1.3374021 -1.0143408 4 2
6.1360226 1.6257905 0.55535603 1 10
5.7191796 1.514279 -0.93704236 2 3
6.1870384 1.6369967 0.78581339 1 11
6.0011668 1.5866969 -0.76217127 2 4
5.9888306 1.5823202 -0.54193449 2 5
6.3058462 1.6648991 1.2677346 1 13
5.9943657 1.5815418 -0.32490149 2 6
6.3596725 1.6767397 1.5184194 1 14
6.5349264 1.7205029 1.8106983 0 15
4.1094661 1.0765655 -1.1382861 3 0
6.2329793 1.6317046 0.11246316 1 8
4.5605369 1.1930326 -1.088313 7 1
5.0600734 1.3227649 -1.0166305 4 2
6.2804551 1.6406198 0.5679065 1 10
5.724431 1.494305 -0.93704247 2 3
6.3540645 1.6574763 0.80628747 1 11
6.1795506 1.6108053 -0.78410709 2 4
6.4267664 1.6740483 1.0518656 1 12
7.8413949 2.0425315 -0.70892519 1 5
6.6688094 1.7358497 1.3394796 1 13
6.7464747 1.7535552 1.6092999 1 14
6.2283592 1.617722 -0.11232334 1 7
6.7708888 1.7573783 1.8743677 5 15
4.1057167 1.0602829 -1.1362154 3 0
9.5457735 2.463372 0.17208052 3 8
4.5495768 1.173214 -1.0847137 7 1
6.3785858 1.6436797 0.34520808 1 9
5.0627575 1.3046077 -1.0162489 4 2
6.4790893 1.6683688 0.58533764 1 10
5.7296128 1.4743121 -0.93704236 2 3
6.7212501 1.7282275 0.85211033 1 11
6.6657963 1.7127252 -0.84504169 2 4
6.8114076 1.7488717 1.1138136 1 12
6.343235 1.6286656 -0.57296199 1 5
6.8954196 1.7691633 1.3837465 1 13
6.9413309 1.778357 1.6542898 1 14
4.1093936 1.0459439 -1.1362156 3 0
9.6822224 2.4625745 0.17438425 1 8
4.5460901 1.1554049 -1.0829142 4 1
6.7711468 1.7209108 0.36614248 1 9
5.0710864 1.2878923 -1.0170121 4 2
6.8981419 1.7506276 0.62264025 2 10
5.7385535 1.4552754 -0.93766814 2 3
6.9427595 1.7593678 0.87940902 1 11
6.6216989 1.6767815 -0.83870447 4 4
7.0354705 1.781559 1.1494807 1 12
6.4724979 1.6377949 -0.58411795 1 5
7.0918884 1.7932081 1.4219083 1 13
6.5740929 1.6610576 -0.35536101 2 6
7.147778 1.8046855 1.7019796 1 14
6.8053708 1.7182338 -0.12251551 1 7
7.0355701 1.7750489 1.9442489 0 15
4.1280098 1.0353538 -1.1403568 3 0
4.5536761 1.1412715 -1.0838139 7 1
6.9941039 1.7516061 0.37786573 1 9
5.0565052 1.2654178 -1.0131959 4 2
7.0936327 1.7739047 0.63972276 2 10
5.74718 1.4371972 -0.93829393 2 3
7.2258821 1.8056327 0.91450739 2 11
6.627223 1.6548119 -0.83870518 2 4
7.2984738 1.8210697 1.1914051 4 12
6.8880172 1.7173744 -0.62107205 1 5
7.3225799 1.8257232 1.4669391 3 13
6.978796 1.7387182 -0.37692344 2 6
7.2823114 1.8129874 1.7325729 3 14
10.562585 2.6257215 2.9163737 2 15
4.1126661 1.0170224 -1.1351802 3 0
4.5538492 1.1244336 -1.0829141 4 1
7.2248006 1.7839434 0.39000767 1 9
5.0130219 1.2368867 -1.0036556 5 2
5.7675066 1.4209057 -0.94079685 2 3
6.6368155 1.6326154 -0.83919191 2 4
7.3543453 1.8091234 1.1995397 6 12
7.3365331 1.8020259 1.4684664 3 13
7.1943097 1.7657614 -0.38822803 2 6
7.3340201 1.7986947 1.7433705 2 14
7.3889804 1.8108069 2.0384588 0 15
4.1161919 1.0026593 -1.1351804 3 0
4.5651269 1.1111685 -1.0847137 4 1
7.4308734 1.8073319 0.40078887 3 9
5.0573716 1.2291156 -1.0116695 9 2
7.3978982 1.796573 0.66604382 8 10
5.7721868 1.4017706 -0.94079685 2 3
7.3884764 1.7929233 0.93351912 23 11
6.6344757 1.6087281 -0.83821774 2 4
7.406693 1.7946029 1.2070487 3 12
2.2443378 0.54337776 -0.2020271 1 5
7.4989347 1.8155711 1.4997582 1 13
7.4408407 1.8001312 -0.4012073 2 6
7.5255747 1.8192363 1.787461 1 14
7.6055832 1.8357719 2.0964344 0 15
4.1232505 0.9899047 -1.1362154 5 0
4.5576072 1.0925041 -1.0820144 7 1
7.4623876 1.7874284 0.40214962 3 9
5.0824213 1.2173669 -1.0158672 4 2
7.4406285 1.7808472 0.66935569 4 10
5.7808857 1.3825363 -0.94142246 2 3
6.6516361 1.5883241 -0.83967942 2 4
7.6165838 1.8173361 1.2402127 1 12
2.1977692 0.52398789 -0.1976693 6 5
7.8222437 1.8649642 1.563107 1 13
7.5364528 1.7954364 -0.40602222 5 6
7.774538 1.8507228 1.8450488 1 14
3.0971045 0.73669213 -0.055568296 1 7
7.8637991 1.869071 2.1657982 0 15
4.1193314 0.97301024 -1.134145 5 0
4.565186 1.0774825 -1.0829141 7 1
7.6240954 1.7980466 0.41052338 1 9
5.0849376 1.1982816 -1.0154855 4 2
7.7031002 1.8138409 0.69236475 2 10
5.7820692 1.3604326 -0.94079685 2 3
7.7756839 1.8294998 0.98080438 1 11
6.653275 1.5641887 -0.83919191 2 4
2.1782482 0.51130515 -0.19575186 25 5
8.2609987 1.9376017 1.6493527 1 13
7.5702062 1.7741838 -0.40748763 2 6
8.3049545 1.9448495 1.9692218 1 14
3.1308093 0.73317111 -0.056126766 1 7
11.5684 2.7069576 3.1834745 2 15
4.1377554 0.96212417 -1.1382861 3 0
3.1242929 0.72589737 0.055987254 1 8
4.5577154 1.0580978 -1.0802147 7 1
5.0929151 1.1814106 -1.0162489 4 2
7.9461789 1.8418286 0.7136308 2 10
5.7752366 1.3375653 -0.9389196 2 3
8.3547955 1.9334643 1.052951 1 11
6.670567 1.5424775 -0.84065437 2 4
8.4877977 1.9611226 1.3797523 1 12
2.19555 0.50728619 -0.19714637 32 5
8.5929098 1.9838294 1.7142286 1 13
8.6686935 1.9981388 2.0538032 1 14
8.4718876 1.949665 2.3293722 2 15
4.1335559 0.94595176 -1.1362154 3 0
3.1190102 0.71320325 0.055847634 1 8
4.5651813 1.043051 -1.0811146 7 1
8.5324612 1.9479275 0.45867246 1 9
5.0893517 1.1618788 -1.0147223 4 2
8.5896969 1.959417 0.77080494 2 10
5.7952776 1.320911 -0.94142252 3 3
8.6982756 1.9809914 1.0953616 1 11
6.6642971 1.516539 -0.83919269 2 4
8.7604074 1.9919251 1.4229282 3 12
2.2109067 0.50271189 -0.19836652 37 5
8.8792953 2.017328 1.7699438 3 13
8.7914076 1.9909074 2.4152999 2 15
4.1179862 0.92727238 -1.131039 3 0
3.2190273 0.72425789 0.057592873 1 8
4.5802011 1.0296748 -1.083814 4 1
8.7379751 1.9627774 0.469349 1 9
5.0933762 1.1441053 -1.0147223 4 2
8.8958645 1.9966125 0.79764885 4 10
5.7805781 1.2963525 -0.93829393 2 3
8.9395218 2.003134 1.1248538 6 11
6.6540532 1.4897954 -0.83724278 2 4
8.975502 2.0079107 1.4567182 3 12
2.2107038 0.49455684 -0.19819225 44 5
9.2618141 2.07026 1.844741 1 13
3.1441154 0.70221668 -0.16883574 1 6
9.1339455 2.0349839 2.5074394 1 15
4.1513767 0.9195801 -1.1393216 5 0
4.5837679 1.0136794 -1.083814 4 1
9.0080519 1.9904455 0.48347971 5 9
5.093504 1.1254754 -1.0139591 4 2
9.081769 2.0050671 0.81368554 2 10
5.7657785 1.2719096 -0.93516523 2 3
9.3554964 2.0620761 1.1762828 1 11
2.3631971 0.52044767 -0.29711735 1 4
9.4956293 2.089488 1.5399413 1 12
2.2260373 0.48983362 -0.19941241 7 5
9.6831522 2.1289804 1.9271713 3 13
2.4013638 0.52753508 -0.12885109 1 6
3.2619638 0.71539789 -0.058290854 1 7
9.5184059 2.0857935 2.6109667 2 15
4.1394606 0.90179265 -1.1351804 5 0
4.5606184 0.99187583 -1.0775152 4 1
9.4185934 2.0484226 0.50514686 1 9
5.0974021 1.1076875 -1.0139591 4 2
9.7584906 2.1187739 0.8736487 2 10
5.7817655 1.2542895 -0.93704236 2 3
2.2408326 0.48530355 -0.2815181 1 4
9.8326426 2.1294839 1.5934418 4 12
9.7768764 2.1138391 1.9443432 6 13
2.2626307 0.48878434 -0.12131471 2 6
9.7015219 2.0939972 2.2913518 1 14
3.2095876 0.69276428 -0.057313532 1 7
9.9142895 2.1381159 2.7176006 1 15
4.1388054 0.8865273 -1.134145 3 0
4.5715055 0.97837895 -1.0793149 4 1
9.863183 2.1090822 0.52859336 3 9
5.1012383 1.0898863 -1.0139592 2 2
9.8379202 2.1000941 0.88009822 22 10
5.7820296 1.234286 -0.93641669 2 3
9.8663197 2.1043518 1.2386798 9 11
2.2230141 0.47373301 -0.27908069 4 4
9.8689957 2.1013258 1.5981349 3 12
2.2781224 0.48464561 -0.20377021 1 5
9.9854631 2.1242979 1.984413 1 13
2.2544706 0.47920272 -0.12079135 17 6
10.19259 2.1646488 2.4056265 1 14
10.779681 2.2853949 2.9526079 2 15
4.1417227 0.87279654 -1.134145 5 0
4.5901494 0.96562374 -1.0829142 4 1
10.042486 2.1107898 0.53780454 1 9
5.093297 1.0705396 -1.0116695 2 2
5.8017693 1.2173389 -0.9389196 2 3
2.2343686 0.4680056 -0.2802994 20 4
10.696071 2.2384255 1.7307913 1 12
2.2563977 0.4717966 -0.20167847 1 5
10.934448 2.2863147 2.1714058 3 13
10.63884 2.2206349 2.5091043 1 14
3.2691576 0.68177116 -0.058290858 1 7
11.014542 2.2950428 3.0147247 1 15
4.1373262 0.85604572 -1.1320745 5 0
3.2545586 0.67339408 0.058011726 1 8
4.5820408 0.94722694 -1.0802147 4 1
5.0971866 1.0518657 -1.0116695 2 2
10.962657 2.2602816 0.97928137 2 10
5.7907138 1.1928792 -0.93641669 2 3
11.058996 2.2781382 1.3863854 4 11
11.05597 2.2734869 1.7877336 3 12
2.2502241 0.46231514 -0.20098121 1 5
11.362004 2.3322845 2.2545989 1 13
2.2754512 0.46666926 -0.1217334 55 6
11.173813 2.2895958 2.6332774 1 14
3.2284193 0.6615268 -0.057522956 1 7
11.751138 2.4057515 3.2140157 6 15
4.1327167 0.84006011 -1.130004 5 0
3.2334886 0.65668589 0.057592869 1 8
4.5931215 0.93197769 -1.0820144 4 1
5.0969782 1.0332878 -1.0109062 2 2
11.16966 2.2623456 0.99706107 2 10
5.7948432 1.1726571 -0.93641675 3 3
11.935067 2.4130321 1.4950931 3 11
2.2454436 0.45357707 -0.28127462 66 4
11.865872 2.3947372 1.9172614 3 12
2.2557304 0.45524523 -0.20132984 1 5
11.905092 2.4004846 2.3606899 3 13
2.2457395 0.45241314 -0.12005866 47 6
11.644059 2.3436275 2.7421532 1 14
3.2112181 0.64574486 -0.057173908 1 7
11.790177 2.3687553 3.2222974 7 15
4.135623 0.82562995 -1.1300038 5 0
4.5848789 0.9136548 -1.0793148 4 1
3.161526 0.6294415 0.16894051 1 9
5.1198087 1.0193242 -1.0147223 2 2
12.025571 2.3920336 1.0727122 10 10
5.7950253 1.1516533 -0.9357909 2 3
12.023247 2.3872147 1.5050863 19 11
2.2139118 0.43916935 -0.27713078 66 4
11.980731 2.3744273 1.9344691 7 12
2.2612145 0.44814366 -0.20167847 1 5
2.2433865 0.44379553 -0.11984932 39 6
12.309815 2.4329438 2.8969197 2 14
2.3934135 0.47260761 -0.042583738 1 7
11.788899 2.3257132 3.2197094 4 15
4.130897 0.80970138 -1.1279334 3 0
4.5765662 0.8953988 -1.0766162 4 1
3.1597841 0.61763477 0.1687312 2 9
5.0925074 0.9954192 -1.0086166 2 2
12.069045 2.3569181 1.0758499 5 10
5.8028889 1.1321728 -0.93641675 2 3
2.215431 0.43143913 -0.27713078 44 4
13.173688 2.5630937 2.1256323 2 12
2.2979679 0.44709629 -0.20481606 1 5
12.339757 2.3986082 2.4435008 4 13
2.260607 0.43900844 -0.12068669 39 6
12.995457 2.5213561 3.056185 2 14
2.3361547 0.45283368 -0.041536603 1 7
11.823497 2.2896926 3.2269564 4 15
4.1488748 0.79819757 -1.1320745 5 0
4.5873189 0.88088685 -1.0784152 4 1
3.1658432 0.60735458 0.16894051 2 9
5.103663 0.97911775 -1.010143 2 2
13.306052 2.5503058 1.1853175 6 10
5.8106847 1.1126515 -0.9370423 2 3
13.289399 2.5423055 1.6613227 16 11
2.2305722 0.42631221 -0.27883694 47 4
13.236883 2.5274637 2.1343923 4 12
2.2838583 0.43608209 -0.20342156 1 5
22.532354 4.2982855 4.4588232 6 13
2.2621257 0.43111417 -0.12068669 40 6
14.931931 2.8430157 3.5092368 5 14
2.3043244 0.43832403 -0.040943217 9 7
11.523961 2.1899755 3.1430991 1 15
4.1326532 0.78012604 -1.1268982 5 0
3.2895033 0.62036908 0.058430582 1 8
4.6018567 0.86703467 -1.0811146 4 1
3.2227964 0.60720623 0.17187133 1 9
5.1263437 0.96492672 -1.0139592 2 2
13.330538 2.5067856 1.186712 3 10
5.7951193 1.0887154 -0.93391371 2 3
2.2358758 0.4196448 -0.27932444 47 4
23.908131 4.4829259 3.8526688 8 12
2.2932003 0.42957526 -0.20411885 1 5
22.385122 4.1892643 4.4267697 12 13
2.2793221 0.42615208 -0.12152404 45 6
14.941278 2.7934866 3.5092368 5 14
11.893884 2.2194362 3.2419682 6 15
4.154212 0.76993853 -1.1320745 3 0
3.2758129 0.60654533 0.058151349 1 8
4.589375 0.84893471 -1.0775157 4 1
3.2051528 0.59288359 0.17082463 1 9
5.1102095 0.94435531 -1.010143 2 2
24.087385 4.4469476 2.1429842 14 10
5.7909269 1.0680602 -0.93266213 2 3
23.98509 4.419405 2.9945731 7 11
2.2411597 0.41294792 -0.27981195 47 4
23.903442 4.4000363 3.8495402 8 12
2.2946122 0.42196888 -0.20411885 2 5
22.580402 4.1483498 4.4626393 6 13
2.2650077 0.41570637 -0.12068669 40 6
14.946622 2.7432163 3.5083363 8 14
2.2993135 0.42158896 -0.0408036 52 7
12.790488 2.3428771 3.4842227 18 15
4.1643453 0.75754035 -1.134145 5 0
4.584497 0.83231753 -1.0757158 4 1
3.2622283 0.59167105 0.17375542 1 9
5.1094489 0.92670178 -1.0093796 2 2
24.086313 4.3642092 2.1415896 14 10
5.8022127 1.0502567 -0.93391377 2 3
23.976173 4.3355985 2.9916482 7 11
2.2367268 0.40406412 -0.27908069 44 4
23.934204 4.3193827 3.8520429 8 12
2.2803845 0.41112784 -0.20272434 2 5
22.640402 4.0818119 4.4718008 12 13
2.2703049 0.40890259 -0.12089603 40 6
14.940763 2.6882684 3.5047371 8 14
2.3165162 0.41638988 -0.041082837 57 7
11.887798 2.1346698 3.2362738 18 15
4.1670938 0.74227309 -1.134145 3 0
4.5988851 0.81835902 -1.0784152 4 1
3.3232665 0.59076774 0.17689559 1 9
5.1128116 0.90796965 -1.0093797 2 2
24.129614 4.2807541 2.1440299 14 10
5.8099127 1.0296741 -0.93453938 2 3
23.979435 4.2498059 2.990186 7 11
2.2420332 0.39694554 -0.27956817 44 4
23.933577 4.2330523 3.8495402 8 12
2.2955396 0.40559241 -0.2039445 10 5
22.682278 4.0035853 4.4771433 12 13
2.2796562 0.4019644 -0.12131471 40 6
14.958193 2.6348453 3.506537 8 14
10.913424 1.9204068 2.9691725 11 15
4.1506281 0.72440016 -1.1289686 3 0
4.5941753 0.80015916 -1.0766157 4 1
5.1043439 0.88809657 -1.00709 2 2
5.7706547 1.0019517 -0.92765641 4 3
24.006588 4.163918 2.9916484 7 11
2.2512963 0.3900815 -0.28054336 50 4
23.929464 4.1419387 3.8464115 8 12
22.73094 3.9304006 4.4840102 12 13
2.2889178 0.39536583 -0.1217334 45 6
14.951937 2.5799613 3.5029378 8 14
10.918487 1.8800689 2.9686551 17 15
4.1455154 0.70860642 -1.1268983 3 0
2.3811684 0.40659314 0.042164966 1 8
4.6007824 0.78477168 -1.0775154 4 1
24.232986 4.1291661 1.2883023 10 9
5.1190252 0.87225342 -1.0093796 2 2
24.158909 4.1122055 2.1440299 14 10
5.7858009 0.98378742 -0.92953348 2 3
24.009232 4.0781045 2.990186 7 11
2.2604733 0.38354841 -0.28151807 50 4
23.924303 4.0550761 3.8432829 8 12
2.2924223 0.38855669 -0.20342156 63 5
22.713549 3.8457921 4.4779043 6 13
2.2981608 0.38870531 -0.12215208 40 6
14.953165 2.5264502 3.501138 5 14
2.3385646 0.39469951 -0.041396983 1 7
10.932602 1.8432266 2.9707255 23 15
4.147964 0.69413042 -1.1268983 5 0
2.317486 0.38739914 0.041013107 13 8
4.5842714 0.76550072 -1.0730163 4 1
24.199974 4.0366592 1.2857902 10 9
5.1259131 0.8550241 -1.010143 2 2
24.122019 4.01934 2.1394978 14 10
2.3012605 0.38303563 -0.36949819 2 3
24.019402 3.9936142 2.9896979 7 11
2.2735479 0.37760639 -0.2829805 50 4
23.950001 3.9734967 3.8451598 8 12
2.2898335 0.37990165 -0.20307295 52 5
22.734583 3.7677608 4.4794307 6 13
2.295563 0.38002786 -0.12194275 40 6
14.988811 2.4787006 3.507437 5 14
2.3359818 0.38588151 -0.041327171 1 7
10.942782 1.8056793 2.9717607 21 15
4.1656117 0.68214732 -1.1310391 3 0
4.6023026 0.75200671 -1.0766157 4 1
5.1133637 0.83459944 -1.00709 2 2
24.143768 3.9363906 2.1401949 14 10
2.2908857 0.37309468 -0.367621 7 3
24.037115 3.9104011 2.990186 7 11
2.259177 0.36712122 -0.28103089 44 4
23.975428 3.8917639 3.8470376 8 12
2.2970457 0.37286344 -0.20359589 43 5
22.76697 3.6915374 4.4832492 6 13
2.2929325 0.37137437 -0.1217334 39 6
14.426025 2.3339248 3.373816 13 14
2.3491595 0.37963864 -0.041536599 1 7
10.954741 1.768397 2.9733138 22 15
4.1565228 0.66576821 -1.1279334 3 0
2.3418546 0.37468463 0.041397057 49 8
4.5972009 0.73470777 -1.0748159 4 1
5.124002 0.81798202 -1.0086166 2 2
24.149492 3.8508272 2.1394975 14 10
2.2921739 0.36509618 -0.36762097 25 3
24.050619 3.8264654 2.990186 7 11
2.2663262 0.360167 -0.2817618 47 4
23.930336 3.798764 3.8376513 8 12
2.2983332 0.3648434 -0.20359589 46 5
22.768087 3.6101928 4.4809575 6 13
2.3021052 0.36461741 -0.12215208 38 6
14.430234 2.2829487 3.3729162 18 14
2.3583713 0.37268639 -0.041676223 1 7
10.966573 1.7310477 2.9748669 25 15
4.1511865 0.65005851 -1.1258627 3 0
2.3431482 0.36650935 0.041397061 49 8
4.60744 0.71985823 -1.0766157 4 1
5.107429 0.79706264 -1.0048004 2 2
24.162783 3.7665229 2.1394975 14 10
2.3012419 0.35830781 -0.36887246 74 3
24.052061 3.7406523 2.9887233 7 11
2.2714927 0.35286373 -0.2822493 42 4
23.912216 3.7103565 3.8326449 16 12
2.3015616 0.35712346 -0.20377021 30 5
22.881437 3.5463245 4.5008016 6 13
2.3092856 0.35749647 -0.12246612 36 6
14.449669 2.2343466 3.3756154 18 14
2.33199 0.3601779 -0.041187551 1 7
10.982093 1.6942316 2.9774549 25 15
4.1496119 0.63498062 -1.1248276 3 0
2.3444135 0.35832742 0.041397061 52 8
4.6137776 0.70435786 -1.0775154 4 1
5.1334686 0.78278172 -1.0093796 2 2
24.167908 3.6809504 2.1388006 14 10
2.2888083 0.34819251 -0.36668241 54 3
24.06497 3.6566777 2.9887233 7 11
2.290313 0.34801361 -0.28444317 35 4
23.947824 3.6346016 3.8363996 16 12
23.833179 3.6086917 4.6855073 29 13
2.3164434 0.35032988 -0.12278011 7 6
14.476269 2.1893344 3.3801146 18 14
2.3608532 0.35662365 -0.04167622 1 7
10.987649 1.6578065 2.9774547 25 15
4.1631579 0.62293261 -1.1279334 3 0
2.3455889 0.35055047 0.041397061 48 8
4.6045227 0.6873309 -1.0748159 4 1
2.4376094 0.36386928 0.12916519 1 9
5.1360364 0.76575279 -1.0093796 2 2
24.1721 3.5996058 2.1381035 14 10
2.2938576 0.34118336 -0.36730808 54 3
24.088749 3.578599 2.990186 7 11
23.959749 3.5551615 3.8363998 24 12
2.3275893 0.34495389 -0.20586193 1 5
23.852783 3.5307815 4.6870337 36 13
2.3333991 0.34498259 -0.1236175 1 6
14.504657 2.1444485 3.3850639 21 14
2.3897185 0.35288301 -0.042164888 1 7
11.000733 1.6224856 2.9795253 25 15
4.1613784 0.6085636 -1.1268982 3 0
2.3586102 0.34450477 0.041606482 54 8
4.602921 0.67149425 -1.0739162 4 1
2.3874784 0.34787029 0.12644371 6 9
5.1346622 0.7481519 -1.0086164 2 2
24.179958 3.5188587 2.1377573 14 10
2.3086605 0.33556312 -0.36949819 57 3
24.080835 3.495851 2.9877484 7 11
23.985693 3.4734912 3.8385892 40 12
2.3406105 0.33853874 -0.20690779 1 5
23.749722 3.4350872 4.6645179 35 13
2.342437 0.33838555 -0.12403619 2 6
14.508193 2.093251 3.3841636 21 14
2.3711429 0.3416875 -0.041815836 1 7
11.015889 1.5854545 2.9821134 26 15
4.1712303 0.59439826 -1.1289687 3 0
2.367717 0.33739853 0.041746106 52 8
4.601378 0.65487254 -1.0730164 2 1
5.1179323 0.726569 -1.0048004 2 2
24.176914 3.4279683 2.1363602 14 10
2.313787 0.3276526 -0.37012395 54 3
24.073235 3.4089823 2.9853108 7 11
2.2977061 0.3249675 -0.28493065 1 4
23.985939 3.3880804 3.8367126 56 12
2.3378325 0.32980919 -0.20655918 1 5
22.261345 3.1365631 4.3699064 23 13
2.3436613 0.32979724 -0.12403617 9 6
14.523488 2.0411427 3.3859634 21 14
2.3802416 0.33452111 -0.041955449 2 7
11.030922 1.5483371 2.9847016 22 15
4.1885877 0.58196008 -1.1331097 1 0
2.3728995 0.3292672 0.041815914 54 8
4.6462135 0.64388943 -1.0829141 2 1
2.3780363 0.32913402 0.12581569 40 9
5.1243272 0.70923662 -1.0055636 2 2
24.14926 3.3381028 2.132874 14 10
2.3188303 0.32011473 -0.37074968 59 3
24.117033 3.3250697 2.9892108 7 11
2.3146148 0.31870946 -0.28688034 1 4
23.988411 3.2988045 3.8351481 100 12
2.342917 0.32218996 -0.20690779 2 5
14.54597 1.9925529 3.3895626 21 14
2.3854146 0.32633749 -0.042025268 2 7
11.030782 1.5071038 2.9831488 21 15
4.274826 0.57874018 -1.1558857 1 0
2.3779979 0.32151863 0.041885726 52 8
3.1807103 0.42948312 -0.74098861 1 1
2.3950057 0.32296589 0.12665306 39 9
24.180508 3.2564497 2.13462 14 10
2.3121023 0.31096467 -0.36949819 59 3
24.085211 3.2350454 2.9838488 14 11
2.3196476 0.31115636 -0.28736779 1 4
24.005655 3.2158301 3.836087 25 12
2.3400779 0.31347999 -0.20655918 2 5
22.306053 2.9841862 4.374486 64 13
2.3558049 0.31475094 -0.12455954 45 6
14.57988 1.9453704 3.3958611 23 14
2.3825746 0.31747994 -0.041955456 4 7
11.173853 1.4869455 3.0204189 2 15
2.3751404 0.31269321 0.041815914 51 8
3.1396832 0.41279131 -0.73109078 1 1
2.321008 0.30391949 -0.37074965 54 3
24.098324 3.1512146 2.9840922 28 11
2.33253 0.30459905 -0.28883052 1 4
24.027935 3.1377456 3.8379636 29 12
2.3411579 0.30530903 -0.20655918 10 5
22.30076 2.9042819 4.3714333 64 13
2.3529284 0.30600995 -0.12435021 55 6
14.862931 1.9303527 3.4601972 26 14
2.3637841 0.30700114 -0.041606408 27 7
3.1750605 0.40729719 -0.85772634 1 0
2.3880651 0.30634123 0.042025343 52 8
3.1217058 0.39990053 -0.72659183 3 1
2.4902294 0.31768125 0.21963234 1 10
2.3239632 0.29647049 -0.37106258 42 3
24.104702 3.0707877 2.9836049 49 11
2.3335276 0.29686174 -0.28883052 1 4
24.036783 3.0536096 3.8376508 49 12
22.376486 2.8387187 4.3844104 42 13
2.344023 0.29694995 -0.12382683 45 6
14.913716 1.8866903 3.4705451 60 14
2.3866644 0.30150667 -0.041990362 40 7
12.103712 1.5269068 3.2688849 6 15
3.1917295 0.39868227 -0.86186743 1 0
2.3930879 0.29850009 0.042095147 52 8
3.1114798 0.38755524 -0.72389233 4 1
2.4021163 0.29919934 0.12686242 1 9
2.4138722 0.30023584 -0.47282481 1 2
2.4477706 0.30401948 0.21579748 3 10
2.3289042 0.28884217 -0.37168828 50 3
24.127098 2.9880857 2.9850676 100 11
2.3306093 0.28822872 -0.28834274 1 4
24.04874 2.9741313 3.8379641 66 12
2.3510914 0.29034409 -0.20725644 44 5
23.643036 2.9155679 4.6305537 40 13
2.3569391 0.29023221 -0.12445488 45 6
14.931816 1.8360432 3.4732442 81 14
2.3876512 0.29358992 -0.041990362 14 7
14.122032 1.7339687 3.8124049 4 15
2.4059758 0.29200771 0.042304583 52 8
3.1359627 0.38004911 -0.72929114 1 1
2.4071116 0.29129183 0.12707175 1 9
2.3174515 0.28003258 -0.45374388 1 2
2.3376937 0.28206462 -0.37293974 50 3
24.144756 2.909004 2.9860423 100 11
2.3315523 0.28049794 -0.28834274 2 4
24.037397 2.8875694 3.834522 35 12
2.3560469 0.28260943 -0.20760505 52 5
23.931326 2.8705788 4.685123 87 13
2.3658206 0.28336409 -0.12487355 40 6
14.116491 1.6832939 3.8092995 9 15
2.4030082 0.28313878 0.042234771 54 8
4.6120381 0.5426079 -1.0721164 4 1
2.4398513 0.28661764 0.12874649 1 9
2.3261669 0.27326274 -0.45527032 2 2
2.3308165 0.27298307 -0.37168831 50 3
24.158705 2.8251829 2.9865298 100 11
2.3364604 0.2728174 -0.28883049 2 4
24.059105 2.8050115 3.8363996 26 12
2.3510339 0.27410319 -0.20708209 44 5
23.917797 2.7843175 4.6805434 35 13
2.3707631 0.27556467 -0.1250829 40 6
19.874315 2.3065674 4.6191449 20 14
2.4234114 0.28082809 -0.042583738 1 7
14.116523 1.6333379 3.8077464 11 15
2.4000087 0.27429542 0.042164966 52 8
4.6100321 0.52606249 -1.0712167 4 1
2.4725876 0.28171614 0.13042125 1 9
2.3212545 0.26447386 -0.45412546 9 2
2.438894 0.27744603 0.21475165 40 10
2.3356805 0.26529172 -0.37231401 50 3
24.142776 2.7379217 2.983361 100 11
2.3650136 0.26778731 -0.29224259 2 4
24.064825 2.7205741 3.8357742 100 12
2.3638554 0.26723832 -0.20812802 44 5
23.937126 2.7019064 4.6824546 21 13
2.3697262 0.2670632 -0.12497824 42 6
2.424377 0.27236646 -0.042583738 1 7
14.129819 1.5849099 3.8098171 9 15
4.1684794 0.4624151 -1.1237922 3 0
2.4128766 0.2672374 0.042374391 21 8
4.6157146 0.51039439 -1.0721165 4 1
2.4537041 0.27089229 0.12937453 2 9
2.4497495 0.27002299 0.2156232 49 10
2.3444467 0.25800076 -0.3735655 47 3
24.14035 2.6523354 2.9818988 21 11
2.3422546 0.25693324 -0.2893177 15 4
24.083996 2.6376245 3.8373384 56 12
2.3687351 0.25941846 -0.20847663 46 5
23.985441 2.6226065 4.6900835 14 13
2.3726294 0.25900805 -0.12508291 34 6
19.884125 2.167129 4.6177955 65 14
2.461096 0.26779631 -0.043212023 1 7
4.1700687 0.44786051 -1.1237922 3 0
2.4257245 0.26009175 0.042583816 39 8
4.6058421 0.49303588 -1.0694171 7 1
2.442719 0.26105154 0.12874649 2 9
2.3152363 0.24742757 -0.45259905 41 2
2.4546392 0.26189217 0.2159718 55 10
2.3531899 0.25065294 -0.37481695 47 3
2.5345683 0.26952532 0.31296045 1 11
2.3391893 0.24833593 -0.28883052 19 4
24.106806 2.5550022 3.8395286 40 12
2.3735888 0.25156897 -0.20882525 46 5
23.971022 2.5363803 4.6855073 14 13
19.885748 2.0970981 4.6164446 75 14
2.4262192 0.25543448 -0.042583738 1 7
17.512363 1.8406271 4.7182717 21 15
4.1755257 0.43297285 -1.1248276 3 0
2.4346178 0.25202343 0.04272344 48 8
4.6231251 0.47775269 -1.0730163 4 1
2.4436154 0.25252262 0.12874649 2 9
2.3141742 0.23873916 -0.45221737 45 2
2.4516189 0.25248608 0.21562319 52 10
2.3540926 0.24202573 -0.37481692 50 3
2.5197413 0.25861302 0.31101051 2 11
24.107716 2.4700375 3.8382769 24 12
2.3665664 0.2420561 -0.20812799 44 5
23.980156 2.4485104 4.6855073 7 13
2.4350541 0.24777292 -0.042723361 1 7
4.1731668 0.41800866 -1.1237922 3 0
2.4274812 0.24315065 0.042583816 54 8
4.6324401 0.46319789 -1.0748159 4 1
2.4524317 0.24478529 0.12916519 12 9
2.3247616 0.23163235 -0.45412549 47 2
2.4524856 0.24392611 0.2156232 52 10
2.3588138 0.23460947 -0.37544268 47 3
2.3922265 0.23708951 -0.29516768 1 4
24.131916 2.3874202 3.8407795 16 12
2.3673971 0.23379429 -0.20812802 43 5
24.019405 2.3720565 4.6916127 7 13
2.3990629 0.2364987 -0.12633896 1 6
19.9193 1.960127 4.6209445 20 14
2.4438646 0.24005395 -0.042862982 1 7
17.538246 1.7196422 4.7218952 28 15
4.1745296 0.40416852 -1.1237922 3 0
2.4283149 0.2346762 0.042583816 52 8
4.6185117 0.44552669 -1.0712168 4 1
2.3274713 0.22411051 -0.45450714 45 2
2.4651797 0.23693618 0.21666931 52 10
2.3596182 0.22637472 -0.37544268 47 3
2.3732789 0.22684935 -0.29273006 1 4
24.140102 2.3031747 3.8407795 16 12
2.3840261 0.22745673 -0.20952247 40 5
24.015814 2.2870758 4.6893206 7 13
2.399874 0.22812232 -0.12633896 1 6
17.01792 1.6146665 3.9465413 3 14
2.4486694 0.23189823 -0.04293279 2 7
17.553757 1.6593162 4.724483 28 15
4.1682215 0.3888773 -1.1217217 5 0
2.4370837 0.22693937 0.04272344 52 8
4.6006351 0.42759767 -1.0667177 4 1
2.4441371 0.22673683 0.12864181 34 9
2.3360591 0.21671067 -0.45603365 44 2
2.465992 0.22832902 0.21666904 51 10
2.3662951 0.21868145 -0.37638131 43 3
2.4965739 0.23028296 0.30784199 43 11
2.4017303 0.22111078 -0.29614264 1 4
24.1716 2.2210588 3.8445342 8 12
2.3887734 0.21949752 -0.20987108 18 5
24.004099 2.2014546 4.6855044 7 13
2.4125893 0.22083668 -0.126967 1 6
16.25107 1.484684 3.7674799 3 14
2.4534464 0.22371422 -0.043002598 2 7
4.1926432 0.37639686 -1.1279334 3 0
2.445828 0.21914412 0.042863056 54 8
4.6215086 0.4132725 -1.0712167 4 1
2.4408967 0.21827406 0.12843248 29 9
2.3289793 0.20785627 -0.45450714 45 2
2.4786818 0.22077967 0.21771494 40 10
2.3729467 0.21094546 -0.3773199 47 3
2.4894528 0.2208645 0.30686697 31 11
2.3668587 0.20998795 -0.29175508 1 4
24.18277 2.141232 3.8451598 8 12
2.4153259 0.21343827 -0.21213716 3 5
24.066395 2.1224737 4.6961923 7 13
2.4173243 0.2127634 -0.12717633 2 6
19.940371 1.7550733 4.6213942 25 14
2.4442151 0.21470149 -0.042828076 19 7
17.597363 1.5426695 4.733283 10 15
4.159224 0.35949591 -1.1186159 3 0
2.4584951 0.21206507 0.043072484 52 8
4.6306205 0.39861426 -1.0730164 4 1
2.3257432 0.19979522 -0.45374388 44 2
2.3736334 0.2030758 -0.3773199 40 3
2.3952327 0.20450148 -0.29516745 1 4
24.030268 2.0389967 4.6877942 7 13
2.4299576 0.20575766 -0.12780437 2 6
19.949965 1.6892717 4.6222939 65 14
2.4449134 0.20659548 -0.042828076 41 7
17.586979 1.4830023 4.7291417 3 15
4.1719446 0.34666213 -1.1217217 3 0
2.4512134 0.20325074 0.042932864 52 8
4.6396856 0.38389784 -1.074816 4 1
2.5000501 0.20642041 0.13146797 1 9
2.3381329 0.19305146 -0.45603359 41 2
2.5343883 0.20791969 0.31222919 4 11
2.4236307 0.19840851 -0.29857978 1 4
2.630342 0.2148674 0.41799298 1 12
2.4107656 0.1965071 -0.21161424 37 5
24.036896 1.9593031 4.6877942 7 13
2.4286356 0.1975359 -0.12769969 7 6
19.967394 1.620573 4.6249933 65 14
2.4675441 0.19983481 -0.043212019 47 7
4.1616325 0.33045232 -1.118616 3 0
2.4519079 0.19469254 0.042932864 50 8
4.6137996 0.3655439 -1.0685172 4 1
2.5166838 0.19895205 0.13230535 1 9
2.3544822 0.18571602 -0.45908654 29 2
2.5026724 0.19696423 0.21963234 1 10
2.4322245 0.19056687 -0.29955474 1 4
2.5779035 0.20152703 0.40954557 5 12
2.4114366 0.18809125 -0.21161422 40 5
24.063486 1.8727189 4.6916127 7 13
2.4273522 0.1884791 -0.12759502 27 6
19.977085 1.5476835 4.6258936 80 14
2.4622457 0.19075738 -0.043107308 57 7
12.384862 0.95731711 3.3284132 1 15
4.1743188 0.31679955 -1.1217217 5 0
2.4685564 0.18691286 0.043212097 48 8
4.6267676 0.34951285 -1.0712167 4 1
2.4895139 0.18762457 0.13083994 1 9
2.5311596 0.19032022 0.22207272 2 10
2.4091175 0.18071979 -0.38263872 2 3
2.4051924 0.17958228 -0.29614237 1 4
2.4220128 0.18041198 -0.21248578 39 5
24.065964 1.7884128 4.6908469 7 13
2.4379544 0.18074378 -0.1281184 32 6
19.982367 1.4779358 4.6258936 75 14
2.4609339 0.18158378 -0.043072402 48 7
17.611403 1.2963941 4.7317295 14 15
4.1985207 0.30390099 -1.1279334 3 0
2.4771724 0.17887031 0.043351725 48 8
4.6124096 0.33223894 -1.0676174 2 1
2.5220273 0.18122429 0.13251469 1 9
2.3674705 0.17011838 -0.46137628 1 2
2.5278335 0.18119806 0.22172408 2 10
2.4136739 0.17259042 -0.38326439 2 3
2.5245786 0.18007906 0.31076685 41 11
2.409765 0.17146665 -0.29663017 2 4
2.5812495 0.18321465 0.40985838 47 12
2.4246151 0.17209689 -0.21266007 43 5
24.107307 1.706897 4.6977186 7 13
2.4345858 0.17195171 -0.12790905 38 6
19.987404 1.4081697 4.6258936 80 14
2.4615531 0.17299293 -0.043072406 41 7
17.621607 1.23532 4.733283 28 15
4.1687193 0.28711861 -1.1196512 5 0
2.4837666 0.17063396 0.043456435 41 8
2.3893988 0.16373195 -0.55292964 1 1
2.498703 0.17122196 0.13125862 1 9
2.3680499 0.16185269 -0.46137628 2 2
2.4946585 0.17006877 0.21876107 11 10
2.4260867 0.16496865 -0.38514164 2 3
2.5410359 0.17233945 0.31271669 48 11
2.41431 0.16332127 -0.29711735 2 4
2.6054935 0.1762543 0.41361284 61 12
2.4212253 0.1633646 -0.21231146 44 5
24.117035 1.6229935 4.6984792 7 13
2.4351714 0.16345172 -0.12790905 34 6
19.996084 1.3386568 4.6267934 70 14
2.470094 0.16536275 -0.043212023 15 7
17.610184 1.175843 4.7291417 28 15
4.1658406 0.27231416 -1.1186159 3 0
2.3879838 0.15568006 -0.55247968 9 1
2.5511053 0.1658673 0.1339801 1 9
2.3999462 0.15561871 -0.46748209 2 2
2.4069078 0.15564826 -0.38201293 4 3
2.5455551 0.16416815 0.31320417 48 11
2.4128573 0.15518731 -0.2968736 20 4
2.5844085 0.16576803 0.4101713 50 12
2.4217806 0.15491246 -0.21231143 43 5
24.102692 1.5417612 4.6946659 7 13
20.014029 1.27321 4.6299424 75 14
17.629606 1.1153361 4.733283 28 15
4.1667209 0.25849912 -1.118616 3 0
2.5207963 0.15594479 0.04408472 2 8
2.3690627 0.146143 -0.54798073 23 1
2.5357206 0.15598083 0.13314272 1 9
2.3769348 0.14621337 -0.46290272 10 2
2.5355318 0.15552381 0.22224703 47 10
2.5421503 0.15504037 0.31271672 46 11
2.4272544 0.14760676 -0.29857978 30 4
2.5968018 0.15746243 0.41204846 47 12
2.4342399 0.14717993 -0.21335736 42 5
23.26527 1.4066736 4.5305676 6 13
2.4920495 0.15023753 -0.13083987 1 6
20.018351 1.203335 4.6299424 75 14
2.4951415 0.14955111 -0.043630883 1 7
17.627605 1.0534486 4.73173 28 15
4.1792116 0.24389981 -1.1217217 5 0
2.5033588 0.14609665 0.043770585 4 8
2.3812308 0.13855222 -0.5506801 43 1
2.5442252 0.14759055 0.1335614 1 9
2.5261393 0.14565666 0.22137548 45 10
2.425709 0.13944118 -0.38482878 48 3
2.5466392 0.14639281 0.31320417 48 11
2.4396458 0.13981515 -0.30004221 36 4
2.6032519 0.14873552 0.41298708 41 12
2.4387167 0.13890789 -0.21370596 41 5
23.23107 1.3191607 4.5229354 6 13
2.4686542 0.13974866 -0.12958379 1 6
20.018736 1.1297408 4.6290426 70 14
2.4956486 0.14083986 -0.043630887 1 7
17.648531 0.99289048 4.7363882 28 15
4.1954689 0.23015755 -1.1258628 5 0
2.4499662 0.13397169 0.04282815 15 8
2.3992352 0.1307776 -0.55472946 63 1
2.5367477 0.13827315 0.13314271 2 9
2.3936031 0.13005278 -0.46595567 42 2
2.5286214 0.13694498 0.22154978 43 10
2.4419611 0.1318242 -0.38733172 54 3
2.5590525 0.13769846 0.31466663 44 11
2.4222786 0.13033888 -0.29784882 49 4
2.6017828 0.1395411 0.41267422 15 12
2.4551034 0.13124456 -0.21510047 40 5
23.149269 1.2334698 4.506144 6 13
2.4890716 0.13218915 -0.13063051 1 6
20.024315 1.0634477 4.6294918 35 14
2.5081062 0.13276111 -0.043840308 2 7
17.651892 0.93128324 4.7363887 28 15
4.1807747 0.21544708 -1.1217216 3 0
2.4603825 0.12635989 0.043002676 27 8
2.3860323 0.12212509 -0.55157989 57 1
2.5371921 0.12986195 0.13314271 2 9
2.3881392 0.1218139 -0.46481082 37 2
2.5250819 0.12835723 0.22120114 42 10
2.4344931 0.12332639 -0.38608021 57 3
2.5733726 0.12991145 0.31637275 40 11
2.4306276 0.12270528 -0.29882377 36 4
2.4435854 0.12250435 -0.21405457 40 5
23.310099 1.1645274 4.5366735 6 13
2.4934859 0.12413348 -0.13083987 1 6
20.035519 0.99743032 4.6312919 40 14
2.5125272 0.12464184 -0.043910116 2 7
17.643309 0.87216538 4.733283 28 15
4.1698885 0.20102468 -1.1186159 5 0
2.4907486 0.11963873 0.043526247 39 8
2.3903174 0.1143977 -0.55247974 49 1
2.5097003 0.11967222 0.13167731 12 9
2.3963742 0.11426839 -0.46633729 38 2
2.5334547 0.12036058 0.22189839 42 10
2.436862 0.11534651 -0.38639313 43 3
2.5737894 0.12137766 0.31637278 32 11
2.444922 0.11487158 -0.30052969 17 4
24.294241 1.1371965 3.8520434 8 12
2.4459686 0.1144941 -0.21422888 36 5
23.262842 1.0848489 4.5267515 6 13
2.513835 0.11679033 -0.13188659 1 6
20.054451 0.92820281 4.6348915 61 14
2.5109494 0.11577917 -0.043875214 22 7
17.650101 0.81074595 4.7343178 28 15
4.1628447 0.18612154 -1.1165453 3 0
2.5151234 0.112013 0.0439451 41 8
2.3868084 0.10587987 -0.55157989 49 1
2.5559947 0.11293809 0.13408476 3 9
2.4026423 0.10616213 -0.46748212 43 2
2.5418212 0.11186858 0.22259565 42 10
2.4273827 0.10640639 -0.38482878 25 3
24.341478 1.0542607 3.8589263 8 12
23.317486 1.0058334 4.5366735 6 13
2.5022547 0.10750204 -0.13125855 1 6
20.067305 0.8586148 4.6371408 76 14
17.672129 0.74996185 4.7394948 28 15
4.1789112 0.17222668 -1.1206864 3 0
2.5115032 0.10306824 0.043875296 42 8
2.3891106 0.097626649 -0.55203009 46 1
2.5583692 0.10409705 0.13418944 1 9
2.4069214 0.097934835 -0.46824536 42 2
2.5581222 0.10363983 0.22399013 39 10
2.5765576 0.10348593 0.31661651 2 11
2.4575651 0.098277085 -0.30199212 1 4
24.364744 0.97006607 3.8620543 8 12
2.5084236 0.099871218 -0.21963255 2 5
24.195778 0.95912099 4.7068782 7 13
2.5066061 0.09892375 -0.13146789 1 6
20.062389 0.78825033 4.6353412 66 14
2.5236857 0.098715581 -0.044084646 52 7
17.680429 0.68849081 4.7410479 28 15
4.1910691 0.15807422 -1.1237922 5 0
2.5318303 0.09505035 0.044224337 42 8
2.4011211 0.089724757 -0.55472922 46 1
2.5507336 0.094868459 0.13377076 1 9
2.4033248 0.089385942 -0.46748212 43 2
2.584352 0.095667161 0.22625619 6 10
2.4576766 0.090549596 -0.38952178 1 3
2.6106272 0.095727347 0.3207601 2 11
2.477731 0.090421282 -0.3044298 1 4
24.316658 0.88316411 3.85392 8 12
2.4709265 0.089742333 -0.21632065 6 5
24.206829 0.87493324 4.7084017 7 13
2.5069361 0.090172797 -0.13146789 1 6
2.5240149 0.089904979 -0.044084646 57 7
17.692379 0.62710792 4.7436361 28 15
4.1761503 0.14291601 -1.1196512 3 0
2.536144 0.08634866 0.044294152 42 8
2.4131057 0.081737913 -0.55742866 31 1
2.5710106 0.086637333 0.13481748 1 9
2.4036224 0.080996722 -0.46748212 43 2
2.5826786 0.086579293 0.22608188 2 10
2.4737718 0.082496203 -0.39202473 1 3
2.6010253 0.086284213 0.31954139 12 11
2.4899356 0.082165159 -0.30589193 1 4
17.227858 0.56549078 2.7300947 9 12
24.194035 0.78991145 4.7053485 7 13
2.5152204 0.081681252 -0.13188659 1 6
17.626904 0.56935042 4.0716133 3 14
2.522315 0.081029095 -0.044049744 46 7
17.684807 0.56504136 4.7410479 28 15
4.1650381 0.12798254 -1.1165454 3 0
2.5324323 0.077372536 0.044224344 42 8
2.5872681 0.078145236 0.13565485 1 9
2.4195893 0.073080696 -0.47053507 42 2
2.5769901 0.077383436 0.22555892 2 10
2.4740446 0.073861137 -0.39202473 1 3
2.4743335 0.073004156 -0.30394202 2 4
17.279091 0.50680232 2.7379167 12 12
2.4933994 0.073132344 -0.21823806 41 5
23.39205 0.68201178 4.5488849 6 13
2.5394471 0.0735946 -0.13314262 2 6
2.5345752 0.072569206 -0.044259168 47 7
17.678947 0.50308204 4.7389774 14 15
4.1809092 0.11386269 -1.1206865 5 0
2.5466797 0.068911396 0.044468675 25 8
4.611002 0.1239652 -1.064918 4 1
2.5875251 0.069112815 0.13565485 1 9
2.4198296 0.064633667 -0.47053507 40 2
2.4663887 0.065015778 -0.39077327 1 3
2.6313305 0.068904229 0.32319748 47 11
2.5023551 0.065089844 -0.30735436 9 4
17.776409 0.45928541 2.8164465 15 12
2.4956312 0.064479113 -0.21841235 49 5
23.353075 0.59929025 4.5408711 33 13
2.5137327 0.064068809 -0.13178189 19 6
2.5388114 0.063821279 -0.044328976 46 7
17.709562 0.44209474 4.7467418 24 15
4.1658297 0.09890195 -1.1165453 3 0
4.6075101 0.10777668 -1.0640182 4 1
2.5877507 0.0600808 0.13565485 1 9
2.4318166 0.056460418 -0.47282475 45 2
2.4823997 0.056766715 -0.39327621 1 3
2.6117094 0.059268933 0.32076013 42 11
17.232836 0.38504773 2.7300947 6 12
2.4918573 0.05567766 -0.21806374 42 5
23.368763 0.51807868 4.5435424 39 13
2.5179346 0.055382222 -0.13199124 7 6
14.442574 0.31513721 3.3351245 2 14
2.5550125 0.055305522 -0.044608217 46 7
17.724518 0.38055974 4.7503657 29 15
4.1700268 0.08370924 -1.1175804 3 0
2.5910921 0.05156127 0.045236576 1 8
4.6117716 0.090966478 -1.0649182 4 1
2.5839505 0.050968029 0.13544549 1 9
2.428082 0.047469623 -0.4720616 43 2
2.5995805 0.050368603 0.22747634 43 10
2.4944413 0.047895961 -0.39515346 1 3
2.6218326 0.049884278 0.32197878 38 11
2.4769552 0.046695326 -0.30418605 55 4
17.55798 0.33100143 2.7814054 12 12
2.5079808 0.04684237 -0.21945824 41 5
23.394062 0.43285429 4.5481219 39 13
2.5471923 0.046240658 -0.044468593 46 7
17.698696 0.31820482 4.7431183 24 15
4.1741576 0.069217563 -1.1186159 3 0
2.603246 0.043168072 0.045446012 1 8
4.6237383 0.075865529 -1.0676175 4 1
2.5761251 0.041818917 0.13502683 1 9
2.4321587 0.039057299 -0.47282481 39 2
2.5877876 0.041104756 0.22643048 43 10
2.5064371 0.039812572 -0.39703065 1 3
2.6239684 0.04122014 0.3222225 35 11
2.4870203 0.038635854 -0.30540472 54 4
24.377224 0.37443316 3.861429 8 12
2.5001607 0.037965924 -0.218761 40 5
23.403219 0.35538712 4.5496483 39 13
2.5482154 0.038252048 -0.13356133 1 6
2.5433393 0.037289701 -0.044398785 23 7
17.719015 0.25670651 4.7482948 28 15
4.1782274 0.055425271 -1.1196512 3 0
2.5793865 0.03376599 0.045027155 1 8
4.6356659 0.059877187 -1.0703168 4 1
2.6082089 0.033232763 0.13670157 2 9
2.5958786 0.032622546 0.22712773 43 10
2.5105112 0.031112716 -0.39765638 2 3
2.6240964 0.032061089 0.3222225 7 11
2.4891257 0.029977554 -0.30564821 41 4
24.409985 0.28973037 3.8664348 8 12
2.5082417 0.029771166 -0.21945824 40 5
23.402355 0.27367446 4.5492668 46 13
2.540345 0.02926418 -0.13314264 1 6
14.296987 0.16220248 3.3009317 2 14
17.73719 0.19504049 4.7529535 29 15
4.1706676 0.040765543 -1.1175804 3 0
2.5954854 0.024916157 0.045306396 2 8
4.6163602 0.04351043 -1.0658178 4 1
2.6063116 0.024109041 0.1365969 4 9
5.157248 0.047705855 -1.0025105 2 2
2.6119156 0.023706246 0.22852224 43 10
2.5303571 0.022524374 -0.40078503 2 3
24.447466 0.21334431 3.0018852 28 11
2.5011246 0.021391081 -0.30711091 43 4
24.37727 0.20423399 3.8611162 33 12
2.5242689 0.021148454 -0.22085273 40 5
23.409056 0.19202536 4.5504112 13 13
2.5404313 0.020397078 -0.13314262 1 6
14.223416 0.1117171 3.2838354 2 14
2.5875297 0.019870775 -0.045166686 5 7
17.73583 0.1331142 4.7524357 14 15
4.1823764 0.026280662 -1.1206864 5 0
2.5735602 0.01572101 0.044922438 13 8
4.6164846 0.027394829 -1.065818 4 1
5.1495304 0.029661715 -1.0009841 2 2
2.619951 0.014632629 0.22921975 43 10
2.5067165 0.013562713 -0.39703065 15 3
24.505629 0.12832369 3.0089538 43 11
2.5011845 0.012659731 -0.30711064 40 4
24.429193 0.11938468 3.8692508 49 12
24.179171 0.11395446 4.7000055 21 13
2.5684488 0.011655403 -0.13460805 1 6
14.235412 0.062114656 3.2865348 2 14
17.738119 0.071206816 4.7529535 21 15
4.1824431 0.011680173 -1.1206865 3 0
4.6204495 0.011290627 -1.0667177 4 1
5.1456761 0.01167604 -1.0002209 2 2
2.6339331 0.0055157109 0.23043963 45 10
24.361015 0.042522833 2.9911609 28 11
2.5071688 0.0039375792 -0.30784187 40 4
24.364275 0.034024268 3.8589263 16 12
23.696461 0.028956113 4.6061277 27 13
2.5684738 0.0026890892 -0.13460805 1 6
14.28621 0.012470634 3.2982323 2 14
2.6036029 0.0018183347 -0.045445926 60 7
17.745987 0.0092881145 4.755024 29 15
4.170866 -0.0036397674 -1.1175805 3 0
2.6096013 -0.0027327689 0.045550723 41 8
4.6243563 -0.0056497208 -1.0676174 4 1
2.6144104 -0.0031941065 0.1370156 17 9
5.1299787 -0.0071628047 -0.99716794 2 2
2.6279585 -0.0041279909 0.22991672 43 10
2.5304537 -0.0044164793 -0.40078503 27 3
24.376886 -0.046800319 2.9931107 21 11
2.5170922 -0.0048324764 -0.30906081 40 4
24.387949 -0.05107807 3.8626807 33 12
2.5283358 -0.005736622 -0.22120135 1 5
23.201674 -0.056692496 4.5099602 13 13
2.5644729 -0.0062662023 -0.1343987 1 6
2.5775976 -0.0071980278 -0.044992168 42 7
17.776817 -0.052745033 4.7633057 7 15
4.1669674 -0.017454654 -1.1165454 5 0
2.607578 -0.011377779 0.045515817 43 8
4.6321077 -0.021019984 -1.0694171 4 1
5.1534848 -0.024285408 -1.0017473 2 2
2.6319153 -0.012862066 0.23026536 43 10
22.778622 -0.11926967 2.7969012 23 11
2.5250027 -0.013221003 -0.31003577 42 4
22.631559 -0.12244972 3.5845399 26 12
2.5402572 -0.01418762 -0.22224723 1 5
22.520119 -0.12970799 4.3775387 23 13
2.5844078 -0.015336364 -0.13544542 1 6
2.5975561 -0.015867764 -0.045341212 43 7
11.857472 -0.07450366 3.1772633 2 15
4.1668863 -0.031272717 -1.1165453 5 0
2.6055264 -0.020009398 0.045480914 42 8
4.6242175 -0.036319267 -1.0676174 4 1
2.6362967 -0.021166002 0.13816696 1 9
5.1494427 -0.042242061 -1.0009841 2 2
2.6438122 -0.0216878 0.23131122 43 10
5.8370333 -0.048901364 -0.92452765 2 3
22.422781 -0.19176684 2.7532716 28 11
2.5348661 -0.022121441 -0.31125444 31 4
22.303095 -0.19852912 3.5326037 31 12
2.5680842 -0.023307832 -0.22468758 1 5
22.183825 -0.20521164 4.3122821 39 13
2.5843384 -0.024357535 -0.1354454 2 6
14.460959 -0.13629536 3.3387237 2 14
2.5994844 -0.024954027 -0.045376118 41 7
11.833961 -0.11566696 3.1710517 1 15
4.1744714 -0.046631232 -1.118616 3 0
2.6114345 -0.029627055 0.045585629 25 8
4.6162596 -0.053177834 -1.065818 4 1
2.6801383 -0.031342179 0.14046976 1 9
5.1531792 -0.06116204 -1.0017473 2 2
2.6516836 -0.031472296 0.23200844 43 10
5.8407655 -0.070342407 -0.92515337 2 3
22.360395 -0.27319735 2.7457161 50 11
2.5228591 -0.031264458 -0.30979177 12 4
22.296291 -0.28019825 3.5316651 50 12
2.5839193 -0.032923248 -0.22608207 1 5
22.190775 -0.28661945 4.3138108 67 13
2.5922205 -0.033934027 -0.13586411 22 6
15.450237 -0.20225468 3.5672739 2 14
2.6133723 -0.034667112 -0.045620453 43 7
11.814138 -0.15878017 3.1658752 1 15
4.1781354 -0.061988432 -1.1196512 3 0
4.6277242 -0.07027445 -1.0685172 4 1
2.6680236 -0.040981121 0.13984174 1 9
5.1333046 -0.078848101 -0.99793118 2 2
2.6635036 -0.041376673 0.23305432 43 10
5.8404689 -0.091749392 -0.92515337 2 3
22.375122 -0.35540274 2.7476656 56 11
2.5386055 -0.040765967 -0.31174192 34 4
22.293142 -0.36188433 3.5313528 50 12
2.5758204 -0.041813262 -0.22538483 2 5
22.191607 -0.36411026 4.3141904 56 13
15.198041 -0.25466943 3.5092366 8 14
2.6032307 -0.044076111 -0.04544593 41 7
11.801888 -0.2018818 3.1627691 1 15
4.1663041 -0.076360054 -1.1165453 3 0
2.6591401 -0.049201 0.046423346 1 8
4.6313477 -0.08650057 -1.0694171 4 1
2.6638701 -0.05021872 0.13963237 1 9
5.1408496 -0.096914217 -0.99945766 2 2
2.6553745 -0.050522178 0.23235707 43 10
5.8361621 -0.11206004 -0.92452753 2 3
22.3797 -0.43361959 2.7483971 50 11
2.5483718 -0.049821123 -0.31296036 27 4
22.307541 -0.44001129 3.5338552 50 12
2.5676906 -0.050647128 -0.22468758 12 5
22.207861 -0.44192261 4.317627 56 13
2.6019046 -0.052230589 -0.13638747 40 6
15.175627 -0.30728495 3.5042875 8 14
2.6090586 -0.053285301 -0.045550641 42 7
11.78566 -0.2427586 3.158628 1 15
4.1776004 -0.091155566 -1.1196512 5 0
2.6469567 -0.058219001 0.04621391 1 8
4.6310177 -0.10266647 -1.0694171 4 1
2.6796637 -0.059406295 0.14046976 1 9
5.1444049 -0.11494623 -1.0002209 2 2
2.6671336 -0.060059994 0.23340294 42 10
5.8396859 -0.13252102 -0.92515337 2 3
22.401863 -0.51228142 2.7513218 50 11
22.31386 -0.51416528 3.5351069 56 12
22.208149 -0.51948571 4.3180094 61 13
2.6076965 -0.061453782 -0.13670149 40 6
2.6188633 -0.062174268 -0.045725167 41 7
11.788652 -0.28193232 3.1596634 1 15
4.1733942 -0.10563979 -1.1186159 5 0
2.6787336 -0.067805931 0.046772383 1 8
4.6189628 -0.117725 -1.0667176 4 1
2.6834326 -0.06886217 0.14067909 2 9
5.151823 -0.13310571 -1.0017474 2 2
2.6669075 -0.069369651 0.23340294 23 10
5.831315 -0.15167992 -0.92390186 2 3
22.39806 -0.58651388 2.7510781 50 11
6.6933908 -0.17644162 -0.82213098 2 4
22.323774 -0.59236652 3.5369837 56 12
2.5891829 -0.069156781 -0.22660501 45 5
22.222002 -0.59354717 4.3210592 61 13
2.5835197 -0.069456756 -0.1354454 31 6
16.347845 -0.44235966 3.7755785 25 14
2.6246269 -0.071478739 -0.045829874 40 7
11.83008 -0.32424513 3.1710513 1 15
4.1807456 -0.11969986 -1.1206864 3 0
2.6984694 -0.077731833 0.047121435 1 8
4.6224194 -0.13396037 -1.0676174 4 1
2.671211 -0.077413239 0.14005107 5 9
5.1552777 -0.15030345 -1.0025105 2 2
17.39604 -0.51022476 1.5226097 22 10
5.8346992 -0.1721506 -0.92452765 2 3
17.3381 -0.51458281 2.1297884 40 11
6.680829 -0.19944943 -0.8206678 2 4
22.341434 -0.6669811 3.5401127 56 12
2.596905 -0.077981636 -0.22730222 41 5
22.225683 -0.6712907 4.3222041 57 13
2.5932431 -0.078777723 -0.13596877 5 6
16.334511 -0.49906453 3.7728786 28 14
2.6303718 -0.080365136 -0.045934595 27 7
11.844387 -0.3639479 3.1751924 1 15
4.1764402 -0.13416855 -1.1196512 5 0
2.6822076 -0.086166188 0.046842199 1 8
4.6297412 -0.14953978 -1.0694172 4 1
5.1233273 -0.16727279 -0.99640477 2 2
17.376228 -0.57035691 1.5210429 26 10
5.8380451 -0.19162786 -0.92515337 2 3
17.274796 -0.57004565 2.1222324 13 11
6.688067 -0.22186609 -0.82164276 2 4
22.346869 -0.7452265 3.5413644 12 12
2.602591 -0.087246321 -0.22782518 39 5
2.6308944 -0.088654816 -0.13795754 1 6
16.334717 -0.5532949 3.7733288 28 14
