# .PCD v0.7 - Point Cloud Data file format
VERSION 0.7
FIELDS x y z intensity ring
SIZE 4 4 4 4 2
TYPE F F F F U
COUNT 1 1 1 1 1
WIDTH 334
HEIGHT 1
VIEWPOINT 0 0 0 1 0 0 0
POINTS 334
DATA ascii
3.2437737 -0.61409014 -0.28883424 1 5
3.1868334 -0.61484104 -0.28395349 23 5
3.1731124 -0.623115 -0.39705053 1 4
3.1592534 -0.62096608 -0.28168747 36 5
3.1574025 -0.63091129 -0.39534399 27 4
3.1961381 -0.63981169 -0.28517365 42 5
3.1493449 -0.64074153 -0.39461312 41 4
3.1627545 -0.65439934 -0.3965627 49 4
3.2131698 -0.66600031 -0.28709111 1 5
3.1410258 -0.66134542 -0.39412567 57 4
3.1835327 -0.6714558 -0.28465077 1 5
3.1445217 -0.67355305 -0.39485654 52 4
3.1967542 -0.68590832 -0.28604528 1 5
3.1420319 -0.68507367 -0.39485654 52 4
3.2058971 -0.70017099 -0.28709111 2 5
3.1318693 -0.69431871 -0.39388159 53 4
3.1878736 -0.70790219 -0.28569663 2 5
3.2012658 -0.71204871 -0.17187123 3 6
3.1332996 -0.70611954 -0.3943691 53 4
3.201057 -0.7219764 -0.28709111 22 5
3.1735606 -0.71693897 -0.17051049 31 6
3.1270707 -0.71562034 -0.39388156 52 4
3.1460826 -0.72112715 -0.28238469 36 5
3.1672726 -0.72656596 -0.17030115 37 6
3.1322877 -0.7283299 -0.39485654 53 4
3.1669605 -0.73697472 -0.28447643 46 5
3.1841683 -0.74215096 -0.17134787 25 6
3.13359 -0.74017173 -0.39534399 52 4
3.1663077 -0.74848342 -0.28465077 55 5
3.1255293 -0.7486425 -0.50903773 4 3
3.1195357 -0.74778271 -0.39388156 53 4
3.1520519 -0.75674081 -0.28360489 42 5
3.1847355 -0.7657631 -0.1716619 1 6
3.1247544 -0.75999987 -0.39485654 53 4
3.2054627 -0.78200024 -0.17291795 1 6
3.1473467 -0.77597541 -0.5134179 97 3
3.1220825 -0.77090275 -0.39485654 52 4
3.2011216 -0.79101175 -0.28848562 1 5
3.2106068 -0.79454482 -0.17333664 1 6
3.1388698 -0.78551823 -0.51247931 66 3
3.1444049 -0.78806978 -0.39802516 19 4
3.2022061 -0.80315036 -0.28883424 1 5
3.211688 -0.8067202 -0.17354597 1 6
3.1207919 -0.79258019 -0.50997633 70 3
3.1800745 -0.80940878 -0.28709111 1 5
3.1662741 -0.80707306 -0.17124319 1 6
3.1834176 -0.81262642 -0.057348434 13 7
3.1294839 -0.80642647 -0.51185358 61 3
3.1311376 -0.80801833 -0.39705017 1 4
3.1849458 -0.82249695 -0.28778833 1 5
3.1827741 -0.82312137 -0.17228992 1 6
3.1304719 -0.81834471 -0.51247931 57 3
3.143661 -0.82296485 -0.39900011 3 4
3.1820557 -0.83360952 -0.28778836 1 5
3.1837456 -0.83524001 -0.17249927 1 6
3.189271 -0.83787954 -0.057557859 72 7
3.1333251 -0.83078599 -0.51341796 66 3
3.1446066 -0.83495212 -0.39948758 3 4
3.1598711 -0.83959579 -0.28604528 2 5
3.1692295 -0.8432669 -0.17187123 3 6
3.1766655 -0.84643281 -0.057383336 64 7
3.1227753 -0.83966643 -0.51216644 66 3
3.1244211 -0.84127861 -0.39729425 30 4
3.1569209 -0.85062057 -0.28604525 2 5
3.1894064 -0.86056799 -0.17312728 3 6
3.1775525 -0.85855967 -0.057453148 56 7
3.1122017 -0.84848362 -0.51091492 55 3
3.1310408 -0.85479391 -0.3985126 49 4
3.1500885 -0.86058491 -0.28569663 23 5
3.1382213 -0.85852021 -0.1705105 25 6
3.1899655 -0.87387264 -0.057732385 56 7
3.1187413 -0.86197317 -0.51247931 61 3
3.1318641 -0.866777 -0.39900008 54 4
3.1336243 -0.86785305 -0.28447643 36 5
3.142904 -0.87160444 -0.17092919 12 6
3.1870501 -0.88444602 -0.057732385 34 7
3.1196702 -0.87337571 -0.51310503 61 3
3.1060359 -0.87072808 -0.39607522 57 4
3.1516767 -0.88470924 -0.28639388 31 5
3.2518015 -0.92016721 0.058989059 1 8
3.0770051 -0.87186486 -0.62165582 4 2
3.1242037 -0.88641679 -0.51435649 57 3
3.108706 -0.88319212 -0.39680645 57 4
3.1772382 -0.90446043 -0.17312729 1 6
3.1884904 -0.90886706 -0.057872005 1 7
3.1659141 -0.90781128 0.057488158 16 8
3.1210907 -0.89731675 -0.51435649 61 3
3.1113269 -0.89568591 -0.39753762 54 4
3.1723847 -0.91386265 -0.28883421 1 5
3.1817377 -0.91775995 -0.17354597 1 6
3.196825 -0.92332047 -0.058081429 1 7
3.1300812 -0.90937257 0.056894779 31 8
3.0595326 -0.8900345 -0.61936611 35 2
3.110353 -0.90599626 -0.51310503 57 3
3.1577005 -0.92158169 -0.28778839 1 5
3.1785147 -0.92886066 -0.17354597 1 6
3.2012596 -0.93672037 -0.05822105 1 7
3.1710093 -0.93327874 0.057697583 48 8
3.0827718 -0.90847862 -0.62470877 57 2
3.1071715 -0.916848 -0.51310503 57 3
3.1697493 -0.93711734 -0.28918284 1 5
3.1790831 -0.94108379 -0.17375532 1 6
3.2094738 -0.95129883 -0.058430478 1 7
3.1983941 -0.95348281 0.058256064 55 8
3.0664132 -0.91530299 -0.62203741 50 2
3.0963817 -0.92542571 -0.51185358 37 3
3.1398125 -0.93959999 -0.40241283 1 4
3.177911 -0.95160556 -0.29022872 1 5
3.179605 -0.95332241 -0.17396466 1 6
3.1754897 -0.95329654 -0.057872001 2 7
3.1778166 -0.95943934 0.057941914 55 8
3.0575619 -0.92429709 -0.62089258 49 2
3.1289139 -0.94825113 -0.40143782 1 4
3.1707566 -0.96153635 -0.28988013 1 5
3.1609693 -0.95977324 -0.17312729 1 6
3.1587503 -0.96030384 -0.057627674 15 7
3.1744485 -0.9705261 0.057941917 55 8
3.0580709 -0.9361136 -0.62165576 49 2
3.1068432 -0.95222944 -0.5146693 2 3
3.1255851 -0.95916724 -0.40143746 1 4
3.1673808 -0.97259843 -0.28988013 1 5
3.161418 -0.97197521 -0.17333664 1 6
3.1748617 -0.98278385 0.058011726 55 8
3.0622861 -0.94910741 -0.62318236 42 2
3.1072738 -0.9642396 -0.51529509 2 3
3.1032608 -0.96418202 -0.39900008 1 4
3.1525507 -0.98009968 -0.28883421 1 5
3.14275 -0.97825587 -0.17249927 6 6
3.1710601 -0.98828238 -0.057976719 64 7
3.1771364 -0.99565417 0.05811644 53 8
3.055208 -0.95861536 -0.62241906 50 2
3.1036639 -0.97619975 -0.39948758 3 4
3.1529114 -0.99229443 -0.28918284 2 5
3.1809402 -1.0035571 -0.05822105 64 7
3.1812665 -1.0091572 0.058256064 52 8
3.1922662 -1.013873 0.17553484 6 9
3.0555854 -0.97046274 -0.6231823 55 2
3.141835 -1.0008751 -0.28848562 3 5
3.1548717 -1.0062414 -0.17354597 48 6
3.1602736 -1.0091796 -0.057906903 52 7
3.1777246 -1.0202557 0.058256064 52 8
3.0484407 -0.97992116 -0.622419 55 2
3.1176908 -1.0033824 -0.51873672 66 3
3.123225 -1.0063667 -0.40289989 54 4
3.1421149 -1.0130588 -0.28883424 23 5
3.1361344 -1.0123394 -0.17270859 39 6
3.1510231 -1.01836 -0.057802193 46 7
3.1703398 -1.0301058 0.058186252 50 8
3.1737149 -1.0324274 0.17490683 40 9
3.0487361 -0.9917711 -0.62318236 53 2
3.1047778 -1.0112003 -0.51717234 66 3
3.1008203 -1.0111088 -0.40046251 63 4
3.1781223 -1.0449134 0.058395673 9 8
3.1890626 -1.0497439 0.17595354 33 9
3.0527146 -1.0048622 -0.62470877 56 2
3.1031051 -1.0226501 -0.51748514 57 3
3.0991569 -1.0225484 -0.40070623 48 4
3.176589 -1.0487115 -0.29266912 1 5
3.1403692 -1.0379695 -0.17333664 1 6
3.2010205 -1.0648377 0.058884349 2 8
3.177799 -1.0583453 0.17553484 51 9
3.0529134 -1.0167528 -0.62547195 53 2
3.0957689 -1.0322263 -0.51685947 61 3
3.146452 -1.0509566 -0.29022872 1 5
3.1443033 -1.0514591 -0.17375532 1 6
3.1781118 -1.063998 -0.05850029 1 7
3.1684079 -1.0675182 0.17522086 53 9
3.0419044 -1.024896 -0.62394553 53 2
3.0996337 -1.0455515 -0.51811093 57 3
3.0975847 -1.0460649 -0.40143782 1 4
3.1389894 -1.0606575 -0.28988013 1 5
3.163317 -1.0701083 -0.17501138 1 6
3.1668017 -1.0725192 -0.058360666 1 7
3.1518624 -1.0729814 0.058116443 48 8
3.1741145 -1.0817933 0.17574422 52 9
3.0383084 -1.0355082 -0.62394559 56 2
3.0791395 -1.0506239 -0.51529515 15 3
3.116457 -1.0645714 -0.40436232 1 4
3.1578915 -1.0793408 -0.29197186 1 5
3.1520038 -1.0785575 -0.17459269 3 6
3.1592553 -1.0822711 -0.058290858 2 7
3.1707861 -1.0917892 0.058535293 55 8
3.1742861 -1.0936141 0.17595354 51 9
3.0346754 -1.0461076 -0.62394559 55 2
3.127732 -1.0806293 -0.40631223 1 4
3.1541045 -1.0903574 -0.29197186 1 5
3.1444447 -1.0882468 -0.17438336 1 6
3.1595945 -1.0996687 0.058395684 56 8
3.1779935 -1.1073164 0.17637224 51 9
3.03842 -1.059279 -0.62547195 56 2
3.0961635 -1.0800163 -0.51936239 1 3
3.0978935 -1.0818329 -0.40290025 1 4
3.1578026 -1.1039909 -0.29266912 1 5
3.1408186 -1.0986683 -0.17438336 3 6
3.1820126 -1.1143249 -0.058849338 85 7
3.1613955 -1.1126827 0.058500398 55 8
3.1628063 -1.1144204 0.17574421 52 9
3.0422976 -1.0719589 -0.62699848 53 2
3.0998263 -1.0934459 -0.52061391 1 3
3.1053293 -1.096606 -0.40436232 1 4
3.1428525 -1.1104736 -0.2916232 1 5
3.1237838 -1.1049628 -0.17365065 22 6
3.155483 -1.1174152 -0.058430474 55 7
3.1612597 -1.1250523 0.058570202 55 8
3.1626601 -1.1267946 0.17595355 51 9
3.0311394 -1.0799363 -0.62547195 49 2
3.0885484 -1.1016049 -0.51936239 2 3
3.1276553 -1.1167845 -0.40777504 1 4
3.1276999 -1.1174158 -0.29057735 2 5
3.1515634 -1.128423 -0.058430474 59 7
3.161077 -1.1374344 0.058640014 55 8
3.1643448 -1.139858 0.17626756 56 9
3.03474 -1.093172 -0.62699848 12 2
3.0921171 -1.1150599 -0.52061391 2 3
3.0863953 -1.1142142 -0.40289989 3 4
3.1012933 -1.1202043 -0.28848562 6 5
3.1291416 -1.1314982 -0.17438337 60 6
3.1438448 -1.1380562 -0.05836067 55 7
3.1476908 -1.1450436 0.058465488 53 8
3.1678531 -1.1536306 0.17668624 61 9
3.0955405 -1.1297446 -0.40460604 6 4
3.1251731 -1.142414 -0.17438337 54 6
3.1436086 -1.1503974 -0.058430474 57 7
3.1493051 -1.1580946 0.058570202 55 8
3.1750526 -1.168821 0.17731427 37 9
3.117696 -1.150797 -0.29075167 38 5
3.117419 -1.1519315 -0.17417401 46 6
3.1433251 -1.1627513 -0.058500286 50 7
3.1546159 -1.1725644 0.058744729 52 8
3.085824 -1.1494473 -0.52155244 66 3
3.0745583 -1.1464731 -0.40289989 25 4
3.1077664 -1.1607099 -0.17386001 10 6
3.1280091 -1.1695147 -0.058290858 11 7
3.1579914 -1.1863818 0.058884349 20 8
3.0780959 -1.1588199 -0.52092677 61 3
3.1450067 -1.1858906 -0.29406357 1 5
3.1687868 -1.2030762 0.059163585 55 8
3.0851099 -1.173772 -0.52280402 57 3
3.0850303 -1.1749748 -0.40533766 1 4
3.1110594 -1.18551 -0.29127461 1 5
3.1313109 -1.1944791 -0.17563942 1 6
3.1347129 -1.1970305 -0.058570098 2 7
3.1421638 -1.2055345 0.058744725 57 8
3.1677465 -1.2166183 0.17783765 56 9
3.0717747 -1.1809897 -0.52123964 55 3
3.1068468 -1.1957185 -0.40874961 1 4
3.1217771 -1.2020903 -0.29266912 1 5
3.1196675 -1.2025287 -0.17522073 1 6
3.1417096 -1.2122847 -0.05877953 12 7
3.1416655 -1.2179409 0.058814533 53 8
3.1653426 -1.2283911 0.17794234 59 9
3.0584271 -1.1881285 -0.51967531 46 3
3.0915534 -1.2022394 -0.40728718 1 4
3.1546979 -1.2274288 -0.29615533 1 5
3.119173 -1.2148608 -0.17543007 3 6
3.1467047 -1.2325466 0.058989059 57 8
3.1517379 -1.2357873 0.17741896 53 9
3.0725574 -1.2072161 -0.40533727 1 4
3.1133091 -1.2238548 -0.29266912 1 5
3.1111965 -1.2242785 -0.17522073 6 6
3.131309 -1.2334554 -0.058744624 52 7
3.1461022 -1.2449949 0.059058875 57 8
3.1548324 -1.2497234 0.17783764 16 9
3.0830851 -1.2237929 -0.40728718 1 4
3.1127212 -1.2361856 -0.29301772 1 5
3.1381319 -1.2488142 -0.058954045 55 7
3.1454511 -1.2574537 0.059128683 61 8
3.0714242 -1.2315924 -0.40631223 1 4
3.1046886 -1.2455597 -0.29266909 2 5
3.1174009 -1.251923 -0.17605811 48 6
3.1281872 -1.2575232 -0.058849331 56 7
3.1373339 -1.2669281 0.059058871 61 8
3.0707865 -1.2437966 -0.40679973 1 4
3.1130116 -1.2627975 -0.1760581 60 6
3.1311901 -1.2714444 -0.058988951 55 7
3.1405218 -1.2803446 0.059198488 55 8
3.0739949 -1.256978 -0.40777469 3 4
3.101449 -1.2694682 -0.293192 46 5
3.1014142 -1.2700859 -0.17563942 55 6
3.130657 -1.2833377 -0.059058763 55 7
3.1360335 -1.2912992 0.059198488 57 8
3.0494051 -1.2593654 -0.40509391 16 4
3.0988405 -1.2810479 -0.29336634 55 5
3.0856652 -1.2768625 -0.1750114 52 6
3.1298537 -1.2957877 -0.059128571 56 7
3.1349726 -1.3043214 0.059268299 55 8
3.0906727 -1.2903219 -0.29301772 48 5
3.0922463 -1.2922466 -0.17563942 51 6
3.119549 -1.3049355 -0.059023857 52 7
3.154367 -1.3253258 0.059722062 19 8
3.0677552 -1.2927169 -0.40874961 39 4
3.0877163 -1.3030326 -0.17563941 13 6
3.1057642 -1.3119262 -0.058849335 11 7
3.140517 -1.3324237 0.059547536 52 8
3.1216311 -1.3308448 -0.059233285 5 7
3.1324048 -1.3412565 0.059477728 59 8
3.0879734 -1.3273367 -0.29406354 1 5
3.1081321 -1.3366443 -0.17731416 1 6
3.1041093 -1.3361986 -0.058988951 31 7
3.135046 -1.3553565 0.059617348 59 8
3.116456 -1.3518411 -0.29720119 1 5
3.0961192 -1.3443037 -0.17689547 3 6
3.1287701 -1.3597786 -0.059547428 44 7
3.1302955 -1.3662915 0.059617344 55 8
3.1007681 -1.3579159 -0.2961553 1 5
3.1349916 -1.3755125 -0.059756856 57 7
3.1364872 -1.3820478 0.059826776 48 8
3.0887201 -1.3655089 -0.29545805 2 5
3.1158819 -1.3788172 -0.17857024 56 6
3.1009169 -1.3734897 -0.05919838 52 7
3.1074028 -1.3880563 -0.17836089 60 6
3.1161847 -1.3932842 -0.059582334 52 7
3.0809286 -1.3878568 -0.29563239 42 5
3.0879726 -1.392327 -0.17752351 54 6
3.1079016 -1.4019655 -0.059512522 56 7
3.0763092 -1.398066 -0.29563239 18 5
3.0706122 -1.3967706 -0.1767908 54 6
3.114156 -1.4172338 -0.05972195 56 7
3.0766087 -1.4124804 -0.17741883 54 6
3.1001041 -1.4239224 -0.059547428 53 7
3.0786593 -1.4271072 -0.17783754 54 6
3.1039345 -1.4394816 -0.059721947 56 7
3.0790865 -1.4403838 -0.17815156 53 6
3.1025136 -1.452003 -0.059791759 55 7
3.0544238 -1.4412113 -0.17700016 12 6
3.1028507 -1.4653859 -0.059896473 52 7
3.0583909 -1.4561574 -0.17752351 3 6
3.1067429 -1.4805092 -0.060071003 55 7
3.0712924 -1.4754732 -0.17857024 32 6
3.0871384 -1.4844123 -0.059791759 55 7
3.0822988 -1.4940256 -0.17951229 48 6
3.0873353 -1.4977981 -0.059896473 52 7
3.0985954 -1.5153044 -0.18076836 8 6
3.0964568 -1.5155987 -0.060175709 45 7
