# .PCD v0.7 - Point Cloud Data file format
VERSION 0.7
FIELDS x y z intensity ring
SIZE 4 4 4 4 2
TYPE F F F F U
COUNT 1 1 1 1 1
WIDTH 846
HEIGHT 1
VIEWPOINT 0 0 0 1 0 0 0
POINTS 846
DATA ascii
2.1498845 0.24456862 -0.26567531 1 4
2.1309934 0.23488814 -0.26323789 2 4
2.1219308 0.22639462 -0.26201922 22 4
2.0997562 0.20921348 -0.25909412 49 4
2.1083775 0.2026428 -0.26006907 52 4
2.105119 0.19491535 -0.2595816 40 4
2.0911016 0.19288237 -0.18372436 1 5
2.0900006 0.18579268 -0.25763193 39 4
2.0619934 0.18294024 -0.1811097 7 5
2.0866497 0.17852294 -0.25714421 38 4
2.0606341 0.17557172 -0.18093537 19 5
2.0951736 0.17188679 -0.25811937 30 4
2.039362 0.16695069 -0.17901796 29 5
2.095732 0.16493739 -0.25811937 7 4
2.0558226 0.16107547 -0.18041246 37 5
2.0523725 0.15395859 -0.18006386 42 5
2.1067326 0.15101306 -0.25933808 1 4
2.0389853 0.14579821 -0.17884362 29 5
2.0953643 0.14284763 -0.25787568 1 4
2.0474336 0.13922106 -0.17954092 5 5
2.1801639 0.1417495 -0.34603307 1 3
2.1196218 0.13707025 -0.2608003 1 4
2.0359771 0.13130437 -0.17849502 19 5
2.1530418 0.13244095 -0.34165284 5 3
2.1002731 0.12845813 -0.25836292 1 4
2.0225024 0.12334814 -0.17727487 29 5
2.1337705 0.12378006 -0.33852413 20 3
2.1007087 0.12112646 -0.25836292 1 4
2.0507679 0.11788778 -0.1797152 37 5
2.0897195 0.1193951 -0.10969613 1 6
2.1341898 0.1163305 -0.33852419 23 3
2.0812969 0.11271881 -0.25592554 1 4
2.0491779 0.11062061 -0.17954092 44 5
1.9983815 0.10717896 -0.10488122 3 6
2.164175 0.11038997 -0.34321722 43 3
2.0935729 0.10605607 -0.25738817 2 4
2.0415916 0.10306559 -0.17884363 38 5
2.0087173 0.10070309 -0.10540459 17 6
2.1448152 0.1018969 -0.34008849 32 3
2.0939305 0.098747931 -0.25738797 8 4
2.0319881 0.095470406 -0.17797208 43 5
2.1510785 0.09467154 -0.34102711 39 3
2.1061614 0.091957107 -0.2588506 30 4
2.0362902 0.08855138 -0.17832072 44 5
1.9954034 0.086074613 -0.10467188 40 6
2.1454744 0.086921811 -0.34008849 38 3
2.1025028 0.084445789 -0.25836292 36 4
2.0286233 0.081123866 -0.17762347 43 5
1.9936961 0.079030149 -0.10456721 55 6
2.1477253 0.079879522 -0.34040141 40 3
2.0769825 0.07652346 -0.25519454 54 4
2.0368588 0.074332274 -0.17832072 43 5
1.9799757 0.071911342 -0.10383452 38 6
2.1479909 0.072382525 -0.34040141 40 3
2.063349 0.068809271 -0.25348815 43 4
2.0331113 0.067444719 -0.17797208 42 5
1.9762222 0.064867921 -0.10362516 17 6
2.1521792 0.065003924 -0.34102711 39 3
2.0655606 0.061666079 -0.25373209 39 4
2.021385 0.059994165 -0.17692621 46 5
2.14252 0.057226721 -0.33946279 38 3
2.0697324 0.054559629 -0.25421935 36 4
2.0255656 0.053041615 -0.17727484 44 5
2.0045791 0.051791903 -0.10509057 1 6
2.1229582 0.049289532 -0.33633411 32 3
2.0738795 0.047424812 -0.25470683 37 4
2.0257385 0.045971178 -0.17727484 42 5
1.9807867 0.044258382 -0.10383452 1 6
1.9892161 0.043753002 -0.034730185 1 7
2.068078 0.040070392 -0.2539756 28 4
2.033855 0.039052211 -0.17797208 43 5
1.9769354 0.037269 -0.10362518 1 6
1.9853579 0.036734562 -0.034660373 2 7
2.1632092 0.035871204 -0.42054313 1 2
2.060266 0.032725535 -0.25300068 4 4
2.02601 0.031826764 -0.17727484 43 5
1.9770532 0.030367455 -0.10362516 1 6
1.951483 0.029294316 -0.034066994 11 7
2.1652842 0.028345101 -0.42092472 6 2
2.1411347 0.027281489 -0.33914992 1 3
2.0722773 0.025681691 -0.25446308 1 4
2.0181398 0.024657542 -0.17657758 42 5
1.9851356 0.023562245 -0.10404384 1 6
2.1451676 0.019843342 -0.33977565 1 3
2.0961745 0.018659428 -0.25738797 1 4
2.0142288 0.017577456 -0.17622894 38 5
2.0131664 0.01686641 -0.10550924 1 6
1.9476404 0.015637571 -0.033997182 53 7
2.1615028 0.013203889 -0.42016152 30 2
2.141273 0.012333907 -0.33914992 1 3
2.076376 0.011234337 -0.25495079 1 4
2.02424 0.01059993 -0.17710052 14 5
1.9972354 0.0097604254 -0.1046719 1 6
1.9536823 0.0088656461 -0.034101896 62 7
2.1733155 0.0056890161 -0.42245129 37 2
2.1452539 0.0048677889 -0.33977565 1 3
2.0962539 0.0040249135 -0.25738797 1 4
2.0322344 0.0035473215 -0.17779778 11 5
1.9573121 0.0027333512 -0.10257845 1 6
1.9537015 0.002045447 -0.034101896 57 7
2.1576161 -0.0018828753 -0.41939831 38 2
2.1650114 -0.0026450618 -0.34290433 1 3
2.0883152 -0.0029158394 -0.25641298 1 4
2.0362191 -0.003553876 -0.17814641 30 5
1.9852717 -0.003811453 -0.10404384 1 6
1.9516979 -0.0044282698 -0.034066994 60 7
2.1477816 -0.008996659 -0.41749018 36 2
2.1649907 -0.0098244846 -0.34290433 1 3
2.0962343 -0.0098783448 -0.25738817 1 4
2.0142801 -0.010195276 -0.17622897 40 5
1.9852463 -0.010741321 -0.10404384 2 6
1.9456733 -0.010866803 -0.03396228 64 7
2.1477401 -0.01611891 -0.41749018 37 2
2.1412425 -0.016817624 -0.33914992 1 3
2.0882471 -0.017130369 -0.25641298 1 4
2.014235 -0.016874813 -0.17622897 42 5
1.9772109 -0.017254857 -0.10362515 2 6
1.9416245 -0.017622108 -0.033892471 64 7
2.1555231 -0.023702167 -0.41901663 39 2
2.1293192 -0.024157396 -0.33727267 1 3
2.092144 -0.024466032 -0.2569007 2 4
2.014164 -0.023905706 -0.17622897 44 5
1.9731448 -0.02410771 -0.10341582 2 6
1.9455501 -0.02444979 -0.03396228 64 7
1.9375112 -0.027392743 0.033822719 1 8
2.1515012 -0.031169329 -0.41825342 38 2
2.1529238 -0.031941608 -0.34102711 1 3
2.0602884 -0.031286575 -0.25300068 4 4
2.0180523 -0.030997498 -0.17657758 43 5
1.9650606 -0.030869633 -0.10299714 3 6
1.9494518 -0.031305093 -0.034032088 63 7
1.9114119 -0.033697527 0.03336896 5 8
2.1474531 -0.038608689 -0.41749015 39 2
2.1211989 -0.038877346 -0.33602127 2 3
2.062151 -0.038515192 -0.25324461 20 4
2.013948 -0.03796652 -0.17622897 44 5
1.9689345 -0.037805479 -0.10320648 11 6
1.9353355 -0.037836153 -0.033787753 67 7
1.8772956 -0.039651524 0.032775581 20 8
2.1355288 -0.045851618 -0.41520047 39 2
2.1249995 -0.046367656 -0.33664694 2 3
2.0639887 -0.045757212 -0.25348836 34 4
2.0098195 -0.044907268 -0.17588034 43 5
1.9371909 -0.044637568 -0.033822659 70 7
2.1392808 -0.053403702 -0.41596368 38 2
2.1327233 -0.053984951 -0.33789837 6 3
2.0757232 -0.053267147 -0.25495079 36 4
2.0096505 -0.051922578 -0.17588034 43 5
1.9825987 -0.051916175 -0.10393918 45 6
1.9430201 -0.051558487 -0.033927374 67 7
1.8809704 -0.052868817 0.032845382 43 8
2.1469314 -0.061094247 -0.41749018 41 2
2.1127768 -0.060860433 -0.33476973 26 3
2.0695717 -0.060338892 -0.25421959 54 4
2.0094571 -0.058937248 -0.17588037 44 5
1.9704272 -0.058480918 -0.10331116 44 6
1.944827 -0.058400594 -0.03396228 70 7
1.8807746 -0.059434306 0.032845385 52 8
2.2438164 -0.071298786 -0.51828712 1 1
2.1506295 -0.068713441 -0.41825342 41 2
2.0376041 -0.066526249 -0.25031978 39 4
2.0132215 -0.066081934 -0.17622897 43 5
1.9662186 -0.065226197 -0.1031018 21 6
1.936617 -0.064920962 -0.033822659 60 7
1.8885494 -0.066279635 0.032985006 47 8
2.2221308 -0.078375161 -0.51333821 6 1
2.1386044 -0.075802855 -0.41596374 39 2
2.1142747 -0.075679466 -0.33508262 30 3
2.041327 -0.073781803 -0.25080702 39 4
2.0089965 -0.072964363 -0.17588034 46 5
1.9323821 -0.071532682 -0.033752851 60 7
1.8962995 -0.073179945 0.033124626 13 8
2.2140548 -0.085829407 -0.51153862 21 1
2.134403 -0.083114728 -0.41520041 38 2
2.131762 -0.08375717 -0.3378984 33 3
2.0410571 -0.080906913 -0.25080702 38 4
2.0007663 -0.079659559 -0.17518312 44 5
1.967711 -0.079031438 -0.10320648 1 6
1.9221303 -0.077872768 -0.033578329 57 7
2.2332118 -0.094380215 -0.51603764 39 1
2.1380229 -0.090731151 -0.41596368 40 2
2.0919855 -0.08950904 -0.33164105 8 3
2.0427458 -0.088116616 -0.25105077 35 4
1.9964947 -0.086470611 -0.17483445 43 5
2.0033395 -0.087467693 -0.10509057 1 6
1.9238594 -0.084333934 -0.033613231 40 7
1.9157339 -0.086992964 0.033473674 1 8
2.203686 -0.10045419 -0.50928915 35 1
1.8974079 -0.086824492 0.099543028 1 9
2.1376932 -0.098193683 -0.41596368 39 2
2.0602884 -0.095719233 -0.25324461 11 4
2.0001614 -0.093625486 -0.17518312 42 5
1.9711174 -0.092610762 -0.10341581 1 6
1.9275479 -0.091238037 -0.033683039 12 7
1.8954453 -0.092702746 0.033124626 1 8
2.1974823 -0.10785928 -0.5079394 38 1
1.8731552 -0.092267998 0.098286964 2 9
2.1373558 -0.105282 -0.41596368 39 2
2.1031656 -0.1043338 -0.3335183 1 3
1.9998403 -0.10025775 -0.17518313 42 5
1.9588139 -0.098886475 -0.10278779 1 6
1.8951102 -0.099318527 0.033124626 1 8
2.1932006 -0.1153246 -0.50703961 33 1
1.8568659 -0.097964168 0.097449586 7 9
2.125212 -0.11212152 -0.41367397 37 2
2.114624 -0.11230315 -0.33539546 1 3
2.0813751 -0.11126596 -0.25592554 1 4
2.007436 -0.10766471 -0.17588034 42 5
1.9744114 -0.10658469 -0.10362515 1 6
1.9188774 -0.10425856 -0.033543427 1 7
1.9067316 -0.10660284 0.033334054 1 8
2.1947303 -0.12308873 -0.5074895 33 1
2.1248076 -0.11953923 -0.41367397 38 2
2.1299968 -0.12057702 -0.3378984 1 3
2.0889013 -0.11898217 -0.2569007 1 4
1.9971019 -0.11410304 -0.17500877 34 5
1.9660518 -0.11301755 -0.10320648 1 6
1.9304796 -0.11164882 -0.033752851 2 7
1.8903784 -0.11230917 0.033054817 1 8
2.1981778 -0.13098083 -0.50838929 32 1
1.8421808 -0.11009102 0.096716888 45 9
2.1243775 -0.12695546 -0.41367397 35 2
2.1335065 -0.12824844 -0.33852413 1 3
2.0765843 -0.12555426 -0.25543827 1 4
1.9947026 -0.12095295 -0.17483445 10 5
1.9736195 -0.12036598 -0.10362516 1 6
1.9220945 -0.11789706 -0.033613231 2 7
1.874009 -0.11790263 0.032775581 2 8
2.184093 -0.1377942 -0.50523996 11 1
1.8338121 -0.11601633 0.096298203 47 9
2.1297996 -0.13474201 -0.41481882 18 2
2.1212173 -0.13494249 -0.33664691 1 3
2.080096 -0.13305557 -0.25592557 1 4
1.9942682 -0.12791499 -0.17483445 10 5
1.9572425 -0.12622616 -0.10278779 1 6
1.9296533 -0.12512326 -0.033752851 2 7
1.8815674 -0.12497357 0.032915201 2 8
1.8314033 -0.12228376 0.09619353 62 9
2.1286173 -0.14287527 -0.3378984 1 3
2.0756574 -0.14004838 -0.25543827 1 4
1.9938098 -0.13487552 -0.17483447 28 5
1.9647605 -0.13359943 -0.10320648 1 6
1.945165 -0.13294911 -0.034032088 8 7
1.897078 -0.1326566 0.033194438 3 8
2.2122371 -0.15508269 -0.51198846 1 1
1.8249881 -0.12825578 0.09587951 60 9
2.1150982 -0.14864403 -0.41214755 2 2
2.1320467 -0.15058303 -0.33852419 1 3
2.0553548 -0.14588746 -0.25300068 1 4
2.0032637 -0.14254147 -0.17570603 38 5
1.9642823 -0.1404569 -0.10320648 1 6
1.8746657 -0.13766684 0.032810483 12 8
2.2155697 -0.16309007 -0.51288837 2 1
1.8344884 -0.13536027 0.096402861 62 9
2.1263137 -0.15689299 -0.4144372 8 2
2.135448 -0.1583164 -0.33914992 1 3
2.0587921 -0.15335599 -0.25348836 1 4
1.9948064 -0.14893988 -0.17500877 45 5
1.95183 -0.14641626 -0.10257845 1 6
1.9222552 -0.14487249 -0.033648137 64 7
2.2072146 -0.17022346 -0.51108867 7 1
1.8280308 -0.14130121 0.096088849 60 9
2.087616 -0.16209939 -0.33164108 1 3
2.0503283 -0.15992415 -0.25251341 2 4
1.9843429 -0.15512578 -0.17413723 44 5
1.9513071 -0.15322851 -0.10257845 2 6
1.9157571 -0.15110978 -0.033543419 82 7
1.8756524 -0.15091142 0.032845389 44 8
2.1774707 -0.17557767 -0.50434023 21 1
1.8315082 -0.1480031 0.096298203 58 9
2.1310377 -0.17220791 -0.41558209 35 2
2.1185393 -0.17194231 -0.33664694 2 3
2.0497575 -0.16708016 -0.25251341 9 4
1.9877608 -0.16237591 -0.17448585 46 5
1.9666847 -0.16134536 -0.10341582 2 6
1.9231898 -0.1584529 -0.033683043 64 7
1.8671433 -0.15678841 0.032705769 43 8
2.2040312 -0.18546505 -0.51063889 39 1
1.8190391 -0.15338843 0.095670164 60 9
2.1323798 -0.17981052 -0.41596374 38 2
1.8443573 -0.15584755 0.16193527 1 10
2.1021795 -0.17800298 -0.33414397 2 3
2.053118 -0.17457047 -0.25300071 30 4
1.9951228 -0.16999006 -0.17518312 42 5
1.9481996 -0.16667712 -0.10247377 3 6
1.9226249 -0.1651651 -0.033683043 60 7
2.2478511 -0.19626611 -0.60460132 4 0
1.870569 -0.16365357 0.032775581 52 8
2.1858983 -0.19162574 -0.50658965 36 1
1.8184925 -0.15973713 0.095670164 58 9
2.1180487 -0.18605025 -0.41329232 38 2
1.8140311 -0.15966427 0.15932061 8 10
2.1074491 -0.18586053 -0.33508265 3 3
2.0485411 -0.18138596 -0.25251341 36 4
1.9945173 -0.17695335 -0.17518312 46 5
1.9140698 -0.17116287 -0.033543423 71 7
2.2817831 -0.207257 -0.61391884 30 0
1.8759606 -0.17072575 0.032880291 53 8
2.1832755 -0.19907784 -0.50613981 41 1
1.817924 -0.16608387 0.095670171 56 9
2.1115212 -0.19290668 -0.41214752 41 2
2.1087542 -0.19339614 -0.33539543 25 3
2.0380113 -0.18762563 -0.2512947 54 4
1.9819837 -0.1828164 -0.17413723 44 5
1.9688649 -0.18229948 -0.10362516 35 6
1.9174429 -0.17821333 -0.033613235 64 7
2.2695055 -0.21413182 -0.61081296 33 0
1.8673899 -0.17652032 0.032740675 56 8
2.1864476 -0.20706515 -0.50703967 33 1
1.8173331 -0.17242861 0.095670164 60 9
2.1147437 -0.20064692 -0.41291073 37 2
1.7811372 -0.16930802 0.15653163 73 10
2.0254879 -0.1936052 -0.2498323 39 4
1.9872833 -0.19030347 -0.17466018 48 5
1.9582758 -0.18821558 -0.1031018 45 6
1.9148185 -0.18471336 -0.033578329 67 7
2.2495179 -0.22017078 -0.60563666 33 0
1.8627821 -0.18264738 0.032670863 53 8
2.1740749 -0.21355301 -0.50434023 34 1
1.824702 -0.17923513 0.096088849 60 9
2.1179385 -0.20841211 -0.413674 39 2
1.7944146 -0.1768925 0.1577518 100 10
2.0896604 -0.20636597 -0.33257967 32 3
2.032701 -0.20145743 -0.25080723 39 4
1.9846243 -0.19704241 -0.17448585 46 5
1.9417078 -0.19346595 -0.10226443 25 6
1.9122057 -0.19086351 -0.033543423 67 7
2.2468131 -0.22782679 -0.60511887 27 0
1.8661451 -0.18922706 0.032740675 53 8
2.1714163 -0.22056442 -0.50389034 35 1
1.8161173 -0.18479474 0.095670164 54 9
2.1171978 -0.2158038 -0.41367397 39 2
1.7898223 -0.18275037 0.15740319 100 10
2.104686 -0.21489964 -0.33508262 36 3
2.0241232 -0.20738767 -0.2498323 39 4
1.9839244 -0.20396881 -0.17448585 46 5
1.9194843 -0.1983594 -0.033683043 60 7
2.265259 -0.23728888 -0.6102953 3 0
1.8614957 -0.19532259 0.032670863 38 8
2.1725709 -0.22834642 -0.50434023 34 1
1.807516 -0.19029656 0.095251478 37 9
2.1086605 -0.22200127 -0.41214746 39 2
1.7892061 -0.18868463 0.15740317 100 10
2.0803494 -0.21975487 -0.33132815 12 3
2.0154908 -0.21361503 -0.24885713 39 4
1.9931432 -0.21159834 -0.17535742 50 5
1.9582202 -0.20858204 -0.10320648 1 6
1.9028732 -0.20335846 -0.033403803 71 7
1.8627905 -0.20203489 0.032705769 11 8
2.1775725 -0.23656006 -0.50568986 35 1
2.1039693 -0.22893576 -0.41138425 39 2
1.7825947 -0.19428134 0.15688024 63 10
2.0245993 -0.2217297 -0.25007603 33 4
1.9805098 -0.2172509 -0.17431155 48 5
1.9336567 -0.21279451 -0.10195041 1 6
1.8981766 -0.20956062 -0.033333994 67 7
1.8839341 -0.21098411 0.033089723 2 8
2.1747968 -0.24394253 -0.50523996 34 1
1.8220216 -0.20469449 0.096088849 1 9
2.1109612 -0.23715532 -0.41291073 40 2
2.0964315 -0.23626401 -0.334144 1 3
2.0119779 -0.22745751 -0.24861337 8 4
1.9738001 -0.2234904 -0.17378862 46 5
1.9606853 -0.22269858 -0.10341582 1 6
1.8934598 -0.21573249 -0.033264186 52 7
1.8573619 -0.21457559 0.032635961 1 8
2.1623173 -0.25018865 -0.50254059 34 1
1.831216 -0.21220279 0.096612215 2 9
2.1140213 -0.24497449 -0.413674 40 2
1.7851532 -0.20718077 0.15722908 1 10
2.1309125 -0.24768576 -0.33977562 1 3
1.8238937 -0.21232216 0.22545826 1 11
1.9848813 -0.23176523 -0.17483447 43 5
1.9559286 -0.22907667 -0.10320648 1 6
1.9065974 -0.22397371 -0.033508517 23 7
1.8844006 -0.22436763 0.033124622 1 8
2.1653008 -0.25819647 -0.50344038 34 1
1.8264978 -0.21812001 0.096402869 2 9
2.1170521 -0.25281793 -0.41443723 37 2
1.7943105 -0.21459383 0.15810043 1 10
2.0986533 -0.25136381 -0.33476973 1 3
1.7876641 -0.21443191 0.22107098 1 11
2.0576429 -0.2471804 -0.25446308 1 4
1.980104 -0.23821642 -0.17448585 42 5
1.9432198 -0.23446721 -0.10257845 1 6
1.8756669 -0.22997063 0.032985006 1 8
2.172123 -0.26670319 -0.50523996 27 1
1.805902 -0.22205682 0.095356151 2 9
2.1005681 -0.25828946 -0.41138428 36 2
1.7895955 -0.22036883 0.1577518 1 10
2.1134474 -0.26062205 -0.33727267 1 3
1.7672037 -0.21823774 0.21863361 7 11
2.0291867 -0.25095049 -0.25105077 1 4
1.983215 -0.24561659 -0.17483447 34 5
1.9463536 -0.24174124 -0.10278779 1 6
1.9109403 -0.23802021 -0.033613231 2 7
1.8708847 -0.23601598 0.032915197 1 8
2.1711791 -0.27428368 -0.50524002 4 1
1.8249304 -0.23086593 0.096402861 2 9
2.095758 -0.26512742 -0.41062102 13 2
1.7888155 -0.22661434 0.1577518 3 10
2.1086054 -0.26750058 -0.33664694 1 3
1.7546153 -0.22290409 0.21717115 25 11
2.0519285 -0.26103821 -0.25397584 1 4
1.9566522 -0.24926461 -0.17256843 6 5
1.9415355 -0.24802761 -0.10257845 1 6
1.9180318 -0.24570556 -0.033752851 2 7
1.8740157 -0.24305956 0.032985006 1 8
1.835997 -0.23878023 0.0970309 2 9
1.764305 -0.22976951 0.15566027 3 10
2.1037416 -0.27434853 -0.33602127 1 3
1.7676054 -0.23082678 0.21887735 51 11
2.070688 -0.27077308 -0.25641322 1 4
1.9656479 -0.25738651 -0.17343999 3 5
1.9446183 -0.25532335 -0.10278779 1 6
1.9092323 -0.25135517 -0.033613231 2 7
1.8850487 -0.25118434 0.033194434 1 8
2.1865957 -0.29175422 -0.50928909 1 1
1.8351524 -0.24518758 0.0970309 2 9
2.1094236 -0.28183192 -0.41367397 2 2
1.7871898 -0.23909698 0.1577518 3 10
2.0949395 -0.28064108 -0.33476976 1 3
1.7608862 -0.23620375 0.2181461 58 11
2.0579262 -0.27641398 -0.25495082 1 4
1.9706609 -0.26504302 -0.17396289 24 5
1.9516327 -0.26317739 -0.10320648 1 6
1.9142883 -0.25882193 -0.033717949 3 7
1.860386 -0.25451037 0.032775581 2 8
2.1778414 -0.29832712 -0.5074895 5 1
1.8263704 -0.25050634 0.096612215 2 9
2.1123173 -0.28972706 -0.41443723 8 2
1.7863443 -0.24533401 0.1577518 5 10
2.0861194 -0.28687567 -0.3335183 1 3
1.7364526 -0.2390995 0.21522124 62 11
2.0372839 -0.28088465 -0.25251341 2 4
1.9388317 -0.26834533 -0.10257845 1 6
1.9014885 -0.26385334 -0.033508517 18 7
1.8634465 -0.26155862 0.032845385 2 8
2.1748569 -0.30565622 -0.50703961 24 1
1.8413072 -0.25910661 0.097449593 4 9
2.0929289 -0.29525954 -0.33476973 1 3
1.7434696 -0.24626997 0.21619619 78 11
2.0441527 -0.28910625 -0.25348836 2 4
1.9825721 -0.28074983 -0.17518313 42 5
1.945793 -0.27623445 -0.10299714 1 6
1.8684601 -0.26891631 0.032950103 4 8
2.1024704 -0.30334523 -0.41291073 38 2
2.1075258 -0.30482563 -0.33727267 1 3
1.7524226 -0.25377688 0.21741492 85 11
2.0333085 -0.29481575 -0.25226966 4 4
1.9736929 -0.28652358 -0.17448585 49 5
1.940864 -0.28244957 -0.10278779 1 6
1.9035579 -0.27769905 -0.033578329 64 7
2.1726701 -0.32083198 -0.50703961 29 1
2.1072254 -0.31154376 -0.41405562 42 2
1.7659392 -0.26140112 0.156183 100 10
2.0908167 -0.3098636 -0.33476973 2 3
1.7534896 -0.26018381 0.21765864 77 11
2.0283403 -0.30132812 -0.25178197 20 4
1.9707102 -0.29311821 -0.17431155 48 5
1.9319645 -0.2880446 -0.10236911 2 6
1.8927375 -0.28253382 -0.033403803 82 7
2.1542521 -0.32541543 -0.50299072 14 1
1.8128688 -0.27417064 0.096088849 47 9
2.1119485 -0.31977922 -0.41520047 43 2
1.7709254 -0.26845965 0.15670614 100 10
2.0702472 -0.31383467 -0.33164105 2 3
1.7428039 -0.26450777 0.21643992 81 11
2.0292926 -0.30835086 -0.25202572 33 4
1.9657354 -0.29939544 -0.17396292 48 5
1.9349477 -0.29505181 -0.10257845 2 6
1.9036002 -0.29095173 -0.033613231 64 7
1.8478056 -0.285395 0.032635961 44 8
1.8059796 -0.27958044 0.095774844 69 9
2.1069963 -0.32618025 -0.41443723 40 2
1.7779013 -0.27555138 0.15740319 100 10
2.0925629 -0.32469389 -0.33539543 7 3
1.7379469 -0.26998025 0.21595246 85 11
2.0282037 -0.31543258 -0.25202569 36 4
1.7937585 -0.27929154 0.28752664 1 12
1.9765435 -0.30775151 -0.17500877 50 5
1.9378527 -0.30242014 -0.10278779 4 6
1.9045489 -0.29790384 -0.033648141 67 7
1.8586491 -0.29371604 0.032845385 58 8
1.8010473 -0.28525788 0.09556549 69 9
2.0942104 -0.33169037 -0.41214752 43 2
1.7769284 -0.28175575 0.15740317 100 10
1.7448359 -0.27729142 0.21692741 81 11
2.0192485 -0.32126272 -0.25105077 60 4
1.7518061 -0.27902612 0.28095636 5 12
1.9754575 -0.31464913 -0.17500879 48 5
1.895599 -0.3032864 -0.033508521 75 7
1.8595866 -0.30052119 0.032880291 57 8
1.8039836 -0.29218161 0.095774837 64 9
2.0891633 -0.33837068 -0.41138425 42 2
1.764134 -0.28604332 0.15635732 100 10
2.076596 -0.33707911 -0.33320534 31 3
1.7399386 -0.28274354 0.21643993 85 11
2.0063586 -0.32639676 -0.24958831 48 4
1.7469221 -0.28450432 0.28033063 26 12
1.9664813 -0.32026184 -0.17431155 50 5
1.9514635 -0.31851524 -0.10362516 37 6
1.8886082 -0.30893305 -0.033403803 71 7
1.8427427 -0.30440328 0.032601055 59 8
1.8029528 -0.29847693 0.095774844 62 9
2.0957172 -0.34694377 -0.41291073 41 2
1.757228 -0.29122224 0.15583438 100 10
2.0851507 -0.34594235 -0.33476973 41 3
1.7467741 -0.29011631 0.2174149 81 11
2.0110817 -0.33437502 -0.25031978 40 4
1.7244842 -0.28703284 0.27688909 49 12
1.9614207 -0.32646987 -0.17396292 48 5
1.9463997 -0.32466802 -0.10341582 37 6
1.891463 -0.31618297 -0.033473611 71 7
1.8495562 -0.31216493 0.032740675 59 8
1.8097773 -0.30610085 0.09619353 62 9
2.0944934 -0.35425699 -0.41291073 43 2
1.7738805 -0.30034789 0.15740317 100 10
2.0449786 -0.34661654 -0.32851237 15 3
1.7300937 -0.29355529 0.21546498 85 11
1.99816 -0.3393985 -0.24885713 41 4
1.7351561 -0.29503742 0.27876627 81 12
1.9622334 -0.33364856 -0.17413723 52 5
1.9216281 -0.32743445 -0.10215976 7 6
1.9002037 -0.32446644 -0.033648137 67 7
1.8484552 -0.31861916 0.032740675 59 8
1.7968887 -0.31037661 0.09556549 72 9
2.0971131 -0.36223435 -0.41367397 43 2
1.7649683 -0.30518016 0.15670593 100 10
1.7290585 -0.2995927 0.21546498 85 11
1.9969631 -0.34637129 -0.24885713 41 4
1.7496859 -0.30379587 0.28126925 83 12
1.9669458 -0.34151846 -0.17466018 50 5
1.8970895 -0.33075395 -0.033613231 64 7
1.8433927 -0.32437646 0.032670863 41 8
1.7957944 -0.31664699 0.09556549 69 9
2.0881023 -0.3681888 -0.41214752 43 2
1.7717406 -0.31272447 0.15740317 100 10
2.0814137 -0.3677586 -0.33476973 2 3
1.7397307 -0.30770078 0.21692741 81 11
1.9957416 -0.35333988 -0.2488571 38 4
1.7213839 -0.30507556 0.27688909 70 12
1.9696651 -0.34907764 -0.17500877 48 5
1.9192954 -0.34084183 -0.10215976 1 6
1.8880484 -0.33597267 -0.033473611 71 7
1.8520904 -0.33257627 0.032845385 11 8
1.796644 -0.32326725 0.095670171 43 9
2.0790753 -0.37408468 -0.41062102 42 2
1.7608339 -0.31714129 0.15653162 98 10
2.087894 -0.37642384 -0.33602127 1 3
1.7366925 -0.3134191 0.21668367 88 11
2.0023098 -0.36171573 -0.24983227 15 4
1.7222521 -0.31143394 0.27720192 34 12
1.9605925 -0.35453287 -0.17431155 50 5
1.9377464 -0.35110021 -0.10320648 1 6
1.8789939 -0.34113231 -0.033333994 67 7
1.8450172 -0.33795831 0.032740675 2 8
2.0854812 -0.3827574 -0.41214752 43 2
1.749918 -0.32148579 0.15566027 43 10
2.0710247 -0.38085148 -0.33351827 1 3
1.7375401 -0.31983879 0.21692741 85 11
1.9593431 -0.36137444 -0.17431155 50 5
1.9286531 -0.35641024 -0.10278779 1 6
1.8935219 -0.35060167 -0.033613231 60 7
1.8457922 -0.34476376 0.032775581 1 8
2.0879917 -0.39075696 -0.41291073 43 2
2.0852149 -0.39099076 -0.33602121 1 3
1.7305599 -0.32480344 0.21619619 88 11
2.0250988 -0.38045043 -0.25300071 1 4
1.9619855 -0.36894798 -0.17466015 48 5
1.9234718 -0.36240077 -0.10257845 1 6
1.8844266 -0.35572544 -0.033473611 40 7
1.8642215 -0.35494483 0.033124626 1 8
1.8108774 -0.34511581 0.096612215 2 9
2.090472 -0.39877883 -0.41367397 41 2
1.7789437 -0.33967349 0.15844905 3 10
2.0799568 -0.39752549 -0.33539546 1 3
1.727466 -0.33046925 0.21595246 85 11
2.0121276 -0.38492584 -0.25153822 1 4
1.960686 -0.37579438 -0.17466018 30 5
1.9261177 -0.36986604 -0.10278778 1 6
1.8812728 -0.36159506 -0.033438709 6 7
1.8473289 -0.35808063 0.032845385 1 8
1.7861947 -0.34655407 0.095356144 2 9
2.0852838 -0.40496036 -0.41291079 38 2
1.7895422 -0.34785178 0.15949492 1 10
2.1018953 -0.40894786 -0.33914992 1 3
1.7322061 -0.33733431 0.21668367 77 11
2.0108404 -0.39159623 -0.25153825 1 4
1.9613841 -0.38267568 -0.17483445 5 5
1.9209605 -0.37548494 -0.10257845 1 6
1.866326 -0.3651439 -0.033194378 2 7
1.8932165 -0.37349361 0.033683103 1 8
1.8241614 -0.36053199 0.097449586 2 9
2.0839291 -0.41187316 -0.41291073 28 2
1.7922878 -0.35455745 0.15984353 1 10
2.0850255 -0.41284621 -0.33664694 1 3
1.7330252 -0.34346253 0.21692741 85 11
2.0211439 -0.40093049 -0.25300071 1 4
1.9776928 -0.39267001 -0.17640328 2 5
1.9197046 -0.38185304 -0.10257845 1 6
1.9003406 -0.37869081 -0.033822659 2 7
1.8526907 -0.37222216 0.032985006 1 8
1.7915639 -0.36059186 0.095774844 2 9
1.7676014 -0.35608989 0.1577518 3 10
2.0680807 -0.41699818 -0.334144 1 3
1.7357075 -0.35029528 0.2174149 81 11
2.0119488 -0.40641093 -0.25202569 1 4
1.9567814 -0.39562264 -0.17466018 9 5
1.9222751 -0.38934466 -0.10278779 1 6
1.8950876 -0.38452664 -0.033752851 2 7
1.8435438 -0.37708405 0.032845385 1 8
1.8020338 -0.3692489 0.096402869 2 9
1.7741548 -0.36385903 0.15844904 3 10
2.0859628 -0.42818666 -0.33727267 1 3
1.7247518 -0.35435441 0.21619621 88 11
2.0221841 -0.41583043 -0.25348815 2 4
1.9052552 -0.39282569 -0.1019504 1 6
1.8976505 -0.3919484 -0.033822659 6 7
1.8461317 -0.38433209 0.032915197 1 8
1.8046442 -0.3763524 0.096612215 2 9
1.7650082 -0.36872938 0.1577518 3 10
2.0611765 -0.4309777 -0.33351827 2 3
1.7254474 -0.36077905 0.21643993 85 11
2.0129485 -0.42126021 -0.25251341 3 4
1.9558501 -0.41002363 -0.17483447 42 5
1.9077122 -0.40062723 -0.10215976 1 6
1.848623 -0.39192542 0.032985006 2 8
1.8071601 -0.38379413 0.096821561 3 9
1.767608 -0.37571669 0.15810044 3 10
2.090574 -0.44474655 -0.33852419 2 3
1.7279966 -0.36792746 0.21692741 85 11
2.0249815 -0.43153143 -0.25421935 20 4
1.9680471 -0.4197576 -0.17605467 52 5
1.9297402 -0.4122915 -0.10341582 1 6
1.8472438 -0.3983759 0.032985006 2 8
1.7960483 -0.38799131 0.096298203 13 9
1.746812 -0.3776741 0.15635732 7 10
2.0735633 -0.44869912 -0.33602127 2 3
1.732522 -0.37521756 0.21765862 61 11
2.0098827 -0.43565366 -0.2525132 33 4
1.9529399 -0.42366791 -0.17483447 52 5
1.916579 -0.4164803 -0.10278779 2 6
1.8660148 -0.40617475 -0.033333994 87 7
1.8438886 -0.40439323 0.032950103 4 8
2.0758426 -0.45678344 -0.33664694 2 3
1.7467109 -0.38467854 0.21960855 26 11
2.0122266 -0.44352132 -0.25300068 36 4
1.9514493 -0.43048236 -0.17483447 52 5
1.9229144 -0.42489165 -0.10320648 2 6
1.8860629 -0.41743934 -0.033717949 74 7
2.0549583 -0.4597142 -0.3335183 7 3
2.0184143 -0.45227882 -0.2539756 62 4
1.9499346 -0.43729156 -0.17483447 55 5
1.9214196 -0.43160126 -0.10320648 2 6
1.8709373 -0.42094773 -0.033473611 67 7
1.7879914 -0.40589353 0.096088849 65 9
1.7602469 -0.39991826 0.15792611 100 10
1.9839193 -0.45182791 -0.2498323 57 4
1.9561669 -0.44586658 -0.17553173 52 5
1.9140596 -0.43697199 -0.10289246 3 6
1.8772545 -0.42925903 -0.033613235 64 7
1.8298094 -0.42143571 0.032775577 44 8
1.7768332 -0.40988755 0.095565498 74 9
1.7568989 -0.40561205 0.1577518 100 10
2.0497739 -0.47360441 -0.3332054 32 3
1.9745942 -0.45696011 -0.24885713 42 4
1.9623624 -0.45449027 -0.17622897 55 5
1.8679532 -0.43399903 -0.033473611 71 7
1.8362654 -0.42900193 0.032915197 58 8
1.7833154 -0.41728783 0.095984183 66 9
1.7497964 -0.40976664 0.15722908 100 10
2.075202 -0.48635209 -0.33758557 48 3
1.9770138 -0.46406841 -0.24934481 42 4
1.9473475 -0.45746341 -0.17500877 57 5
1.9286172 -0.45377383 -0.10383452 32 6
1.8685269 -0.44032386 -0.033508521 73 7
1.8289198 -0.43402386 0.032810483 59 8
1.7857342 -0.42443395 0.096193522 68 9
1.740602 -0.41402787 0.15653162 100 10
2.0581181 -0.48993334 -0.33508262 45 3
1.9831055 -0.47280821 -0.25031975 40 4
1.9399252 -0.46287102 -0.17448585 55 5
1.9289641 -0.46096745 -0.10393919 10 6
1.8611442 -0.44544724 -0.033403803 68 7
1.8235054 -0.43946829 0.032740675 62 8
1.7842417 -0.43066475 0.096193522 68 9
1.7546399 -0.42384374 0.15792613 100 10
2.0487149 -0.49525782 -0.33383113 35 3
1.9891607 -0.48159611 -0.25129446 40 4
1.9479793 -0.47198564 -0.17535742 50 5
1.861521 -0.45241335 -0.033438709 73 7
1.8336148 -0.44868267 0.032950103 62 8
1.7788479 -0.43593946 0.095984183 68 9
1.7570196 -0.43091512 0.15827474 100 10
2.0431371 -0.50146443 -0.33320543 10 3
1.9759014 -0.48569354 -0.2498323 40 4
1.9482549 -0.47925842 -0.17553173 55 5
1.9082454 -0.47012284 -0.10299714 1 6
1.8735209 -0.46226165 -0.033683043 61 7
1.8300968 -0.45459837 0.032915201 42 8
1.7773155 -0.44214615 0.095984191 68 9
1.7555047 -0.43704566 0.15827474 100 10
1.9761196 -0.4930684 -0.250076 23 4
1.9484184 -0.48687899 -0.17570604 48 5
1.9143428 -0.47871909 -0.10341581 1 6
1.8563777 -0.46491221 -0.033403806 71 7
1.8381938 -0.46342811 0.033089723 12 8
1.7835071 -0.45030317 0.096402869 68 9
1.7461646 -0.44152331 0.15757769 100 10
1.9389814 -0.49171811 -0.17500877 50 5
1.9009607 -0.48278248 -0.10278779 1 6
1.8586193 -0.4723745 -0.033473611 71 7
1.8403573 -0.47115418 0.033159532 2 8
1.7779752 -0.455845 0.096193522 66 9
1.7523323 -0.44959643 0.15827474 68 10
1.9917667 -0.51213992 -0.25251341 1 4
1.9314648 -0.49699399 -0.17448585 41 5
1.9186049 -0.49439901 -0.10383452 1 6
1.8607483 -0.48018292 -0.033543423 67 7
1.8251531 -0.47405642 0.032915197 1 8
1.787971 -0.46506515 0.096821561 64 9
1.7603931 -0.45821992 0.15914629 19 10
2.0053332 -0.52309775 -0.25446308 1 4
1.9297181 -0.50373304 -0.17448585 19 5
1.9130026 -0.50008291 -0.10362516 1 6
1.8571261 -0.48616871 -0.033508517 51 7
1.8273547 -0.48144338 0.032985006 1 8
1.7748313 -0.46793652 0.096193522 64 9
1.9996569 -0.52907896 -0.2539756 1 4
1.8842177 -0.49959126 -0.10215976 1 6
1.8651679 -0.49488875 -0.033683043 13 7
1.8334759 -0.489564 0.033124626 1 8
1.773187 -0.47412905 0.096193522 64 9
2.0093956 -0.53879189 -0.25543827 1 4
1.9511694 -0.52390939 -0.17675191 2 5
1.9056967 -0.51205611 -0.10341582 1 6
1.851058 -0.50118709 0.033473674 1 8
1.7754606 -0.48105124 0.096402869 66 9
2.0113337 -0.54684424 -0.25592554 2 4
1.9455765 -0.52933079 -0.17640328 3 5
1.9270221 -0.52500522 -0.1046719 1 6
1.8501804 -0.50441706 -0.033473611 2 7
1.8493859 -0.50732273 0.033473674 1 8
1.7776223 -0.4883039 0.096612215 64 9
2.0114233 -0.55403835 -0.25616926 3 4
1.9437169 -0.53611892 -0.17640328 19 5
1.8944663 -0.52289033 -0.10299715 1 6
1.8927395 -0.52312481 -0.034276422 3 7
1.8398972 -0.51163214 0.033334054 1 8
1.7797552 -0.49557748 0.096821561 64 9
2.0037408 -0.5594545 -0.25543827 17 4
1.9284022 -0.53914529 -0.17518313 33 5
1.8926294 -0.52949995 -0.10299714 1 6
1.8754971 -0.52541292 -0.033997182 21 7
1.8381002 -0.51805156 0.033334054 1 8
1.77417 -0.50070196 0.096612215 66 9
1.986495 -0.56212145 -0.25348836 30 4
1.9495113 -0.55239117 -0.17727484 37 5
1.9098898 -0.54188478 -0.10404384 1 6
1.8284981 -0.52258694 0.033194434 2 8
1.7647306 -0.5046953 0.09619353 64 9
1.992054 -0.57158858 -0.25446308 36 4
1.9418261 -0.55754334 -0.17675191 44 5
1.8964698 -0.54523706 -0.10341582 1 6
1.8621749 -0.53572911 -0.033822659 67 7
1.8344386 -0.53087115 0.033334054 2 8
1.7744681 -0.51418757 0.096821561 64 9
1.9710851 -0.57265306 -0.25202569 33 4
1.9398682 -0.56431806 -0.17675191 45 5
1.8984866 -0.55263942 -0.10362516 2 6
1.8526142 -0.53998786 -0.033683043 78 7
1.8248987 -0.53502089 0.033194434 3 8
1.7745788 -0.52094096 0.096926227 51 9
1.9747872 -0.58121145 -0.25275695 6 4
1.9284303 -0.56793362 -0.17588037 46 5
1.90804 -0.56265253 -0.10425319 2 6
1.8679785 -0.55154759 -0.033997182 70 7
1.8057673 -0.53626424 0.032880291 12 8
1.788065 -0.53168648 0.097763605 19 9
1.9264358 -0.57466155 -0.17588034 46 5
1.8792725 -0.56130695 -0.10278779 2 6
1.8545468 -0.55462718 -0.033787753 66 7
1.9377688 -0.58541584 -0.17710052 48 5
1.9040657 -0.57595932 -0.1042532 6 6
1.8621688 -0.56399548 -0.03396228 68 7
1.819196 -0.55410165 0.033194438 44 8
1.9338082 -0.59159356 -0.17692621 46 5
1.8487179 -0.56697434 -0.033752851 64 7
1.8096073 -0.55809104 0.033054817 43 8
1.9260221 -0.59657174 -0.17640328 48 5
1.9038137 -0.5904212 -0.10446254 10 6
1.8467274 -0.5734241 -0.033752851 61 7
1.8057392 -0.56380838 0.033019911 55 8
1.92773 -0.60448343 -0.17675191 48 5
1.8485298 -0.58106619 -0.033822659 61 7
1.8075737 -0.57131356 0.03308972 57 8
1.9199111 -0.60940045 -0.17622897 46 5
1.8882245 -0.60006857 -0.1038345 1 6
1.8503016 -0.58872783 -0.033892471 61 7
1.8055687 -0.57761961 0.033089727 55 8
1.9253597 -0.61853606 -0.17692621 44 5
1.8899213 -0.6078791 -0.10404386 1 6
1.8482352 -0.59518307 -0.033892471 60 7
1.8150586 -0.58729762 0.033299148 56 8
1.9269788 -0.62648517 -0.17727487 44 5
1.8916936 -0.61537862 -0.1042532 1 6
1.8424485 -0.60007024 -0.033822659 60 7
1.8167981 -0.5948742 0.033368956 57 8
1.920995 -0.63196254 -0.17692623 44 5
1.9083955 -0.62855601 -0.10529992 1 6
1.8365442 -0.60524607 -0.033752851 60 7
1.8108095 -0.60027081 0.033299148 55 8
1.922558 -0.63992262 -0.17727484 42 5
1.8986108 -0.63268805 -0.10488123 1 6
1.8363173 -0.61228567 -0.033787753 58 7
1.8088089 -0.60627234 0.033299148 35 8
1.918424 -0.64599377 -0.17710051 36 5
1.877575 -0.63260341 -0.10383452 1 6
1.8455377 -0.62252659 -0.033997182 52 7
1.8218319 -0.61771941 0.033578388 8 8
1.9274737 -0.65654099 -0.17814641 19 5
1.8904792 -0.64430809 -0.1046719 1 6
1.8433534 -0.62896502 -0.033997182 52 7
1.8730001 -0.64602286 -0.10383452 1 6
1.8316951 -0.63213402 -0.033822659 60 7
1.8895919 -0.6591351 -0.10488123 1 6
1.8313656 -0.63918287 -0.033857565 58 7
1.8836285 -0.66406941 -0.1046719 1 6
1.8366657 -0.64823365 -0.033997182 51 7
1.888824 -0.67332286 -0.10509057 1 6
1.838159 -0.6559853 -0.034066997 52 7
1.893978 -0.68262094 -0.10550926 2 6
1.8320954 -0.66104019 -0.033997182 52 7
1.8803244 -0.68512553 -0.10488123 2 6
1.8222626 -0.66469043 -0.033857565 57 7
1.8854181 -0.69444597 -0.10529992 2 6
1.8274361 -0.67381442 -0.033997182 52 7
1.8979565 -0.70659786 -0.10613729 3 6
1.8269469 -0.6808877 -0.034032088 48 7
1.8730469 -0.70477831 -0.10488123 10 6
1.8264302 -0.68796557 -0.034066994 31 7
1.8446978 -0.7018404 -0.034450945 7 7
1.879393 -0.72180772 -0.10550926 37 6
1.875 -0.72764105 -0.10540459 33 6
1.874308 -0.73491067 -0.10550926 9 6
