# .PCD v0.7 - Point Cloud Data file format
VERSION 0.7
FIELDS x y z intensity ring
SIZE 4 4 4 4 2
TYPE F F F F U
COUNT 1 1 1 1 1
WIDTH 828
HEIGHT 1
VIEWPOINT 0 0 0 1 0 0 0
POINTS 828
DATA ascii
1.9591995 0.03830285 -0.31036597 1 3
1.8921617 0.030715959 -0.29972842 2 3
1.9179438 0.023769038 -0.30379573 24 3
1.9055502 0.022949319 -0.23398925 1 4
1.8897361 0.016491052 -0.23203914 4 4
1.9141102 0.010690453 -0.30316997 48 3
1.8758866 0.0098230774 -0.23033297 20 4
1.9101845 0.0043343944 -0.30254424 53 3
1.9101876 -0.0026671265 -0.30254424 62 3
1.8917902 -0.0033018 -0.23228288 70 4
1.8983146 -0.009276988 -0.30066705 56 3
1.8719164 -0.0098014204 -0.2298457 84 4
1.9022212 -0.015936386 -0.30129278 54 3
1.8579757 -0.016214309 -0.22813933 59 4
1.9061003 -0.02295584 -0.30191851 56 3
1.8658475 -0.022796763 -0.22911449 38 4
1.9099591 -0.029670602 -0.30254427 56 3
1.8999686 -0.036149539 -0.30097991 50 3
1.9362329 -0.037853695 -0.16943084 1 5
1.8939064 -0.042648029 -0.30004129 38 3
1.89726 -0.043054849 -0.23301411 1 4
1.8882843 -0.043510642 -0.16524735 6 5
1.9351404 -0.049321543 -0.37627542 1 2
1.897704 -0.049030256 -0.30066705 12 3
1.8891691 -0.049139686 -0.23203914 1 4
1.8881296 -0.049772181 -0.16524735 19 5
1.9094545 -0.05500355 -0.37131438 6 2
1.8691435 -0.055148371 -0.22960196 1 4
1.8759949 -0.056005944 -0.16420145 31 5
1.9190328 -0.062990285 -0.30410859 2 3
1.8848119 -0.062196318 -0.23155166 1 4
1.8698145 -0.062354837 -0.16367856 37 5
1.9109738 -0.068736359 -0.37169597 47 2
1.9266976 -0.069975354 -0.30536008 2 3
1.9004412 -0.069686003 -0.23350179 1 4
1.8914868 -0.069688253 -0.16559596 68 5
1.9028755 -0.075096816 -0.37016955 54 2
1.924481 -0.076285891 -0.30504718 8 3
1.9081336 -0.076305002 -0.23447675 1 4
1.8753057 -0.075647883 -0.16420145 59 5
1.9222306 -0.082245797 -0.37398571 64 2
1.9242033 -0.083003119 -0.30504721 41 3
1.8999228 -0.082620196 -0.23350157 2 4
1.8770351 -0.081953116 -0.1643758 52 5
1.900359 -0.087956659 -0.36978787 52 2
1.9278481 -0.089903362 -0.30567291 77 3
1.8877257 -0.088692687 -0.23203914 2 4
1.8807179 -0.088692419 -0.16472441 52 5
1.9590988 -0.093074143 -0.10278779 1 6
1.9020015 -0.094687238 -0.37016958 50 2
1.9314685 -0.096830077 -0.30629867 48 3
1.8953347 -0.095681868 -0.23301411 2 4
1.8744272 -0.094954394 -0.16420145 48 5
1.934826 -0.098691188 -0.10153174 2 6
1.9055803 -0.1015348 -0.37093276 59 2
1.9311185 -0.10357158 -0.30629864 48 3
1.9029177 -0.10272525 -0.23398925 2 4
1.8701056 -0.10128129 -0.16385286 48 5
1.8886009 -0.10294416 -0.099124283 10 6
1.9110945 -0.1085198 -0.37207764 52 2
1.9346896 -0.11053715 -0.3069244 59 3
1.9223663 -0.11050631 -0.23642646 4 4
1.8776971 -0.10826733 -0.16455011 48 5
1.8922179 -0.10976731 -0.099333622 30 6
1.9185427 -0.11566266 -0.37360409 50 2
1.9204895 -0.11645288 -0.30473432 50 3
1.8773077 -0.11482105 -0.1645501 48 5
1.869895 -0.11502285 -0.098182239 36 6
1.916168 -0.12223396 -0.37322247 53 2
1.9299278 -0.12378813 -0.30629864 54 3
1.911643 -0.12328535 -0.23520775 41 4
1.8848486 -0.12188768 -0.16524735 50 5
1.8973846 -0.12336348 -0.099647641 66 6
1.9098532 -0.12852645 -0.37207761 56 2
1.933426 -0.13079074 -0.3069244 56 3
1.9171426 -0.1303615 -0.23593897 62 4
1.8764606 -0.12792425 -0.16455013 50 5
1.8730314 -0.12834731 -0.09839157 69 6
1.9672244 -0.1389419 -0.45530105 1 1
1.9270183 -0.13644017 -0.37551218 36 2
1.9211354 -0.13669765 -0.30504721 54 3
1.9067755 -0.13634485 -0.23472048 39 4
1.8760024 -0.13447352 -0.16455011 50 5
1.8725721 -0.13488466 -0.098391578 43 6
1.9608974 -0.1453757 -0.45395115 18 1
1.926556 -0.14384405 -0.30598578 52 3
1.902329 -0.14270294 -0.23423302 8 4
1.8834686 -0.14161873 -0.16524735 50 5
1.8780645 -0.14187166 -0.09870559 16 6
1.9428921 -0.15086186 -0.44990206 32 1
1.9299809 -0.15087605 -0.30661154 50 3
1.8829628 -0.14819239 -0.16524735 50 5
1.9037172 -0.15116313 -0.033333994 1 7
1.9637194 -0.15937699 -0.45485094 39 1
1.948965 -0.15852191 -0.38009155 1 2
1.9353489 -0.1580945 -0.30755013 54 3
1.9309629 -0.15841477 -0.23788887 1 4
1.8963341 -0.15590703 -0.16646753 52 5
1.9029046 -0.15711595 -0.10006633 1 6
1.9071637 -0.15813792 -0.033403803 3 7
1.9864526 -0.16820374 -0.46024999 61 1
1.9444875 -0.16499217 -0.37932837 1 2
1.9367537 -0.16501686 -0.30786303 52 3
1.926471 -0.16447946 -0.2374016 1 4
1.8858523 -0.16167457 -0.16559595 50 5
1.894385 -0.16307223 -0.099647641 1 6
1.9006519 -0.16394588 -0.033299088 25 7
1.962589 -0.1727398 -0.45485094 53 1
1.9673978 -0.17350909 -0.38390777 1 2
1.9302927 -0.17091581 -0.3069244 54 3
1.9219607 -0.17051612 -0.2369139 1 4
1.885306 -0.16792741 -0.16559596 50 5
1.9097484 -0.17077644 -0.10048501 1 6
1.9581242 -0.17889245 -0.45395115 46 1
1.9277098 -0.1764531 -0.37627542 1 2
1.9356167 -0.1778582 -0.30786303 52 3
1.9292603 -0.17795327 -0.23788908 1 4
1.8906907 -0.17472841 -0.1661189 44 5
1.8853068 -0.17489465 -0.099228948 1 6
1.9014829 -0.17706473 -0.033333994 81 7
1.9536078 -0.18535835 -0.45305136 46 1
1.9505354 -0.1854104 -0.38085482 1 2
1.9349842 -0.18461369 -0.30786306 52 3
1.9246755 -0.1843081 -0.2374014 1 4
1.9079187 -0.18303955 -0.16768771 34 5
1.8966132 -0.18262309 -0.09985698 1 6
1.8829396 -0.18196987 -0.033019852 100 7
1.9607064 -0.19293997 -0.45485094 48 1
1.9342461 -0.19067703 -0.37780187 1 2
1.934328 -0.1913669 -0.30786303 31 3
1.9279709 -0.19141762 -0.23788908 1 4
1.9112335 -0.1900927 -0.16803634 6 5
1.9198128 -0.19162279 -0.10111304 1 6
1.8862725 -0.18894003 -0.033089664 96 7
1.9716533 -0.20096861 -0.45755041 46 1
1.9491936 -0.19902304 -0.38085482 1 2
1.957229 -0.20053384 -0.31161743 31 3
1.9272912 -0.1981463 -0.23788887 1 4
1.9204677 -0.19778353 -0.16890788 29 5
1.9111854 -0.19750181 -0.10069435 1 6
1.8796341 -0.19490443 -0.032984946 74 7
1.9709395 -0.20784973 -0.45755038 46 1
1.9641062 -0.20747568 -0.38390777 1 2
1.9447308 -0.20611542 -0.30974022 46 3
1.9344836 -0.20571223 -0.23886383 1 4
1.9078788 -0.20321988 -0.16786203 37 5
1.9025406 -0.20332293 -0.10027567 1 6
1.8868955 -0.20231715 -0.033124566 74 7
1.9462144 -0.21177024 0.034171771 1 8
1.9585783 -0.21346144 -0.45485094 48 1
1.9672731 -0.21475655 -0.384671 1 2
1.9518541 -0.2137628 -0.3109917 51 3
1.9495394 -0.21419801 -0.24081372 1 4
1.9210207 -0.21140395 -0.16908221 64 5
1.9216715 -0.21215449 -0.10132239 1 6
1.8961157 -0.21000306 -0.033299088 65 7
1.9077065 -0.2143207 0.033508576 4 8
1.9655675 -0.2211685 -0.45665058 48 1
1.9743154 -0.22250177 -0.38619751 1 2
1.9550217 -0.22101851 -0.31161743 48 3
1.9330004 -0.2192124 -0.23886383 1 4
1.9044337 -0.21630941 -0.16768771 59 5
1.9090126 -0.2175045 -0.10069436 1 6
1.8933843 -0.21639343 -0.033264186 67 7
2.0610585 -0.2384726 -0.55594337 1 0
1.8592733 -0.21545409 0.032670867 12 8
1.9725263 -0.22892687 -0.45845017 48 1
1.9501252 -0.22667199 -0.38161811 1 2
1.9542383 -0.2278415 -0.31161743 51 3
1.9322233 -0.22595848 -0.23886405 2 4
1.921477 -0.22504172 -0.16925652 55 5
1.9003073 -0.22323479 -0.10027567 2 6
1.8906314 -0.22276725 -0.03322928 65 7
2.0045838 -0.23903216 -0.54093182 4 0
1.9678453 -0.23534805 -0.45755038 48 1
1.9610178 -0.23487867 -0.38390777 2 2
1.9612763 -0.23560411 -0.31286892 48 3
1.9471896 -0.23460144 -0.24081372 2 4
1.9127674 -0.23079285 -0.16855927 52 5
1.9114131 -0.23130639 -0.1009037 2 6
1.8898424 -0.22936542 -0.03322928 65 7
2.0229118 -0.24838237 -0.54610825 24 0
1.8775711 -0.23086941 0.033019911 61 8
1.9766824 -0.2434065 -0.45979989 51 1
1.9835677 -0.24460579 -0.38848713 3 2
1.9565212 -0.24196386 -0.31224319 48 3
1.9384788 -0.24041961 -0.239839 2 4
1.9119501 -0.23746826 -0.16855927 55 5
1.9264495 -0.23995197 -0.10174107 2 6
1.8890301 -0.2359608 -0.03322928 63 7
2.0086164 -0.25374722 -0.54248476 30 0
1.8628668 -0.23566513 0.032775581 44 8
1.970021 -0.24957019 -0.45845017 48 1
1.9651732 -0.24930458 -0.38505265 13 2
1.9556643 -0.24879192 -0.31224316 51 3
1.9632266 -0.25045037 -0.24300739 5 4
1.9209912 -0.24540311 -0.16943082 50 5
1.9057895 -0.24413729 -0.10069435 4 6
1.8961285 -0.24357244 -0.0333689 65 7
2.0287912 -0.26349396 -0.54817867 48 0
1.8778967 -0.24422948 0.033054817 52 8
1.9749351 -0.25720036 -0.45979989 51 1
1.9587016 -0.25612921 -0.31286892 48 3
1.9260492 -0.25288525 -0.16995376 52 5
1.9012141 -0.25097477 -0.033473611 71 7
2.0182848 -0.26929671 -0.54559052 52 0
1.8909075 -0.25263679 0.033299152 25 8
1.9778886 -0.26460937 -0.46069971 40 1
1.9594932 -0.26249653 -0.38428941 46 2
1.9617114 -0.26349074 -0.31349471 48 3
1.9614303 -0.26415002 -0.24300739 41 4
1.9271294 -0.25987312 -0.17012808 59 5
1.9178933 -0.25930935 -0.10142705 22 6
1.8924451 -0.25620493 -0.033333994 67 7
2.000107 -0.27398053 -0.54093182 44 0
1.9808612 -0.27169642 -0.46159947 39 1
1.9566201 -0.26906744 -0.38390777 38 2
1.9706111 -0.27134177 -0.31505901 56 3
1.9310468 -0.26658094 -0.2393513 9 4
1.922263 -0.26605213 -0.16977943 48 5
1.8955005 -0.2633597 -0.033403803 67 7
1.9953613 -0.28007457 -0.53989661 45 0
1.8950846 -0.26633677 0.033403866 1 8
1.9876199 -0.27969554 -0.46339914 39 1
2.177475 -0.30679923 0.11524382 4 9
1.9693253 -0.27747163 -0.3865791 39 2
1.9637841 -0.27739003 -0.31412038 51 3
1.917425 -0.27186579 -0.16943082 57 5
1.9180615 -0.27263901 -0.10153174 1 6
1.8985292 -0.27053875 -0.033473611 68 7
2.0058444 -0.2886892 -0.54300243 45 0
1.8981019 -0.27352065 0.033473674 1 8
1.9866313 -0.28663191 -0.46339911 39 1
1.8917402 -0.27327803 0.10017106 12 9
1.9644586 -0.28378281 -0.38581586 20 2
1.9608489 -0.2839601 -0.31380755 56 3
1.9487838 -0.28290752 -0.2417887 1 4
1.932238 -0.28084981 -0.17082533 57 5
1.9250034 -0.28048453 -0.10195041 1 6
1.905488 -0.27832028 -0.033613231 60 7
2.002913 -0.29540727 -0.5424847 44 0
1.916918 -0.28306583 0.033822723 1 8
1.983691 -0.29327974 -0.46294922 35 1
1.83743 -0.27198347 0.097344913 24 9
1.9617997 -0.29109299 -0.31412038 48 3
1.9360033 -0.28795597 -0.24032626 1 4
1.9351871 -0.28817981 -0.17117395 57 5
1.9319141 -0.28838181 -0.1023691 1 6
1.9124157 -0.28615364 -0.033752851 61 7
2.0152411 -0.30441684 -0.54610825 45 0
1.9119637 -0.28915733 0.033752911 1 8
1.9845817 -0.3004941 -0.46339911 9 1
1.8404189 -0.27899435 0.097554259 33 9
1.9915454 -0.30190405 -0.39154008 1 2
1.9685835 -0.29912615 -0.31537184 51 3
1.9467611 -0.29650557 -0.2417887 1 4
1.9361387 -0.29523343 -0.17134824 55 5
1.9229984 -0.29391658 -0.10195041 1 6
1.9074517 -0.29222184 -0.033683043 60 7
2.0065298 -0.31026864 -0.54403776 36 0
1.938609 -0.30011255 0.034241579 1 8
1.8591702 -0.28847936 0.098600976 42 9
1.9594394 -0.30403769 -0.38543427 1 2
1.9714314 -0.30660316 -0.31599766 30 3
1.9496371 -0.30391067 -0.24227616 1 4
1.9311594 -0.3013756 -0.17099963 55 5
1.9259075 -0.30124468 -0.10215976 1 6
1.8965423 -0.29732966 -0.033508517 65 7
2.0187912 -0.31938401 -0.54766113 14 0
1.917799 -0.30374953 0.033892535 1 8
2.0247788 -0.32105577 -0.47329691 1 1
1.8680146 -0.2965329 0.099124335 49 9
1.9738774 -0.3133378 -0.38848713 1 2
1.9603264 -0.31258988 -0.24373861 1 4
1.9300957 -0.30811474 -0.17099963 43 5
1.9445659 -0.3111209 -0.10320648 1 6
1.9112885 -0.30648097 -0.033787753 58 7
2.0596187 -0.33321661 -0.55904907 2 0
1.9167268 -0.310442 0.033892531 1 8
2.0236459 -0.3281216 -0.47329691 1 1
1.8728825 -0.30401173 0.099438347 42 9
1.9727718 -0.32022607 -0.38848713 1 2
2.0004385 -0.3254337 -0.3210035 2 3
1.9748969 -0.32198626 -0.24568848 1 4
1.9368738 -0.31613395 -0.17169686 7 5
1.9474099 -0.31855163 -0.10341581 1 6
1.9023138 -0.31185675 -0.033648137 33 7
2.0431955 -0.33788249 -0.55490798 2 0
1.9116857 -0.31647757 0.033822719 1 8
2.0147984 -0.33390895 -0.47149739 1 1
1.8658991 -0.3095668 0.099124342 45 9
1.9948837 -0.33096632 -0.39306661 1 2
1.9914957 -0.33111852 -0.31975204 2 3
1.973761 -0.32887793 -0.24568848 1 4
1.9514805 -0.32551551 -0.17309138 3 5
1.9384067 -0.32403022 -0.10299714 1 6
1.9288245 -0.32312062 -0.034136802 39 7
2.051528 -0.34662169 -0.55749619 4 0
1.914513 -0.32381555 0.033892535 1 8
2.0251486 -0.34289181 -0.4741967 1 1
1.8628929 -0.31541917 0.099019662 60 9
1.9937162 -0.33792773 -0.39306661 1 2
1.966278 -0.33363008 0.17448591 1 10
1.9981174 -0.33939126 -0.32100347 2 3
1.9373759 -0.32976988 -0.24130119 1 4
1.9372637 -0.33079454 -0.10299713 1 6
1.919858 -0.32816735 -0.033997182 60 7
1.9252518 -0.33220273 0.034101956 1 8
2.0355225 -0.35159576 -0.4768962 1 1
1.873589 -0.32396176 0.099647701 60 9
1.9963934 -0.34555471 -0.39382985 2 2
1.868908 -0.32382432 0.16594444 5 10
1.9969813 -0.34601551 -0.3210035 4 3
1.9675649 -0.34162593 -0.24520123 1 4
1.9558326 -0.34064394 -0.10404386 1 6
1.920671 -0.33521071 -0.034032091 63 7
2.0415111 -0.35923871 -0.55542576 48 0
1.9083257 -0.33614585 0.033822723 1 8
2.0342827 -0.35869896 -0.47689614 1 1
1.8783473 -0.33154133 0.099961713 62 9
2.00297 -0.35353804 -0.3953563 3 2
1.8383936 -0.32482013 0.16332997 16 10
1.9780883 -0.35057044 -0.24666367 2 4
1.9460635 -0.34524521 -0.17291708 59 5
1.9349675 -0.3439734 -0.10299715 1 6
1.9155517 -0.34121168 -0.03396228 61 7
2.0345399 -0.36533839 -0.5538727 52 0
1.9307587 -0.34705037 0.034241579 1 8
2.002331 -0.36027622 -0.46969771 2 1
1.8830755 -0.33915803 0.10027573 60 9
2.0055885 -0.36122364 -0.39611962 10 2
1.9886853 -0.35889602 -0.3200649 60 3
1.9807594 -0.35817966 -0.24715093 2 4
1.9526883 -0.35345554 -0.17361429 57 5
1.9416155 -0.35215124 -0.10341582 2 6
1.9182839 -0.3486113 -0.034032091 57 7
2.031352 -0.37208995 -0.5533551 55 0
1.9216675 -0.35234523 0.034101956 2 8
2.0221453 -0.37113309 -0.47464669 3 1
1.8740225 -0.34428564 0.099857047 60 9
1.875272 -0.34485355 0.166816 65 10
2.0068476 -0.36941171 -0.32319361 62 3
1.967784 -0.36293125 -0.24568848 9 4
1.9553611 -0.360993 -0.17396292 59 5
1.9482303 -0.36037976 -0.10383452 2 6
1.9268863 -0.35712725 -0.034206614 59 7
2.0376372 -0.38059726 -0.55542576 48 0
1.9282885 -0.36052105 0.034241576 2 8
1.8747724 -0.35119277 0.099961713 62 9
1.9798607 -0.37087849 -0.39154008 42 2
1.8740568 -0.35139737 0.166816 71 10
1.9880726 -0.37313521 -0.32037777 58 3
1.9684563 -0.37016481 -0.24593224 33 4
1.9619213 -0.3692905 -0.17466018 59 5
1.956774 -0.3690289 -0.10435789 4 6
1.9118733 -0.36125225 -0.03396228 64 7
2.0287054 -0.3862623 -0.55335522 48 0
1.9309469 -0.36799857 0.034311388 5 8
1.8813822 -0.3592332 0.1003804 62 9
1.9804827 -0.37815556 -0.39192176 42 2
1.8630339 -0.35606679 0.16594444 66 10
2.0003393 -0.3826707 -0.32256782 59 3
1.9730009 -0.37815472 -0.24666347 36 4
1.9527934 -0.37463507 -0.17396292 57 5
1.9125642 -0.36830178 -0.033997182 59 7
2.0292408 -0.39370948 -0.55387276 55 0
2.0257995 -0.39377555 -0.47644621 56 1
1.8859984 -0.36694258 0.10069442 60 9
1.9868592 -0.38656622 -0.39344823 47 2
1.8715581 -0.36447206 0.16681601 77 10
1.9873583 -0.38738334 -0.32069063 54 3
1.9892035 -0.38846382 -0.24885713 66 4
1.9475629 -0.38068488 -0.17361429 57 5
1.9230409 -0.37728554 -0.034206614 59 7
2.0335398 -0.40191409 -0.5554257 48 0
1.8832122 -0.37254447 0.033508576 35 8
2.0225015 -0.40046602 -0.4759964 56 1
1.8886244 -0.37430027 0.10090376 58 9
1.9874239 -0.39388096 -0.39382991 45 2
1.8800458 -0.37294114 0.16768754 55 10
1.9840565 -0.39393348 -0.3203778 52 3
1.948964 -0.38731945 0.2439824 1 11
1.9742066 -0.39269415 -0.24715093 61 4
1.9618543 -0.39059305 -0.17500877 59 5
1.9508435 -0.38910884 -0.1042532 62 6
1.9236732 -0.38438782 -0.034241516 57 7
2.0453815 -0.41167831 -0.55904913 52 0
1.9073845 -0.38424972 0.033962343 17 8
2.007719 -0.40482718 -0.47284704 29 1
1.8814329 -0.37970516 0.10058974 62 9
1.9898851 -0.40159264 -0.39459303 45 2
1.9942863 -0.40320542 -0.32225499 50 3
1.8970131 -0.38388336 0.23764521 2 11
1.9689325 -0.39879483 -0.24666367 53 4
1.9604793 -0.39743891 -0.17500879 62 5
1.9299003 -0.39194116 -0.10320648 33 6
1.9340769 -0.3934924 -0.034450945 61 7
2.0477171 -0.4195911 -0.5600844 52 0
1.8820525 -0.3866722 0.10069442 60 9
1.9865484 -0.40814117 -0.3942115 47 2
1.9967362 -0.41096076 -0.32288069 50 3
1.9053828 -0.39250532 0.23886389 12 11
1.9675285 -0.40566519 -0.24666367 50 4
1.964934 -0.40548784 -0.17553173 58 5
1.9189848 -0.39740261 -0.034206614 59 7
2.0405662 -0.4255532 -0.55853152 50 0
1.9398905 -0.40491092 0.034590624 1 8
2.0334573 -0.42481136 -0.47959563 1 1
1.8846014 -0.39405704 0.10090377 58 9
1.9851117 -0.41507304 -0.3942115 47 2
1.9052896 -0.39872986 0.17030223 1 10
1.9914228 -0.41711828 -0.32225499 28 3
1.9641578 -0.41212311 -0.24641971 32 4
1.955707 -0.41070631 -0.17483447 58 5
1.9312828 -0.4069851 -0.034450945 61 7
2.0409582 -0.43307453 -0.55904913 52 0
1.9306411 -0.41001827 0.034451008 1 8
2.0472114 -0.43514818 -0.48319486 1 1
1.8910285 -0.40229544 0.10132245 56 9
1.9894117 -0.42322537 -0.39535636 44 2
1.8882964 -0.40205872 0.16890773 1 10
1.9562097 -0.41794673 -0.17500877 51 5
1.9569387 -0.41881692 -0.10488123 1 6
1.9278951 -0.41330487 -0.034416039 59 7
2.045099 -0.44141886 -0.56060201 50 0
1.929198 -0.41675499 0.034451008 1 8
2.0342515 -0.43982074 -0.48049536 1 1
1.897421 -0.41058359 0.10174114 58 9
1.9917599 -0.43099764 -0.39611956 42 2
1.9024595 -0.41202143 0.17030223 2 10
2.0077677 -0.43519527 -0.32538366 2 3
1.8837084 -0.40864897 0.23667024 71 11
2.0097303 -0.43635523 -0.2525132 1 4
1.9508452 -0.4239265 -0.17466018 25 5
1.939852 -0.42224684 -0.10404384 1 6
1.9283944 -0.42045793 -0.034450945 57 7
2.0605283 -0.45228264 -0.56526077 61 0
1.9316378 -0.42434466 0.034520816 1 8
2.04793 -0.4502666 -0.48409459 1 1
1.8921477 -0.4160156 0.1015318 58 9
2.0151689 -0.44343239 -0.40108058 19 2
1.9126841 -0.42123091 0.17134808 2 10
2.0332432 -0.44815367 -0.32976377 1 3
1.8803322 -0.41479424 0.23642652 80 11
2.0081952 -0.44336781 -0.2525132 1 4
1.9539672 -0.43246856 -0.10488123 1 6
1.9308943 -0.42771539 -0.034520756 47 7
2.0570514 -0.45905155 -0.56474316 54 0
1.9419301 -0.43336108 0.034730244 1 8
2.0388184 -0.45535621 -0.48229501 1 1
1.8984804 -0.4243606 0.10195047 38 9
1.938422 -0.43399909 0.17378846 1 10
2.0278907 -0.45403054 -0.3291381 1 3
1.8808833 -0.4214614 0.23667026 47 11
1.9912179 -0.44654968 -0.25056329 1 4
1.9750531 -0.44364879 -0.17710051 2 5
1.9447277 -0.43719348 -0.10446254 1 6
2.049866 -0.46458954 -0.56319028 49 0
1.9560071 -0.44367591 0.035009485 1 8
2.0600209 -0.46764714 -0.48769382 1 1
2.0255053 -0.46018347 -0.40375194 2 2
1.905887 -0.43335676 0.17099945 1 10
2.0339985 -0.46285981 -0.33038962 1 3
2.0012596 -0.45614448 -0.25202569 2 4
1.9735709 -0.45019582 -0.17710051 1 5
1.9704489 -0.45020729 -0.10592794 2 6
1.9337091 -0.4425233 -0.034625471 2 7
2.0595269 -0.47434354 -0.56629604 22 0
1.9505486 -0.44960254 0.034939669 1 8
2.0621736 -0.47571117 -0.48859367 1 1
1.9188246 -0.44299555 0.10320655 4 9
2.0411029 -0.47122574 -0.40718648 4 2
1.8965979 -0.43821278 0.17030223 1 10
2.0323701 -0.4699569 -0.33038959 1 3
1.9107728 -0.44219056 0.24081379 13 11
2.0112581 -0.46581471 -0.25348836 2 4
1.9836333 -0.45978153 -0.17814638 2 5
1.9610833 -0.45527613 -0.10550926 2 6
1.9516304 -0.45379955 -0.034974519 3 7
1.9372858 -0.45367283 0.034730248 1 8
2.056706 -0.48201728 -0.48769388 1 1
1.9222121 -0.45120469 0.17274258 1 10
2.0307174 -0.47704831 -0.33038959 2 3
1.9014878 -0.4470405 0.23983884 37 11
1.9980264 -0.47010475 -0.25202569 2 4
1.930482 -0.45456821 0.31412047 3 12
1.9820164 -0.46670294 -0.17814641 2 5
1.9672579 -0.46395251 -0.10592794 2 6
1.9461418 -0.45968977 -0.034904707 20 7
1.939581 -0.46135798 0.034800056 1 8
2.0436361 -0.48648593 -0.48499438 1 1
2.0205753 -0.48136896 -0.40375194 42 2
1.912873 -0.45606351 0.17204534 1 10
2.0290399 -0.48413393 -0.33038959 2 3
1.878677 -0.4486036 0.23715772 48 11
1.9944425 -0.47661489 -0.25178197 11 4
1.9096715 -0.45670938 0.31099179 19 12
1.9842508 -0.47454545 -0.17849502 4 5
1.9772801 -0.47360808 -0.10655596 2 6
1.9464697 -0.46694675 -0.034939609 39 7
1.9496217 -0.47094277 0.035009485 2 8
2.0532908 -0.496364 -0.48769382 1 1
1.9063154 -0.4611862 0.10278786 62 9
2.0207908 -0.48888072 -0.40413353 60 2
1.9112695 -0.46273786 0.17204534 2 10
2.031177 -0.49214399 -0.33101532 2 3
1.8963915 -0.45983657 0.2395951 60 11
1.9946958 -0.48404199 -0.25202569 34 4
1.8946286 -0.46010938 0.30880171 36 12
1.9709655 -0.47864777 -0.17744917 19 5
1.9872593 -0.48333937 -0.10718401 2 6
1.9564855 -0.47657794 -0.035149038 54 7
1.9635028 -0.48155582 0.035288721 2 8
2.0629008 -0.50631529 -0.49039319 2 1
1.9085733 -0.46879053 0.10299721 58 9
2.0057259 -0.49265352 -0.40146217 56 2
1.9135121 -0.47035778 0.17239396 2 10
2.0447924 -0.50300604 -0.3335183 3 3
1.9005575 -0.467877 0.24032633 65 11
2.0045583 -0.49385089 -0.25348836 36 4
1.8968469 -0.46766582 0.30942744 63 12
1.9596102 -0.48314008 -0.17657758 29 5
1.9681088 -0.48596421 -0.10624197 10 6
1.9625745 -0.48532459 -0.035288658 60 7
1.9656907 -0.48937303 0.03535853 4 8
2.0838125 -0.51916647 -0.49579212 4 1
1.9185526 -0.47834891 0.10362523 60 9
2.0058992 -0.50012684 -0.40184385 47 2
1.904126 -0.47510499 0.17169671 2 10
1.9027646 -0.47547081 0.24081379 68 11
2.0201547 -0.50517946 -0.25568178 66 4
1.9181983 -0.48003894 0.31318191 61 12
1.97724 -0.49481434 -0.17832072 37 5
1.970275 -0.49380228 -0.10645131 30 6
1.9531103 -0.49022502 -0.035149034 62 7
1.9168712 -0.48504299 0.10362523 60 9
2.0155606 -0.51001519 -0.40413353 50 2
1.912113 -0.48419413 0.17256826 8 10
1.8933965 -0.48015797 0.23983885 65 11
2.0068345 -0.50929815 -0.25421935 70 4
1.8992792 -0.48235548 0.31036603 59 12
1.9967425 -0.50710803 -0.18023813 59 5
1.9743462 -0.50215375 -0.10676531 35 6
1.9610765 -0.49950767 -0.035323564 60 7
2.0631487 -0.52934277 -0.49174297 57 1
1.9075139 -0.48941144 0.10320655 56 9
2.0270793 -0.52046549 -0.40680492 56 2
2.041326 -0.52488303 -0.33383116 51 3
1.8897864 -0.4862695 0.2395951 62 11
1.987743 -0.51184511 -0.25202569 50 4
1.9014955 -0.48963633 0.31099179 60 12
1.9891719 -0.5125832 -0.1797152 55 5
1.9841845 -0.51203674 -0.10739334 55 6
1.9652178 -0.50750798 -0.035428278 57 7
1.9450644 -0.50556391 0.035079293 48 8
2.0613818 -0.53618139 -0.49174291 23 1
1.919324 -0.49958873 0.10393926 62 9
2.0195508 -0.52605355 -0.40566006 47 2
1.9048302 -0.49652615 0.17221963 42 10
2.0357509 -0.53065282 -0.3332054 36 3
1.8996885 -0.49553993 0.24105754 62 11
1.9898762 -0.51943666 -0.25251341 50 4
1.9035971 -0.4972693 0.31161752 71 12
1.9892985 -0.5200277 -0.17988952 48 5
1.9766792 -0.51709735 -0.10707935 55 6
1.9614997 -0.51385802 -0.035393368 60 7
1.9548893 -0.51540905 0.035288721 58 8
1.9194994 -0.50679523 0.10404392 56 9
2.0234897 -0.53425127 -0.40680492 53 2
1.8973944 -0.50131321 0.17169671 51 10
1.9056232 -0.50419903 0.24203248 62 11
1.9938078 -0.52790374 -0.2532444 47 4
1.9056687 -0.50492293 0.31224325 68 12
1.9856371 -0.52611119 -0.17971522 44 5
1.9748622 -0.52399415 -0.10707935 50 6
1.959694 -0.52070189 -0.035393368 60 7
1.9472828 -0.52068019 0.035184007 39 8
1.9215772 -0.51452565 0.10425326 56 9
2.0273018 -0.54283464 -0.40794975 47 2
1.9091046 -0.51154304 0.1729169 21 10
1.9153553 -0.51393455 0.24349493 58 11
2.005373 -0.53846365 -0.25495079 53 4
1.9134334 -0.51413488 0.31380764 64 12
1.9837885 -0.53303915 -0.17971522 43 5
1.9826642 -0.53347915 -0.10760269 47 6
1.9636573 -0.52910012 -0.035498086 54 7
1.931426 -0.52403289 0.1048813 60 9
2.0329735 -0.55196565 -0.40947625 50 2
2.0701125 -0.56282508 -0.33977565 1 3
1.9020568 -0.51749039 0.24203248 60 11
2.0073118 -0.54650331 -0.25543827 50 4
1.9155298 -0.52151507 0.31443337 64 12
1.9992166 -0.54467416 -0.18128401 12 5
1.9730828 -0.53829408 -0.10718401 35 6
1.96575 -0.5366621 -0.035567895 54 7
1.9218816 -0.52865279 0.10446259 58 9
2.0348194 -0.56010056 -0.41023937 50 2
1.9189328 -0.52856219 0.17413707 1 10
2.060617 -0.56758851 -0.33852419 1 3
1.9060714 -0.52537745 0.24276371 65 11
2.0054884 -0.55315691 -0.25543827 50 4
1.9194102 -0.52977508 0.31537193 62 12
1.9657924 -0.54405409 -0.035602804 44 7
1.9822723 -0.55196893 0.035917003 1 8
1.9238727 -0.53643107 0.10467196 54 9
2.0329509 -0.56684524 -0.41023937 47 2
1.9325223 -0.53920633 0.17553157 1 10
2.0700386 -0.5779652 -0.34040138 1 3
1.9176091 -0.53576684 0.24446987 60 11
2.0054576 -0.5606885 -0.25568178 37 4
1.9080378 -0.53381079 0.31380764 64 12
2.0299008 -0.56828636 -0.18442161 1 5
1.963881 -0.55091268 -0.035602801 12 7
1.9880319 -0.56105757 0.036056627 1 8
1.9335204 -0.54640222 0.10529999 30 9
2.0384166 -0.57642949 -0.41176593 47 2
1.9151959 -0.54194582 0.17413707 1 10
2.0907142 -0.59200674 -0.34415582 1 3
1.9176373 -0.54299819 0.24471362 56 11
2.0149477 -0.57093245 -0.25714424 8 4
1.9156649 -0.54316205 0.31537193 62 12
2.0087373 -0.56993032 -0.18267851 1 5
2.0057623 -0.56984276 -0.10927745 1 6
1.9782717 -0.56613952 0.035917003 1 8
2.0382793 -0.58408231 -0.41214752 43 2
1.9209533 -0.55082446 0.17483431 1 10
2.0620525 -0.59167355 -0.33977565 1 3
1.9213583 -0.55166656 0.24544485 26 11
2.0300126 -0.58324707 -0.25933784 2 4
1.9231539 -0.55290872 0.31693631 55 12
2.0335431 -0.58464575 -0.18511887 1 5
1.9999223 -0.57573575 -0.1090681 1 6
1.9963961 -0.57547539 -0.036265988 1 7
1.9686017 -0.57081407 0.03577739 1 8
1.9429871 -0.5641222 0.10603268 2 9
2.0550818 -0.59666753 -0.41596368 33 2
1.9381517 -0.56308502 0.17657742 2 10
2.0865302 -0.60658795 -0.34415579 1 3
2.0374942 -0.59310377 -0.26055679 11 4
1.9306947 -0.56238061 0.31850064 39 12
2.0353153 -0.59285498 -0.18546745 1 5
1.9979004 -0.58271313 -0.1090681 2 6
1.9905363 -0.58131945 -0.036196183 2 7
1.9742714 -0.57993662 0.035917006 1 8
1.9487706 -0.5728153 0.10645138 2 9
1.9438196 -0.57209724 0.17727467 1 10
2.0692408 -0.60940319 -0.34165284 1 3
1.9231722 -0.56674999 0.24617603 4 11
1.9401875 -0.57213235 0.32037786 6 12
2.0332336 -0.59995598 -0.18546747 1 5
1.9996848 -0.59081531 -0.10927743 2 6
2.0116096 -0.59472024 -0.03661504 2 7
1.9876715 -0.59103996 0.036196247 1 8
1.9545176 -0.58155292 0.10687006 6 9
1.9380928 -0.57740235 0.17692629 1 10
2.0672088 -0.61626172 -0.34165287 1 3
2.0316136 -0.60603631 -0.26031306 60 4
2.0312326 -0.606695 -0.18546745 1 5
2.0187633 -0.60373831 -0.11042884 3 6
1.9866372 -0.59450829 -0.036196183 2 7
1.9895303 -0.59878075 0.036266055 2 8
1.9361677 -0.58382607 0.17692606 2 10
2.0765007 -0.62653697 -0.34353006 2 3
1.9269727 -0.58178735 0.247151 54 11
2.0332863 -0.61427248 -0.2608003 61 4
2.032917 -0.61493546 -0.18581611 2 5
1.9937056 -0.60383409 -0.10917278 17 6
1.9979457 -0.60549897 -0.03644051 20 7
2.0045369 -0.61131841 0.036580198 4 8
1.9464858 -0.59435749 0.10666072 60 9
1.9530691 -0.59674042 0.17866917 2 10
2.0855248 -0.63760883 -0.34540725 2 3
1.9381154 -0.59291124 0.2488572 47 11
2.0386138 -0.62404501 -0.26177526 50 4
2.0306497 -0.62238228 -0.18581614 2 5
1.9538343 -0.60443908 0.10718407 42 9
1.9546751 -0.60507298 0.17901801 2 10
2.0737391 -0.64232606 -0.34384295 7 3
1.9226564 -0.59589708 0.247151 58 11
2.0438969 -0.63386464 -0.26275045 50 4
2.0341735 -0.63123834 -0.18633907 9 5
2.0255728 -0.62934464 -0.11116154 59 6
2.0144577 -0.62666231 -0.036824469 65 7
1.9498069 -0.61065865 0.10707942 55 9
1.939243 -0.60772187 0.17779762 12 10
2.05829 -0.64542347 -0.34165284 23 3
1.9205645 -0.60260475 0.247151 57 11
2.0378838 -0.63980597 -0.26226297 53 4
1.9985956 -0.62862104 -0.10980082 55 6
1.9931842 -0.62768376 -0.036475416 66 7
1.9712253 -0.62417364 0.036091529 42 8
1.9458672 -0.61651784 0.10697474 53 9
2.0917983 -0.66395926 -0.34759739 43 3
1.9316932 -0.61351132 0.2488572 49 11
2.0319669 -0.64535862 -0.26177549 44 4
2.0335143 -0.6466316 -0.18668766 55 5
1.994486 -0.63498771 -0.10969614 40 6
1.9910921 -0.63428998 -0.036475424 48 7
1.9862844 -0.63619685 0.036405675 48 8
1.9552239 -0.62662464 0.10760278 53 9
2.0745385 -0.6660614 -0.34509444 10 3
1.931538 -0.62052083 0.24910092 45 11
2.0411553 -0.65573627 -0.26323789 44 4
2.0142887 -0.64788091 -0.18511887 38 5
2.005677 -0.64588368 -0.11042884 42 6
1.992784 -0.64211565 -0.036545224 57 7
1.9727494 -0.63908231 0.036196247 50 8
1.9569347 -0.63433653 0.10781211 54 9
1.944362 -0.63101131 0.17884347 53 10
1.9407977 -0.63060337 0.25056338 33 11
2.0484097 -0.66556859 -0.26445636 47 4
2.0054231 -0.65314966 -0.11053351 40 6
1.9925451 -0.64934009 -0.036580134 44 7
1.980121 -0.64873368 0.036370773 52 8
1.9624121 -0.6433112 0.1082308 53 9
1.9460452 -0.63869822 0.17919211 56 10
2.0537353 -0.67483658 -0.26543137 47 4
2.00704 -0.66104603 -0.11074284 40 6
2.001776 -0.65969938 -0.036789555 45 7
1.9795133 -0.6569618 0.036405675 43 8
1.956023 -0.64992398 0.10802145 54 9
1.9530319 -0.64930868 0.18006368 60 10
2.0434754 -0.68056625 -0.2644566 47 4
2.0451977 -0.68153626 -0.1886051 1 5
2.004487 -0.66874743 -0.11074284 38 6
1.9972153 -0.66709632 -0.036754657 27 7
1.9866863 -0.66705012 0.036580198 16 8
1.9575286 -0.65802056 0.10823078 53 9
1.9564184 -0.65802741 0.18058658 56 10
2.0410876 -0.68769509 -0.26445636 47 4
2.0654619 -0.69630885 -0.19069684 1 5
2.007818 -0.67765647 -0.11105688 37 6
1.9590018 -0.66613567 0.10844014 29 9
1.9465649 -0.66228563 0.17988935 56 10
2.0499487 -0.69865799 -0.26591882 42 4
2.0441616 -0.69708395 -0.18895373 1 5
2.0243416 -0.69111389 -0.1121036 19 6
2.0114317 -0.68749046 -0.037103701 1 7
2.0254791 -0.69584697 0.037383012 1 8
1.9498931 -0.67102128 0.18041228 58 10
2.047497 -0.70580935 -0.26591882 42 4
2.0379484 -0.70291573 -0.18860509 1 5
2.020359 -0.69842756 -0.03731313 1 7
2.0268152 -0.70422566 0.037452817 1 8
2.0014634 -0.69620007 0.11105695 2 9
1.9569471 -0.68109804 0.18128383 52 10
2.0562677 -0.71687293 -0.26738125 37 4
2.0505321 -0.71527493 -0.18999958 1 5
2.0477509 -0.71510667 -0.11367366 2 6
2.0216842 -0.70679575 -0.037382942 1 7
2.016798 -0.70864445 0.037313197 1 8
1.9688756 -0.69257808 0.10938219 2 9
1.9545578 -0.68792492 0.18128383 52 10
2.0369034 -0.71810621 -0.26518759 9 4
2.0630541 -0.72773051 -0.19139405 1 5
2.0339427 -0.71825981 -0.11304563 8 6
2.0342877 -0.71918052 -0.037662178 1 7
2.0218496 -0.71835804 0.037452817 1 8
1.985387 -0.70579326 0.11042891 2 9
1.9671611 -0.70008773 0.18267833 47 10
2.0755141 -0.74028218 -0.19278857 1 5
2.0356576 -0.72726804 -0.037731986 2 7
2.0232205 -0.72641039 0.037522629 2 8
1.975517 -0.70967227 0.11001023 3 9
1.9554545 -0.70323592 0.18180677 19 10
2.0692992 -0.74580961 -0.19243994 1 5
2.0459151 -0.73818868 -0.11398769 49 6
2.0257111 -0.73129851 -0.037592366 2 7
1.9963628 -0.7242499 0.037068862 12 8
2.0666833 -0.75302827 -0.19243994 2 5
2.0509615 -0.74770534 -0.11440637 55 6
2.0381742 -0.74384964 -0.037871603 2 7
1.9506419 -0.71537811 0.036266055 26 8
1.9592651 -0.7193166 0.10938219 29 9
2.0677812 -0.76161498 -0.19278857 2 5
2.031342 -0.74899888 -0.11346432 39 6
2.0411937 -0.75303614 -0.037976325 17 7
1.9873794 -0.73712629 0.036999054 35 8
1.9847009 -0.73692095 0.11095227 42 9
2.085649 -0.77647477 -0.19470598 8 5
2.0249722 -0.75468993 -0.11325498 38 6
2.0166256 -0.755992 0.037592433 44 8
1.970897 -0.73963386 0.11032423 42 9
2.0736029 -0.7802422 -0.19383447 32 5
2.0372777 -0.76738602 -0.11409234 38 6
2.0207839 -0.76197881 -0.037697081 42 7
2.0102346 -0.76160991 0.037522625 43 8
1.9757731 -0.7493422 0.11074293 42 9
2.0634172 -0.78464299 -0.19313718 24 5
2.0420532 -0.77733499 -0.11451104 38 6
2.0386665 -0.77686059 -0.038081031 47 7
2.0075638 -0.76862222 0.037522625 43 8
1.9806051 -0.75909346 0.11116161 41 9
2.0588059 -0.79112625 -0.19296288 4 5
2.0467837 -0.78732657 -0.11492972 39 6
2.026612 -0.7803793 -0.037906513 39 7
2.004869 -0.77562529 0.037522629 45 8
1.9855275 -0.7685411 0.1115803 41 9
2.0365767 -0.79157227 -0.11451105 39 6
2.0134611 -0.78663546 0.037732057 43 8
1.9884125 -0.77764946 0.11189431 23 9
2.0413771 -0.80124021 -0.11492972 38 6
2.021863 -0.79806387 0.037941482 45 8
2.0497079 -0.81277835 -0.11555777 38 6
2.0574999 -0.8166995 -0.038639512 1 7
2.0264947 -0.80807954 0.038081098 47 8
2.0505662 -0.8214137 -0.11576711 38 6
2.0583484 -0.82536495 -0.038709316 1 7
2.0162423 -0.81215966 0.037941482 47 8
2.0550921 -0.83156306 -0.11618579 33 6
2.0851102 -0.84455657 -0.039267801 1 7
2.0208042 -0.82220733 0.038081102 43 8
2.0484793 -0.83722037 -0.11597645 34 6
2.0747459 -0.84880096 -0.039128173 1 7
2.0253201 -0.83229655 0.038220722 45 8
2.0492365 -0.84588987 -0.11618578 28 6
2.0902522 -0.8636744 -0.039477225 1 7
2.0297906 -0.84242731 0.038360342 40 8
2.0798426 -0.86788523 -0.039337605 1 7
2.0415919 -0.85569161 0.038639586 43 8
2.0804861 -0.87669295 -0.039407417 1 7
2.0367506 -0.86203319 0.038604673 35 8
2.0774131 -0.88394988 -0.039407413 2 7
2.078145 -0.89241189 -0.039477222 4 7
2.0731826 -0.89886522 -0.039442319 26 7
2.0682008 -0.90529466 -0.039407417 32 7
2.0869765 -0.92220724 -0.039826263 42 7
2.0709612 -0.9237842 -0.039581936 22 7
