# .PCD v0.7 - Point Cloud Data file format
VERSION 0.7
FIELDS x y z intensity ring
SIZE 4 4 4 4 2
TYPE F F F F U
COUNT 1 1 1 1 1
WIDTH 575
HEIGHT 1
VIEWPOINT 0 0 0 1 0 0 0
POINTS 575
DATA ascii
2.3525751 1.1739777 -0.41642854 1 3
2.3414631 1.1674105 -0.32124746 1 4
2.3391552 1.1565901 -0.41329983 25 3
2.3223884 1.1477966 -0.31807914 9 4
2.3158829 1.1340383 -0.31661668 39 4
2.3523035 1.1432326 -0.41423845 77 3
2.3321314 1.1324215 -0.3183226 48 4
2.3313644 1.1230121 -0.40985826 63 3
2.327126 1.1199712 -0.31710422 38 4
2.3281398 1.1114639 -0.4086068 50 3
2.3337903 1.1041754 -0.40891966 54 3
2.3223252 1.0977591 -0.31539777 2 4
2.334245 1.0939374 -0.40829396 54 3
2.340524 1.096382 -0.31734794 1 4
2.345216 1.0891101 -0.40954545 43 3
2.3301208 1.0811126 -0.31539774 1 4
2.3452253 1.0796753 -0.40891966 18 3
2.3373005 1.0750382 -0.31588522 1 4
2.3408377 1.0756755 -0.22538483 4 5
2.3579662 1.0755819 -0.41048405 54 3
2.3410389 1.0668724 -0.31588551 2 4
2.3933501 1.0826511 -0.51060498 1 2
2.3401055 1.0575817 -0.40672961 59 3
2.3483665 1.0603296 -0.31637299 2 4
2.3863654 1.0694733 -0.50831532 1 2
2.352798 1.0534424 -0.40829396 57 3
2.3429937 1.0480722 -0.31515402 4 4
2.3572469 1.0539532 -0.22590777 66 5
2.3416364 1.0396265 -0.49801153 5 2
2.3526666 1.0440322 -0.4076682 57 3
2.3590891 1.0449132 -0.22573344 58 5
2.3635299 1.0389938 -0.40891969 57 3
2.3737009 1.0424777 -0.3183226 51 4
2.3554246 1.0334694 -0.22503622 61 5
2.3452375 1.0216866 -0.49724841 51 2
2.3600771 1.0271713 -0.40766823 57 3
2.3500211 1.022307 -0.31466684 46 4
2.3480539 1.0204767 -0.22399034 58 5
2.3505919 1.0142709 -0.49762994 45 2
2.3563921 1.0157983 -0.40641671 54 3
2.3646915 1.0183973 -0.31612894 64 4
2.3607521 1.0162123 -0.22486189 56 5
2.3685601 1.0122322 -0.50068283 57 2
2.3670139 1.0110829 -0.4076682 57 3
2.3516235 1.0035385 -0.31393531 49 4
2.36062 1.0064023 -0.22451329 39 5
2.3610528 1.0061013 -0.13450338 3 6
2.3502102 0.99518538 -0.4961035 59 2
2.3668907 1.0012746 -0.40704247 54 3
2.3551126 0.99532294 -0.31393534 23 4
2.3536696 0.98697615 -0.4961035 59 2
2.3740149 0.99453342 -0.4076682 59 3
2.3589134 0.97950768 -0.49648514 56 2
2.3683496 0.98245555 -0.40610388 50 3
2.3656716 0.98037696 -0.31442282 2 4
2.3745391 0.98356628 -0.22486189 2 5
2.3825324 0.98590291 -0.1351314 57 6
2.3659499 0.97275996 -0.49724835 27 2
2.3699369 0.97343224 -0.40579101 54 3
2.3874435 0.97964931 -0.31686017 1 4
2.3816442 0.97678417 -0.22521052 1 5
2.3563886 0.96546519 -0.13345666 19 6
2.3803022 0.9689607 -0.4070425 54 3
2.3794768 0.96765661 -0.31539777 1 4
2.3957763 0.97379798 -0.22625639 2 5
2.3723633 0.9633168 -0.13418935 50 6
2.3850944 0.96218842 -0.49991968 1 2
2.3818371 0.95990807 -0.40672958 39 3
2.375474 0.95637983 -0.31442308 1 4
2.3880703 0.96096683 -0.22521052 1 5
2.3775651 0.95577419 -0.13429402 69 6
2.3592663 0.94220722 -0.49381378 1 2
2.3751101 0.94661283 -0.31393534 1 4
2.3877084 0.95114994 -0.22486189 2 5
2.3790307 0.94673216 -0.13418935 56 6
2.3956528 0.94754016 -0.59477043 2 1
2.3917537 0.94551384 -0.49991971 1 2
2.4086907 0.95123881 -0.41017118 25 3
2.4005587 0.9470576 -0.31686017 1 4
2.3984275 0.94573438 -0.22555913 3 5
2.3878961 0.94061756 -0.13450338 58 6
2.4060237 0.94678825 -0.04513178 2 7
2.3913829 0.93572795 -0.49915642 1 2
2.3880789 0.93347532 -0.40610385 48 3
2.3890569 0.93289644 -0.31491029 2 4
2.3837211 0.92937481 -0.13408467 58 6
2.3894904 0.92586261 -0.59162122 43 1
2.3909726 0.92595834 -0.49839321 2 2
2.4134307 0.93368578 -0.40985826 69 3
2.3848925 0.92168838 -0.31393531 2 4
2.3832245 0.91960984 -0.13387534 58 6
2.4109027 0.92449385 -0.59612018 76 1
2.3905239 0.91620076 -0.49762994 3 2
2.3908479 0.91536796 -0.40547812 57 3
2.3843875 0.91193908 -0.31344783 2 4
2.4044776 0.91914314 -0.22521052 66 5
2.3845546 0.91057211 -0.13377067 52 6
2.4025683 0.91697192 -0.044887457 61 7
2.3884497 0.90681088 -0.58982164 57 1
2.3994114 0.90953565 -0.40641671 57 3
2.4096749 0.91246444 -0.31637269 7 4
2.3890364 0.90369463 -0.22346739 56 5
2.3931649 0.90478015 -0.13408469 56 6
2.3870471 0.90151376 -0.044538401 7 7
2.3988976 0.90120864 -0.59162122 54 1
2.3951738 0.89837909 -0.40516526 57 3
2.3884444 0.89395356 -0.22311878 56 5
2.3964651 0.89600217 -0.13408469 56 6
2.4182775 0.90367633 -0.045061979 2 7
2.3875701 0.88698167 -0.58802199 49 1
2.3946207 0.88864982 -0.49648508 47 2
2.3984504 0.88959485 -0.40516526 57 3
2.4254501 0.89864612 -0.3175914 49 4
2.3973107 0.88726759 -0.22364174 61 5
2.3941133 0.88513428 -0.13377067 58 6
2.4009402 0.887182 -0.044678029 2 7
2.3944638 0.87956804 -0.58892179 51 1
2.4032369 0.8823148 -0.49762991 63 2
2.4016953 0.88079745 -0.40516528 54 3
2.398751 0.87924278 -0.31369156 7 4
2.404135 0.88026458 -0.22399034 61 5
2.3859336 0.87265599 -0.13314262 52 6
2.4115348 0.88154244 -0.044817645 2 7
2.4392254 0.88732404 0.045306392 1 8
2.4046929 0.87428683 -0.59072137 54 1
2.3913887 0.86897594 -0.49457705 59 2
2.4083159 0.87417668 -0.40579098 57 3
2.4145331 0.87500304 -0.22468758 58 5
2.3963268 0.86745775 -0.13356133 50 6
2.4069228 0.87081981 -0.044678025 2 7
2.3913543 0.86094165 0.044363961 13 8
2.4039121 0.86498743 -0.58982164 40 1
2.3961041 0.86170578 -0.49495864 66 2
2.4149201 0.86752063 -0.40641671 57 3
2.3990748 0.86088443 -0.31296036 1 4
2.4024181 0.86160976 -0.22329308 36 5
2.40295 0.86085534 -0.13377066 38 6
2.4137137 0.8637597 -0.044747833 2 7
2.3972478 0.85267925 -0.49457705 59 2
2.4104879 0.85643983 -0.4051652 54 3
2.41329 0.85648799 -0.31442282 1 4
2.4091735 0.85266066 -0.044608217 2 7
2.395421 0.84356064 0.044329058 49 8
2.4057658 0.84625977 -0.49572185 56 2
2.4097352 0.84671229 -0.40453953 57 3
2.3975344 0.84148401 -0.3119857 2 4
2.4140148 0.84679633 -0.22381604 2 5
2.4126713 0.84537834 -0.13398001 2 6
2.4159102 0.84556645 -0.044678025 2 7
2.4040165 0.83716744 0.044433776 56 8
2.4257209 0.84425116 -0.59297085 1 1
2.4031425 0.83592141 -0.49457705 50 2
2.3958828 0.83246005 -0.40172371 28 3
2.4154599 0.83831757 -0.31393534 1 4
2.4244857 0.840976 -0.22451328 2 5
2.4156075 0.83695185 -0.13398001 2 6
2.4264061 0.83974361 -0.044817641 1 7
2.4292338 0.83692741 -0.68845868 1 0
2.4069242 0.8287701 0.044433776 61 8
2.4397094 0.83958399 -0.59567034 1 1
2.3967626 0.82433671 -0.49266896 15 2
2.410861 0.82730281 -0.31296036 1 4
2.4387143 0.83638525 -0.22555913 2 5
2.4204042 0.82916152 -0.13408469 11 6
2.414186 0.82609111 -0.044538401 2 7
2.4595706 0.83778536 -0.6962232 33 0
2.4211595 0.82423145 0.044643197 59 8
2.4352455 0.82855123 -0.59387064 1 1
2.4371741 0.82778376 -0.4076682 2 3
2.406215 0.8163318 -0.31198543 2 4
2.4340713 0.8253088 -0.22486189 5 5
2.4208438 0.81893998 -0.044608217 2 7
2.4313562 0.8187148 -0.68742347 41 0
2.4202318 0.81449872 0.044573389 59 8
2.4307351 0.81756002 -0.59207106 1 1
2.4192076 0.81321406 -0.4961035 2 2
2.4175777 0.81172585 -0.40391383 2 3
2.4504547 0.82181424 -0.31734794 2 4
2.4393909 0.81668335 -0.13481738 61 6
2.4311316 0.81344497 -0.044747833 2 7
2.450696 0.81571323 -0.69208211 66 0
2.4153304 0.80394173 0.044433773 61 8
2.4371309 0.81072545 -0.59297085 1 1
2.4410968 0.81157172 0.13481748 1 9
2.4220316 0.80476385 -0.4961035 2 2
2.4315038 0.8074401 -0.40579098 3 3
2.4418616 0.80993342 -0.31588551 1 4
2.4212298 0.80168319 -0.13366599 65 6
2.4491451 0.80997753 -0.045027073 2 7
2.4368727 0.80214614 -0.68742347 71 0
2.4219208 0.79675603 0.044503581 61 8
2.4510534 0.80586594 -0.59567028 1 1
2.4452033 0.80346984 -0.5003013 4 2
2.4230466 0.7952522 -0.40391383 22 3
2.4371288 0.79893059 -0.31491026 2 4
2.4386544 0.79896057 -0.22451329 66 5
2.4202173 0.79198366 -0.13345666 56 6
2.4367509 0.79645377 -0.044747833 11 7
2.4414945 0.79423302 -0.68794107 57 0
2.4246876 0.7882964 0.044503585 61 8
2.4649718 0.80091774 -0.59836972 1 1
2.389714 0.77600521 0.13167731 32 9
2.4285722 0.78674853 -0.31344783 2 4
2.4452193 0.79166991 -0.22486189 64 5
2.4248672 0.78414559 -0.13356133 52 6
2.4223909 0.78241104 -0.044433694 22 7
2.4332175 0.78215802 -0.68483531 66 0
2.4350398 0.78227496 0.044643201 59 8
2.45662 0.78873473 -0.59567034 1 1
2.4133275 0.77437061 0.1328287 42 9
2.4680429 0.79097706 -0.41048399 69 3
2.4350846 0.7794773 -0.31393531 2 4
2.4365814 0.77948767 -0.22381602 64 5
2.429492 0.77628505 -0.13366599 52 6
2.4308217 0.77577478 -0.044538401 2 7
2.4322503 0.77248949 -0.68379992 68 0
2.4263196 0.77014107 0.044433776 61 8
2.463073 0.78133255 -0.59657007 1 1
2.4198239 0.76714838 0.13303804 23 9
2.4216683 0.76773304 -0.49381378 50 2
2.4331243 0.77043039 -0.40422663 57 3
2.4283266 0.76797998 -0.3127169 18 4
2.4297893 0.76797485 -0.22294448 61 5
2.4379005 0.76960403 -0.13398002 56 6
2.4487722 0.77209491 -0.044817641 2 7
2.4386182 0.76515186 -0.6848352 66 0
2.4251769 0.76046944 0.044363961 61 8
2.4360323 0.76340646 -0.58937162 2 1
2.4374483 0.76338303 -0.49648514 67 2
2.4452252 0.76488179 -0.40579098 57 3
2.4419639 0.76245826 -0.22381602 64 5
2.4310393 0.75811583 -0.13345668 58 6
2.441906 0.76056963 -0.044643119 2 7
2.4449654 0.75777799 -0.68587047 68 0
2.4354575 0.75436664 0.044503585 58 8
2.442405 0.7560516 -0.59027141 2 1
2.4308448 0.75200689 0.13335207 2 9
2.4288449 0.75138819 -0.49419546 56 2
2.4441056 0.75517583 -0.40516526 57 3
2.4374232 0.75217795 -0.31320408 11 4
2.4427068 0.75334299 -0.22364174 61 5
2.4241266 0.74668491 -0.1329333 47 6
2.4560142 0.75556839 -0.044852547 2 7
2.4475949 0.74924058 -0.68587047 66 0
2.4380758 0.74585998 0.044503581 38 8
2.4319844 0.74353236 -0.58712214 20 1
2.4334545 0.74351865 0.13335207 2 9
2.4276974 0.74175972 -0.49343219 66 2
2.4542842 0.74894524 -0.40641671 57 3
2.45104 0.74655265 -0.22416468 64 5
2.4381828 0.74170673 -0.13356133 22 6
2.4624636 0.74815279 -0.044922356 2 7
2.4464972 0.73957366 -0.68483531 66 0
2.4551563 0.7407887 0.13439879 2 9
2.4227533 0.73101175 -0.49190563 56 2
2.4569304 0.74085468 0.22451308 1 10
2.4606664 0.74151433 -0.4070425 54 3
2.4331107 0.73228282 -0.3119857 1 4
2.4536309 0.73799288 -0.22416468 66 5
2.4382448 0.73150963 -0.044433694 2 7
2.4453616 0.72992343 -0.68379992 66 0
2.4317255 0.72539228 0.044294152 6 8
2.4576588 0.73266 -0.59207106 40 1
2.4422874 0.72807759 0.1335614 2 9
2.4384615 0.72647369 -0.49457705 59 2
2.453773 0.7301029 -0.40547812 47 3
2.4470689 0.72717959 -0.31344783 1 4
2.444732 0.72601974 -0.22311878 56 5
2.4643643 0.73091525 -0.13471271 2 6
2.4674985 0.73137516 -0.044922356 1 7
2.4553068 0.72356802 -0.68587047 66 0
2.4339037 0.71679896 -0.5857724 4 1
2.4486463 0.72067511 0.13377076 3 9
2.4447491 0.71906585 -0.49534023 63 2
2.4485996 0.71973401 -0.40422663 10 3
2.4570861 0.72129679 -0.31442282 1 4
2.4472516 0.7174809 -0.22311878 39 5
2.4399416 0.71487653 -0.13324733 2 6
2.4585214 0.71938729 -0.044712927 2 7
2.4576926 0.71542245 -0.68587047 66 0
2.4385273 0.70938075 0.044329058 49 8
2.4738164 0.71917939 -0.59477049 1 1
2.4338849 0.70711005 0.1328287 4 9
2.4471202 0.7109552 -0.49534026 59 2
2.4452949 0.709961 0.22276998 64 10
2.4557755 0.71160996 -0.31393531 1 4
2.4577711 0.71079355 -0.13408469 2 6
2.4725442 0.71413219 -0.044922356 2 7
2.4638884 0.70790535 -0.68690574 66 0
2.4467549 0.70252049 0.044433776 56 8
2.480058 0.71161407 -0.59567028 1 1
2.440151 0.6997025 -0.49343213 56 2
2.4458423 0.70087242 0.22259592 59 10
2.4820502 0.71077949 -0.40891966 2 3
2.4735129 0.70740044 -0.31588522 2 4
2.4769821 0.70792508 -0.22538483 16 5
2.4563961 0.70111281 -0.13387534 2 6
2.4750221 0.70549625 -0.044922356 2 7
2.4589102 0.69719309 -0.68483526 66 0
2.4549634 0.69561124 0.044538483 65 8
2.490027 0.7050758 -0.59746987 1 1
2.4388006 0.69011205 -0.49266896 56 2
2.4406056 0.69016272 0.22189842 58 10
2.4769127 0.69996172 -0.4076682 2 3
2.4721458 0.69768405 -0.31539774 1 4
2.4698508 0.69656974 -0.22451328 48 5
2.451139 0.69036895 -0.13345668 2 6
2.4620695 0.69252139 -0.044643119 2 7
2.4557476 0.68704355 -0.68328232 60 0
2.4515996 0.68542176 0.044433773 59 8
2.4849656 0.69428265 -0.59567028 1 1
2.4526989 0.68480611 0.13345675 59 9
2.4411948 0.68159407 -0.49266896 25 2
2.4391615 0.6805675 0.22154978 58 10
2.4945636 0.6955564 -0.41017118 2 3
2.4822159 0.69117975 -0.31637269 2 4
2.4607499 0.68473995 -0.22346739 66 5
2.4727769 0.68715668 -0.13450338 10 6
2.4856677 0.68980432 -0.04502707 3 7
2.4730291 0.68257838 -0.68742347 35 0
2.4539773 0.67686045 0.044433776 59 8
2.4948888 0.68767613 -0.59746993 1 1
2.4512234 0.67517895 0.13324741 58 9
2.4530232 0.67567456 -0.49457705 6 2
2.4492061 0.67416477 0.22224703 60 10
2.4703114 0.67950904 -0.40579098 2 3
2.5037551 0.68776977 -0.31881008 2 4
2.4765744 0.67983735 -0.22468758 69 5
2.4601843 0.6693396 0.044503585 63 8
2.4972737 0.67896372 -0.59746993 1 1
2.4497104 0.66557163 0.13303806 54 9
2.4592354 0.66769874 0.22294424 57 10
2.4917324 0.67605495 -0.40891966 2 3
2.4524925 0.66448951 -0.3119857 2 4
2.4731631 0.66962677 -0.22416465 66 5
2.4736578 0.66883409 -0.13429403 61 6
2.4625056 0.6607483 0.044503585 59 8
2.5033929 0.67125106 -0.59836966 1 1
2.4481599 0.65598202 0.1328287 46 9
2.4576805 0.65853292 -0.49457705 50 2
2.4654002 0.66014147 0.22329287 55 10
2.4940772 0.66735369 -0.40891969 3 3
2.4835639 0.66361171 -0.31564176 4 4
2.4793355 0.6620183 -0.22451329 64 5
2.4701879 0.65865093 -0.13398002 65 6
2.4792285 0.66013479 -0.044782739 69 7
2.4725294 0.65419388 0.044643197 59 8
2.4944174 0.65951908 -0.59567034 1 1
2.4618614 0.65045303 -0.49495858 67 2
2.4522789 0.64746219 0.22189839 58 10
2.4963918 0.65864313 -0.40891969 22 3
2.4739239 0.65132993 -0.22381602 66 5
2.476335 0.65104049 -0.13418935 56 6
2.4815176 0.65147829 -0.044782743 60 7
2.4709282 0.64454895 0.044573385 59 8
2.4816184 0.64687616 -0.59207112 2 1
2.4584177 0.64037025 -0.49381378 63 2
2.4545245 0.63889748 0.22189842 60 10
2.5015857 0.64974904 -0.31734791 51 4
2.4665401 0.64018834 -0.22294445 61 5
2.4805262 0.64289302 -0.13429403 52 6
2.4740968 0.64030641 -0.044608217 21 7
2.4692893 0.6349256 0.044503581 61 8
2.4895236 0.63966405 -0.5934208 7 1
2.4916508 0.63974702 0.13481747 2 9
2.4720478 0.63471383 -0.4961035 63 2
2.4644585 0.63230807 0.22259565 58 10
2.5066695 0.64267057 -0.40985832 69 3
2.4769156 0.63412225 -0.31393531 47 4
2.4803417 0.63453674 -0.22399035 61 5
2.467274 0.63027751 -0.13345668 42 6
2.4753678 0.62728411 0.044573389 59 8
2.4747386 0.62666631 -0.58937162 38 1
2.4706335 0.62516677 0.1335614 2 9
2.4780545 0.62704462 -0.49686673 63 2
2.4666505 0.62370092 0.22259563 57 10
2.4820852 0.62714142 -0.40547815 63 3
2.4848886 0.62692839 -0.31466684 64 4
2.4922013 0.62830943 -0.22486192 64 5
2.4998395 0.62838072 -0.044992164 2 7
2.4814222 0.61960906 0.044643197 59 8
2.4901469 0.62132585 -0.59252101 43 1
2.4883046 0.62040365 0.13439879 2 9
2.4687991 0.61554033 -0.49457705 63 2
2.4765456 0.61701405 0.22329287 55 10
2.491926 0.6203841 -0.40672958 50 3
2.4755025 0.61537778 -0.31320438 47 4
2.4905114 0.61864728 -0.22451328 64 5
2.4903722 0.61676592 -0.044782743 2 7
2.4913373 0.61285353 0.044782821 40 8
2.4866233 0.61123365 -0.59117126 31 1
2.4943342 0.6126675 0.13460813 2 9
2.4709322 0.60691935 -0.49457699 59 2
2.4786844 0.60836488 0.22329287 51 10
2.4940765 0.61168122 -0.40672958 38 3
2.4699233 0.60484356 -0.31222942 15 4
2.4791086 0.60663432 -0.22329308 61 5
2.4853799 0.60724956 -0.13408469 2 6
2.5041654 0.61091328 -0.044992164 2 7
2.4876313 0.60274005 0.044678103 27 8
2.488692 0.6020788 0.13418943 2 9
2.4806685 0.60013771 -0.4961035 63 2
2.4749837 0.59830379 0.22276995 28 10
2.4812109 0.59797746 -0.22329308 61 5
2.5069034 0.60324234 -0.13513142 2 6
2.5101719 0.60310334 -0.045061979 2 7
2.4761047 0.59080476 0.044433776 51 8
2.4906754 0.59382206 0.13418944 2 9
2.486568 0.5923841 -0.49686673 63 2
2.5107815 0.59630072 -0.31686044 2 4
2.4949148 0.59207243 -0.22433895 61 5
2.485672 0.58896255 -0.13387534 2 6
2.4965904 0.59108961 -0.044782735 2 7
2.4838898 0.58396393 0.044538487 65 8
2.4888444 0.58421201 0.1339801 2 9
2.4886208 0.58370137 -0.49686676 63 2
2.5483246 0.59723556 -0.41455135 2 3
2.4895508 0.58254457 -0.31393531 2 4
2.4950264 0.58290601 -0.22416465 27 5
2.5031707 0.58434933 -0.13471271 2 6
2.5025337 0.58327836 -0.044852547 2 7
2.4956543 0.5775435 0.044713013 58 8
2.4829841 0.57415611 0.1335614 3 9
2.486717 0.57456094 -0.4961035 63 2
2.5503936 0.58833718 -0.41455129 1 3
2.5147827 0.57919657 -0.31686017 2 4
2.4988868 0.57507753 -0.22433895 20 5
2.5090885 0.57650203 -0.13492206 2 6
2.5200465 0.5785566 -0.045131788 2 7
2.4975555 0.56926501 0.044713005 61 8
2.4966578 0.56814378 0.13418943 10 9
2.4848788 0.56500715 -0.49534026 59 2
2.5330682 0.57549948 -0.41142264 2 3
2.4934585 0.5655852 -0.31393531 2 4
2.4931064 0.56459033 -0.22364172 61 5
2.5031946 0.56641567 -0.13450338 2 6
2.5181494 0.56887585 -0.045061979 9 7
2.4957225 0.55923194 0.044643197 59 8
2.494499 0.55804467 -0.49686673 59 2
2.539016 0.56707191 -0.41204834 2 3
2.5032649 0.55816972 -0.31491029 2 4
2.5008965 0.55718356 -0.22416465 66 5
2.52475 0.56157309 -0.1355501 2 6
2.4898481 0.5487957 0.044503581 61 8
2.4909065 0.54811746 0.13366607 42 9
2.4925973 0.54848945 -0.4961035 50 2
2.5371215 0.5573585 -0.41142264 2 3
2.5129538 0.55112869 -0.31588551 2 4
2.5008798 0.54802448 -0.22399034 58 5
2.5032818 0.54763389 -0.13429403 2 6
2.5006654 0.54614824 -0.044678025 47 7
2.4956572 0.54094893 0.044573389 61 8
2.4966149 0.54069912 0.13387543 59 9
2.4944966 0.53978586 -0.4961035 46 2
2.5506365 0.55100077 -0.41329983 2 3
2.5012784 0.53942585 -0.3141793 18 4
2.5125158 0.54138911 -0.22486189 66 5
2.5071299 0.53931409 -0.1343987 10 6
2.5259233 0.54289436 -0.045096878 65 7
2.5091717 0.53517216 0.044782821 59 8
2.4926262 0.53073484 0.1335614 62 9
2.5331275 0.53843313 -0.41017118 2 3
2.5202374 0.53385586 -0.22538483 58 5
2.5219336 0.53283322 -0.044992164 64 7
2.5188532 0.52805072 0.044922438 61 8
2.5003285 0.52325743 0.13387543 54 9
2.542726 0.53120393 -0.41142264 2 3
2.5107229 0.52360231 -0.31491029 47 4
2.5063903 0.5222435 -0.22399034 61 5
2.5185652 0.52386194 -0.13481739 52 6
2.5276942 0.52484161 -0.045061979 64 7
2.5128467 0.51764303 0.044782825 59 8
2.50214 0.51452583 0.13387543 51 9
2.5329552 0.51994097 -0.40954545 3 3
2.522258 0.51682913 -0.31612924 64 4
2.5140541 0.51468956 -0.22451329 66 5
2.5184209 0.51466906 -0.13471271 31 6
2.537348 0.51761317 -0.045201592 60 7
2.5146387 0.50886774 0.044782825 58 8
2.5117514 0.50737095 0.13429411 47 9
2.5424998 0.51265723 -0.41079685 14 3
2.5298851 0.50919604 -0.31686044 59 4
2.5197415 0.50669563 -0.22486189 57 5
2.5352175 0.50796783 -0.045131784 54 7
2.5144377 0.4996976 0.044747915 55 8
2.505671 0.49704504 0.13387543 28 9
2.5238578 0.49882177 -0.31588522 59 4
2.5175855 0.49712682 -0.22451328 56 5
2.5062766 0.49398369 -0.13387536 2 6
2.5212786 0.49602646 -0.044852547 20 7
2.5279431 0.49321446 0.044957343 15 8
2.5634685 0.49828821 -0.41361269 77 3
2.5216858 0.48925313 -0.31539774 56 4
2.5272148 0.48941061 -0.22521052 60 5
2.5472033 0.49282029 -0.13596877 1 6
2.5381114 0.48371133 -0.40923253 57 3
2.5311785 0.48193228 -0.31637299 56 4
2.5249932 0.47984138 -0.22486189 56 5
2.5372188 0.48124844 -0.13534075 2 6
2.5403981 0.48139086 -0.045131784 2 7
2.5274768 0.47437453 0.044887535 2 8
2.5378425 0.47448617 -0.40891966 30 3
2.5308943 0.47272998 -0.31612894 52 4
2.5188186 0.46956462 -0.22416468 41 5
2.5388837 0.47238833 -0.13534077 1 6
2.542063 0.47252086 -0.045131784 2 7
2.5270693 0.46562856 0.044852629 4 8
2.5246375 0.46290311 -0.31515428 22 4
2.5325768 0.4625304 -0.13492206 2 6
2.5278783 0.46121639 -0.044852547 2 7
2.5513725 0.45768559 -0.22677934 2 5
2.5223799 0.45157593 -0.13429403 2 6
2.5668733 0.45907924 -0.045515735 3 7
2.5220203 0.44379333 -0.31442308 2 4
2.5510702 0.44798717 -0.22660501 2 5
2.5515604 0.44715393 -0.13575944 2 6
2.5449021 0.44552937 -0.045096878 29 7
2.5397644 0.44006422 0.044992246 56 8
2.5431929 0.4379158 -0.31686017 2 4
2.5565455 0.43975437 -0.22695363 3 5
2.5688531 0.44094956 -0.13659683 2 6
2.5333242 0.43029952 0.044852629 61 8
2.5622478 0.4324525 -0.31905383 7 4
2.5305591 0.42619452 -0.22451328 12 5
2.5703011 0.43242776 -0.13659681 2 6
2.5440063 0.4270896 -0.04502707 55 7
2.5466471 0.4234212 0.045062061 59 8
2.5598252 0.42285818 -0.31856635 37 4
2.5560291 0.42085651 -0.13575943 2 6
2.5652137 0.42145047 -0.045376118 61 7
2.5461349 0.41420984 0.045027152 57 8
2.5671642 0.41486952 -0.31929755 40 4
2.5491366 0.41150093 -0.22590777 49 5
2.5456519 0.41002554 -0.1351314 2 6
2.572592 0.41344482 -0.045480829 60 7
2.5554647 0.40657574 0.045166768 54 8
2.5587928 0.40435845 -0.31807885 32 4
2.5643339 0.40477413 -0.22712794 55 5
2.5549593 0.4023816 -0.13555011 11 6
2.5661182 0.40321997 -0.045341212 64 7
2.5627964 0.39857423 0.045271486 41 8
2.5558856 0.39430213 -0.22625639 56 5
2.5675101 0.39426062 -0.045341212 64 7
2.5631571 0.38626924 -0.22677934 58 5
2.5577059 0.38453487 -0.1355501 6 6
2.5688033 0.38574475 -0.045341212 64 7
2.564424 0.3777667 -0.22677934 58 5
2.5779824 0.37838507 -0.045480832 60 7
2.5676341 0.36954501 -0.22695363 54 5
2.558223 0.36727914 -0.13544542 1 6
2.5871406 0.37096998 -0.045620449 64 7
2.5688455 0.36102769 -0.22695363 56 5
2.5752501 0.36101118 -0.13628279 1 6
2.5804353 0.36127889 -0.045480832 60 7
2.5662651 0.35062137 -0.22660501 56 5
2.6042612 0.35535097 -0.13774821 2 6
2.5818036 0.35136741 -0.045480832 60 7
2.561548 0.34087458 -0.22608207 48 5
2.6134653 0.34685382 -0.13816687 1 6
2.5869787 0.34288037 -0.045550641 60 7
2.56865 0.33269811 -0.22660501 24 5
2.5908909 0.33465934 -0.13691083 1 6
2.5921261 0.33435896 -0.045620445 60 7
2.5959496 0.32656485 -0.13712017 1 6
2.5932777 0.32530805 -0.045620449 60 7
2.5970736 0.31750065 -0.13712016 1 6
2.5844727 0.31504458 -0.045445926 57 7
2.5822995 0.3065502 -0.13628279 2 6
2.5855565 0.3060205 -0.045445926 57 7
2.6151001 0.30119002 -0.13795753 2 6
2.5905302 0.29790217 -0.045515735 49 7
2.5922658 0.28985369 -0.13670149 10 6
2.5836048 0.28797218 -0.045376118 23 7
2.6041582 0.27278957 -0.13722485 40 6
2.6050944 0.26369703 -0.13722485 18 6
