# .PCD v0.7 - Point Cloud Data file format
VERSION 0.7
FIELDS x y z intensity ring
SIZE 4 4 4 4 2
TYPE F F F F U
COUNT 1 1 1 1 1
WIDTH 689
HEIGHT 1
VIEWPOINT 0 0 0 1 0 0 0
POINTS 689
DATA ascii
1.8644273 1.4634756 -0.29102388 2 4
1.8710907 1.458178 -0.2912679 25 4
1.8528883 1.4233131 -0.28688031 49 4
1.8657373 1.4228557 -0.28809902 61 4
1.8675274 1.4139385 -0.28761154 50 4
1.8787988 1.4121814 -0.28858677 53 4
1.8827671 1.4146496 -0.20603624 4 5
1.8837168 1.405615 -0.2885865 50 4
1.8790418 1.3919411 -0.2871241 50 4
1.8829898 1.3943579 -0.20499039 40 5
1.8774916 1.3806694 -0.28614938 32 4
1.8878459 1.3877761 -0.20499039 59 5
1.8582503 1.3565501 -0.28249303 4 4
1.881413 1.372956 -0.20377021 24 5
1.9029181 1.3795089 -0.2885865 2 4
1.9012766 1.3682206 -0.28761154 2 4
1.9052705 1.3705901 -0.205339 2 5
1.9492699 1.3934832 -0.37950999 1 3
1.9028108 1.3592674 -0.28712407 2 4
1.9100436 1.3639308 -0.20533903 2 5
1.9283465 1.3683801 -0.37450412 22 3
1.9010673 1.3480237 -0.28614911 2 4
1.9066654 1.3514946 -0.20446745 4 5
1.8971304 1.34374 -0.12183809 3 6
1.912254 1.3459501 -0.28712407 2 4
1.9459468 1.3605437 -0.37606841 69 3
1.9332128 1.350636 -0.28956169 8 4
1.9111542 1.3347272 -0.2039445 41 5
1.9031887 1.3281775 -0.12162873 35 6
1.9312103 1.3402275 -0.37231401 63 3
1.9256262 1.3348589 -0.20499039 68 5
1.9094549 1.3226638 -0.1217334 59 6
1.9456373 1.340202 -0.37419122 66 3
1.9213377 1.3224753 -0.28639314 54 4
1.915501 1.3179651 -0.20342156 62 5
1.8943108 1.3024114 -0.12047733 62 6
1.9454113 1.330058 -0.3732526 68 3
1.9275819 1.3168799 -0.28663659 66 4
1.9250256 1.314642 -0.2039445 59 5
1.9021457 1.2980422 -0.12068669 45 6
1.9533117 1.3254768 -0.37387833 68 3
1.9338095 1.3112577 -0.28688031 56 4
1.9296033 1.3079138 -0.2039445 54 5
1.9149333 1.296995 -0.12121006 36 6
1.9511435 1.3145767 -0.37262684 68 3
1.9480269 1.3114897 -0.28834301 62 4
1.930851 1.2989455 -0.20359586 54 5
1.9125937 1.2861799 -0.12079135 10 6
1.9524357 1.3055636 -0.3720012 68 3
1.94104 1.2969617 -0.28663662 52 4
1.9368039 1.2936437 -0.20377021 58 5
1.9315034 1.2881529 -0.040524367 4 7
1.9503977 1.2943703 -0.37074965 41 3
1.9389373 1.2857901 -0.28566164 54 4
1.9429688 1.2879754 -0.20394453 56 5
1.9365125 1.2827227 -0.1217334 2 6
1.9400977 1.276831 -0.28517416 54 4
1.9507822 1.2833748 -0.20429313 50 5
1.9409785 1.2759547 -0.1217334 1 6
1.984189 1.2969341 -0.37544271 2 3
1.9445431 1.2700504 -0.28517416 56 4
1.9435714 1.2689334 -0.20307295 16 5
1.9554573 1.2757189 -0.12236143 2 6
1.9130579 1.2471075 -0.039861172 70 7
1.9859319 1.2891876 -0.46023136 1 2
1.9969906 1.2953745 -0.37700704 2 3
1.9522954 1.2654157 -0.28566164 52 4
1.9699571 1.2753993 -0.12298947 2 6
1.9325107 1.2501972 -0.040175315 31 7
1.9854692 1.2790577 -0.45908654 5 2
1.981568 1.2755657 -0.3732526 2 3
1.9633793 1.2628882 -0.28663659 49 4
1.9641141 1.2628765 -0.20429313 2 5
1.9542334 1.2555594 -0.1217334 2 6
1.9334971 1.2412837 -0.040105507 55 7
1.9959965 1.2750219 -0.37512985 2 3
1.956062 1.248551 -0.28493041 27 4
1.9886658 1.2688733 -0.20638488 1 5
1.9518672 1.2444358 -0.1213147 2 6
1.9529974 1.2441964 -0.040419649 70 7
1.9877193 1.2609583 -0.45756009 46 2
2.0171194 1.2786222 -0.37825853 2 3
1.9829829 1.2555286 -0.205339 2 5
1.9663268 1.2440215 -0.12194275 2 6
1.9438064 1.2288238 -0.040140416 63 7
1.9677291 1.2396256 0.040594246 4 8
1.9904466 1.2529669 -0.45717841 45 2
2.02157 1.2715737 -0.37825853 2 3
1.973135 1.2401458 -0.28614938 2 4
1.9704826 1.238 -0.20359589 2 5
1.9571253 1.2286541 -0.12110537 2 6
1.9413079 1.2177799 -0.040000793 54 7
2.0014684 1.250172 -0.45870492 56 2
2.0259969 1.2645087 -0.3782585 2 3
1.9825048 1.2364023 -0.28688031 11 4
1.9747922 1.2311138 -0.20359589 2 5
1.9783543 1.2323757 -0.12215209 2 6
1.9489418 1.2131099 -0.040070601 54 7
2.0058205 1.2431775 -0.45870492 56 2
2.0102453 1.244949 -0.37450412 2 3
1.9926327 1.2325984 -0.20499039 2 5
1.965655 1.2149608 -0.12110536 4 6
1.9529539 1.2066408 -0.040070605 54 7
1.9463336 1.198329 0.039896157 43 8
2.0134928 1.2382245 -0.45946819 56 2
2.0345564 1.2506899 -0.37825853 2 3
1.980726 1.2166451 -0.28541791 56 4
1.9799426 1.2152127 -0.20324725 4 5
1.9639738 1.2039962 -0.040210221 61 7
1.9590364 1.19674 0.040070672 36 8
2.0041826 1.2233572 -0.45641527 56 2
2.0119271 1.2271222 -0.3732526 2 3
1.9900458 1.2128235 -0.28614938 66 4
1.9738791 1.2015538 -0.12110537 35 6
1.9544971 1.1888195 -0.039930984 54 7
2.0101187 1.2173722 -0.45679682 59 2
2.0432389 1.2364546 -0.37825853 2 3
1.9993637 1.2089504 -0.28688031 56 4
1.9898736 1.2027382 -0.20342156 37 5
1.9985772 1.2070463 -0.12236143 59 6
1.9620582 1.1840575 -0.040000793 55 7
1.9776254 1.1892184 0.040280104 1 8
2.0177224 1.2123699 -0.45756009 59 2
2.0339937 1.2211809 -0.37575558 2 3
2.0052731 1.2029867 -0.28712407 59 4
1.9957684 1.1968099 -0.20359589 63 5
1.9856464 1.1897966 -0.12131471 62 6
1.9661796 1.177201 -0.040000793 55 7
1.9731781 1.1771848 0.040105578 1 8
2.0253143 1.2073305 -0.45832333 59 2
2.0399411 1.2150838 -0.37606841 4 3
2.0060487 1.1939486 -0.28663659 54 4
1.9999343 1.1898355 -0.20359589 59 5
1.976052 1.1746947 -0.12047733 47 6
1.978873 1.1754369 -0.040175315 51 7
1.9772756 1.1702893 0.040105578 1 8
1.952926 1.1549572 0.11890735 8 9
2.0345862 1.2032508 -0.45946819 56 2
1.9999483 1.1808825 -0.28517416 52 4
2.0006435 1.1808223 -0.20324726 48 5
1.9818611 1.168804 -0.12058201 50 6
1.9829645 1.168522 -0.040175319 51 7
1.9847972 1.1654058 0.040175386 1 8
2.0286138 1.1901802 -0.45717841 56 2
2.0415576 1.1968176 -0.37481695 48 3
2.0040579 1.1738946 -0.28517416 52 4
2.020227 1.1828923 -0.20481606 41 5
1.9893763 1.1638966 -0.12079135 36 6
1.9818522 1.1585646 -0.040070601 48 7
1.9992213 1.1645088 0.040384822 1 8
2.0747812 1.2080375 -0.55427933 1 1
1.9505843 1.1352671 0.11827932 57 9
2.0327559 1.1830921 -0.45717841 56 2
2.0730448 1.2055724 -0.37982288 69 3
2.0115762 1.1688862 -0.28566164 52 4
2.0088382 1.1668264 -0.20324725 7 5
1.988245 1.1539369 -0.12047733 13 6
1.9824243 1.1496339 -0.040000793 48 7
1.992885 1.1515208 0.040175386 1 8
2.0772982 1.1998125 -0.55382967 20 1
1.9562645 1.1294503 0.11838397 42 9
2.0368731 1.1759899 -0.45717844 53 2
2.0464411 1.1805617 -0.37419125 40 3
2.0156438 1.1618577 -0.28566164 51 4
2.0284359 1.1687597 -0.20481606 2 5
1.9968251 1.1486901 -0.040210221 19 7
1.9864832 1.1385902 0.039965961 1 8
1.9671276 1.1265857 0.11880267 58 9
2.0443728 1.1708244 -0.45794168 56 2
2.0265808 1.1587557 -0.28663659 54 4
2.0446122 1.1685921 -0.20603625 2 5
2.017065 1.1519138 -0.1217334 2 6
2.007829 1.1415331 0.04031501 2 8
2.0822353 1.1833553 -0.55292988 68 1
1.9623655 1.1147792 0.11827932 64 9
2.0518615 1.16562 -0.45870492 56 2
2.0615046 1.1701463 -0.37544268 2 3
2.0237062 1.1477575 -0.28566164 49 4
2.0382791 1.1555527 -0.20499039 2 5
2.0210738 1.1448663 -0.1217334 2 6
2.0082767 1.1366917 -0.040280033 2 7
2.0152853 1.1364826 0.040384822 1 8
2.0693779 1.16651 -0.54843062 63 1
1.9645048 1.1069413 0.11817463 60 9
2.0388138 1.1488122 -0.45488867 41 2
2.0604131 1.1600355 -0.37450412 2 3
2.0277002 1.140687 -0.28566167 51 4
2.0492473 1.1523364 -0.20568763 2 5
2.0250573 1.137805 -0.1217334 2 6
2.0052578 1.1257583 -0.040140416 2 7
2.0332022 1.1372501 0.040664062 1 8
2.0785391 1.1621339 -0.54978037 57 1
1.977074 1.1049495 0.11869799 64 9
1.9933184 1.1135718 0.19976084 1 10
2.0920446 1.1682463 -0.37951002 2 3
2.0316696 1.1336014 -0.28566164 47 4
2.0532575 1.1451756 -0.20568763 1 5
2.0359955 1.1346176 -0.12215208 2 6
2.0109222 1.119725 -0.040175319 8 7
2.0021861 1.1107445 0.039965957 2 8
2.0791745 1.1529804 -0.54888046 43 1
1.982666 1.0990093 0.11880267 60 9
2.0961092 1.160937 -0.37950999 2 3
2.0390878 1.1284256 -0.28614938 30 4
2.0345769 1.1254655 -0.20342156 1 5
2.0294554 1.1217064 -0.12152404 2 6
2.0095558 1.1056764 0.040035773 2 8
2.0814795 1.1447763 -0.54843062 49 1
1.99174 1.0949697 0.11911668 64 9
2.0748172 1.1406418 -0.46023136 1 2
2.0828357 1.144102 -0.37638131 2 3
2.0499756 1.1251209 -0.28712407 26 4
2.0559611 1.1279391 -0.20516466 1 5
2.0298557 1.1126957 -0.1213147 8 6
2.0344741 1.1143053 -0.040489458 67 7
2.0344675 1.1101484 0.040454626 4 8
2.073487 1.1309719 -0.54528129 45 1
1.9797682 1.0794052 0.11817462 58 9
2.092576 1.1409101 -0.46328431 1 2
1.9803785 1.0792884 0.19732051 42 10
2.0868163 1.1368252 -0.37638131 2 3
2.0556343 1.1189065 -0.28736779 57 4
2.0668864 1.1245649 -0.20586194 2 5
2.0267088 1.1017873 -0.12089602 30 6
2.0278084 1.1014694 -0.040280029 69 7
2.094563 1.1329982 -0.54978031 42 1
1.9817675 1.0715377 0.11806996 62 9
2.0689147 1.1186578 -0.45717841 1 2
1.9928968 1.077107 0.19819205 50 10
2.0838206 1.1257776 -0.37512988 2 3
2.0560327 1.1098399 -0.28688055 47 4
2.063786 1.1135585 -0.2051647 1 5
2.0340581 1.096603 -0.12110537 32 6
2.0281203 1.0924871 -0.040210221 64 7
2.1036568 1.1284441 -0.55113 25 1
1.99235 1.0687368 0.11848865 62 9
2.0866485 1.1188515 -0.46023136 1 2
2.1016674 1.125959 -0.37763277 2 3
2.0614524 1.1039524 -0.28712407 53 4
2.0536067 1.0988275 -0.20377021 2 5
2.05901 1.1007954 -0.12236143 59 6
2.0246775 1.081985 -0.040070605 57 7
2.0175493 1.0741051 0.039896157 43 8
2.1039462 1.1196313 -0.55023044 59 1
2.0011723 1.0649393 0.11880267 60 9
2.09728 1.1156143 -0.46175781 1 2
2.1053889 1.1189849 -0.37763277 2 3
2.0686078 1.0989733 -0.28761154 53 4
2.0572386 1.0920128 -0.20377021 2 5
2.0520627 1.088346 -0.1217334 62 6
2.0406215 1.0818219 -0.040314935 67 7
2.0175626 1.0655411 0.039826337 52 8
2.1059244 1.1117378 -0.54978031 57 1
2.0084102 1.0598111 0.119012 60 9
2.0976889 1.1064541 -0.4609946 2 2
2.0125096 1.0615251 0.1990636 2 10
2.1020989 1.1083114 -0.37638131 22 3
1.9932146 1.0504587 0.27664337 1 11
2.0759439 1.0935955 -0.28809902 50 4
2.0592752 1.0838964 -0.20359589 3 5
2.0381715 1.0718802 -0.12068668 45 6
2.0408454 1.0728319 -0.040245127 67 7
2.0214546 1.0581397 0.039826341 22 8
2.1030786 1.1003973 -0.54798067 43 1
2.0069716 1.0496664 0.11869799 64 9
2.091291 1.0933014 -0.45870492 2 2
2.0128551 1.052296 0.19871522 2 10
2.0005703 1.0449846 0.27713084 3 11
2.0693808 1.0804665 -0.28663659 53 4
2.0456293 1.0662487 -0.12089603 47 6
2.0500836 1.0681168 -0.040349837 60 7
2.1140172 1.0962709 -0.54978031 45 1
2.0053046 1.0398954 0.11838397 60 9
2.0933521 1.0850909 -0.45832333 4 2
2.0237749 1.0485773 0.19941221 2 10
2.129462 1.1028656 -0.37982291 69 3
2.0766652 1.0750622 -0.28712407 53 4
2.0882146 1.080117 -0.20568763 34 5
2.052887 1.060936 -0.12110537 40 6
2.0449166 1.0563648 -0.040175315 51 7
2.1229577 1.092927 -0.63980067 3 0
2.0607979 1.0604713 0.040454626 1 8
2.1176414 1.0892539 -0.54978031 45 1
2.0069664 1.0323259 0.11827932 62 9
2.0059762 1.0309324 0.19732051 2 10
2.1085081 1.0831605 -0.37544268 63 3
2.080219 1.0681692 -0.28712407 50 4
2.0669675 1.0604531 -0.20324726 2 5
2.0599484 1.055945 -0.12131471 47 6
2.0484087 1.0495771 -0.040175315 44 7
2.1540987 1.0999383 -0.64808291 30 0
2.0464926 1.0445403 0.040105578 1 8
2.1247137 1.0839972 -0.55068016 43 1
2.019453 1.029852 0.11880267 56 9
2.0200343 1.0297031 0.19836634 2 10
2.1156085 1.0779563 -0.37606841 63 3
2.0306826 1.0342391 0.27981201 70 11
2.0927801 1.0654047 -0.28834274 56 4
2.0937421 1.0649757 -0.20551333 2 5
2.0705607 1.0527283 -0.1217334 45 6
2.0431457 1.0378926 -0.040000796 9 7
2.1563926 1.0911617 -0.64756525 37 0
2.0394213 1.0319728 0.039896157 1 8
2.1215281 1.0730561 -0.54888046 45 1
2.0301654 1.0264006 0.11922135 18 9
2.1061673 1.0643623 -0.45870495 40 2
2.0380218 1.0294795 0.19976084 2 10
2.1107285 1.0657438 -0.37450412 59 3
2.018332 1.0190914 0.27761832 71 11
2.0964863 1.0580924 -0.28834301 56 4
2.1010051 1.0594543 -0.20586194 1 5
2.0637028 1.0397409 -0.12110537 45 6
2.1757286 1.0914254 -0.65222406 55 0
2.0682156 1.0370398 0.040384822 1 8
2.125447 1.0652726 -0.54888046 43 1
2.0231993 1.0135854 0.11859332 3 9
2.1256664 1.0649198 -0.46213949 47 2
2.0273509 1.0152217 0.19836634 2 10
2.1250346 1.0636741 -0.37638134 57 3
2.0149527 1.0081346 0.2766434 74 11
2.0879223 1.0441866 -0.28663662 50 4
2.1153836 1.0574585 -0.20690779 1 5
2.063746 1.0307454 -0.12089602 38 6
2.0755696 1.0357471 -0.040489458 1 7
2.1708765 1.0795226 -0.64963585 10 0
2.0861487 1.0369341 0.040664062 1 8
2.1326432 1.0595818 -0.54978037 45 1
2.0106261 0.99852133 0.11765126 15 9
2.1188207 1.0522532 -0.45984977 18 2
2.0380213 1.0116818 0.1990636 2 10
2.1251955 1.0544944 -0.37575561 57 3
2.0184593 1.0010943 0.27664337 71 11
2.0986688 1.0404183 -0.28761154 53 4
2.1154912 1.0482993 -0.20655918 1 5
2.0744913 1.0270795 -0.1213147 17 6
2.0863423 1.0320415 -0.040629078 1 7
2.0825796 1.026112 0.040524438 1 8
2.1363289 1.0521303 -0.54978031 43 1
2.0379641 1.0028037 0.19871499 2 10
2.1341813 1.0496846 -0.37669423 40 3
2.0272863 0.99666947 0.2773746 65 11
2.1040685 1.0339631 -0.2878553 38 4
2.0423572 1.0036374 0.36042511 1 12
2.1084077 1.0356375 -0.2055133 1 5
2.0897536 1.0251168 -0.040629081 2 7
2.0859711 1.0191996 0.040524438 2 8
2.1468103 1.0484613 -0.55157995 45 1
2.0371189 0.99445105 0.11880267 42 9
2.134937 1.0417401 -0.46175781 1 2
2.023545 0.98694909 0.19697186 2 10
2.134099 1.0408698 -0.37606841 6 3
2.0341487 0.99168164 0.2778621 65 11
2.0967789 1.0217619 -0.28639314 8 4
2.0511758 0.99909645 0.36136368 3 12
2.1155925 1.0300161 -0.20586193 1 5
2.1029849 1.0234239 -0.12257078 2 6
2.0825293 1.012569 -0.040419649 2 7
2.0823174 1.0084251 0.040384822 2 8
2.1504567 1.0409616 -0.55157989 43 1
2.0441737 0.98907346 0.11901201 47 9
2.1419146 1.0363655 -0.46252114 1 2
2.051918 0.99237734 0.19941224 2 10
2.1412764 1.0351342 -0.37669417 2 3
2.0322356 0.98198438 0.27713087 71 11
2.1199956 1.0239328 -0.28907424 2 4
2.115586 1.0208938 -0.2055133 1 5
2.0921533 1.0091347 -0.1217334 14 6
2.0860503 1.0052947 -0.040419646 2 7
2.0912328 1.0037466 0.040489532 4 8
2.1435354 1.0283905 -0.54888046 43 1
2.0440121 0.98020405 0.11880266 58 9
2.1421578 1.0268099 -0.46175781 1 2
2.0627286 0.98829418 0.2001095 2 10
2.1717806 1.040077 -0.38138726 2 3
2.0338609 0.9740265 0.27688712 65 11
2.1199758 1.0148127 -0.2885865 2 4
2.1227319 1.0152215 -0.20586194 1 5
2.0967648 1.0014538 -0.040559266 2 7
2.1543305 1.0238736 -0.5506801 45 1
2.047591 0.97270632 0.11880267 60 9
2.1599157 1.0260661 -0.46481082 1 2
2.0571666 0.97681403 0.19923817 5 10
2.1753974 1.0324903 -0.3813872 2 3
2.0445912 0.96996951 0.2778621 68 11
2.1236811 1.0070353 -0.28858677 2 4
2.0545559 0.97381866 0.36011216 59 12
2.1408429 1.0142593 -0.20725644 1 5
2.1191766 1.0035405 -0.12288479 58 6
2.0949979 0.99119687 -0.040454552 5 7
2.0712278 0.97597069 0.039965961 40 8
2.1649432 1.0196682 -0.55247968 43 1
2.0600092 0.96980703 0.11932604 62 9
2.1494508 1.0114547 -0.46175781 1 2
2.1720164 1.0211476 -0.38013572 2 3
2.0479648 0.96282619 0.2778621 68 11
2.1361666 1.0038378 -0.2898052 3 4
2.0615191 0.96832007 0.36073798 75 12
2.1263354 0.99831206 -0.2055133 2 5
2.1029503 0.98643714 -0.1217334 62 6
2.0854931 0.97381157 0.040175386 57 8
2.1720209 1.0137537 -0.55337948 41 1
2.0668335 0.96465927 0.11953537 62 9
2.1705847 1.0126221 -0.46557403 1 2
2.04949 0.95569342 0.19784342 26 10
2.1646478 1.0089326 -0.37825853 7 3
2.0657082 0.96237838 0.27981204 77 11
2.1504543 1.0014035 -0.29126787 25 4
2.0665095 0.96231282 0.36105081 77 12
2.1260216 0.98957437 -0.2051647 2 5
2.1152647 0.9836694 -0.12225677 50 6
2.0778232 0.96184975 0.039965961 44 8
2.1629903 1.0008175 -0.55023044 22 1
2.0720012 0.95827657 0.11964005 60 9
2.1634142 1.0000957 -0.46328434 1 2
2.0544713 0.94886386 0.27786213 77 11
2.0644748 0.95261097 0.36011222 68 12
2.1403182 0.98715323 -0.20621055 2 5
2.1058185 0.97079575 -0.12152406 45 6
2.1069105 0.97040749 -0.040489465 74 7
2.090256 0.95875996 0.040140491 55 8
2.0679049 0.94807118 0.11922135 60 9
2.1774273 0.99782389 -0.46557403 1 2
2.0650046 0.94586939 0.19871499 2 10
2.1840377 0.99993104 -0.38044855 69 3
2.0559652 0.94086081 0.27761835 71 11
2.1265326 0.97270536 -0.28712407 42 4
2.0676224 0.94575912 0.36011216 48 12
2.1526399 0.98419303 -0.20708212 7 5
2.1091943 0.96343952 -0.12152406 47 6
2.1246693 0.97006011 -0.040768702 70 7
2.1043456 0.95678943 0.040349912 66 8
2.0730207 0.94167262 0.11932603 62 9
2.1665959 0.98372447 -0.46252114 1 2
2.075551 0.94194835 0.19941221 2 10
2.169354 0.98451889 -0.3773199 59 3
2.0608823 0.93485743 0.27786213 65 11
2.1478252 0.97384584 -0.28956169 61 4
2.1160164 0.9580881 -0.1217334 45 6
2.1189327 0.95851618 -0.040594175 67 7
2.1113195 0.9510802 0.040419724 66 8
2.0744734 0.93361133 0.11922135 60 9
2.1915019 0.98581982 -0.4671005 2 2
2.0713952 0.93179137 0.19871499 2 10
2.1763802 0.97856212 -0.37794563 63 3
2.0695643 0.93009949 0.27859327 71 11
2.1512122 0.96634209 -0.28956145 53 4
2.1268039 0.95359284 -0.12215208 47 6
2.1131415 0.94702524 -0.040419649 46 7
2.107486 0.94007736 0.040280104 63 8
2.0888274 0.93088031 0.11984939 56 9
2.1843398 0.97298837 -0.46481076 2 2
2.0784359 0.92581475 0.19906385 2 10
2.1745393 0.96816665 -0.37700707 57 3
2.0747733 0.92331547 0.27883705 68 11
2.1601806 0.96087182 -0.29029268 56 4
2.1447887 0.95312876 -0.205339 55 5
2.1302845 0.94579172 -0.12215208 47 6
2.1090882 0.9315393 0.040245205 25 8
2.097707 0.92563647 0.12016341 16 9
2.2074811 0.97407544 -0.46900865 4 2
2.081815 0.91819125 0.19906385 2 10
2.1780727 0.96019059 -0.37700704 59 3
2.0672441 0.91090161 0.2773746 56 11
2.1618707 0.9521482 -0.29004893 50 4
2.1608677 0.95125496 -0.2065592 25 5
2.1244314 0.93433106 -0.12162873 42 6
2.1105688 0.9220854 0.20150399 2 10
2.1814115 0.95258123 -0.37700704 57 3
2.0704107 0.90368038 0.27737457 56 11
2.1615424 0.94300789 -0.28956169 53 4
2.1295114 0.92770696 -0.1217334 47 6
2.1489351 0.93527639 -0.040908314 2 7
2.1522365 0.93269408 0.040943295 1 8
2.1041183 0.9109692 0.12016342 2 9
2.1174319 0.91629452 0.2018526 2 10
2.1919746 0.94809932 -0.37825853 57 3
2.0826635 0.90038604 0.2785933 71 11
2.1629992 0.93466908 -0.2893177 47 4
2.1784296 0.94088703 -0.20760503 2 5
2.1364043 0.92184991 -0.12194275 45 6
2.1264782 0.91668653 -0.040419649 2 7
2.1371031 0.9172889 0.040594246 1 8
2.1072848 0.90361929 0.12016341 2 9
2.1941032 0.94084769 -0.46404755 35 2
2.0986419 0.89947951 0.19976084 2 10
2.1989026 0.94199717 -0.37888426 59 3
2.0930934 0.89623564 0.27956825 71 11
2.1644232 0.92633247 -0.28907424 23 4
2.1670465 0.92700768 -0.20621055 2 5
2.146955 0.91752672 -0.12236142 47 6
2.1590908 0.92182058 -0.040978126 2 7
2.1439734 0.91138756 0.040664062 2 8
2.1102695 0.89662677 0.12016341 2 9
2.1811104 0.9262768 -0.46061298 4 2
2.105437 0.89370495 0.20010947 2 10
2.1949031 0.93123019 -0.37763277 59 3
2.0962088 0.8889243 0.27956825 71 11
2.1812766 0.92410159 -0.20725645 1 5
2.1575022 0.91314012 -0.12278011 45 6
2.1474018 0.90842342 -0.040698886 2 7
2.154355 0.90737796 0.040803675 2 8
2.1207507 0.89235294 0.1205821 3 9
2.1085439 0.88635063 0.2001095 2 10
2.1979795 0.9239459 -0.37763277 57 3
2.0881639 0.87735486 0.27810577 62 11
2.1944721 0.92157024 -0.29224259 1 4
2.1808145 0.91493952 -0.20690779 1 5
2.151309 0.90211934 -0.12225677 20 6
2.1616263 0.90555859 -0.040908318 2 7
2.1519718 0.89754343 0.040698957 7 8
2.0831416 0.86840785 0.11827932 14 9
2.1151495 0.88088584 0.20045809 2 10
2.204839 0.91778558 -0.3782585 57 3
2.0930471 0.87082267 0.27834955 65 11
2.1866777 0.90933168 -0.29078013 2 4
2.1893563 0.90999609 -0.20743074 2 5
2.1562893 0.89537066 -0.12236143 37 6
2.1720054 0.90145093 -0.041047934 1 7
2.1145282 0.87197757 0.20010947 5 10
2.2096963 0.91122252 -0.37857136 40 3
2.106935 0.86841625 0.27981201 65 11
2.1860106 0.90056247 -0.29029268 1 4
2.1962039 0.90386528 -0.20777935 2 5
2.161094 0.88897437 -0.12246611 58 6
2.1751382 0.8938641 -0.041047931 1 7
2.148778 0.87908781 0.040524434 49 8
2.1167343 0.86554825 0.11984939 42 9
2.2238362 0.90798432 -0.38044855 13 3
2.1099536 0.86105675 0.27981204 55 11
2.1891408 0.8929258 -0.29029292 1 4
2.1954997 0.89507252 -0.20743074 2 5
2.1660337 0.88217825 -0.12257078 47 6
2.1632743 0.88061398 -0.040768702 2 7
2.1387084 0.86670047 0.040280107 51 8
2.1252966 0.86040217 0.12016341 49 9
2.1185672 0.85681826 0.19993517 62 10
2.2268348 0.90060538 -0.38044855 48 3
2.1035955 0.85033488 0.2785933 27 11
2.2104955 0.89309818 -0.29273009 2 4
2.2060008 0.8903867 -0.20812799 2 5
2.1800604 0.87947434 -0.12319881 47 6
2.1848819 0.88053274 -0.041117746 2 7
2.1398647 0.8584857 0.040245205 56 8
2.1301413 0.85372049 0.12026808 51 9
2.117698 0.8483057 0.19958656 43 10
2.2409685 0.89723164 -0.38232583 57 3
2.2135992 0.88537705 -0.29273009 2 4
2.212796 0.88415879 -0.20847662 4 5
2.1738431 0.86815584 -0.12267546 50 6
2.1842277 0.87141818 -0.041047934 2 7
2.1595747 0.85765302 0.04055934 64 8
2.1293948 0.8448081 0.12005873 60 9
2.1244974 0.84200591 0.19993515 53 10
2.2258766 0.88173741 -0.37919715 28 3
2.2056022 0.8732596 -0.2912679 2 4
2.1788678 0.86091584 -0.12278011 52 6
2.1928356 0.86599338 -0.041152649 9 7
2.1701486 0.85265768 0.040698968 63 8
2.1361957 0.83845568 0.12026808 58 9
2.1366973 0.8382234 0.20080671 64 10
2.2106359 0.86589432 -0.29151163 3 4
2.1818597 0.8533054 -0.12278013 55 6
2.1768394 0.84652609 0.040768776 66 8
2.1465557 0.83388835 0.12068675 60 9
2.1321816 0.82787484 0.2001095 64 10
2.2062418 0.85530174 -0.2905364 20 4
2.2163596 0.85877925 -0.20795368 55 5
2.190413 0.84784633 -0.12309414 50 6
2.1915157 0.84739494 -0.041013028 24 7
2.1723151 0.83605081 0.040629148 64 8
2.1494541 0.82638997 0.12068678 45 9
2.1387777 0.82185686 0.20045811 62 10
2.2203343 0.85186231 -0.29199883 35 4
2.2156231 0.84961116 -0.20760505 52 5
2.2026844 0.84376794 -0.12361749 45 6
2.1789582 0.82988584 0.040698968 64 8
2.1453576 0.81580275 0.20080671 62 10
2.2437084 0.85185766 -0.29467997 36 4
2.2223012 0.84328508 -0.20795368 52 5
2.1981456 0.83324265 -0.12319879 52 6
2.1992481 0.83278275 -0.041047931 2 7
2.1818419 0.82227409 0.040698964 63 8
2.1537867 0.81041354 0.20132965 66 10
2.2206526 0.83424622 -0.29126763 42 4
2.2270966 0.83622366 -0.20812802 50 5
2.2010412 0.82556397 -0.12319881 45 6
2.1983967 0.82369697 -0.040978123 1 7
2.1884463 0.81605101 0.040768776 64 8
2.1860642 0.81429279 0.12225685 2 9
2.1640713 0.80567157 0.2020269 60 10
2.2328541 0.82994819 -0.29248631 52 4
2.2318692 0.82913882 -0.20830232 52 5
2.2151442 0.82204562 -0.12382683 52 6
2.2050092 0.81740779 -0.041047934 1 7
2.1967683 0.81086612 0.040873487 52 8
2.1812563 0.80427653 0.12183815 2 9
2.1555145 0.79435641 0.20098105 62 10
2.2337315 0.82185322 -0.29224259 44 4
2.2308667 0.8203572 -0.20795368 46 5
2.2066097 0.81056285 -0.12319881 45 6
2.2001982 0.80733621 -0.040908314 1 7
2.1878035 0.79802597 0.12204751 2 9
2.1582737 0.78682798 0.20098104 58 10
2.2384517 0.81473035 -0.29248631 31 4
2.2374613 0.81392771 -0.20830232 17 5
2.2281976 0.80967605 -0.12424552 28 6
2.2255585 0.80783898 -0.041327164 1 7
2.2155406 0.80026639 0.041117817 3 8
2.2056055 0.79580653 0.12288487 2 9
2.1703782 0.78266913 0.20185259 56 10
2.2434218 0.80547082 -0.041606408 1 7
2.1618268 0.77234399 0.040070672 14 8
2.2008455 0.7854178 0.12246618 2 9
2.1824803 0.77843451 0.20272414 30 10
2.2712455 0.80830681 -0.21091698 1 5
2.2262678 0.79142559 -0.12382683 2 6
2.2349133 0.79362059 -0.041396983 2 7
2.192138 0.7741254 0.12183815 2 9
2.2514999 0.79243767 -0.20882523 1 5
2.2403226 0.78762376 -0.12445488 2 6
2.2186666 0.7795763 -0.041047934 2 7
2.2104502 0.77279085 0.04087349 49 8
2.2099121 0.77173591 0.12267554 2 9
2.2617791 0.78719264 -0.20952247 2 5
2.2391493 0.77887726 -0.12424552 2 6
2.2251523 0.77313894 -0.041117743 1 7
2.2074647 0.76310962 0.040768776 51 8
2.1993771 0.75945449 0.12194283 9 9
2.2758169 0.78318322 -0.21056837 4 5
2.2437427 0.77170736 -0.12435021 12 6
2.2467494 0.77186471 -0.041466795 2 7
2.2101152 0.75539887 0.040768776 61 8
2.2494297 0.76401669 -0.041466787 2 7
2.2318144 0.75369179 0.041117817 63 8
2.1932714 0.74024814 0.12131478 42 9
2.2906713 0.77045059 -0.21143988 42 5
2.2492073 0.7556318 -0.12435021 51 6
2.2520835 0.7561596 -0.041466791 3 7
2.2343013 0.74628603 0.041117813 61 8
2.1977363 0.73322135 0.12141947 49 9
2.2876751 0.76056486 -0.21091698 36 5
2.2630732 0.75194705 -0.12497824 55 6
2.2566073 0.74892414 -0.041501701 28 7
2.248286 0.74224412 0.041327246 59 8
2.2059729 0.72742128 0.12173349 58 9
2.2618892 0.742796 -0.12476888 50 6
2.2394569 0.73067045 0.041117817 63 8
2.2198918 0.72342992 0.1223615 54 9
2.2701671 0.73674601 -0.1250829 47 6
2.2484646 0.72883642 -0.041257367 45 7
2.2419939 0.72284842 0.041117817 61 8
2.2300084 0.71812493 0.12278019 53 9
2.2651176 0.72637802 -0.12466421 47 6
2.2700388 0.72708237 -0.041606408 33 7
2.255935 0.71866018 0.041327242 59 8
2.2210822 0.70670229 0.12215216 51 9
2.2676394 0.71846747 -0.12466422 45 6
2.25843 0.71078044 0.041327242 58 8
2.2310343 0.70173168 0.12257086 47 9
2.2739456 0.71174008 -0.12487355 47 6
2.2749352 0.71161401 -0.041606408 1 7
2.2645941 0.70447487 0.041397057 58 8
2.2449141 0.69749457 0.12319887 14 9
2.2801094 0.70537531 -0.1250829 47 6
2.269763 0.70130783 -0.041466791 1 7
2.259393 0.69421792 0.041257441 59 8
2.2882879 0.69916445 -0.12539692 42 6
2.2798479 0.69571453 -0.041606408 1 7
2.2618027 0.68632632 0.041257441 41 8
2.2850988 0.6890412 -0.1250829 34 6
2.286092 0.68890685 -0.041676223 1 7
2.2815433 0.68319476 0.041571576 11 8
2.3076494 0.68662483 -0.042025268 1 7
2.2550337 0.66711563 0.041048009 39 8
2.2870085 0.67180163 -0.041606408 1 7
2.2784634 0.66540581 0.04143196 49 8
2.2970216 0.66604358 -0.041746028 2 7
2.2692432 0.65412557 0.041222535 54 8
2.3108673 0.66132182 -0.041955449 2 7
2.2811296 0.64893681 0.041397057 61 8
2.3324065 0.65868664 -0.042304505 4 7
2.2987838 0.64529324 0.041676302 58 8
2.2980919 0.6403423 -0.041641317 22 7
2.306803 0.63886666 0.041781008 57 8
2.3138101 0.63602602 -0.041885644 43 7
2.3051612 0.62975591 0.0417112 54 8
2.3430364 0.63527185 -0.042374313 40 7
2.3054149 0.62118584 0.041676302 46 8
2.3171244 0.61610711 0.04185082 11 8
