# .PCD v0.7 - Point Cloud Data file format
VERSION 0.7
FIELDS x y z intensity ring
SIZE 4 4 4 4 2
TYPE F F F F U
COUNT 1 1 1 1 1
WIDTH 1266
HEIGHT 1
VIEWPOINT 0 0 0 1 0 0 0
POINTS 1266
DATA ascii
-31.9709 1.261726 -2.7992692 10 5
-4.4472041 0.17628552 0.86512816 43 13
-4.3246341 0.17218386 -0.22682397 55 6
-4.4804702 0.17917052 1.0352248 42 14
-4.3638163 0.17526948 -0.076231875 50 7
-4.3701577 0.1762881 1.1719327 48 15
-4.3655338 0.18220691 0.076266922 47 8
-4.3721242 0.18400967 0.22933623 49 9
-4.4072156 0.18625817 0.38592538 48 10
-4.4366531 0.18827793 -0.70332927 1 3
-4.404892 0.18770126 0.54134345 38 11
-4.3671765 0.18685667 -0.53671277 2 4
-4.468132 0.19195741 0.70833546 49 12
-31.95834 1.3729765 -2.7985721 10 5
-4.4504857 0.1919785 0.86589098 40 13
-4.324007 0.18727767 -0.22682397 48 6
-4.4759235 0.19463998 1.0343249 39 14
-4.3611808 0.19041388 -0.076196969 50 7
-4.3695159 0.19154081 1.1719327 48 15
-4.3748598 0.1978963 0.076441452 50 8
-4.3734508 0.19936223 0.22944093 48 9
-4.3985782 0.20127693 0.38522819 48 10
-4.4083428 0.20249367 -0.69894904 1 3
-4.4141264 0.20353237 0.54256231 41 11
-4.3664985 0.20209996 -0.53671235 2 4
-4.4536219 0.20691131 0.70614535 48 12
-31.937426 1.4837844 -2.7971773 10 5
-4.4556718 0.20778587 0.86703587 40 13
-4.3392868 0.20311733 -0.22766131 44 6
-4.4830031 0.2106297 1.0361245 40 14
-4.3564935 0.20544672 -0.076127149 50 7
-4.3765388 0.20715754 1.1740031 48 15
-4.3821316 0.21355461 0.076581061 48 8
-4.3767171 0.21482314 0.22965026 49 9
-4.3938684 0.21643364 0.3848795 48 10
-4.3878803 0.21690634 -0.69582051 1 3
-4.4252839 0.21952951 0.54402465 40 11
-4.3855929 0.21832781 -0.5391497 2 4
-4.4548445 0.22255476 0.70645803 46 12
-31.924093 1.5948611 -2.7964802 10 5
-4.4627628 0.22373112 0.86856228 40 13
-4.3505201 0.21886526 -0.22828937 53 6
-4.4880795 0.22657084 1.0374742 41 14
-4.359745 0.22085498 -0.076196969 53 7
-4.3642135 0.22184496 1.1708974 45 15
-4.3693771 0.22822407 0.076371625 48 8
-4.3819242 0.23041418 0.22996427 49 9
-4.393086 0.23176888 0.3848795 48 10
-4.4068222 0.23326585 -0.6989491 1 3
-4.4304376 0.23529127 0.54475588 38 11
-4.4204855 0.23553638 -0.54353702 2 4
-4.4639039 0.23863111 0.70802259 48 12
-31.882521 1.7043738 -2.7933426 10 5
-4.4580336 0.23909755 0.8677991 40 13
-4.3497295 0.23405021 -0.22828937 48 6
-4.4892068 0.24234094 1.0379241 40 14
-4.3669338 0.23650461 -0.076336578 50 7
-4.3634129 0.2370777 1.1708975 48 15
-4.3765821 0.24315606 0.076511234 50 8
-4.3871188 0.24527855 0.23027828 49 9
-4.40025 0.24678198 0.38557723 48 10
-4.4336357 0.24943167 -0.70332927 1 3
-4.4197235 0.24942276 0.5435372 40 11
-0.94735754 0.053628832 -0.11650706 3 4
-4.472949 0.25399277 0.70958692 49 12
-31.884649 1.8105438 -2.7940397 10 5
-4.4611359 0.25410306 0.86856228 42 13
-4.3449416 0.24824442 -0.22808002 48 6
-4.4981065 0.25778404 1.0401736 40 14
-4.3761082 0.2515586 -0.076511107 50 7
-4.3626027 0.25154614 1.1708975 48 15
-4.3797007 0.25866768 0.076581068 48 8
-4.3842416 0.26047152 0.23017357 51 9
-4.4152727 0.26308846 0.38697174 48 10
-4.4051323 0.26325679 -0.6989491 1 3
-4.4188261 0.26484802 0.5435372 40 11
-4.4544463 0.26776427 -0.54792428 2 4
-4.4779501 0.26996142 0.71052545 48 12
-31.870178 1.9213523 -2.7933426 10 5
-4.4700193 0.27026522 0.87047076 37 13
-4.3360744 0.2629272 -0.22766134 46 6
-4.4932885 0.2732473 1.0392737 40 14
-4.3732071 0.26670986 -0.076476201 50 7
-4.3674827 0.26712689 1.1724504 51 15
-4.3867531 0.27445471 0.076720677 48 8
-4.3872924 0.27602479 0.23038295 51 9
-4.4063749 0.27799842 0.38627401 48 10
-4.4041862 0.27863103 -0.6989491 1 3
-4.4337234 0.28127658 0.54548711 40 11
-4.4415989 0.28255555 -0.54646194 2 4
-4.4631815 0.28470957 0.70833546 48 12
-31.863279 2.0325816 -2.7933426 10 5
-4.4788461 0.28649366 0.87237847 40 13
-4.343102 0.2785728 -0.22807999 48 6
-4.4903636 0.2888042 1.0388241 40 14
-4.3742452 0.28210348 -0.076511115 50 7
-4.3684516 0.28249538 1.172968 48 15
-4.3937497 0.29029202 0.076860294 52 8
-4.3942738 0.29186824 0.23080164 51 9
-4.4053774 0.29337692 0.38627401 47 10
-4.4031878 0.29400295 -0.69894916 1 3
-4.4366755 0.29701781 0.54597455 41 11
-4.432663 0.29752517 -0.54548746 2 4
-4.4661021 0.30055264 0.70896113 48 12
-31.824183 2.1416531 -2.7905536 10 5
-4.483695 0.3025237 0.87352335 42 13
-4.3540597 0.29453927 -0.22870806 48 6
-4.4990492 0.30513611 1.0410733 41 14
-4.3712382 0.29723516 -0.076476201 50 7
-4.3558741 0.29695308 1.1698622 48 15
-4.3847299 0.30507225 0.07672067 50 8
-4.3912368 0.30706516 0.23069699 49 9
-4.4043264 0.30875289 0.38627401 45 10
-4.4435329 0.31305999 0.54694951 41 11
-4.4197159 0.31215724 -0.54402453 2 4
-4.468966 0.31642058 0.7095868 48 12
-31.788687 2.2507656 -2.7881129 10 5
-4.4708614 0.3173379 0.87123358 40 13
-4.3609738 0.31030309 -0.22912674 51 6
-4.503788 0.32125607 1.0424232 40 14
-4.372169 0.31263351 -0.076511107 50 7
-4.3528848 0.31201819 1.1693448 51 15
-4.3836384 0.3203761 0.07672067 52 8
-4.4040799 0.32341552 0.23142965 51 9
-4.4032221 0.32412511 0.38627401 45 10
-4.3813272 0.32328224 -0.69582051 1 3
-4.4305348 0.32769051 0.54548711 41 11
-4.4383965 0.32905081 -0.54646194 2 4
-4.4776845 0.33274931 0.71115118 48 12
-31.788584 2.362299 -2.7888103 10 5
-4.469727 0.33294237 0.8712337 39 13
-4.3518972 0.32492912 -0.22870803 48 6
-4.5123558 0.33770147 1.0446726 40 14
-4.3770332 0.32834223 -0.076615825 50 7
-4.3594737 0.32779115 1.171415 51 15
-4.3904696 0.33628589 0.076860301 50 8
-4.3889852 0.33771423 0.23069698 49 9
-4.4139824 0.34041148 0.38731983 48 10
-4.3998671 0.34009641 -0.6989491 1 3
-4.433322 0.34346077 0.54597455 41 11
-4.4293041 0.34392712 -0.54548746 2 4
-4.4705873 0.34791762 0.71021259 46 12
-31.776178 2.4729395 -2.7884622 10 5
-4.4763656 0.34915328 0.87276053 40 13
-4.3507361 0.3401182 -0.22870803 46 6
-4.5072637 0.35314617 1.0437728 41 14
-4.3938031 0.34502798 -0.076929972 52 7
-4.3679328 0.3437635 1.1740032 54 15
-4.3972416 0.35224926 0.07699991 53 8
-4.3877797 0.35303167 0.23069698 49 9
-4.4246831 0.3567791 0.38836575 50 10
-4.4537845 0.35990801 -0.70770955 1 3
-4.4479251 0.3602148 0.54792446 41 11
-4.4280763 0.3593863 -0.54548746 2 4
-4.4831281 0.36464188 0.71240264 48 12
-31.759405 2.5831985 -2.7877645 10 5
-4.4829473 0.3654137 0.87428653 40 13
-4.3614669 0.3562789 -0.22933608 48 6
-4.5021195 0.36855945 1.042873 40 14
-4.3826056 0.35954666 -0.076755427 48 7
-4.3628559 0.35869193 1.172968 48 15
-4.4039564 0.36826307 0.077139534 52 8
-4.3944817 0.3690154 0.23111565 48 9
-4.4194403 0.37188798 0.38801718 47 10
-4.4525008 0.37545148 -0.70770955 1 3
-4.4446626 0.3755728 0.54768074 38 11
-4.4584432 0.37752095 -0.54938674 2 4
-4.4778914 0.37995374 0.71177697 45 12
-31.750196 2.6940372 -2.7877645 10 5
-4.4855571 0.38139376 0.87504977 40 13
-4.3522363 0.37082294 -0.22891738 51 6
-4.5046887 0.38460311 1.0437728 41 14
-4.3793316 0.37467128 -0.076720528 50 7
-4.353878 0.37325901 1.1708975 48 15
-4.3906913 0.38259101 0.076930106 50 8
-4.4031148 0.38522327 0.23163903 49 9
-4.4181151 0.38731149 0.38801718 48 10
-4.4236131 0.38857147 -0.70332927 1 3
-4.4571671 0.39230379 0.54938692 41 11
-4.4333696 0.39098787 -0.54646194 2 4
-4.4863768 0.39645281 0.71334136 46 12
-31.740597 2.804858 -2.7877645 10 5
-4.4920201 0.39774162 0.87657666 39 13
-4.37081 0.38777694 -0.22996412 53 6
-4.5227289 0.40205178 1.0482718 40 14
-4.3839736 0.39048818 -0.076825261 48 7
-4.3506241 0.38828194 1.1703798 51 15
-4.389329 0.39791518 0.076930106 50 8
-4.4057212 0.40095171 0.23184833 49 9
-4.4167366 0.40273136 0.38801718 45 10
-4.4222302 0.40401161 -0.70332932 1 3
-4.4458857 0.40695408 0.54816818 38 11
-4.4319777 0.40646097 -0.54646194 2 4
-4.4948006 0.41301465 0.71490574 48 12
-31.710772 2.9138141 -2.7860215 10 5
-4.4906044 0.41341835 0.87657666 37 13
-4.353519 0.40156409 -0.22912674 55 6
-4.5212984 0.41783676 1.0482718 40 14
-4.3905482 0.40652522 -0.07696487 50 7
-4.3530898 0.40382418 1.1714151 51 15
-4.4038401 0.41473442 0.077209339 50 8
-4.4003186 0.41595232 0.23163903 51 9
-4.4311714 0.41964906 0.38941163 48 10
-4.4207931 0.41944468 -0.70332932 1 3
-4.442462 0.4222829 0.54792446 40 11
-4.454246 0.42418849 -0.5493868 2 4
-4.4992313 0.42926389 0.71584433 46 12
-31.728176 3.0271301 -2.7884617 10 5
-4.4930434 0.42946476 0.87733948 39 13
-4.3640199 0.41790172 -0.22975475 53 6
-4.5101132 0.43268609 1.0460224 39 14
-4.3851218 0.42146611 -0.076895066 48 7
-4.349731 0.4188318 1.1708975 48 15
-4.4103279 0.43088216 0.077348977 50 8
-4.3968515 0.43111497 0.23153433 49 9
-4.4336448 0.43550381 0.38976023 48 10
-4.4468875 0.43837178 0.54865569 38 11
-4.4211297 0.43661171 -0.54548746 2 4
-4.4977059 0.44496661 0.71584433 48 12
-4.5012851 0.446114 0.87924755 36 13
-4.3665094 0.43352729 -0.22996412 53 6
-4.5143933 0.44900438 1.0473721 41 14
-4.3816338 0.43657339 -0.07686016 47 7
-4.3520861 0.43439642 1.1719326 48 15
-4.4127746 0.44667727 0.077418767 50 8
-4.4112167 0.44807509 0.23237173 48 9
-4.4202046 0.44976744 0.38871434 47 10
-4.417757 0.45029736 -0.70332927 1 3
-4.4552045 0.45490107 0.54987442 40 11
-4.4353776 0.45365772 -0.54743683 2 4
-4.4961247 0.46066394 0.71584427 48 12
-4.5114188 0.4630276 0.88153738 36 13
-4.3689432 0.4491742 -0.23017345 51 6
-4.5205517 0.46555847 1.0491716 40 14
-4.3780942 0.45166042 -0.076825261 50 7
-4.3428569 0.44879019 1.1698622 45 15
-4.4072118 0.46166149 0.077348962 48 8
-4.415585 0.46409681 0.23268574 49 9
-4.4186082 0.46519428 0.3887144 48 10
-4.4634604 0.47149163 0.5510931 38 11
-4.4337668 0.46913743 -0.54743683 2 4
-4.4984179 0.47677308 0.71647 46 12
-4.4922037 0.47690624 0.87810326 40 13
-4.3673482 0.46442199 -0.23017342 55 6
-4.5247126 0.48195574 1.0505214 39 14
-4.3923979 0.4686363 -0.077104494 48 7
-4.3451066 0.46435761 1.1708975 45 15
-4.4095488 0.47747228 0.077418767 52 8
-4.4179082 0.47993875 0.23289508 49 9
-4.4407258 0.48320058 0.39080611 50 10
-4.4538937 0.48620752 0.55011815 38 11
-4.4478889 0.48633647 -0.54938674 2 4
-4.5026164 0.49311677 0.7174086 45 12
-4.5002699 0.49365458 0.88001084 36 13
-4.3696709 0.48010042 -0.23038279 51 6
-4.5307508 0.49859869 1.052321 39 14
-4.4026613 0.48528042 -0.077313922 48 7
-4.3434582 0.47952312 1.1708974 45 15
-4.4158049 0.49375054 0.077558391 50 8
-4.4162059 0.4953562 0.23289505 49 9
-4.4390125 0.49869883 0.39080611 48 10
-4.4127989 0.49653482 -0.70332927 1 3
-4.458087 0.50241756 0.55084938 41 11
-4.4303837 0.50007951 -0.54743683 2 4
-4.5067568 0.50949663 0.71834719 48 12
-4.5024209 0.5098024 0.88077408 36 13
-4.3639998 0.49490052 -0.23017342 55 6
-4.5251102 0.51397115 1.0514212 40 14
-4.4009414 0.50064582 -0.07731393 48 7
-4.347517 0.49533692 1.1724504 51 15
-4.4140539 0.50916278 0.077558391 50 8
-4.4184189 0.51122797 0.23310442 49 9
-4.4372444 0.51419204 0.39080611 50 10
-4.50915 0.52332205 -0.7189728 1 3
-4.4641938 0.51889306 0.55182433 40 11
-4.4483285 0.51783687 -0.54987478 2 4
-4.4971018 0.52431017 0.71709567 48 12
-30.35565 3.5391183 -2.6737649 9 5
-4.5103631 0.52665305 0.88268256 39 13
-4.3761315 0.51175469 -0.23090616 55 6
-4.5194182 0.52931046 1.0505215 39 14
-4.3951941 0.51553905 -0.07724411 50 7
-4.3495984 0.5109604 1.1734856 51 15
-4.4241643 0.5259831 0.077767819 48 8
-4.4166074 0.52664918 0.23310442 51 9
-4.4354224 0.52967787 0.39080611 47 10
-4.5072961 0.53905779 -0.7189728 1 3
-4.4682674 0.53518212 0.55255544 37 11
-4.422842 0.53052437 -0.54694933 2 4
-4.4991674 0.54047507 0.7177214 46 12
-29.951435 3.5979998 -2.639251 8 5
-4.5143452 0.54309869 0.88382745 36 13
-4.3782849 0.52750516 -0.23111551 59 6
-4.529151 0.54648262 1.0532209 38 14
-4.3973384 0.53135788 -0.077313922 48 7
-4.3324451 0.52428371 1.1693447 43 15
-4.4183321 0.5409373 0.077698022 48 8
-4.4167247 0.54230636 0.23320912 49 9
-4.4375014 0.5456425 0.39115471 48 10
-4.5053868 0.55478805 -0.7189728 1 3
-4.4703131 0.5512622 0.55304301 38 11
-4.428844 0.54693192 -0.54792428 2 4
-4.5011744 0.55666292 0.71834725 43 12
-29.614408 3.6624317 -2.6106639 8 5
-4.5085254 0.55837089 0.88306373 36 13
-4.3843451 0.54376733 -0.23153418 59 6
-4.5388188 0.56373137 1.0559202 39 14
-4.4014101 0.54744482 -0.07741864 45 7
-4.334424 0.53988028 1.1703799 51 15
-4.4164171 0.55635697 0.077698022 50 8
-4.4307542 0.55894977 0.23404647 49 9
-4.4395227 0.56162918 0.39150333 48 10
-4.4328728 0.561575 -0.70770955 1 3
-4.4663925 0.56661236 0.55279928 36 11
-4.4230676 0.5611161 -0.54743683 2 4
-4.5051827 0.57233226 0.71928579 43 12
-4.5065489 0.57410425 0.88306373 36 13
-4.378458 0.55856293 -0.23132487 55 6
-4.5407906 0.57927179 1.05682 39 14
-4.4075041 0.56305116 -0.077558249 45 7
-4.3364415 0.55474114 1.1714151 51 15
-4.4264464 0.5725385 0.077907443 50 8
-4.4249144 0.57312441 0.2338371 49 9
-4.4455385 0.57737464 0.39220107 45 10
-4.5015063 0.58544135 -0.7189728 1 3
-4.4664574 0.58167684 0.55304301 37 11
-4.4251189 0.57629329 -0.54792428 2 4
-4.51893 0.58931249 0.7217887 43 12
-29.011913 3.7885928 -2.5597649 8 5
-4.5124068 0.59006381 0.88459074 36 13
-4.3805428 0.57359821 -0.23153421 59 6
-4.5427094 0.59483266 1.0577198 38 14
-4.4135447 0.578704 -0.077697881 45 7
-4.3403244 0.56987292 1.172968 48 15
-4.426506 0.58747727 0.077942349 48 8
-4.4190307 0.58726889 0.2336278 46 9
-4.453475 0.59342945 0.39307216 45 10
-4.4995394 0.60036683 -0.71897274 1 3
-4.4802437 0.59858805 0.55499285 37 11
-4.4231839 0.59096444 -0.54792428 2 4
-4.5012879 0.60219932 0.71928579 43 12
-28.588444 3.8297491 -2.5235081 7 5
-4.520155 0.6063295 0.88649833 28 13
-4.3865347 0.58918512 -0.23195289 55 6
-4.5445747 0.6104126 1.0586197 38 14
-4.4116015 0.59333581 -0.077697881 45 7
-4.3384109 0.58426297 1.172968 48 15
-4.4364219 0.60377097 0.078151777 47 8
-4.4249744 0.60299855 0.23404647 46 9
-4.4514823 0.60819459 0.39307216 47 10
-4.4975243 0.61528474 -0.7189728 1 3
-4.4743013 0.6129033 0.55450547 38 11
-4.4172664 0.60509044 -0.54743683 2 4
-4.5110083 0.61873358 0.72116303 43 12
-28.303196 3.8871219 -2.4994533 7 5
-4.5258994 0.62238556 0.88802487 30 13
-4.398406 0.60563529 -0.23268557 53 6
-4.548317 0.62627715 1.0599693 38 14
-4.4076276 0.6076889 -0.07766296 43 7
-4.328795 0.59758991 1.1708975 45 15
-4.4261489 0.61969197 0.078012154 48 8
-4.4363632 0.62269998 0.23477918 49 9
-4.4412227 0.62417346 0.39237493 48 10
-4.4951286 0.63254952 -0.7189728 1 3
-4.4837084 0.63173938 0.55596781 38 11
-4.4423203 0.62669975 -0.5508492 2 4
-4.5104437 0.63711315 0.7214759 43 12
-27.968462 3.9506257 -2.4712145 7 5
-4.5195885 0.63920933 0.88726157 30 13
-4.3940706 0.62223947 -0.2325809 55 6
-4.557343 0.64617157 1.0626687 36 14
-4.4051528 0.6253773 -0.07766296 43 7
-4.3187099 0.61387432 1.1688269 45 15
-4.4259386 0.63542271 0.078047059 48 8
-4.4460239 0.63989025 0.23540722 51 9
-4.4508486 0.64137763 0.39342079 47 10
-4.4928927 0.64823556 -0.71897274 1 3
-4.4755821 0.64653647 0.55523664 40 11
-4.4401059 0.64220268 -0.5508492 2 4
-4.5199227 0.65455139 0.72335315 42 12
-4.5251007 0.65610856 0.88878846 31 13
-4.3879194 0.63700014 -0.23237158 57 6
-4.5512023 0.66151404 1.0617688 38 14
-4.4148154 0.64247823 -0.077872381 45 7
-4.328011 0.63061714 1.1719327 48 15
-4.4395208 0.65319604 0.078326292 48 8
-4.4379492 0.65375608 0.23509318 48 9
-4.4604082 0.65865529 0.39446712 45 10
-4.490603 0.66391486 -0.71897274 1 3
-4.4732985 0.66215539 0.5552367 37 11
-4.4064188 0.65304041 -0.54694933 2 4
-4.5216351 0.67011565 0.72397882 42 12
-4.5247245 0.67218876 0.88917011 28 13
-4.3856688 0.65231204 -0.23237158 59 6
-4.552721 0.67797208 1.0626687 38 14
-4.4205728 0.65829313 -0.078012012 43 7
-4.3220749 0.64439631 1.1708975 45 15
-4.4432626 0.66880751 0.07843101 48 8
-4.43959 0.66984057 0.23530252 49 9
-4.4620228 0.67481714 0.39481533 45 10
-4.4883771 0.67880285 -0.7189728 1 3
-4.484817 0.67906618 0.55694282 38 11
-4.4513335 0.67478991 -0.55279911 2 4
-4.5251269 0.68678427 0.72491735 40 12
-4.5379992 0.68954933 0.89222258 28 13
-4.3992777 0.66925508 -0.23320894 55 6
-4.5543008 0.69365168 1.0635686 37 14
-4.4142947 0.6731171 -0.077942207 43 7
-4.3178892 0.65918672 1.1703798 43 15
-4.4428773 0.684618 0.078465924 48 8
-4.4431467 0.68624723 0.23561655 49 9
-4.4577909 0.6893056 0.39464092 43 10
-4.4859805 0.69446731 -0.71897292 1 3
-4.4922276 0.69623613 0.5581615 36 11
-4.4332576 0.68788892 -0.5508492 2 4
-4.526607 0.70318365 0.72554326 39 12
-4.5394444 0.70598811 0.89298582 28 13
-4.3949418 0.68430018 -0.23310427 53 6
-4.5557027 0.71014649 1.0644684 38 14
-4.4198208 0.68975419 -0.078081824 42 7
-4.3174715 0.67455339 1.1708976 48 15
-4.4345341 0.69918811 0.078361198 48 8
-4.4466424 0.70268786 0.23593056 49 9
-4.4572024 0.70595145 0.39481527 47 10
-4.4834046 0.71090353 -0.7189728 1 3
-4.493691 0.71253455 0.558649 37 11
-4.4308295 0.70335978 -0.5508492 2 4
-4.5260749 0.71928912 0.72585601 42 12
-4.532949 0.72200489 0.89222258 28 13
-4.4081821 0.7029199 -0.23394161 51 6
-4.5607667 0.72806692 1.066268 36 14
-4.429235 0.70706958 -0.07829126 43 7
-4.3150902 0.68962121 1.1708975 45 15
-4.4378643 0.71639293 0.078465916 50 8
-4.4559927 0.72011727 0.2365586 48 9
-4.4625783 0.72277999 0.39551252 43 10
-4.480895 0.72654921 -0.71897274 1 3
-4.4832125 0.72772801 0.55767411 37 11
-4.4282217 0.71959496 -0.5508492 2 4
-4.5352359 0.73698497 0.72773331 42 12
-4.5400896 0.73940033 0.89413077 30 13
-4.4017596 0.71766043 -0.23373231 51 6
-4.5678139 0.74555224 1.0685174 34 14
-4.4267392 0.72252631 -0.078291252 43 7
-4.3145628 0.70499104 1.1714151 43 15
-4.4453297 0.73273176 0.078640439 48 8
-4.4495101 0.73501509 0.23634923 49 9
-4.4678903 0.73965454 0.39621025 45 10
-4.5291319 0.74979305 -0.72710735 1 3
-4.4905658 0.74421263 0.55889273 37 11
-4.4023108 0.73037684 -0.54792428 2 4
-4.534584 0.75313514 0.72804612 40 12
-4.5511689 0.75670588 0.89680195 27 13
-4.3954148 0.73159748 -0.23352294 53 6
-4.5672388 0.76101607 1.0689675 36 14
-4.43997 0.74060744 -0.078570493 43 7
-4.315886 0.7206828 1.1724503 43 15
-4.4565487 0.75056934 0.07888478 48 8
-4.4490185 0.75009853 0.23645391 49 9
-4.4732718 0.75579458 0.39690703 47 10
-4.4977269 0.76154131 0.56011146 35 11
-4.4036493 0.74640292 -0.54841179 2 4
-4.5301147 0.7678383 0.72773331 43 12
-24.650175 4.1825371 -2.1874354 5 5
-4.5581779 0.77423179 0.89871007 30 13
-4.4125247 0.75028408 -0.23456968 51 6
-4.5587907 0.77597201 1.0676177 33 14
-4.4355187 0.75498927 -0.078535587 45 7
-4.3153772 0.73531556 1.172968 45 15
-4.4599481 0.76635987 0.078989498 48 8
-4.4522772 0.76664072 0.23676793 49 9
-4.4686427 0.77106482 0.39673269 42 10
-4.4733114 0.77187043 -0.7189728 1 3
-4.5030012 0.77780378 0.56108636 35 11
-4.3933258 0.75964916 -0.54743683 2 4
-4.535192 0.78499335 0.72898471 42 12
-4.5555854 0.78934318 0.89871007 31 13
-4.4139481 0.76559532 -0.23477903 53 6
-4.5657935 0.79275239 1.0698673 36 14
-4.4249754 0.76909894 -0.078395963 45 7
-4.305172 0.7490502 1.1708976 45 15
-4.4473977 0.7801947 0.078814968 48 8
-4.4653106 0.78494489 0.23760529 48 9
-4.4660611 0.78587931 0.39673269 43 10
-4.5211716 0.79639041 -0.72710741 1 3
-4.5100336 0.79524124 0.56230509 32 11
-4.4336543 0.78257018 -0.55279905 2 4
-4.5460415 0.80322534 0.73117483 43 12
-4.554595 0.80637616 0.89909166 28 13
-4.4189792 0.78316236 -0.23519771 53 6
-4.5821862 0.81208706 1.0743662 38 14
-4.4419532 0.78803355 -0.078745015 47 7
-4.296824 0.76306009 1.1693447 43 15
-4.4543495 0.79825377 0.078989491 47 8
-4.4702673 0.80271685 0.238024 48 9
-4.4729552 0.8040064 0.39760423 45 10
-4.4676738 0.80386096 -0.7189728 1 3
-4.4973202 0.81000549 0.56108636 36 11
-4.4073133 0.7945897 -0.54987478 2 4
-4.5508428 0.82128549 0.73242629 40 12
-4.5516086 0.82306534 0.89909166 28 13
-4.4082179 0.79793054 -0.23477903 48 6
-4.583014 0.82957035 1.0752659 37 14
-4.4429703 0.80502087 -0.078814819 45 7
-4.303503 0.78052759 1.1719328 45 15
-4.455328 0.81529438 0.079059303 48 8
-4.4556508 0.8161571 0.23739597 48 9
-4.4778171 0.82183295 0.39830148 43 10
-4.4646969 0.82023036 -0.71897274 1 3
-4.5001783 0.82756078 0.56181759 33 11
-4.4396544 0.81643075 -0.55426198 2 4
-4.5518332 0.83788103 0.73305202 40 12
-4.5602913 0.8410849 0.90138191 28 13
-4.4132614 0.81476259 -0.23519769 51 6
-4.5685921 0.84343922 1.0725665 36 14
-4.446032 0.82161611 -0.07891953 45 7
-4.3045506 0.7962476 1.1729679 45 15
-4.456531 0.83079737 0.079129107 45 8
-4.4607739 0.83239394 0.23781469 48 9
-4.4907346 0.83960676 0.39969647 45 10
-4.4619527 0.83503163 -0.7189728 1 3
-4.5091162 0.84467363 0.56328011 32 11
-4.4252162 0.82895696 -0.55279905 2 4
-4.550972 0.85333526 0.73336494 43 12
-4.5632663 0.85729057 0.90252626 26 13
-4.4223127 0.83160794 -0.23582575 44 6
-4.5772619 0.86074591 1.0752661 36 14
-4.4314928 0.834135 -0.078710109 45 7
-4.3094802 0.8119486 1.1750386 45 15
-4.4616103 0.84706336 0.079268731 45 8
-4.4696136 0.85019809 0.2384427 46 9
-4.4800968 0.85300362 0.39899874 43 10
-4.5096107 0.8594386 -0.72710735 1 3
-4.5140896 0.86110967 0.564255 33 11
-4.4300957 0.84588718 -0.55377406 2 4
-4.5518451 0.86995757 0.73399061 43 12
-4.5679584 0.87469 0.90405321 26 13
-4.423306 0.84779161 -0.23603508 53 6
-4.5818844 0.87818557 1.0770656 38 14
-4.4403367 0.8518604 -0.07891953 42 7
-4.2952375 0.82479978 1.1719327 45 15
-4.4624023 0.86416966 0.079338536 45 8
-4.4743099 0.86809719 0.2388614 48 9
-4.4769411 0.86941731 0.39899877 45 10
-4.5723591 0.88877666 -0.73774487 1 3
-4.5148001 0.87840605 0.56474239 33 11
-4.4269657 0.86211765 -0.55377406 2 4
-4.5505657 0.8870132 0.73430353 40 12
-4.5589409 0.89029878 0.90290833 27 13
-4.4319296 0.86629713 -0.23666312 46 6
-4.584372 0.89609462 1.0784153 38 14
-4.450922 0.87081593 -0.079163864 45 7
-4.2902894 0.84016699 1.1714151 43 15
-4.4592052 0.88052058 0.079338543 45 8
-4.4790902 0.8852582 0.23928007 46 9
-4.4834967 0.88775647 0.39987031 43 10
-4.4528098 0.88248688 -0.7189728 1 3
-4.5115504 0.89494789 0.56474245 33 11
-4.4705052 0.88761669 -0.55962425 2 4
-4.5571289 0.90481585 0.73586786 43 12
-4.563509 0.90773827 0.90443438 27 13
-4.4210434 0.88020229 -0.23624443 44 6
-4.5944357 0.91555732 1.0815647 38 14
-4.4498167 0.88673836 -0.079198778 45 7
-4.2892251 0.85551465 1.1719327 48 15
-4.4621415 0.89648473 0.079443254 42 8
-4.4720559 0.90009958 0.2390707 46 9
-4.4940414 0.90615797 0.40109098 43 10
-4.5195694 0.91130537 -0.73023611 1 3
-4.5163422 0.91147375 0.56571746 33 11
-4.451972 0.89929247 -0.55767387 2 4
-4.5578156 0.92150074 0.73649371 43 12
-4.5797153 0.92676044 0.90825105 28 13
-4.4220157 0.8956514 -0.23645379 48 6
-4.5856442 0.92962652 1.080215 38 14
-4.4545336 0.9038564 -0.079338402 43 7
-4.2918916 0.87163514 1.1734855 43 15
-4.474658 0.9152599 0.079722486 42 8
-4.4688869 0.91570574 0.23907071 45 9
-4.5027227 0.9234578 0.40213636 43 10
-4.5434508 0.9326359 -0.73461616 1 3
-4.5170207 0.92803323 0.56620485 33 11
-4.43325 0.91162866 -0.5557245 2 4
-4.5584407 0.93820035 0.73711938 42 12
-21.757111 4.477963 -1.9433993 3 5
-4.5764523 0.9427411 0.90825105 27 13
-4.4345102 0.91430801 -0.2372911 51 6
-4.5919137 0.94759589 1.0824642 37 14
-4.4513512 0.91940016 -0.079338394 43 7
-4.2944989 0.88778484 1.1750386 45 15
-4.4714365 0.93087405 0.079722494 42 8
-4.4754391 0.93333828 0.23959407 45 9
-4.4897203 0.93713313 0.40126479 42 10
-4.525413 0.94623286 0.56766731 33 11
-4.4533572 0.93197668 -0.55864888 2 4
-4.5609384 0.95532268 0.73805797 40 12
-21.558041 4.5154929 -1.9270141 3 5
-4.5808201 0.96032166 0.90977705 28 13
-4.4352021 0.93060136 -0.2375005 51 6
-4.5962071 0.96522236 1.084264 37 14
-4.4461579 0.9345215 -0.079303488 40 7
-4.2857022 0.90157592 1.1734855 43 15
-4.4681602 0.9464767 0.079722494 42 8
-4.4760623 0.94978321 0.23980345 43 9
-4.4981155 0.95528311 0.4023107 42 10
-4.56388 0.97008348 -0.73899639 1 3
-4.5337324 0.9645012 0.56912977 33 11
-4.4539595 0.94834286 -0.55913627 2 4
-4.5575757 0.97123766 0.73805797 40 12
-21.327797 4.5450392 -1.9078399 3 5
-4.5735998 0.9754858 0.90901375 28 13
-4.4436464 0.94858044 -0.23812854 42 6
-4.6004324 0.98288894 1.0860636 36 14
-4.4526463 0.95212561 -0.079478011 42 7
-4.2787514 0.91572309 1.1724504 43 15
-4.4765582 0.96459407 0.079931922 42 8
-4.488338 0.96877307 0.24064083 45 9
-4.4986472 0.97182101 0.40265927 42 10
-4.5064054 0.9743191 -0.73023611 1 3
-4.5186973 0.97780222 0.56766737 33 11
-4.4700222 0.96808714 -0.56157416 2 4
-4.569602 0.99048728 0.74056089 40 12
-4.5797606 0.99352598 0.91092187 27 13
-4.4403081 0.96408594 -0.23812854 51 6
-4.6083999 1.0014234 1.0887631 37 14
-4.4668818 0.97148728 -0.079792149 40 7
-4.2811909 0.93188566 1.1740031 45 15
-4.4770694 0.98107153 0.080001719 40 8
-4.4868793 0.98486257 0.24074547 46 9
-4.5107961 0.99093753 0.40405378 40 10
-4.626451 1.0171911 -0.75025958 1 3
-4.5249491 0.99570239 0.56888598 35 11
-4.474371 0.98539162 -0.56254864 2 4
-4.5757618 1.0085583 0.74212521 42 12
-5.4343047 1.1977924 -0.48685214 1 5
-4.5839329 1.0111991 0.91244835 27 13
-4.4408159 0.98043984 -0.23833786 44 6
-4.6010699 1.0166628 1.0878632 36 14
-4.4693208 0.98837036 -0.079896867 42 7
-4.279799 0.94724083 1.174521 43 15
-4.4853292 0.9993028 0.080211155 42 8
-4.4834142 1.0005188 0.24074547 46 9
-4.5150876 1.0084143 0.404751 42 10
-4.5264826 1.0117887 -0.73461628 1 3
-4.5311322 1.0136584 0.57010472 33 11
-4.4747787 1.0018716 -0.56303608 2 4
-4.5702863 1.0240927 0.74181235 40 12
-5.449532 1.2211109 -0.48859522 1 5
-4.5918689 1.0297706 0.91473806 26 13
-4.4373665 0.99593526 -0.23833786 51 6
-4.6012964 1.0335717 1.0887631 38 14
-4.4580393 1.0022098 -0.079757251 42 7
-4.2802362 0.96302259 1.1755563 43 15
-4.4818134 1.0149536 0.080211155 42 8
-4.4937067 1.0184702 0.24147817 45 9
-4.5076542 1.0232867 0.40440238 40 10
-4.5353093 1.0312296 0.57107973 33 11
-4.5331936 1.0315806 -0.57083631 2 4
-4.5649395 1.0388047 0.7414996 43 12
-5.3714161 1.2233138 -0.48197141 4 5
-4.5959029 1.0475383 0.91626453 26 13
-4.4474936 1.0145279 -0.23907056 42 6
-4.60146 1.0504944 1.0896628 36 14
-4.4566412 1.0174328 -0.079792149 39 7
-4.263835 0.974199 1.1719326 40 15
-4.4823208 1.0307066 0.08028096 42 8
-4.499856 1.0363926 0.24200155 46 9
-4.5118208 1.0408057 0.40509963 40 10
-4.5396018 1.0480499 0.57205462 33 11
-4.5026698 1.0403513 -0.5674234 2 4
-4.5747571 1.0578471 0.7436896 39 12
-5.3263497 1.2326227 -0.47831085 5 5
-4.5866661 1.0614452 0.91511965 26 13
-4.457725 1.0324255 -0.23980327 51 6
-4.6169348 1.0701481 1.0941619 37 14
-4.4628019 1.0352427 -0.079966672 42 7
-4.2585273 0.98864007 1.1714151 43 15
-4.4825907 1.0472555 0.080350772 42 8
-4.5020452 1.053459 0.24231556 45 9
-4.5122237 1.0566703 0.40544823 39 10
-4.5397797 1.0647962 0.57254201 32 11
-4.499011 1.0560613 -0.5674234 2 4
-4.5806513 1.0760694 0.74525392 39 12
-5.3164144 1.2489121 -0.47778791 5 5
-4.5943999 1.0801454 0.91740936 24 13
-4.4463181 1.0461489 -0.23938459 44 6
-4.6169653 1.0871512 1.0950617 36 14
-4.4708395 1.0535667 -0.0801761 43 7
-4.270093 1.0070456 1.1755563 43 15
-4.4925275 1.0661286 0.080595113 45 8
-4.4983406 1.0691668 0.24231556 45 9
-4.5240149 1.0761032 0.4068428 42 10
-4.5341058 1.0801756 0.57229835 30 11
-4.4837122 1.0689973 -0.56596106 2 4
-4.5826316 1.0934279 0.74619251 39 12
-5.2907047 1.262376 -0.47587049 5 5
-4.5944214 1.0970873 0.91817266 24 13
-4.4465237 1.0625927 -0.23959394 48 6
-4.6131425 1.1032609 1.0950617 37 14
-4.4729691 1.0705619 -0.080280818 40 7
-4.2684298 1.022396 1.1760739 45 15
-4.4946103 1.0832106 0.080699831 42 8
-4.5023465 1.0867369 0.24273425 45 9
-4.527977 1.0937607 0.40753999 40 10
-4.5457425 1.0997305 0.57424825 31 11
-4.4915285 1.0874456 -0.5674234 2 4
-4.5826273 1.110347 0.74681836 39 12
-5.2882023 1.2813042 -0.47604477 5 5
-4.6020107 1.1158938 0.92046231 24 13
-4.450551 1.0799916 -0.24001262 46 6
-4.6206255 1.1221154 1.0977612 36 14
-4.4692049 1.086169 -0.080280818 39 7
-4.2629571 1.0368329 1.1755562 37 15
-4.4985709 1.1007932 0.080839433 42 8
-4.5082254 1.1048236 0.24325761 48 9
-4.5163918 1.1076604 0.40684277 40 10
-4.5553699 1.118907 0.57595438 33 11
-4.5224037 1.1116455 -0.5718112 2 4
-4.5902324 1.1291679 0.74869549 34 12
-5.2643504 1.2949966 -0.47430167 4 5
-4.6057129 1.1338296 0.92198884 23 13
-4.4583902 1.098386 -0.24064066 36 6
-4.6204643 1.1391705 1.0986608 36 14
-4.4750934 1.1041592 -0.08045534 42 7
-4.2518106 1.0498549 1.1734856 43 15
-4.4985833 1.1174539 0.08090926 42 8
-4.5159702 1.1234466 0.24388564 46 9
-4.524097 1.1263068 0.4078891 40 10
-4.5552893 1.135761 0.57644188 33 11
-4.5146446 1.126464 -0.57132381 2 4
-4.5881791 1.1456625 0.74900836 37 12
-5.2404675 1.3085381 -0.47255856 1 5
-4.6074409 1.1513265 0.92313361 24 13
-4.4700298 1.1178184 -0.24147803 38 6
-4.629693 1.1586051 1.1018103 33 14
-4.4847903 1.1231742 -0.080699675 40 7
-4.2462459 1.0642195 1.1729679 40 15
-4.4946547 1.1331501 0.080909252 42 8
-4.5178299 1.1406701 0.24419962 45 9
-4.5394549 1.1469729 0.40963221 39 10
-4.5512962 1.151655 0.57644188 30 11
-4.5337768 1.1480638 -0.57424808 2 4
-4.6071305 1.1674944 0.75276279 37 12
-4.6052976 1.1678852 0.92351526 23 13
-4.4680367 1.1339064 -0.24158271 48 6
-4.6407309 1.1785963 1.1054095 33 14
-4.4905329 1.141284 -0.080874197 42 7
-4.2481222 1.0804639 1.174521 43 15
-4.5100451 1.1537877 0.081258297 45 8
-4.5159578 1.1561413 0.24430431 43 9
-4.5354238 1.1628106 0.40963221 42 10
-4.5530171 1.1690162 0.57717311 35 11
-4.6185393 1.1866975 0.75526571 28 12
-4.569345 1.1749086 -0.41276971 9 5
-4.6164021 1.1878674 0.92656869 15 13
-4.4582477 1.1480027 -0.24126866 48 6
-4.6630073 1.2015951 1.111708 22 14
-4.4925327 1.1576661 -0.080978908 37 7
-4.2445154 1.0945452 1.1745209 37 15
-4.5178089 1.1717498 0.08146774 47 8
-4.517693 1.1734041 0.24461831 33 9
-4.5641174 1.1871626 0.41259503 22 10
-4.5798531 1.192109 0.58107299 12 11
-4.5181742 1.1768953 -0.57327318 63 4
-4.5990772 1.1988273 0.75276291 21 12
-4.6048398 1.2011877 0.92504174 20 13
-4.4621468 1.1647964 -0.24168734 55 6
-4.6043181 1.2027682 1.0986608 24 14
-4.4903994 1.1738468 -0.081013821 34 7
-4.2462759 1.1108216 1.1760739 40 15
-4.5310955 1.1920918 0.081781872 17 8
-4.5290213 1.1932366 0.24545573 22 9
-4.5351105 1.1956873 0.41032898 24 10
-4.5603094 1.2040335 0.57912302 20 11
-4.5140381 1.1926607 -0.57327318 80 4
-4.5776763 1.2103293 0.74994695 25 12
-4.5475483 1.2032115 -0.41154954 1 5
-4.5702519 1.2092186 0.91893584 17 13
-4.4734993 1.184456 -0.24252474 14 6
-4.4569278 1.1809006 1.0644683 6 14
-4.499805 1.1931018 -0.081258155 17 7
-4.233036 1.12316 1.1734855 43 15
-4.4998574 1.2006848 0.08129321 24 8
-4.4881668 1.1992426 0.24346693 25 9
-4.4979777 1.2035463 0.40736565 22 10
-4.5158105 1.2091625 0.57400453 10 11
-4.5486207 1.2196494 0.74587977 4 12
-4.454802 1.1953267 -0.40353125 2 5
-4.4027252 1.182178 0.88611674 23 13
-4.465271 1.1998079 -0.24231541 25 6
-4.3471837 1.1688914 1.0392737 10 14
-4.4743705 1.20309 -0.080874197 19 7
-4.2309551 1.1384312 1.1740031 40 15
-4.4645433 1.2088065 0.080734722 11 8
-4.452899 1.2073222 0.24179219 6 9
-4.4325967 1.20514 -0.56401104 8 4
-4.4409895 1.2082554 -0.40265968 4 5
-4.3190107 1.1758783 0.87008876 7 13
-4.420588 1.2043611 -0.24011727 19 6
-4.3092346 1.1748325 1.0311756 13 14
-4.4409933 1.2115867 -0.08035063 6 7
-4.2360735 1.1564741 1.1765915 37 15
-4.4702559 1.2296348 0.40562257 1 10
-4.3939157 1.2111107 -0.55962378 2 4
-4.2902775 1.1841559 0.86512768 7 13
-4.2543926 1.1758507 1.0190283 10 14
-4.237596 1.1728007 1.1781445 40 15
-4.3635235 1.214215 0.07905931 1 8
-4.2855325 1.1949308 0.38923728 6 10
-0.99417412 0.27776566 -0.12674408 2 4
-4.2634311 1.1927776 0.86054844 10 13
-4.3274465 1.2115027 -0.23551174 2 6
-4.2258687 1.1838593 1.0131795 10 14
-4.3151841 1.2088808 -0.07822144 1 7
-4.2318234 1.1863244 1.1776268 36 15
-4.2410722 1.1985036 0.38557673 9 10
-4.3284807 1.2240206 0.55231178 6 11
-4.2671447 1.2074813 -0.54451203 2 4
-4.2273402 1.1978104 0.85406077 12 13
-4.2734461 1.2116812 -0.23279026 2 6
-4.1788001 1.1856325 1.0028318 10 14
-4.3032432 1.2217517 -0.078081824 1 7
-4.2202229 1.1989779 1.1755562 37 15
-4.1949344 1.2005014 0.38174191 13 10
-4.2955575 1.2309201 0.54865569 8 11
-0.99226046 0.28452611 -0.12674408 2 4
-4.3994241 1.2623454 0.72491735 1 12
-4.1759577 1.1990143 0.84452039 10 13
-4.2154427 1.2111475 -0.22985949 2 6
-4.1484151 1.1926736 0.9965331 10 14
-4.2643609 1.226815 -0.077453539 1 7
-4.2197256 1.2147702 1.1765915 43 15
-4.1505327 1.2034851 0.37808135 13 10
-4.2435756 1.2320697 0.54256225 5 11
-0.99126124 0.28798804 -0.12674408 2 4
-4.1868281 1.217971 0.84757328 6 13
-4.1498241 1.2079918 -0.22650997 2 6
-4.1180329 1.1995175 0.99023449 10 14
-4.2178164 1.2293813 -0.07668563 1 7
-4.2154593 1.2294925 1.1765915 37 15
-4.4365573 1.3007034 0.080699831 24 8
-4.1233668 1.2112277 0.37598965 16 10
-4.2049694 1.2367927 0.53817493 3 11
-4.4561243 1.311509 -0.57034826 2 4
-4.2521763 1.2522892 0.70207798 13 12
-4.3862705 1.2917805 -0.40004495 2 5
-4.1693683 1.2286936 0.84490198 10 13
-4.1340866 1.2190804 -0.22588192 2 6
-4.0708332 1.2012002 0.97988683 11 14
-4.2039104 1.2412655 -0.076511107 11 7
-4.2204051 1.2469366 1.1791797 45 15
-4.100018 1.2199308 0.37424654 50 10
-4.1416507 1.233893 0.53061903 5 11
-1.0158597 0.30284077 -0.13015641 2 4
-4.1966686 1.2518792 0.69363046 10 12
-4.408464 1.3150584 -0.40248537 26 5
-4.1500044 1.238748 0.84184909 19 13
-4.1221519 1.2312164 -0.22546324 2 6
-4.0367413 1.2064742 0.97268838 10 14
-4.2187104 1.2616621 -0.07686016 56 7
-4.2234297 1.2638754 1.1812502 48 15
-4.4484329 1.3379793 0.081083782 50 8
-4.0747504 1.2279116 0.37232912 43 10
-4.1335173 1.2471946 0.53013158 7 11
-0.98819107 0.2983526 -0.12674408 2 4
-4.1563449 1.2556665 0.68768591 24 12
-4.4114752 1.3327435 -0.40318257 44 5
-4.1287417 1.2481127 0.83841449 18 13
-4.0528297 1.2259376 -0.22190435 2 6
-4.0082569 1.2132185 0.96683955 11 14
-4.1932287 1.2700034 -0.076476216 32 7
-4.2042012 1.2741289 1.177109 48 15
-4.4265184 1.3482565 0.080769636 27 8
-4.0761557 1.2438731 0.372852 65 10
-4.1386309 1.2645162 0.53135026 12 11
-1.0251107 0.31340796 -0.13161884 2 4
-4.151937 1.2701664 0.68768603 45 12
-4.4106078 1.3492993 -0.40353125 41 5
-4.081183 1.2493002 0.82963729 3 13
-4.0217905 1.2318883 -0.22043897 2 6
-3.9853661 1.2214911 0.96234053 15 14
-4.199729 1.2887968 1.1771091 40 15
-3.9173121 1.2081168 0.071554773 4 8
-4.0813074 1.2610343 0.3737236 58 10
-4.1133304 1.2725027 0.52866912 12 11
-1.0353886 0.32050619 -0.13308127 2 4
-4.1569133 1.2875742 0.68925041 48 12
-4.4153862 1.3676344 -0.40440273 48 5
-3.9793131 1.2340863 -0.21834551 6 6
-3.9531608 1.226732 0.9555921 18 14
-4.0085626 1.2446923 -0.073264971 1 7
-4.0734434 1.2656168 1.1429449 28 15
-3.9073443 1.2199955 0.071450055 14 8
-4.0540619 1.2681352 0.37163183 14 10
-4.0633993 1.2726132 0.5228194 13 11
-0.96985865 0.30393526 -0.12479416 2 4
-4.1599321 1.3044409 0.69050187 48 12
-4.4162884 1.3848273 -0.40492567 48 5
-3.9597373 1.2431835 -0.21750818 6 6
-3.9079525 1.2276756 0.94569421 19 14
-4.0423474 1.2706697 -0.073963076 1 7
-3.9031456 1.2276614 1.0963576 20 15
-3.9030619 1.2336273 0.071450055 14 8
-4.0268173 1.2750615 0.3695401 16 10
-4.0267639 1.2765912 0.51867586 11 11
-0.99528211 0.31572205 -0.12820661 2 4
-4.1480527 1.3158396 0.68925041 48 12
-4.4190245 1.4026459 -0.40562302 48 5
-3.940146 1.2521588 -0.21667078 4 6
-3.8813581 1.2342222 0.94029534 15 14
-3.9580736 1.2586167 -0.072497077 1 7
-3.8677571 1.2306405 1.0875578 22 15
-3.9122822 1.2508264 0.071694382 8 8
-3.9654226 1.2708671 0.36431074 14 10
-3.9960444 1.2814511 0.51526356 8 11
-0.99422973 0.31902087 -0.12820649 4 4
-4.1471953 1.3315189 0.68987608 48 12
-4.4084105 1.4162345 -0.40510002 48 5
-3.901746 1.2542161 -0.21478668 2 6
-3.8568373 1.2405229 0.93534642 11 14
-3.9041631 1.2564968 -0.071589537 3 7
-3.8137884 1.2281456 1.0735815 16 15
-3.9059911 1.2638592 0.07165949 8 8
-4.1021948 1.3289278 0.22598673 1 9
-3.9460237 1.2790952 0.36291626 14 10
-3.9594481 1.2849752 0.5111199 10 11
-0.98366994 0.31942374 -0.12698793 7 4
-4.1688242 1.3545333 0.69425631 48 12
-4.4112687 1.4333084 -0.40579727 48 5
-3.9087405 1.2715346 -0.21541473 2 6
-3.8358061 1.2485499 0.9312973 11 14
-3.9225705 1.2775487 -0.072008401 1 7
-3.7966206 1.2372618 1.069958 19 15
-3.9015551 1.2774858 0.071659483 11 8
-4.4562316 1.4608259 0.24576974 6 9
-3.9131374 1.2835472 0.36030158 13 10
-3.9247632 1.288878 0.50722015 11 11
-0.95426041 0.31356043 -0.12333184 2 4
-4.1940947 1.3789486 0.69926214 49 12
-4.4100242 1.4499425 -0.40614587 48 5
-3.9118659 1.2876695 -0.2158334 2 6
-3.8092136 1.2546164 0.92589855 11 14
-3.9142895 1.2899808 -0.071938597 1 7
-3.7720973 1.2438513 1.0642641 20 15
-3.9065628 1.2942424 0.071834013 8 8
-4.475749 1.4845463 0.24713045 15 9
-3.8821597 1.2884138 0.35786128 11 10
-3.8825631 1.2900513 0.50234532 8 11
-0.93809056 0.31187946 -0.12138183 2 4
-4.3223381 1.4378499 0.7214759 64 12
-4.4181705 1.4697289 -0.40736607 46 5
-3.8959777 1.2975303 -0.21520536 2 6
-3.7770796 1.2586633 0.91915005 12 14
-3.8395727 1.2802339 -0.070647128 13 7
-3.7457414 1.249674 1.0580522 18 15
-3.8603096 1.2938893 0.071066111 9 8
-3.8568625 1.2949805 0.35594383 13 10
-3.8648648 1.2991695 0.50063914 12 11
-0.95581132 0.32148024 -0.1238192 2 4
-4.1487951 1.3962233 0.69331771 12 12
-4.4149013 1.4857779 -0.40754038 46 5
-3.9016805 1.3138191 0.80025262 1 13
-3.8213942 1.2875258 -0.21133251 36 6
-3.7431164 1.2618794 0.91195148 16 14
-3.8199215 1.2885154 -0.07036788 22 7
-3.728544 1.2584174 1.0544288 23 15
-3.8065302 1.2906612 0.070158578 14 8
-4.3328881 1.4708172 0.23980345 1 9
-3.8202474 1.2975427 0.35298055 16 10
-3.828357 1.3017877 0.4964956 10 11
-0.96595913 0.3286511 -0.12528175 2 4
-3.8746171 1.3190279 0.64826453 6 12
-4.4115734 1.5018228 -0.40771466 46 5
-3.9491057 1.345154 0.81093842 1 13
-3.820658 1.3021461 -0.21154186 25 6
-3.7313106 1.2724228 0.9101519 12 14
-3.7832272 1.2908641 -0.069774508 9 7
-3.6967056 1.2620615 1.0466644 47 15
-3.7452559 1.284479 0.069111444 15 8
-3.8006926 1.3049746 0.21059994 6 9
-3.7742405 1.2966286 0.34914571 16 10
-3.805017 1.3086867 0.49405816 16 11
-0.96105194 0.33072907 -0.12479416 2 4
-3.8176913 1.3145373 0.63950419 12 12
-4.4100718 1.5185105 -0.40806332 46 5
-4.0112095 1.381953 0.82467633 1 13
-3.701055 1.2765442 0.9038533 10 14
-3.7597957 1.2975378 -0.069425464 11 7
-3.6886249 1.2736976 1.045629 63 15
-3.7199676 1.2903353 0.068727493 12 8
-3.7564926 1.3044747 0.20840186 13 9
-3.7583995 1.3058709 0.34809983 17 10
-3.762928 1.3089175 0.48918346 15 11
-0.96364105 0.33538699 -0.12528175 2 4
-3.7776363 1.3155119 0.6335597 19 12
-4.4367318 1.5450333 -0.4110266 20 5
-4.0656867 1.4166175 0.83688802 6 13
-3.7530103 1.3084064 -0.20829706 4 6
-3.6873767 1.2862453 0.90160376 9 14
-3.7382514 1.3047236 -0.069111317 12 7
-3.6841564 1.2865655 1.045629 37 15
-3.6927969 1.2953705 0.068308637 16 8
-3.7010369 1.299711 0.20557572 16 9
-3.7030656 1.3011502 0.34339345 19 10
-3.7246301 1.3101872 0.48479623 16 11
-0.95871961 0.33743039 -0.12479416 2 4
-3.7637043 1.3254095 0.63199532 22 12
-4.0681238 1.4334096 0.83841449 7 13
-3.725817 1.3135291 -0.207041 4 6
-3.679189 1.2978126 0.90070403 14 14
-3.7035027 1.3071169 -0.068552844 13 7
-3.6851077 1.3013468 1.0471818 37 15
-3.658098 1.2975568 0.067750148 48 8
-3.6703553 1.3026248 0.20411031 26 9
-3.659075 1.3000606 0.33973289 21 10
-3.7088118 1.3191901 0.4833338 20 11
-0.9276129 0.33012572 -0.12089435 2 4
-3.716485 1.3226501 0.62479937 6 12
-4.5027924 1.603371 -0.41817334 1 5
-4.0723419 1.4508967 0.84032249 7 13
-3.6497197 1.3010424 -0.20306346 6 6
-3.6617877 1.3060647 0.8975547 21 14
-3.6614785 1.3059545 -0.067854747 10 7
-3.6844115 1.3148589 1.0482173 36 15
-3.6462455 1.3069816 0.067610539 40 8
-3.6526265 1.3107069 0.2033776 47 9
-3.620764 1.3007001 0.3365953 24 10
-3.6689231 1.3187234 0.47870272 15 11
-0.97134435 0.34932262 -0.12674409 2 4
-3.6932583 1.328927 0.62167072 6 12
-4.069356 1.4650584 0.8407042 7 13
-3.6040459 1.2982471 -0.20076066 8 6
-3.6409373 1.3122541 0.89350563 16 14
-3.6098692 1.3017685 -0.066982128 6 7
-3.6797991 1.3277121 1.0482173 32 15
-3.6491814 1.3224258 0.067750156 49 8
-3.6574163 1.3268555 0.20390095 37 9
-3.5939569 1.3045422 0.33450356 16 10
-3.6456399 1.3247435 0.47626531 19 11
-4.4700098 1.6251842 -0.58399761 2 4
-3.6718903 1.3357325 0.61885494 6 12
-4.452455 1.6196804 -0.41451287 49 5
-4.0549922 1.4758968 0.83879608 7 13
-3.580725 1.3039854 -0.19971393 15 6
-3.6271796 1.3216188 0.89125609 6 14
-3.5320325 1.2876496 -0.065620847 10 7
-3.6769569 1.3412108 1.0487349 32 15
-3.4962077 1.2808142 0.064992681 22 8
-3.6602633 1.3423642 0.20431964 29 9
-3.5781579 1.3129613 0.3334581 3 10
-3.6093163 1.3258252 0.4721218 15 11
-4.4531307 1.636668 -0.58253521 10 4
-3.6412487 1.3389976 0.61447471 11 12
-4.4467735 1.6352136 -0.41451287 50 5
-4.0516577 1.4907202 0.83917809 7 13
-3.5555346 1.3088862 -0.19856256 22 6
-3.4824843 1.2833757 -0.064783134 12 7
-3.6776905 1.3560417 1.0502877 32 15
-3.4748385 1.2867608 0.064678542 43 8
-3.6536822 1.3544385 0.20421496 37 9
-3.6594832 1.3573154 0.34147602 1 10
-3.5711699 1.3259778 0.46773452 15 11
-4.4325037 1.6466719 -0.5805853 19 4
-3.6198878 1.3455057 0.61165887 13 12
-4.446641 1.6528083 -0.41503575 48 5
-4.0501103 1.506222 0.83994138 7 13
-3.5172501 1.3087519 -0.19667846 30 6
-3.4648659 1.290637 -0.064538799 24 7
-3.6783652 1.3708961 1.0518408 30 15
-3.4684529 1.2981807 0.064643629 30 8
-3.6451919 1.3657827 0.20400564 53 9
-3.5609436 1.3363429 0.46700326 12 11
-4.4211535 1.6600422 -0.57985413 36 4
-3.5800352 1.3449335 0.60571444 8 12
-4.4520359 1.6725233 -0.4160817 49 5
-4.0448279 1.5203506 0.83994091 9 13
-3.4977047 1.3153981 -0.19584109 28 6
-3.4378822 1.2942693 -0.064119942 31 7
-3.6880202 1.3891754 1.0559818 30 15
-3.4564185 1.3074509 0.064504012 25 8
-3.6628165 1.3869851 0.20526169 55 9
-3.545121 1.3445413 0.46554089 11 11
-3.5457702 1.3462034 0.60070848 5 12
-4.4424448 1.686639 -0.41573301 48 5
-4.0321555 1.531673 0.83841455 9 13
-3.468822 1.3183744 -0.19448037 26 6
-3.42026 1.3012851 -0.063875608 42 7
-3.6795382 1.4006653 1.0549465 28 15
-3.4350231 1.3130821 0.064189874 31 8
-3.6691442 1.4040461 0.20588972 55 9
-3.5070407 1.3441205 0.46115354 13 11
-3.5262952 1.3529117 0.59820551 9 12
-4.4421105 1.7042769 -0.41625595 46 5
-3.9204781 1.5049304 0.81628102 9 13
-3.4455535 1.323314 -0.19343364 26 6
-3.4156971 1.3132155 -0.063875608 43 7
-3.6854446 1.4176623 1.0580523 30 15
-3.4248221 1.3229029 0.064085156 40 8
-3.6698096 1.4190063 0.20620376 52 9
-3.4745605 1.3456008 0.45749745 14 11
-4.4294415 1.7162887 -0.58326644 6 4
-3.501291 1.3573585 0.59476399 13 12
-4.4435649 1.7226532 -0.41695318 28 5
-3.8657813 1.4994377 0.80597693 12 13
-3.4111221 1.323772 -0.1917589 24 6
-3.4166842 1.3273029 -0.063980326 39 7
-3.6930778 1.4354172 1.0616758 33 15
-3.4220467 1.3355762 0.064120062 45 8
-3.6648338 1.4318076 0.20620374 48 9
-3.5837138 1.401557 -0.60946864 1 3
-3.449508 1.3497645 0.45481637 16 11
-4.4289689 1.7339098 -0.58399761 2 4
-3.4854958 1.3652494 0.59288675 19 12
-4.4597874 1.746874 -0.41904497 2 5
-3.8769746 1.5193698 0.80941153 12 13
-3.3878863 1.3283795 -0.19071218 22 6
-3.4045844 1.3362989 -0.06384071 39 7
-3.6970358 1.4518307 1.0642641 45 15
-3.4192243 1.3482468 0.064154968 46 8
-3.6653872 1.4467907 0.20651776 53 9
-3.4263146 1.3544985 0.45237896 19 11
-3.4494839 1.3650513 0.58756804 20 12
-4.4258733 1.7514328 -0.41643023 1 5
-3.8606951 1.5285566 0.80712181 10 13
-3.3665161 1.333578 -0.18977012 17 6
-3.3906052 1.3444889 -0.063666187 42 7
-3.6973321 1.4668641 1.0658169 37 15
-3.4107811 1.3586947 0.064085156 45 8
-3.66588 1.4617958 0.20683177 53 9
-3.4031303 1.3590881 0.44994158 19 11
-4.3503942 1.7382729 -0.57522309 2 4
-3.4171848 1.3660841 0.58287501 16 12
-4.3716316 1.7476423 -0.41189817 1 5
-3.700393 1.480052 0.77468425 9 13
-3.3525691 1.3416111 -0.18924676 14 6
-3.3821781 1.3548297 -0.063596375 43 7
-3.6957755 1.4811988 1.0668522 37 15
-3.3985975 1.3676056 0.063945539 48 8
-3.3762741 1.362048 0.44701672 19 11
-4.3332553 1.748989 -0.57376063 6 4
-3.4050686 1.3750453 0.58162349 15 12
-3.6442361 1.4723674 0.76399904 10 13
-3.3330524 1.3473169 -0.18840939 8 6
-3.5083895 1.4189055 0.87370992 1 14
-3.3811364 1.368127 -0.063666187 43 7
-3.6637232 1.4832158 1.0590876 17 15
-3.3938029 1.3794607 0.063945539 48 8
-4.3141828 1.7553173 0.24409498 3 9
-3.3420861 1.3618389 0.44311687 20 11
-3.3856149 1.3809552 0.57912052 19 12
-3.4954748 1.4264765 0.73385125 7 13
-3.3024423 1.3483738 -0.18694399 5 6
-3.5034149 1.4311445 0.87370998 1 14
-3.3800418 1.381434 -0.063735992 46 7
-3.6227608 1.481372 1.0487349 6 15
-3.3913021 1.3908745 0.063980438 51 8
-3.5640566 1.4631798 0.20191219 1 9
-3.3194313 1.3647832 0.44067946 23 11
-4.6960707 1.9317461 -0.6234833 2 4
-3.3776066 1.3900803 0.57849479 49 12
-3.4800832 1.4329658 0.7315619 9 13
-3.3092697 1.3633068 -0.18757202 1 6
-3.5781765 1.4748176 0.89350563 2 14
-3.3719883 1.3905215 -0.063666187 48 7
-3.5805864 1.4772733 1.0378644 4 15
-3.3864264 1.402704 0.063980438 42 8
-4.2969117 1.7815957 0.24378097 1 9
-3.3311474 1.3832135 0.44287318 41 11
-3.3490207 1.3920059 0.57442749 41 12
-4.4593391 1.8544176 -0.42253113 4 5
-3.4766209 1.4464657 0.73194313 12 13
-3.3079388 1.3769618 -0.18778136 1 6
-3.5781438 1.4901701 0.89485532 6 14
-3.3578832 1.3984394 -0.063491657 45 7
-3.3007882 1.3753374 0.95814824 13 15
-3.3150721 1.3908055 0.44141072 40 11
-4.4551601 1.8700314 -0.59325969 8 4
-3.3329682 1.3996822 0.57255024 23 12
-4.467535 1.8761442 -0.42392567 8 5
-3.3358016 1.401557 0.70332175 3 13
-3.3693948 1.4163641 -0.19154954 1 6
-3.5765128 1.5041621 0.89575505 7 14
-3.3472056 1.4084107 -0.063386939 22 7
-3.2440903 1.3656899 0.94313669 21 15
-3.181056 1.3443844 0.060280539 2 8
-3.3266475 1.4093373 0.44360435 36 11
-4.510746 1.9119116 -0.60154736 2 4
-3.268048 1.3858582 0.56222564 8 12
-4.5104842 1.9127293 -0.42863208 1 5
-3.2260644 1.3687179 0.68118834 4 13
-3.5694468 1.5158757 0.89530522 9 14
-3.2233028 1.3702022 0.93847799 16 15
-3.1634686 1.3499869 0.060036205 11 8
-3.2560036 1.3928345 0.4348298 9 11
-4.5788684 1.9596686 -0.61154062 14 4
-3.2595589 1.3957015 0.56159985 8 12
-4.5514002 1.9488516 -0.43316415 6 5
-3.1923926 1.367602 0.67508245 4 13
-3.5641341 1.5283253 0.89530522 9 14
-3.1829233 1.3655182 -0.060454946 20 7
-3.202523 1.3745885 0.93381929 3 15
-3.149555 1.3570641 0.059861686 19 8
-3.4203384 1.4751545 0.19521321 1 9
-3.2983227 1.4232123 0.31428346 1 10
-3.2164965 1.3892375 0.43019876 6 11
-4.515511 1.951229 -0.60398418 4 4
-3.2419748 1.4015839 0.5594098 11 12
-4.5628586 1.9726337 -0.43490729 1 5
-3.1857979 1.3779581 0.67470044 4 13
-3.5569894 1.5399832 0.89485532 9 14
-3.1671281 1.3718517 -0.060245525 19 7
-3.1411312 1.3664545 0.059791867 22 8
-3.2750685 1.4267596 0.31254029 1 10
-3.2098079 1.3996625 0.42995501 12 11
-4.7033567 2.0519135 -0.63006479 14 4
-3.2280099 1.4089416 0.55784541 23 12
-4.7348943 2.0666573 -0.4519898 34 5
-3.2007592 1.3977125 0.67889857 15 13
-3.5462348 1.5500494 0.89350563 9 14
-3.1311734 1.3692781 -0.059652146 19 7
-3.1253567 1.3725863 0.059582442 24 8
-3.4962192 1.5376447 0.33415493 1 10
-3.2012691 1.409259 0.42946753 21 11
-4.6907158 2.0659187 -0.62933302 4 4
-3.2248805 1.420998 0.5581584 37 12
-4.7513542 2.0936172 -0.45425588 45 5
-3.1814897 1.4025406 0.67584568 11 13
-3.5461512 1.5647789 0.89485532 7 14
-3.1245453 1.3793912 -0.059617236 20 7
-3.0967817 1.3729506 0.059128679 23 8
-3.5290709 1.5668174 0.33781546 4 10
-3.2090285 1.4260677 0.43117365 24 11
-3.2039046 1.4244614 0.55534244 17 12
-4.742197 2.1093786 -0.45408154 33 5
-3.1478763 1.4008663 0.66973984 9 13
-3.5460083 1.5795258 0.89620507 9 14
-3.0925536 1.3775401 -0.059093665 22 7
-3.0648308 1.3709644 0.058605108 17 8
-3.0824928 1.3801572 0.17700027 1 9
-3.5326712 1.5832008 0.33868703 6 10
-3.1499414 1.4123371 0.42386153 16 11
-4.7489929 2.1302969 -0.63908309 2 4
-3.1935065 1.4332093 0.55440384 8 12
-4.7511635 2.1332643 -0.45565036 45 5
-3.1324675 1.4064726 0.66744971 6 13
-3.5514154 1.5960691 0.89890438 9 14
-3.0786071 1.3842266 -0.058919139 13 7
-3.0545588 1.3791864 0.058500394 13 8
-3.0558162 1.3810376 0.17574421 2 9
-3.5292172 1.595728 0.33886135 6 10
-3.0563757 1.3832181 0.41191834 21 11
-4.7288694 2.1411312 -0.63737637 42 4
-3.195682 1.4476087 0.55565542 12 12
-4.7531371 2.1531186 -0.45652193 46 5
-3.1382678 1.4222608 0.66973984 5 13
-3.5369492 1.6044312 0.8966549 9 14
-3.0628309 1.3900062 -0.058709715 15 7
-3.0424471 1.3865235 0.05836077 6 8
-3.0255368 1.3800918 0.1742788 2 9
-3.529063 1.6105192 0.33938426 6 10
-3.0370834 1.3872809 0.40996844 25 11
-4.7592821 2.174952 -0.64249486 63 4
-3.1582723 1.4439702 0.55002373 13 12
-4.7564645 2.1746678 -0.45756778 45 5
-3.1314983 1.4323901 0.66935778 8 13
-3.5330989 1.617579 0.8971048 9 14
