# .PCD v0.7 - Point Cloud Data file format
VERSION 0.7
FIELDS x y z intensity ring
SIZE 4 4 4 4 2
TYPE F F F F U
COUNT 1 1 1 1 1
WIDTH 1257
HEIGHT 1
VIEWPOINT 0 0 0 1 0 0 0
POINTS 1257
DATA ascii
-1.7935205 5.2956796 -0.097593553 58 7
-0.80457103 2.3770008 0.67241204 1 15
-0.75788015 2.2493951 0.04143196 1 8
-1.7139313 5.0899072 -1.2399305 7 1
-0.57652491 1.7131097 0.094728112 1 9
-1.4371245 4.2703304 -0.87581348 31 2
-0.65866244 1.958307 0.18076091 58 10
-1.6987804 5.0536604 -0.84443313 2 3
-1.786536 5.3177948 0.6888054 46 11
-1.6971492 5.0546484 -0.65468192 4 4
-1.7866282 5.3242245 0.88948649 88 12
-1.5662259 4.6674166 -0.43072379 19 5
-1.7841049 5.3197813 1.0906645 52 13
-1.6991755 5.069478 -0.28020665 13 6
-1.787642 5.3365054 1.2993172 66 14
-1.7769275 5.3075976 -0.097698271 58 7
-0.75128686 2.2558217 0.041501772 1 8
-1.6949241 5.0921607 -1.2390301 18 1
-0.56928128 1.7113214 0.094518766 1 9
-1.4246897 4.2827721 -0.8773399 34 2
-0.63485187 1.9095471 0.17605452 70 10
-1.674902 5.040813 -0.84130448 2 3
-1.7635843 5.3108106 0.68709928 45 11
-1.6807463 5.0643086 -0.65516937 4 4
-1.7674117 5.3285537 0.88917363 82 12
-1.5580797 4.6974387 -0.43298984 5 5
-1.763672 5.3203859 1.089519 50 13
-1.6789578 5.0677938 -0.27978796 18 6
-1.7714536 5.3501124 1.3011168 63 14
-1.7539932 5.3004785 -0.097453937 48 7
-0.78795677 2.3825595 0.67241198 1 15
-0.6853286 2.0807641 -0.58700168 2 0
-0.74715871 2.2698269 0.0417112 1 8
-1.6722658 5.0832376 -1.235431 31 1
-0.56330454 1.7132978 0.094518766 1 9
-1.4091191 4.2858539 -0.87695831 39 2
-0.62320614 1.8966087 0.17466001 54 10
-1.6572949 5.0466294 -0.84130454 2 3
-1.7413197 5.3056173 0.68563676 45 11
-1.6593447 5.0588274 -0.6537075 2 4
-1.7481841 5.3328142 0.88886082 88 12
-1.5813925 4.8240185 -0.4441458 2 5
-1.7475332 5.3339729 1.0910455 53 13
-1.6575273 5.0622354 -0.2791599 15 6
-1.7473115 5.3395953 1.2970678 69 14
-1.7329928 5.2989669 -0.097314328 22 7
-0.77963465 2.3852956 0.67241198 1 15
-0.67686462 2.0794697 -0.58596629 3 0
-0.74170619 2.2800274 0.04185082 1 8
-1.6563203 5.0946031 -1.2367806 42 1
-0.55885428 1.7189555 0.094728112 1 9
-1.392935 4.2870126 -0.87619507 39 2
-0.59381431 1.8286581 0.16821049 72 10
-1.6140594 4.9734697 -0.82816404 1 3
-1.7252401 5.3192167 0.68661177 46 11
-1.641677 5.064589 -0.6537075 4 4
-1.7280549 5.3310657 0.88760936 79 12
-1.623492 5.0114679 -0.46087971 2 5
-1.7258809 5.3307009 1.089138 51 13
-1.6453817 5.0850925 -0.28010195 54 6
-1.7268645 5.3400989 1.2957181 61 14
-1.7141813 5.300878 -0.097244501 8 7
-0.77172095 2.3878679 0.67241198 1 15
-0.66605216 2.0707855 -0.58286053 3 0
-0.74271244 2.3091257 0.042339485 1 8
-1.6376294 5.0945015 -1.235431 39 1
-0.54918563 1.7094865 0.09410008 1 9
-1.3737599 4.2787647 -0.87352371 40 2
-0.5722096 1.7832918 0.16385271 96 10
-1.6301497 5.0803633 -0.84505886 1 3
-1.7051657 5.317347 0.68563676 46 11
-1.6176018 5.0473213 -0.65078199 4 4
-1.7064239 5.3276582 0.88604498 82 12
-1.6059871 5.0171051 -0.46087974 4 5
-1.7099884 5.3420053 1.0902823 56 13
-1.6333774 5.1057391 -0.28093931 31 6
-1.709741 5.3476515 1.296168 68 14
-1.692623 5.2973065 -0.097069986 3 7
-0.76338041 2.3905473 0.67241198 1 15
-0.66152364 2.0803466 -0.58493108 3 0
-0.72980297 2.296458 0.042060245 1 8
-1.6210141 5.1039023 -1.2363307 44 1
-0.54684013 1.7228152 0.094728112 1 9
-1.3607522 4.2870383 -0.87428689 40 2
-0.5566535 1.7547934 0.16106372 76 10
-1.6088231 5.0747256 -0.84318173 1 3
-1.685396 5.3194828 0.68514937 45 11
-1.6023722 5.0605059 -0.65175694 4 4
-1.689007 5.3373494 0.88667071 82 12
-1.583331 5.0034075 -0.45913664 4 5
-1.6860044 5.3310947 1.0868478 51 13
-1.6781451 5.3094673 -0.29182521 63 6
-1.6893014 5.3480124 1.2948182 66 14
-1.6837543 5.3336926 -0.097628452 1 7
-0.75503165 2.3931973 0.67241198 1 15
-0.65425825 2.082643 -0.58493108 3 0
-0.71459496 2.2760968 0.041641388 1 8
-1.5950193 5.0834985 -1.2300321 39 1
-0.53843302 1.7170905 0.094309434 1 9
-1.3416682 4.2786484 -0.87161559 40 2
-0.54397106 1.7358124 0.15914629 94 10
-1.5804707 5.0463791 -0.83755004 1 3
-1.6644471 5.3177547 0.68417436 46 11
-1.5846988 5.0660677 -0.65175754 4 4
-1.6685964 5.3375573 0.88573217 79 12
-1.5682325 5.0165105 -0.45983383 4 5
-1.6656296 5.3313251 1.0857035 50 13
-1.6572214 5.3076668 -0.29140654 42 6
-1.6706222 5.3538771 1.2948182 66 14
-1.6675087 5.3471737 -0.097768076 1 7
-0.74667376 2.3958182 0.67241198 1 15
-0.64469373 2.0775342 -0.58286053 3 0
-0.72559947 2.3396962 0.042758346 1 8
-1.5622662 5.0406389 -1.2183346 15 1
-0.53155291 1.7150511 0.09410008 1 9
-1.3249816 4.2776799 -0.87047076 37 2
-0.5314275 1.7167645 0.15722907 91 10
-1.5663499 5.0631881 -0.83942735 1 3
-1.6417681 5.3102574 0.68246824 16 11
-1.5681754 5.0753627 -0.65224445 4 4
-1.6508883 5.343061 0.88573217 79 12
-1.5507132 5.0219536 -0.45983383 4 5
-1.6452712 5.3314786 1.0845586 51 13
-1.61867 5.248528 -0.28784767 31 6
-1.6473328 5.3447776 1.291219 66 14
-1.6438762 5.3335643 -0.097419031 1 7
-0.63857049 2.0834661 -0.58389586 3 0
-0.73190081 2.3879752 0.043596055 1 8
-1.5558165 5.0793309 -1.2264329 42 1
-0.52556366 1.7168959 0.09410008 2 9
-1.3077447 4.2747698 -0.86894429 39 2
-0.52543175 1.7186091 0.15722907 85 10
-1.5530173 5.0796881 -0.84130448 1 3
-1.628791 5.3308601 0.68441814 5 11
-1.5443805 5.0577517 -0.64932013 4 4
-1.6287698 5.3374538 0.88385487 76 12
-1.5360807 5.0368643 -0.4607054 4 5
-1.6281563 5.3387837 1.0849397 50 13
-1.6035864 5.2615085 -0.28826636 31 6
-1.6267613 5.3408899 1.2889695 59 14
-1.6159325 5.308661 -0.096860558 3 7
-0.73034751 2.4008453 0.67241198 1 15
-0.63221741 2.0874209 -0.58441341 3 0
-1.6145444 5.3341594 0.097279578 1 8
-1.5397682 5.0903268 -1.2277826 57 1
-0.52187866 1.7263675 0.094518773 2 9
-1.2929927 4.277204 -0.8685627 40 2
-0.51396817 1.7012694 0.15548575 100 10
-1.5272824 5.0586033 -0.83692425 2 3
-1.6136127 5.3479156 0.68588054 8 11
-1.5175456 5.0327034 -0.64541978 4 4
-1.6089866 5.3393245 0.88322914 79 12
-1.4578577 4.8378124 -0.44205409 9 5
-1.610076 5.3463144 1.0853219 48 13
-1.5995992 5.3148875 -0.29088312 33 6
-1.6097907 5.3521347 1.2903192 66 14
-1.5979662 5.316185 -0.096895456 8 7
-0.68639314 2.2849689 0.63928312 1 15
-0.62326688 2.0840623 -0.58286047 3 0
-1.5907594 5.3225203 0.096965447 7 8
-0.51584947 1.7281785 0.094518766 2 9
-1.2786171 4.2835727 -0.86894441 36 2
-0.5080263 1.7030534 0.15548576 95 10
-1.473498 4.942749 -0.81690079 3 3
-0.638201 2.1421673 0.27444974 7 11
-1.4002746 4.7031198 -0.60252178 4 4
-1.5903403 5.3449082 0.88322914 79 12
-1.5880471 5.3406105 1.0830315 48 13
-1.5816077 5.3223529 -0.29098782 67 6
-1.5922091 5.3614573 1.291219 64 14
-1.5765533 5.3121452 -0.096720934 6 7
-0.68610376 2.3132803 0.64653015 1 15
-0.61708319 2.0899305 -0.5838958 3 0
-1.5710374 5.3242054 0.096895643 11 8
-0.50981361 1.7299689 0.094518773 2 9
-1.2625458 4.2842436 -0.86818111 39 2
-0.5037663 1.71055 0.15600868 100 10
-1.3876355 4.7147756 -0.77841777 28 3
-1.5734372 5.3495283 0.68466187 8 11
-1.3933644 4.7403569 -0.60666537 55 4
-1.5727881 5.3542175 0.88385487 79 12
-1.3872849 4.72577 -0.4308981 34 5
-1.5693936 5.3461218 1.0830315 52 13
-1.5613308 5.3220925 -0.29067379 22 6
-1.5723891 5.3632421 1.2903192 64 14
-0.70516694 2.4083617 0.67241198 1 15
-0.61265987 2.1033072 -0.58700162 3 0
-1.5530032 5.3315763 0.096930541 30 8
-0.49819309 1.7125602 0.093472049 2 9
-1.2457401 4.2850714 -0.86741781 40 2
-0.49749401 1.7123847 0.15600868 100 10
-1.3719975 4.7255211 -0.77935642 28 3
-1.5442384 5.3187671 0.68003082 27 11
-1.3696187 4.720407 -0.60349673 55 4
-1.5529875 5.3558803 0.88322914 76 12
-1.5486975 5.3480659 1.0822688 51 13
-1.5429256 5.3316164 -0.29088315 67 6
-1.5467652 5.3483772 1.2853703 59 14
-1.5460989 5.3460732 -0.097139791 53 7
-0.66993719 2.3180137 0.64653009 1 15
-0.59997678 2.0868664 -0.58182526 3 0
-1.5317942 5.3314662 0.096825823 33 8
-1.399893 4.8755789 -1.1710949 7 1
-0.49441728 1.7219676 0.093890741 2 9
-1.2286092 4.2818451 -0.8658914 37 2
-0.49206227 1.7160264 0.15618302 98 10
-1.3652892 4.7644625 -0.78498805 47 3
-1.5263742 5.3301158 0.68076199 35 11
-1.35532 4.7327924 -0.60447168 6 4
-1.5310196 5.3498745 0.88135189 76 12
-1.4287653 4.9958611 -0.45460454 1 5
-1.5300211 5.3534389 1.0822688 51 13
-1.5259498 5.3427305 -0.29119715 90 6
-1.5295544 5.355351 1.2858201 61 14
-1.5224874 5.3341322 -0.096825652 61 7
-0.6883359 2.4132259 0.67241198 1 15
-0.5909422 2.0814114 -0.57975471 2 0
-1.5157437 5.342288 0.096930534 41 8
-1.3502265 4.7620797 -1.1427516 55 1
-0.4876143 1.7197546 0.093681388 2 9
-1.2154725 4.2896738 -0.86665457 7 2
-0.48419818 1.7099802 0.15548596 100 10
-1.3419515 4.7423544 -0.780608 6 3
-1.5076091 5.3313289 0.68027461 45 11
-1.4379278 5.0849147 -0.64883274 2 4
-1.5121976 5.3511195 0.88072622 79 12
-1.5122584 5.3584833 1.0822688 48 13
-1.5071406 5.3439174 -0.29098782 81 6
-1.5102006 5.3547668 1.2844704 59 14
-1.5075029 5.3487744 -0.097000167 60 7
-0.65414351 2.3225205 0.64653015 1 15
-0.58612293 2.0907996 -0.58182526 3 0
-1.4958632 5.3395824 0.096790917 56 8
-1.3254969 4.7346296 -1.1351029 10 1
-0.48268491 1.7252929 0.093890741 2 9
-0.47637931 1.7039014 0.15478851 100 10
-1.3814994 4.9446392 -0.81314623 2 3
-1.49366 5.3496823 0.68198079 47 11
-1.4783217 5.2983165 -0.6754002 14 4
-1.4940386 5.3582687 0.88103902 82 12
-1.489921 5.3471007 -0.48563194 55 5
-1.4898596 5.350491 1.0795976 50 13
-1.4874055 5.3452978 -0.29077849 74 6
-1.4935887 5.3675156 1.28627 59 14
-1.4877534 5.3501511 -0.09693037 58 7
-0.67189366 2.4178553 0.67241198 1 15
-0.57794189 2.0910716 -0.58130759 3 0
-1.4725547 5.3315372 0.096546598 58 8
-0.47741956 1.7309014 0.09410008 3 9
-1.3542926 4.9133801 -0.99068046 1 2
-0.47330716 1.7171606 0.15583438 97 10
-1.4467731 5.2524781 -0.86289251 3 3
-1.4719334 5.3474646 0.68100572 47 11
-1.4773175 5.3706903 -0.68393046 63 4
-1.4738667 5.361804 0.88072622 79 12
-1.4682006 5.344841 -0.48493469 60 5
-1.4702374 5.3559155 1.0795976 50 13
-1.4625217 5.3314524 -0.28973177 72 6
-1.4718442 5.3654366 1.2844704 59 14
-1.4670749 5.3517108 -0.096860558 61 7
-0.64465296 2.3532264 0.65377706 1 15
-0.57128876 2.0969043 -0.58234292 3 0
-1.4524803 5.3349686 0.096511684 61 8
-0.46927771 1.7248483 0.093681388 2 9
-1.3742205 5.0544801 -1.018157 6 2
-0.46701062 1.7188839 0.15583438 100 10
-1.4502457 5.3451614 0.68003088 47 11
-1.4460872 5.3298345 -0.67808074 51 4
-1.4556568 5.3688231 0.88103902 82 12
-1.4490148 5.3480101 -0.4847604 67 5
-1.4499947 5.3553295 1.0784527 48 13
-1.4428576 5.3326693 -0.28952244 72 6
-1.4515781 5.3648992 1.2831209 61 14
-1.4504738 5.3645205 -0.097000174 60 7
-0.65457618 2.4226012 0.67241198 1 15
-0.56633818 2.1062493 -0.58441341 3 0
-1.4378946 5.3513422 0.096721105 61 8
-1.350312 5.0289021 -1.2021388 7 1
-0.45941138 1.7109637 0.092844017 3 9
-1.3625375 5.0779719 -1.0219731 1 2
-0.4602766 1.716574 0.15548575 97 10
-1.4366544 5.36167 -0.87916166 48 3
-1.4314848 5.3461061 0.67954338 46 11
-1.4314848 5.3461061 -0.67954385 65 4
-1.4337621 5.3583541 0.87853611 85 12
-1.429212 5.3450871 -0.48406312 59 5
-1.4317197 5.3582125 1.0780705 46 13
-1.4261976 5.3412838 -0.28973177 74 6
-1.4322722 5.3640342 1.2817711 59 14
-1.4285505 5.3538446 -0.096720934 60 7
-0.62165201 2.3314273 0.64653015 1 15
-0.55439633 2.0894434 -0.57923704 3 0
-1.4191145 5.3522162 0.096651301 61 8
-1.3535943 5.1087012 -1.2201349 2 1
-0.45548138 1.7202798 0.09326271 3 9
-1.347702 5.0900531 -1.0234996 1 2
-0.45254272 1.7103865 0.15478851 95 10
-1.4224021 5.3797722 -0.88135165 63 3
-1.4137491 5.3508234 0.67954338 47 11
-1.4097744 5.3395534 -0.67808133 63 4
-1.414042 5.3595061 0.87791038 85 12
-1.4084312 5.3382373 -0.48301724 57 5
-1.415446 5.3686256 1.079216 51 13
-1.4084785 5.3459835 -0.28973177 74 6
-1.4120523 5.3633471 1.2804214 64 14
-1.4078195 5.3510628 -0.09658131 60 7
-0.61351061 2.3335829 0.64653015 1 15
-0.54710007 2.0913658 -0.57923704 3 0
-1.3963783 5.3416591 0.09637206 61 8
-1.3456028 5.1511054 -1.2291323 2 1
-0.45199555 1.7315218 0.093786068 3 9
-1.382983 5.2979841 -1.0643327 5 2
-0.4465698 1.7119558 0.15478852 88 10
-1.3941461 5.3483868 -0.87540722 54 3
-1.3970627 5.3634105 0.68051833 47 11
-1.3921288 5.3482842 -0.67856818 65 4
-1.3973129 5.372057 0.87916189 85 12
-1.3887842 5.3392653 -0.48266864 59 5
-1.3947203 5.3659339 1.0776889 48 13
-1.3888059 5.3470006 -0.28952244 72 6
-1.396258 5.3795614 1.2831208 61 14
-1.3901349 5.3598166 -0.096651137 60 7
-0.60148305 2.3207498 0.64238894 1 15
-0.53931326 2.091392 -0.57871938 4 0
-1.3787205 5.3503747 0.09644188 61 8
-1.3713497 5.3256168 -1.2696234 2 1
-0.44445586 1.7272862 0.093472049 4 9
-0.44456008 1.7289414 0.15618302 70 10
-1.3739946 5.3474803 -0.87446856 45 3
-1.374384 5.3528719 0.67856836 47 11
-1.372463 5.3492656 -0.67808133 65 4
-1.3785535 5.3769016 0.87916189 85 12
-1.369206 5.3443193 -0.48266864 60 5
-1.3730588 5.3593578 1.0753998 47 13
-1.3681506 5.3440762 -0.28910372 72 6
-1.3765067 5.3806267 1.282221 61 14
-1.3699324 5.3588233 -0.096546412 60 7
-0.5933789 2.322835 0.64238894 1 15
-0.53259492 2.0971 -0.57975471 4 0
-1.3595423 5.3532171 0.096406966 60 8
-0.4384242 1.728827 0.093472049 4 9
-1.3537167 5.342001 -1.0712018 38 2
-0.43773142 1.7286274 0.15600868 71 10
-1.3548715 5.3543949 -0.87478143 47 3
-1.3498878 5.3386278 -0.67613077 65 4
-1.3583255 5.3759346 0.87822318 88 12
-1.3515171 5.3529296 -0.48301724 60 5
-1.346602 5.3413086 -0.28868505 74 6
-1.3529664 5.3705177 1.2786217 61 14
-1.3526825 5.3693905 -0.096651129 60 7
-0.59469861 2.3623602 0.65274173 1 15
-0.52386487 2.0933242 -0.57820183 4 0
-1.338944 5.3542829 0.096337147 61 8
-1.3431264 5.3749962 -1.2790715 100 1
-0.42869732 1.716858 0.092739344 4 9
-1.3307822 5.3295507 -1.0677674 32 2
-0.43121216 1.728212 0.15583438 65 10
-1.3361716 5.3590922 -0.87478143 47 3
-1.330313 5.3435397 -0.67613077 65 4
-1.3367039 5.3732104 0.87697184 58 12
-1.3318623 5.3537488 -0.4826687 60 5
-1.3289107 5.349854 -0.28889439 72 6
-1.3332738 5.3714252 1.2777219 64 14
-1.3276993 5.352962 -0.096267179 60 7
-0.58975458 2.3795249 0.65688282 1 15
-0.51563013 2.0913882 -0.5771665 3 0
-1.3216796 5.3647499 0.096441872 63 8
-1.3164378 5.3474827 -1.2714236 77 1
-0.42461047 1.7261018 0.093158029 4 9
-1.3135785 5.3398829 -1.0689123 45 2
-0.42232278 1.718098 0.15478852 60 10
-1.3169868 5.3618059 -0.87446868 45 3
-0.51339471 2.091743 0.26445645 8 11
-1.3130696 5.3539352 -0.676862 72 4
-1.3093734 5.3428836 -0.48127416 57 5
-1.3102267 5.3544602 -0.28889439 74 6
-1.314517 5.3760457 1.2777219 64 14
-1.3075832 5.3517365 -0.096162461 60 7
-0.56220025 2.3027465 0.63514209 1 15
-0.50741434 2.089421 -0.57613122 3 0
-1.3010619 5.361557 0.096302256 63 8
-1.2963846 5.3463645 -1.270074 85 1
-0.41952285 1.7314558 0.093367383 4 9
-1.2953916 5.346343 -1.0692939 46 2
-0.4167929 1.7214978 0.15496282 48 10
-1.2968677 5.3606105 -0.87353003 50 3
-1.292978 5.3526959 -0.67613077 63 4
-0.51030117 2.1141756 0.34446877 4 12
-1.2897788 5.3435483 -0.48092553 60 5
-0.50266004 2.0841131 0.41672671 34 13
-1.2934036 5.3667669 -0.28931308 74 6
-1.2966542 5.3843913 1.2786218 61 14
-1.2907642 5.3640451 -0.096302077 61 7
-0.56409639 2.3460178 0.64653015 1 15
-0.49562481 2.0723908 -0.57095486 3 0
-1.2786189 5.3505063 0.096023008 65 8
-1.2749974 5.3394847 -1.2673739 78 1
-0.41440383 1.7367948 0.093576722 5 9
-1.2758113 5.347013 -1.0685306 45 2
-0.41262901 1.7306945 0.15566027 39 10
-1.2781463 5.3651047 -0.87352997 47 3
-0.50199699 2.1087942 0.2661626 39 11
-1.2742842 5.3571768 -0.67613143 65 4
-1.2729601 5.355772 -0.48162282 63 5
-0.49991903 2.1049564 0.42054296 44 13
-1.2691269 5.34793 -0.28805703 76 6
-1.2778498 5.388885 1.2786217 64 14
-1.2701892 5.3607345 -0.096162461 61 7
-0.55234253 2.3329334 0.64238894 1 15
-0.48246062 2.0457335 -0.56319028 3 0
-1.264098 5.3642292 0.096197546 67 8
-1.2564311 5.3358769 -1.2655745 81 1
-0.40940326 1.7400324 0.093681395 6 9
-1.2599072 5.3548164 -1.0692939 46 2
-0.40855819 1.737801 0.15618302 31 10
-1.2617376 5.371016 -0.87384284 47 3
-0.48720357 2.0755749 0.26177534 41 11
-1.255636 5.3534231 -0.67515588 65 4
-0.49491587 2.1117435 0.34353012 42 12
-1.2551936 5.3599629 -0.48162276 59 5
-0.48882651 2.0874007 0.41672695 38 13
-1.2514105 5.348001 -0.28784767 74 6
-1.2573655 5.3776922 1.2750225 64 14
-1.2556148 5.3744349 -0.096336983 56 7
-0.54676783 2.3421822 0.64445955 1 15
-0.47059336 2.0286691 -0.55801386 2 0
-1.246268 5.3725052 0.096267357 69 8
-1.2395616 5.3478227 -1.267374 78 1
-0.40017194 1.7278306 0.09294869 9 9
-1.2376152 5.3479228 -1.0670041 45 2
-0.40039012 1.7315218 0.15548596 18 10
-1.2407105 5.3698301 -0.87290418 45 3
-0.4830842 2.090802 0.26348153 50 11
-1.2351539 5.3500376 -0.67418098 65 4
-0.49020612 2.1250074 0.34540734 61 12
-1.2355824 5.3604293 -0.48127416 60 5
-0.48205432 2.0930049 0.41749021 45 13
-1.2326926 5.3564453 -0.28805703 76 6
-1.2393949 5.3898611 1.2768222 64 14
-1.2341592 5.3670926 -0.096127562 56 7
-0.5359925 2.3327799 0.64135373 2 15
-0.44631073 1.9549637 -0.53730839 2 0
-1.2265694 5.3770361 0.09626735 69 8
-1.2199484 5.3523302 -1.2673739 78 1
-0.39502546 1.7331116 0.093158029 10 9
-1.2158893 5.33881 -1.0643327 45 2
-0.39434391 1.7329091 0.15548575 7 10
-1.2223954 5.3760557 -0.87321723 47 3
-0.47497854 2.0906219 0.26323771 53 11
-1.2164168 5.3583999 -0.67466843 65 4
-0.47622639 2.0978103 0.34071437 45 12
-1.2142177 5.3530517 -0.4802283 57 5
-0.47821754 2.1099925 0.42054296 47 13
-1.2148736 5.3646102 -0.28826636 76 6
-1.2188514 5.3865519 1.2750225 61 14
-1.213209 5.3616157 -0.095953032 55 7
-0.51677018 2.285645 0.62789512 3 15
-0.42678154 1.8999633 -0.52177918 2 0
-1.2061014 5.3693686 0.096057929 69 8
-1.2021939 5.3563461 -1.2673739 78 1
-0.38897374 1.7344799 0.093158029 9 9
-1.2002497 5.3564329 -1.0670042 45 2
-0.38916269 1.7381637 0.15583438 5 10
-1.2028357 5.3723683 -0.87196559 47 3
-0.46890914 2.0960603 0.26372522 48 11
-1.1977733 5.3585296 -0.67418158 63 4
-0.47062257 2.1071715 0.34196585 51 12
-1.1955256 5.3572569 -0.48022825 60 5
-0.46779647 2.0962377 0.41749021 47 13
-1.197945 5.372509 -0.28847572 74 6
-1.2018309 5.3943677 1.2759222 61 14
-1.1944871 5.3658175 -0.095953025 56 7
-0.50711048 2.279892 0.62582457 4 15
-0.40546197 1.8334621 -0.50314426 2 0
-1.1864865 5.3696404 0.095988117 69 8
-1.1805497 5.3471899 -1.2642245 76 1
-0.38377777 1.7397279 0.093367383 11 9
-1.1816355 5.3565483 -1.0662408 45 2
-0.38382497 1.7413903 0.15600869 5 10
-1.1836514 5.3746042 -0.87165272 57 3
-0.45860386 2.0841134 0.26201907 49 11
-1.179913 5.3665557 -0.67466903 65 4
-0.46326497 2.1088014 0.34196585 51 12
-1.1768192 5.3613973 -0.4802283 57 5
-0.45963496 2.0940223 0.41672695 50 13
-1.1757598 5.3610511 -0.28763831 76 6
-1.182995 5.3985305 1.2759223 64 14
-1.1766062 5.3738608 -0.096022837 55 7
-0.50327688 2.3005209 0.631001 4 15
-0.38397068 1.7669753 -0.48450929 3 0
-1.1685861 5.3776579 0.096057929 69 8
-1.1610495 5.3474693 -1.2633255 76 1
-0.37473896 1.7273937 0.09263467 14 9
-1.1611618 5.3570065 -1.0654776 45 2
-0.37659678 1.7388908 0.15566006 3 10
-1.1635255 5.3769765 -0.8713398 50 3
-0.4500663 2.079881 0.26128781 46 11
-1.1586568 5.3590012 -0.67320603 63 4
-0.45590028 2.1104057 0.34196585 51 12
-1.1572551 5.3615775 -0.47987965 57 5
-0.4544397 2.107208 0.41901645 47 13
-1.156104 5.3653245 -0.28763834 76 6
-1.1615584 5.3952098 1.2741227 66 14
-1.1578392 5.3779349 -0.096022829 56 7
-0.4976818 2.3135951 0.63410676 4 15
-0.37457171 1.7531908 -0.48036814 5 0
-1.1488694 5.3819046 0.096057929 69 8
-1.1426624 5.3574066 -1.2646745 78 1
-0.36870649 1.7286915 0.09263467 18 9
-1.1408201 5.3533454 -1.0639511 45 2
-0.3680355 1.7285025 0.1546142 3 10
-1.1459836 5.3868017 -0.87227851 54 3
-0.44367856 2.0873418 0.26201907 49 11
-1.1390084 5.3632112 -0.67320597 63 4
-0.44688973 2.104255 0.34071437 51 12
-1.1385338 5.3655844 -0.47987965 59 5
-0.44708082 2.1087816 0.41901645 50 13
-1.1381948 5.3732352 -0.28784767 76 6
-1.1419126 5.3954186 1.2732229 66 14
-1.1365767 5.3702068 -0.095813416 56 7
-0.48920223 2.3134282 0.63358909 3 15
-0.36606783 1.743144 -0.47726235 7 0
-1.1310172 5.3856845 0.096057929 67 8
-1.1256893 5.3649812 -1.2655745 81 1
-0.36348918 1.7338778 0.092844024 20 9
-1.121322 5.3534522 -1.063188 45 2
-0.36281538 1.7336769 0.15496282 3 10
-1.1277078 5.3886385 -0.87196559 50 3
-0.43878502 2.0985167 0.26323771 48 11
-1.1208122 5.3650146 -0.67296219 68 4
-0.43994486 2.1077356 0.3410272 53 12
-1.1173555 5.3578234 -0.47883376 56 5
-0.44088742 2.1140962 0.41977966 47 13
-1.1187441 5.3691578 -0.28742898 76 6
-1.1248075 5.4029918 1.2741228 66 14
-1.1190445 5.3800149 -0.095918134 58 7
-0.48191163 2.3189044 0.63462442 4 15
-0.36223868 1.753808 -0.4798505 13 0
-1.1097842 5.3778486 0.095848486 67 8
-1.1065625 5.3669686 -1.265125 76 1
-0.35662898 1.7312233 0.09263467 18 9
-1.1031655 5.3552184 -1.0628062 45 2
-0.35706466 1.7348706 0.15496282 3 10
-1.1065025 5.3809338 -0.87008846 50 3
-0.4310582 2.0980916 0.26299402 51 11
-1.1024758 5.3708401 -0.67320603 65 4
-0.43377489 2.1150641 0.34196585 48 12
-1.0978483 5.3577871 -0.47848517 56 5
-0.43114135 2.1040826 0.41749001 50 13
-1.1007954 5.3769445 -0.28763834 76 6
-1.1047682 5.4011569 1.272773 68 14
-1.0990578 5.3780107 -0.095813416 56 7
-0.47265419 2.3148942 0.63307148 4 15
-0.35504013 1.7513374 -0.47881526 20 0
-1.0902092 5.3777699 0.095778681 71 8
-1.0855017 5.3593388 -1.2624249 76 1
-0.35137555 1.7363732 0.092844024 20 9
-1.083918 5.3611503 -1.063188 45 2
-0.34912607 1.7283558 0.15426557 3 10
-1.0863833 5.3830166 -0.86977559 54 3
-0.42176774 2.089854 0.26177534 46 11
-1.084897 5.3804941 -0.67393726 68 4
-0.42561072 2.1126919 0.34134009 51 12
-1.0814961 5.3733063 -0.47953102 57 5
-0.42342582 2.105649 0.41749001 47 13
-1.0783277 5.3672347 -0.28690559 78 6
-1.0872662 5.4166336 1.2754724 73 14
-1.0810641 5.3857355 -0.095883228 55 7
-0.46532995 2.3203182 0.63410676 2 15
-0.35005668 1.7582499 -0.48036817 20 0
-1.0704926 5.3817296 0.095778681 69 8
-1.0654728 5.3613701 -1.2619753 78 1
-0.34453487 1.7336707 0.09263467 16 9
-1.066728 5.3726039 -1.0647143 45 2
-0.34464109 1.7373812 0.15496282 5 10
-1.0675851 5.386776 -0.86977559 57 3
-0.41372007 2.0894384 0.26153159 49 11
-1.0624737 5.3708019 -0.67223102 65 4
-0.41976604 2.1219163 0.34259158 51 12
-1.0619591 5.3731403 -0.47918242 56 5
-0.41645384 2.1090398 0.4178718 55 13
-1.0599711 5.3729267 -0.28701031 78 6
-1.0626979 5.391717 1.2687238 66 14
-1.0630296 5.3934002 -0.095953032 56 7
-0.46170717 2.3446739 0.64031845 1 15
-0.34391662 1.7594613 -0.48036817 21 0
-1.053406 5.3891754 0.095848486 69 8
-1.0480601 5.3667865 -1.2624249 76 1
-0.33503872 1.7172202 0.091692626 22 9
-1.0457125 5.3647327 -1.0624247 46 2
-0.33705139 1.7307512 0.15426558 5 10
-1.05123 5.3980417 -0.87102699 54 3
-0.40792668 2.0966442 0.26226279 46 11
-1.0423834 5.3626041 -0.67076856 65 4
-0.41085076 2.115612 0.34134012 51 12
-1.0424417 5.3729019 -0.47883376 59 5
-0.40983215 2.1123369 0.41825321 57 13
-1.0429068 5.3803339 -0.28721964 76 6
-1.0266589 5.3014646 1.2466786 70 14
-1.0415421 5.3833342 -0.095708691 58 7
-0.45351931 2.3462715 0.64031851 1 15
-0.33698779 1.7549003 -0.47881523 21 0
-1.0353452 5.3967471 0.095918305 69 8
-1.0296855 5.3723264 -1.262875 81 1
-0.33430046 1.7458421 0.093158029 18 9
-1.0264409 5.3604584 -1.0608982 46 2
-0.32981303 1.7240314 0.15356833 8 10
-1.0323795 5.4016786 -0.87102699 57 3
-0.40172201 2.1039054 0.26299402 51 11
-1.0251497 5.3740091 -0.67174351 65 4
-0.40272319 2.1131525 0.34071437 60 12
-1.0231253 5.3685002 -0.47813654 57 5
-0.4024556 2.1137543 0.41825342 57 13
-1.0233766 5.3800163 -0.28701028 78 6
-1.0081482 5.3050156 1.2466786 69 14
-1.0227424 5.3869376 -0.095708698 56 7
-0.44820702 2.363024 0.64445955 1 15
-0.32871401 1.744675 -0.47570938 27 0
-1.0135399 5.3846064 0.09563905 69 8
-1.0123655 5.3835487 -1.2646745 78 1
-0.32783592 1.7450354 0.093053363 12 9
-1.0084493 5.3678679 -1.0616615 46 2
-0.32489517 1.731047 0.15409127 7 10
-1.0106039 5.3897171 -0.86852407 54 3
-0.39401042 2.1033432 0.26275027 48 11
-1.0056529 5.3736525 -0.67125601 65 4
-0.39679605 2.1223125 0.34196585 68 12
-1.0043781 5.3720398 -0.47813657 57 5
-0.39435428 2.1112864 0.41749021 60 13
-1.0056884 5.3894467 -0.28732434 78 6
-0.98962277 5.3085032 1.2466787 67 14
-1.0035672 5.3885088 -0.0956738 60 7
-0.44136986 2.3721714 0.64653015 1 15
-0.32472786 1.7572104 -0.47881526 30 0
-0.99546283 5.392046 0.095708884 69 8
-0.9907431 5.3717179 -1.261076 81 1
-0.32349673 1.7539694 0.093472049 13 9
-0.98934877 5.3694253 -1.0612799 45 2
-0.31848958 1.7302113 0.15391697 7 10
-0.99214518 5.3951545 -0.868837 47 3
-0.38451338 2.0929918 0.26128784 45 11
-0.98832124 5.3849406 -0.67223102 65 4
-0.39046958 2.127502 0.34259155 68 12
-0.98562098 5.3755116 -0.47813651 57 5
-0.38733527 2.1145811 0.4178718 63 13
-0.98363262 5.3752432 -0.28638226 78 6
-0.97108769 5.3119245 1.2466786 69 14
-0.98677003 5.3977079 -0.095778503 56 7
-0.43072373 2.3584187 0.64238894 1 15
-0.31928128 1.7621348 -0.47985053 32 0
-0.97686458 5.3913813 0.095639065 67 8
-0.96806365 5.3481283 -1.2547768 10 1
-0.31488401 1.7413303 0.092739344 20 9
-0.97095001 5.3747773 -1.0616615 6 2
-0.31563309 1.7489588 0.15548576 7 10
-0.37686664 2.0903482 0.26080036 48 11
-0.96904963 5.3803735 -0.67125601 14 4
-0.38304126 2.1288519 0.34259155 68 12
-0.96685219 5.3789196 -0.47813654 59 5
-0.38101611 2.119719 0.41863486 58 13
-0.9658007 5.3784757 -0.28638226 78 6
-0.95209211 5.3074431 1.244879 70 14
-0.9682765 5.4030886 -0.095813416 56 7
-0.42384982 2.3675141 0.64445955 2 15
-0.31276017 1.7593797 -0.47881523 35 0
-0.9587397 5.3986959 0.095708877 69 8
-0.90887964 5.1231399 -1.2012389 2 1
-0.30845553 1.7404522 0.09263467 13 9
-0.30809438 1.7401866 0.15461421 7 10
-0.37302193 2.1111984 0.26323771 45 11
-0.37354925 2.1185045 0.3407144 68 12
-0.94876283 5.3861866 -0.47848517 60 5
-0.37361503 2.1210361 0.41863486 58 13
-0.94771367 5.385747 -0.28659159 76 6
-0.93355846 5.3107343 1.244879 67 14
-0.94768 5.3965869 -0.095638879 56 7
-0.41558355 2.3689795 0.64445955 2 15
-0.30564693 1.7567079 -0.47777998 38 0
-0.93988746 5.40201 0.095708877 71 8
-0.30135289 1.735615 0.092320658 7 9
-0.91796947 5.2924433 -1.044107 1 2
-0.30069432 1.7354145 0.15409127 9 10
-0.93053854 5.3760519 -0.86414391 1 3
-0.36564967 2.112488 0.26323774 45 11
-0.36682487 2.1236882 0.34134009 68 12
-0.92792165 5.377686 -0.47743934 56 5
-0.36717185 2.1301298 0.42016152 58 13
-0.92729115 5.3852491 -0.28638229 78 6
-0.91276717 5.306438 1.2430794 70 14
-0.92714232 5.3900089 -0.095464371 60 7
-0.40273204 2.3437603 0.63721263 3 15
-0.29853988 1.7520509 -0.47622707 45 0
-0.91102052 5.3521924 0.094766445 61 8
-0.9156425 5.3850274 -1.261076 63 1
-0.30332732 1.7839124 0.094832793 3 9
-0.29496741 1.7384181 0.15426558 7 10
-0.35856777 2.1177282 0.26372519 48 11
-0.35973841 2.1269033 0.34165293 64 12
-0.90914291 5.3808918 -0.47743931 57 5
-0.35744745 2.1178474 0.41749001 56 13
-0.91047817 5.400269 -0.28701028 78 6
-0.89617914 5.3211226 1.245779 67 14
-0.9096489 5.4011002 -0.095603988 58 7
-0.39967701 2.375633 0.64549482 2 15
-0.29305747 1.7568932 -0.47726232 45 0
-0.88109457 5.2822032 0.093474962 65 8
-0.89457828 5.3688121 -1.2565764 55 1
-0.34727111 2.0863938 0.11084759 3 9
-0.89516705 5.3839364 -1.0608982 40 2
-0.29052994 1.7492642 0.15513712 9 10
-0.89910167 5.4134402 -0.8691498 79 3
-0.34991813 2.1091144 0.26250654 49 11
-0.35328028 2.1339927 0.34259155 68 12
-0.89100575 5.3879633 -0.47778791 56 5
-0.35138282 2.1248322 0.41863486 58 13
-0.89028788 5.3894653 -0.28627762 78 6
-0.87726068 5.3163738 1.2439793 19 14
-0.87322903 5.2976966 -0.093719125 55 7
-0.39012596 2.3693888 0.64342421 2 15
-0.2881639 1.7635753 -0.47881526 47 0
-0.86329621 5.2891936 0.093544774 65 8
-0.88241857 5.4122925 -1.2660242 94 1
-0.35443261 2.1763017 0.11555784 3 9
-0.8738355 5.3655605 -1.0567003 31 2
-0.28376818 1.7443184 0.1546142 7 10
-0.87608188 5.3911982 -0.8650825 36 3
-0.34159908 2.104445 0.26177534 44 11
-0.87246037 5.3807907 -0.66930681 8 4
-0.34614545 2.1371632 0.34290448 66 12
-0.87313491 5.3908887 -0.47778794 59 5
-0.34364951 2.1241078 0.41825321 71 13
-0.86095315 5.3274741 -0.28282341 76 6
-0.85281986 5.288867 -0.093509696 60 7
-0.38185224 2.3707361 0.64342421 1 15
-0.28139758 1.7607549 -0.47777998 48 0
-0.84577262 5.2981 0.093649499 63 8
-0.85983694 5.3922462 -1.2606254 73 1
-0.35468927 2.226835 0.11817463 4 9
-0.85695744 5.3802104 -1.0589901 46 2
-0.27830327 1.7492335 0.15496282 11 10
-0.86004657 5.4117813 -0.86789829 43 3
-0.33487499 2.1095452 0.26226282 46 11
-0.33713752 2.1286027 0.34134009 71 12
-0.8524403 5.3820968 -0.47674206 53 5
-0.33838177 2.1388679 0.42092475 61 13
-0.83362365 5.2752094 -0.27989262 76 6
-0.37251073 2.3599365 0.55158001 1 14
-0.83217156 5.2779851 -0.093265362 56 7
-0.27405638 1.7540917 -0.47570941 48 0
-0.82727218 5.3010201 0.093649499 63 8
-0.84071016 5.3932891 -1.2601756 44 1
-0.3481425 2.2359533 0.11859332 4 9
-0.83666015 5.3734694 -1.0570821 41 2
-0.27005187 1.7364135 0.15374264 10 10
-0.84206164 5.4206066 -0.868837 50 3
-0.32903063 2.1205096 0.2634815 51 11
-0.32970572 2.1297667 0.34134009 80 12
-0.81718963 5.278717 -0.46732923 57 5
-0.33091316 2.1400363 0.42092454 48 13
-0.81520325 5.2780876 -0.27989262 76 6
-0.36902523 2.3920379 0.55877846 1 14
-0.81466013 5.2867861 -0.09337008 58 7
-0.2682229 1.7569478 -0.4762271 50 0
-0.8075611 5.2959676 0.093509883 65 8
-0.82217091 5.3981171 -1.260626 76 1
-0.34484065 2.2667737 0.12016341 5 9
-0.81789654 5.3763571 -1.0570819 35 2
-0.26279297 1.7294663 0.1530454 10 10
-0.81809455 5.3903117 -0.86351812 19 3
-0.3216261 2.1216455 0.2634815 62 11
-0.32315505 2.136764 0.34227869 66 12
-0.79816121 5.2775974 -0.46698058 56 5
-0.32109451 2.1256485 0.41787159 37 13
-0.79677796 5.2809 -0.27989262 76 6
-0.79590183 5.287621 -0.093335181 56 7
-0.27601266 1.8358771 0.49745029 1 15
-0.26208875 1.7578732 -0.4762271 50 0
-0.78877378 5.2967763 0.093474969 65 8
-0.8030349 5.3990273 -1.2601756 78 1
-0.33663303 2.2659879 0.12005873 6 9
-0.80085683 5.3908315 -1.0593717 46 2
-0.25850853 1.742198 0.15409127 11 10
-0.78768885 5.3149734 -0.85100341 53 3
-0.31392795 2.1207912 0.26323774 45 11
-0.7827332 5.29426 -0.65711921 4 4
-0.3156938 2.1378791 0.34227869 55 12
-0.77915061 5.2764096 -0.46663198 56 5
-0.31424606 2.1306412 0.41863486 14 13
-0.77717358 5.2757459 -0.27947393 76 6
-0.2672151 1.8161606 0.42380777 0 14
-0.7777316 5.2923446 -0.09337008 56 7
-0.2712853 1.8482976 0.50055611 1 15
-0.25650692 1.7626007 -0.47726235 51 0
-0.77114379 5.3054338 0.09357968 65 8
-0.78306758 5.3940825 -1.2583759 81 1
-0.29805523 2.0556538 0.10885882 20 9
-0.77132785 5.3197627 -1.0448701 40 2
-0.25328258 1.7490051 0.1546142 11 10
-0.76545894 5.2922745 -0.84693611 17 3
-0.30481961 2.1100862 0.26177534 44 11
-0.30766729 2.1350577 0.34165296 35 12
-0.76243645 5.2909293 -0.46767789 60 5
-0.75932002 5.2823806 -0.27968326 76 6
-0.27195263 1.8942406 0.44180387 0 14
-0.76010317 5.3009658 -0.093474798 58 7
-0.25825858 1.8033373 0.4881328 1 15
-0.25035313 1.7634852 -0.47726235 51 0
-0.75233752 5.3061132 0.093544774 58 8
-0.75931436 5.3620529 -1.2502784 78 1
-0.31896076 2.2524064 0.11922135 6 9
-0.7439571 5.2602167 -1.0326583 20 2
-0.24801138 1.755797 0.15513712 9 10
-0.29883745 2.1209657 0.26299402 27 11
-0.74396157 5.2935581 -0.46767786 59 5
-0.25188029 1.7944927 0.35223332 1 13
-0.74087751 5.2849984 -0.27968323 72 6
-0.74058056 5.2895947 -0.093230464 56 7
-0.25388169 1.8156632 0.49123862 1 15
-0.24287198 1.7547804 -0.47467417 60 0
-0.72711861 5.2603011 -1.225983 26 1
-0.24052164 1.7467833 0.15426557 5 10
-0.71513408 5.1936464 -0.83035403 1 3
-0.72439861 5.2882271 -0.46698064 56 5
-0.24699432 1.8030984 0.3537598 1 13
-0.7233488 5.287426 -0.27968323 74 6
-0.72184277 5.2901669 -0.093195558 56 7
-0.25067374 1.8395082 0.49745029 1 15
-0.23679256 1.7536615 -0.4741565 65 0
-0.23757611 1.761783 0.03103034 1 8
-0.67884272 5.0407071 -1.1742443 7 1
-0.26222986 1.9497449 0.10310186 1 9
-0.68719941 5.1095009 -1.002129 1 2
-0.2373804 1.7673178 0.15600868 1 10
-0.69279969 5.1647854 -0.82534814 1 3
-0.2438035 1.8199528 0.22545825 1 11
-0.23962376 1.7935085 0.28658801 1 12
-0.70593339 5.2907238 -0.46698064 55 5
-0.24017903 1.8000576 0.35299656 1 13
-0.70594174 5.2978387 -0.28010195 78 6
-0.24214971 1.8196721 0.42380774 0 14
-0.70258051 5.2867069 -0.093090847 16 7
-0.24120066 1.8173912 0.49123859 1 15
-0.23061538 1.7564332 -0.47467417 72 0
-0.23220624 1.7685497 0.031135056 6 8
-0.66023088 5.0353165 -1.1724446 5 1
-0.23519558 1.7961808 0.094937459 1 9
-0.67050523 5.1275587 -1.005182 1 2
-0.22806379 1.7464442 0.15409127 9 10
-0.6764183 5.1868777 -0.82847685 1 3
-0.22872089 1.7538664 0.21717115 3 11
-0.23336218 1.7943339 0.28658801 1 12
-0.68745965 5.2931557 -0.46698064 56 5
-0.23560044 1.8165015 0.35604951 1 13
-0.68574846 5.2944484 -0.27978796 58 6
-0.24722955 1.914019 0.51712054 1 15
-0.22546162 1.7648927 -0.47674471 72 0
-0.22369857 1.7535197 0.030855816 10 8
-0.64374 5.0531678 -1.1760439 5 1
-0.22155359 1.7415546 0.092006646 13 9
-0.6516102 5.1220779 -1.0036556 1 2
-0.22071108 1.7373471 0.1532197 16 10
-0.65830964 5.1892071 -0.82847685 1 3
-0.22478637 1.7743866 0.21960856 2 11
-0.22826906 1.8069361 0.28846523 1 12
-0.66922969 5.2974997 -0.46715492 50 5
-0.23515506 1.8640604 0.36520833 1 13
-0.22912224 1.8213582 0.42380774 0 14
-0.22606362 1.7995805 -0.031658567 1 7
-0.23155588 1.8459064 0.49848557 1 15
-0.21977621 1.7695031 -0.47777998 72 0
-0.21560681 1.7384139 0.030576576 43 8
-0.62561917 5.0515161 -1.1751447 5 1
-0.21645398 1.7502458 0.092425324 21 9
-0.63131833 5.1048369 -0.99983937 2 2
-0.21635413 1.7519485 0.15443988 26 10
-0.6401906 5.1914744 -0.82847691 1 3
-0.2210177 1.7948625 0.22204593 2 11
-0.22340426 1.819486 0.29034245 1 12
-0.22912505 1.868767 0.36597177 1 13
-0.21784152 1.7844789 -0.031379331 1 7
-0.22604649 1.8543741 0.50055611 1 15
-0.212672 1.7625875 -0.47570938 76 0
-0.60984552 5.0691476 -1.178744 2 1
-0.21184194 1.760869 0.092948698 15 9
-0.61583549 5.126502 -1.0036556 1 2
-0.21071148 1.7566495 0.15478851 15 10
-0.21192184 1.7719705 0.21912104 2 11
-0.23236075 1.9457488 0.31036606 1 12
-0.21702912 1.8227679 0.35681292 1 13
-0.2209966 1.8616166 0.43280584 0 14
-0.21121681 1.7792342 -0.031274617 5 7
-0.21443781 1.8090714 0.4881328 1 15
-0.2060691 1.759482 -0.4746742 72 0
-0.20453541 1.7516788 0.092425331 15 9
-0.59975427 5.1442204 -1.0067084 1 2
-0.20250529 1.7395631 0.1532197 30 10
-0.20879531 1.7963253 0.22204593 1 11
-0.20828639 1.7974172 0.28658798 1 12
-0.21369162 1.8468804 0.36139235 1 13
-0.2067495 1.7896246 -0.09441404 1 6
-0.21035537 1.823621 0.42380777 0 14
-0.20635557 1.7944552 0.48399168 1 15
-0.20110707 1.7678334 -0.47674471 72 0
-0.58059436 5.1196527 -1.1895415 2 1
-0.19954276 1.7623051 0.092948698 16 9
-0.59992224 5.2983432 -1.0364747 13 2
-0.19986935 1.7679418 0.15566027 5 10
-0.20341246 1.8049338 0.22302088 1 11
-0.20774443 1.8491724 0.29472262 1 12
-0.19752212 1.7581816 -0.15478866 1 5
-0.20374154 1.8163989 0.35528645 1 13
-0.19716823 1.7605627 -0.092843957 16 6
-0.2126499 1.9018111 0.44180387 0 14
-0.20522778 1.8412436 0.49641502 1 15
-0.1953578 1.7723652 -0.47778001 72 0
-0.1935861 1.7591106 0.030890718 100 8
-0.58272952 5.3037338 -1.2318317 10 1
-0.19251919 1.7550495 0.092530005 7 9
-0.19586548 1.7884345 0.15740319 1 10
-0.1971112 1.8056327 0.22302088 1 11
-0.20346345 1.8668425 -0.23057692 1 4
-0.19658686 1.8066829 0.2878395 1 12
-0.1928919 1.7727252 -0.15600884 6 5
-0.19824837 1.824906 0.35681292 1 13
-0.19166711 1.7671969 -0.093157969 34 6
-0.19929639 1.8405446 0.42740697 0 14
-0.1919281 1.7753841 -0.031169903 100 7
-0.21745571 2.0148115 0.54300243 1 15
-0.18937437 1.7749573 -0.47829765 68 0
-0.18744485 1.7597756 0.030890718 100 8
-0.18962185 1.7891072 0.15740317 1 10
-0.1903896 1.8023616 0.2225334 1 11
-0.18820222 1.7846272 -0.22033969 3 4
-0.18779849 1.7837838 0.28408507 2 12
-0.19064529 1.8138721 0.35452303 1 13
-0.19774428 1.8877441 0.43820462 0 14
-0.18448132 1.7641102 -0.030960474 96 7
-0.22426167 2.1481354 0.57871944 10 15
-0.18218745 1.765999 -0.47570941 72 0
-0.17924321 1.7464166 0.092006646 2 9
-0.18337508 1.7897583 0.15740319 1 10
-0.18612248 1.8197054 -0.28971663 1 3
-0.18208188 1.7832669 0.22009604 2 11
-0.17955554 1.7615752 -0.21741483 11 4
-0.18317004 1.8001502 0.28658801 2 12
-0.17990702 1.768082 -0.1554859 22 5
-0.1870905 1.8418714 0.35986587 1 13
-0.17972806 1.7724662 -0.093367316 12 6
-0.21490008 2.1230218 0.49264279 4 14
-0.21133363 2.0950866 0.56422561 25 15
-0.17774518 1.7839252 -0.48036814 38 0
-0.17708512 1.786782 0.094100088 1 9
-0.18162155 1.8325546 -0.35795775 1 2
-0.17339915 1.7527159 0.15409127 7 10
-0.17588705 1.7810276 -0.28345925 4 3
-0.18169791 1.8431571 0.22740819 1 11
-0.17437695 1.772069 -0.21863352 17 4
-0.17881668 1.8204379 0.28971672 1 12
-0.17295547 1.7607681 -0.15478866 30 5
-0.19215524 1.9597461 0.38276273 1 13
-0.17276125 1.7651318 -0.092948638 5 6
-0.1739087 1.7832673 -0.031274617 3 7
-0.19615729 2.0150554 0.54248476 20 15
-0.16989632 1.7774485 0.093576737 10 9
-0.17073981 1.7862731 -0.3487989 1 2
-0.16898425 1.7711608 0.15566006 3 10
-0.16929401 1.7776978 -0.28283352 4 3
-0.17225692 1.8121612 0.22350837 1 11
-0.16819057 1.7726669 -0.21863352 12 4
-0.17544045 1.8525159 0.29472259 1 12
-0.16887401 1.7831794 -0.15670606 4 5
-0.16622385 1.761747 -0.092739284 1 6
-0.1898413 2.0158217 0.46744829 14 14
-0.16693383 1.7759 -0.031135 16 7
-0.1799192 1.9176344 0.51608527 18 15
-0.16524833 1.7881072 0.031344485 10 8
-0.16610312 1.8007864 -0.41750926 1 1
-0.16076161 1.7462089 0.091901973 22 9
-0.15982436 1.7360284 -0.33887684 2 2
-0.16535257 1.7995164 0.15810044 1 10
-0.16308805 1.778278 -0.28283352 3 3
-0.16484493 1.8008906 0.22204594 2 11
-0.16001551 1.7514976 -0.21595238 3 4
-0.19336759 2.1206586 0.33727279 3 12
-0.16391452 1.7976474 -0.15792626 1 5
-0.18789954 2.0646644 0.40298852 17 13
-0.15844755 1.744415 -0.09179724 6 6
-0.17576542 1.9388409 0.44945222 17 14
-0.16145492 1.7844379 -0.031274617 5 7
-0.16679612 1.847062 0.49693269 20 15
-0.16453864 1.8472643 -0.4969326 1 0
-0.15843803 1.7858266 -0.41390988 1 1
-0.15660246 1.7686436 0.093053363 28 9
-0.15731664 1.7802362 0.15635732 7 10
-0.15826754 1.7945784 -0.28533646 2 3
-0.17735428 2.0150194 0.24836972 2 11
-0.16223879 1.8469645 -0.22765185 1 4
-0.18441179 2.10361 0.33445698 26 12
-0.155203 1.7704215 -0.1554859 3 5
-0.173162 1.9792529 0.38619751 18 13
-0.15948059 1.8265347 -0.096088797 1 6
-0.16256863 1.86567 0.43235594 15 14
-0.1546682 1.7821958 0.47933295 17 15
-0.15479632 1.8093309 -0.48657984 1 0
-0.15208052 1.7812475 0.031204866 33 8
-0.15187284 1.7824852 -0.41301006 2 1
-0.14975131 1.7612191 0.092634663 19 9
-0.14969665 1.7605762 -0.34345624 2 2
-0.15851288 1.8681256 0.16402701 2 10
-0.16133618 1.9053464 -0.3028571 1 3
-0.14878467 1.7644407 -0.21741484 1 4
-0.17011128 2.0215673 0.32131648 16 12
-0.15169555 1.8027185 -0.15827487 1 5
-0.1601741 1.9074599 0.37207747 18 13
-0.14956006 1.7885475 0.41435984 16 14
-0.14882697 1.7835288 -0.031239711 39 7
-0.14251515 1.7114929 0.46018034 18 15
-0.14847915 1.8098605 -0.48657987 1 0
-0.14422983 1.7618371 0.030855816 33 8
-0.14691955 1.7985427 -0.41660929 1 1
-0.14457572 1.7736753 0.09326271 2 9
-0.1483347 1.8197911 -0.3549048 1 2
-0.16717334 2.0553358 0.18041228 12 10
-0.14957117 1.8428931 -0.29284531 1 3
-0.16472462 2.0340159 0.25056335 19 11
-0.14901993 1.8440949 -0.22716436 1 4
-0.15733847 1.9512653 0.31005317 18 12
-0.14396113 1.7853636 -0.15670608 5 5
-0.14721632 1.8297302 0.35681275 20 13
-0.14288828 1.7798229 -0.093576662 37 6
-0.1392705 1.7385532 0.4026624 15 14
-0.14228125 1.780051 -0.031169904 7 7
-0.13116403 1.6445792 0.442063 14 15
-0.14397673 1.8334786 -0.4927915 1 0
-0.13901657 1.7742915 0.031065246 8 8
-0.14185512 1.8145871 -0.42020851 1 1
-0.16437756 2.1026902 0.11053357 9 9
-0.14869934 1.9064193 -0.371696 1 2
-0.15922536 2.045975 0.17954075 19 10
-0.14344272 1.847343 -0.29347107 1 3
-0.15072408 1.9455159 0.23959509 20 11
-0.13860469 1.7931447 -0.22082737 2 4
-0.14538592 1.8808744 0.29878992 21 12
-0.13540657 1.759764 0.3430745 20 13
-0.12947981 1.6904525 0.39141482 14 14
-0.13591981 1.7745312 -0.031065188 37 7
-0.12305962 1.6103328 0.43274552 10 15
-0.14046556 1.8724988 -0.50314426 1 0
-0.15572 2.0758505 0.036335863 4 8
-0.15227851 2.0395162 0.10718407 12 9
-0.13387738 1.7972882 -0.35032538 1 2
-0.1460283 1.9650549 0.17239396 16 10
-0.13643706 1.8359886 -0.29159382 1 3
-0.13869494 1.870778 0.23033303 20 11
-0.13075453 1.7678585 -0.21765876 20 4
-0.13315001 1.8045397 0.28658801 21 12
-0.13134633 1.7843382 -0.15653178 22 5
-0.12524596 1.7014647 0.33162597 22 13
-0.13003953 1.7707949 -0.093053304 23 6
-0.11803521 1.6111879 0.37296885 10 14
-0.13234788 1.8108939 -0.031693473 7 7
-0.11322454 1.5529504 0.41721636 11 15
-0.14690359 2.0544412 0.035951916 12 8
-0.13449265 1.8854876 -0.43640497 1 1
-0.14039905 1.968291 0.10341589 17 9
-0.13070297 1.8368883 -0.35795775 1 2
-0.13485645 1.8999445 0.16664168 22 10
-0.1275174 1.8009857 -0.28596216 2 3
-0.12698872 1.7979848 0.2213147 20 11
-0.12486131 1.7722647 -0.21814604 11 4
-0.12244544 1.7379743 0.27595046 27 12
-0.12515038 1.7807889 -0.15618315 18 5
-0.11573675 1.6509718 0.32170388 19 13
-0.12511094 1.7891697 -0.093995348 5 6
-0.10861474 1.5571576 0.36037162 9 14
-0.14512774 2.080627 -0.036405604 9 7
-0.10539199 1.5147734 0.4068636 12 15
-0.1364172 2.0010502 0.035009485 16 8
-0.12823889 1.8859231 -0.43640497 1 1
-0.12839141 1.8930473 0.099438354 17 9
-0.11978459 1.7707351 -0.34498274 2 2
-0.12232245 1.8129373 0.15897198 29 10
-0.1250014 1.8526419 -0.29409677 1 3
-0.11716068 1.7409585 0.21424629 22 11
-0.11924898 1.7766305 -0.21863353 11 4
-0.11228802 1.6772914 0.26625153 29 12
-0.11853481 1.7752508 -0.1556602 5 5
-0.10633772 1.5925796 0.31025553 15 13
-0.13934912 2.0924873 -0.10990548 4 6
-0.1002212 1.5088978 0.34912404 9 14
-0.13601305 2.0531864 -0.035916943 17 7
-0.0970468 1.4688684 0.39444026 14 15
-0.12427093 1.921693 0.033613294 16 8
-0.11563449 1.7930137 -0.41480967 1 1
-0.11774227 1.8256966 0.09587951 17 9
-0.11592846 1.80247 -0.35108864 1 2
-0.11235671 1.7516958 0.15356834 38 10
-0.11840713 1.8510959 -0.29378393 1 3
-0.10729121 1.6819247 0.20693412 22 11
-0.11355198 1.78496 -0.21960847 5 4
-0.10321409 1.6224555 0.2574912 19 12
-0.1316945 2.0758815 -0.18198127 4 5
-0.097430646 1.5400391 0.29995167 18 13
-0.13242283 2.0989406 -0.1102195 17 6
-0.091649376 1.4567263 0.33697671 11 14
-0.12531069 1.991758 -0.034834895 17 7
-0.088788591 1.4151967 0.37994641 12 15
-0.11448861 1.8665245 -0.50107372 1 0
-0.11324493 1.8462486 0.032286912 18 8
-0.10897455 1.7817166 -0.41211027 2 1
-0.10699211 1.7543284 0.092111312 19 9
-0.11344978 1.865572 -0.36330041 1 2
-0.10238206 1.6884375 0.14799036 40 10
-0.1103554 1.8199301 -0.28877801 2 3
-0.097519584 1.6129197 0.19840327 18 11
-0.12698391 2.1063287 -0.25909436 3 4
-0.094823442 1.5774542 0.25029522 18 12
-0.12635419 2.1081498 -0.18477024 18 5
-0.089151345 1.4874408 0.289648 18 13
-0.11938472 1.9976897 -0.10488123 15 6
-0.085195713 1.4297881 0.33067808 10 14
-0.11361311 1.9123365 -0.033438709 21 7
-0.081220999 1.3711431 0.36804074 11 15
-0.10516612 1.8128928 -0.48657984 1 0
-0.10333537 1.786742 0.03123977 17 8
-0.10208185 1.7704132 -0.40941086 2 1
-0.097314768 1.6928781 0.08886648 19 9
-0.10388292 1.807137 -0.35185185 1 2
-0.093476124 1.6310834 0.14293534 40 10
-0.12112954 2.1200728 -0.33633411 3 3
-0.088616244 1.5557758 0.19133484 13 11
-0.11906745 2.0968502 -0.25787547 19 4
-0.087083921 1.5383309 0.24403782 20 12
-0.11360756 2.0130951 -0.17640328 18 5
-0.081747301 1.44854 0.28201577 19 13
-0.10758621 1.9123476 -0.10038033 17 6
-0.076930292 1.3717064 0.31718099 11 14
-0.10291988 1.8408445 -0.032182142 27 7
-0.074928932 1.3444144 0.36079383 13 15
-0.099358842 1.8286983 -0.49072096 1 0
-0.093735047 1.7251924 0.030157721 18 8
-0.097797789 1.8057845 -0.41750926 1 1
-0.087528676 1.6214108 0.085098296 21 9
-0.10295453 1.9133683 -0.37245923 1 2
-0.084403202 1.5737184 0.13788031 28 10
-0.1135686 2.1244473 -0.33695981 20 3
-0.081489138 1.5243596 0.18743503 19 11
-0.10762854 2.019944 -0.24836965 18 4
-0.077941835 1.4676123 0.23277457 22 12
-0.10320922 1.9498122 -0.17082532 18 5
-0.073851384 1.3998168 0.27247533 19 13
-0.09743052 1.8528941 -0.097240187 20 6
-0.070066713 1.3369499 0.30908278 10 14
-0.092830032 1.771299 -0.030960472 36 7
-0.068522789 1.3118707 0.35199395 14 15
-0.094348326 1.8560449 -0.49796787 1 0
-0.084982753 1.6775931 0.029320005 18 8
-0.099825293 1.9774019 -0.45710045 1 1
-0.079351217 1.5718386 0.082481496 12 9
-0.10535053 2.0941072 -0.40756807 9 2
-0.076415002 1.5242561 0.13352251 28 10
-0.10250583 2.0518332 -0.32538372 17 3
-0.073434316 1.4750819 0.18134156 19 11
-0.096781403 1.9509319 -0.23983878 20 4
-0.070566952 1.4224976 0.22557858 21 12
-0.091976225 1.8606125 -0.1629813 18 5
-0.066936582 1.3588877 0.26446119 21 13
-0.087730475 1.7873924 -0.093786009 22 6
-0.063686214 1.3021508 0.30098453 10 14
-0.083130196 1.6997093 -0.029703906 38 7
-0.061497878 1.2619334 0.33853537 14 15
-0.088233814 1.864082 -0.50003844 1 0
-0.075732186 1.5999649 0.027958723 12 8
-0.10061075 2.1334484 -0.49309263 6 1
-0.07152018 1.5222294 0.079864696 12 9
-0.096937992 2.0709293 -0.4029887 16 2
-0.068773903 1.474758 0.12916474 27 10
-0.091651693 1.9653394 -0.31161743 17 3
-0.066238798 1.4257436 0.1752481 19 11
-0.086824082 1.8758889 -0.23057692 17 4
-0.064145587 1.3911626 0.22057265 19 12
-0.082189187 1.7892714 -0.15670606 21 5
-0.061258487 1.3336068 0.25950018 21 13
-0.078972898 1.7258232 -0.090541184 22 6
-0.057592601 1.2634205 0.29198647 11 14
-0.074928336 1.6500481 -0.028831286 36 7
-0.05552144 1.2274027 0.32921788 14 15
-0.093434155 2.1229815 -0.56940192 2 0
-0.067957781 1.5502748 0.0270861 11 8
-0.09027335 2.0675924 -0.47779599 9 1
-0.064557835 1.4845576 0.077875935 13 9
-0.086914532 1.9986674 -0.38886881 13 2
-0.061728034 1.4252148 0.12480694 28 10
-0.082152151 1.9044677 -0.30191851 19 3
-0.059471972 1.3843176 0.17012958 17 11
-0.077475555 1.8107327 -0.22253333 20 4
-0.05760745 1.3519063 0.21431525 20 12
-0.073408261 1.7298298 -0.15147674 20 5
-0.05427191 1.2788911 0.2488149 20 13
-0.070334189 1.6642284 -0.087296344 22 6
-0.052198425 1.2402496 0.28658766 12 14
-0.066571809 1.5883636 -0.027749242 23 7
-0.050189629 1.2024968 0.32248858 13 15
-0.085496135 2.1194496 -0.56836665 11 0
-0.060530487 1.500551 0.026213482 10 8
-0.077425078 1.9276985 -0.44540298 3 1
-0.057140432 1.4288954 0.074945107 13 9
-0.076073274 1.9106958 -0.37169597 16 2
-0.055083763 1.3895965 0.12166951 22 10
-0.071899198 1.8218546 -0.28877801 19 3
-0.052839283 1.3388952 0.1645236 20 11
-0.068348333 1.7395838 -0.21375874 23 4
-0.05118975 1.3086742 0.20743217 18 12
-0.06558685 1.6842852 -0.14746757 19 5
-0.048291609 1.2457309 0.24232736 20 13
-0.061537944 1.5946231 -0.083632834 24 6
-0.045557983 1.1859081 0.27399039 11 14
-0.059108216 1.5386307 -0.026876623 22 7
-0.044884171 1.1737081 0.31472406 14 15
-0.075110458 2.0386524 -0.54662585 3 0
-0.05349182 1.4587976 0.025480485 12 8
-0.068368748 1.8734409 -0.43280596 7 1
-0.049800977 1.371213 0.071909629 15 9
-0.066767156 1.8383573 -0.35757613 25 2
-0.048361339 1.3380121 0.11713725 20 10
-0.063692667 1.770768 -0.28064343 21 3
-0.047008805 1.3132902 0.16135502 18 11
-0.059499118 1.6703885 -0.20522809 23 4
-0.044922486 1.2673961 0.20086189 16 12
-0.057589486 1.6247696 -0.14223821 20 5
-0.042974338 1.2184234 0.23698471 18 13
-0.054570582 1.5549074 -0.0815394 15 6
-0.040737711 1.1665845 0.2694914 11 14
-0.0513856 1.4788824 -0.025829485 28 7
-0.039848048 1.152627 0.30903 15 15
-0.063743658 1.9114709 -0.51246178 2 0
-0.047006648 1.4170047 0.024747482 12 8
-0.061250765 1.8561393 -0.42875665 19 1
-0.044031046 1.3414356 0.070339546 12 9
-0.058159366 1.7718645 -0.34460112 36 2
-0.042519879 1.3023288 0.11399964 16 10
-0.056037679 1.7255698 -0.27344745 25 3
-0.041270405 1.2777332 0.1569677 18 11
-0.052074112 1.6209842 -0.1991346 22 4
-0.039426643 1.2339809 0.19554314 20 12
-0.049691848 1.5552627 -0.13613734 12 5
-0.037535973 1.181283 0.22973399 18 13
-0.047123518 1.4912081 -0.078189902 17 6
-0.035747938 1.1375028 0.26274285 12 14
-0.045223217 1.4470731 -0.025271006 25 7
-0.03462394 1.1141404 0.29867721 14 15
-0.054764599 1.8344418 -0.49175617 3 0
-0.040814597 1.3751851 0.024014482 12 8
-0.052874178 1.7920611 -0.41391006 27 1
-0.038645297 1.3176244 0.069083489 12 9
-0.050534669 1.7229966 -0.33506069 38 2
-0.037219092 1.2765794 0.1117336 17 10
