# .PCD v0.7 - Point Cloud Data file format
VERSION 0.7
FIELDS x y z intensity ring
SIZE 4 4 4 4 2
TYPE F F F F U
COUNT 1 1 1 1 1
WIDTH 461
HEIGHT 1
VIEWPOINT 0 0 0 1 0 0 0
POINTS 461
DATA ascii
3.0594738 -0.15766312 0.053474106 55 8
3.187964 -0.16540034 -0.620511 46 2
3.1878629 -0.16651094 -0.5055961 8 3
3.1697838 -0.16667607 -0.38973799 46 4
3.1376352 -0.16553473 -0.27488932 48 5
3.1053562 -0.1649188 -0.16297412 45 6
3.0911152 -0.16524456 -0.05403249 52 7
3.0609014 -0.16845159 0.053509008 24 8
3.1912878 -0.17674454 -0.62127423 46 2
3.1394532 -0.17607231 -0.38608196 39 4
3.1350486 -0.17637421 -0.27471501 47 5
3.1007733 -0.17553173 -0.16276477 42 6
3.1024983 -0.17671585 -0.054241914 53 7
3.058497 -0.18010117 0.16056676 1 9
3.1906517 -0.18788317 -0.62127429 46 2
3.2221179 -0.19086471 -0.51122779 59 3
3.1546714 -0.18797454 -0.3880322 48 4
3.142369 -0.18779193 -0.27541223 48 5
3.1121037 -0.18707345 -0.1633928 45 6
3.0918825 -0.1869411 -0.054067396 50 7
3.0975723 -0.19216903 0.054172203 1 8
3.0538633 -0.19052751 0.16035743 1 9
3.1938946 -0.19926393 -0.62203741 48 2
3.0443962 -0.19047028 0.26687074 5 10
3.1977742 -0.20062654 -0.50747341 5 3
3.15994 -0.19936028 -0.38876307 46 4
3.1397061 -0.19863385 -0.27523792 45 5
3.1154182 -0.19818917 -0.16360214 46 6
3.0912111 -0.19773263 -0.054067396 28 7
3.0889008 -0.20245726 0.054032583 1 8
3.0770948 -0.2027622 0.16161349 1 9
3.191221 -0.21028244 -0.62165588 26 2
3.2305622 -0.21400738 -0.51279217 1 3
3.1374369 -0.20893833 -0.38608193 8 4
3.138957 -0.21014017 -0.27523792 45 5
3.1226783 -0.20959778 -0.16402082 45 6
3.1161046 -0.21516682 0.054521248 1 8
3.0723834 -0.21322547 0.16140415 1 9
3.2297561 -0.22584651 -0.51279217 1 3
3.1461537 -0.22165596 -0.27593514 25 5
3.1198971 -0.22090051 -0.16391617 35 6
3.1416168 -0.22298948 -0.054974914 1 7
3.1312501 -0.2277469 0.054800481 1 8
3.0835328 -0.22535835 0.16203219 1 9
3.0402086 -0.2227255 0.26669642 50 10
3.2368281 -0.2376978 -0.51404363 1 3
3.1893134 -0.23532788 -0.39266285 1 4
3.1151237 -0.23149367 -0.16370684 8 6
3.1328018 -0.23390695 -0.054835293 1 7
3.1025217 -0.23654737 0.054311819 1 8
3.0747614 -0.23551039 0.16161348 2 9
3.0473585 -0.23394646 0.26739365 58 10
3.2517352 -0.25020736 -0.51654661 1 3
3.2161815 -0.24860105 -0.39607522 1 4
3.1624081 -0.24499977 -0.277504 12 5
3.1279786 -0.24452937 -0.054765482 2 7
3.1255977 -0.24928354 0.05473068 1 8
3.0819275 -0.24634188 0.16203219 2 9
3.0365934 -0.2437851 0.26652247 57 10
3.2429662 -0.26092288 -0.51529515 1 3
3.187593 -0.25758752 -0.39266285 2 4
3.1313477 -0.25469276 -0.16464888 52 6
3.1048255 -0.25799108 0.054381631 1 8
3.0611455 -0.25543752 0.16098547 13 9
3.0317535 -0.25405058 0.26617348 57 10
3.2263353 -0.27035585 -0.51279217 1 3
3.1728749 -0.26699147 -0.39095673 27 4
3.1606209 -0.2670714 -0.277504 50 5
3.1384466 -0.26574934 -0.16506757 49 6
3.1421821 -0.26717037 -0.055044722 74 7
3.0899603 -0.26761961 0.054137297 8 8
3.0388336 -0.26479468 0.26687074 63 10
3.2194681 -0.28110072 -0.51185358 11 3
3.193676 -0.27997208 -0.39363784 41 4
3.1597176 -0.27755091 -0.277504 52 5
3.1275523 -0.27582565 -0.16454421 48 6
3.1153355 -0.27584422 -0.054590959 57 7
3.0591331 -0.27571145 0.053613726 31 8
3.0692334 -0.27770185 0.16150883 47 9
3.0497961 -0.27647978 0.26791659 63 10
3.2084944 -0.29256052 -0.39558774 49 4
3.166666 -0.28930372 -0.27820125 50 5
3.1245813 -0.28655875 -0.16443953 46 6
3.1362579 -0.28873357 -0.054974914 64 7
3.1138995 -0.29160872 0.05459106 8 8
3.0602913 -0.28766608 0.16109014 39 9
3.056747 -0.28787115 0.2686142 63 10
3.2311935 -0.30486876 -0.51404363 31 3
3.1718807 -0.30038956 -0.39120081 52 4
3.1735706 -0.30110848 -0.27889848 52 5
3.1374803 -0.29878929 -0.16517225 48 6
3.1173148 -0.2979669 -0.054660764 53 7
3.047792 -0.29776454 0.26791662 58 10
3.1846423 -0.31281805 -0.39290661 49 4
3.1685348 -0.31179425 -0.27854985 52 5
3.1443682 -0.31052443 -0.16559091 48 6
3.1182456 -0.30904382 -0.054695673 49 7
3.1515801 -0.31734747 0.055289149 1 8
3.0427692 -0.30800015 0.26756796 63 10
3.1953802 -0.32513839 -0.39436907 48 4
3.1634629 -0.32244852 -0.27820122 53 5
3.1432652 -0.32149842 -0.16559093 48 6
3.1345422 -0.32668829 0.055009916 1 8
3.1266363 -0.32696757 0.16475366 1 9
3.0654542 -0.3211104 0.26965973 57 10
3.1922514 -0.33608246 -0.39412567 48 4
3.1742063 -0.33474284 -0.27924708 47 5
3.1441097 -0.33267871 -0.16569559 42 6
3.1254301 -0.33677101 0.0548703 1 8
3.1096485 -0.33561954 0.16391627 1 9
3.0643144 -0.33180884 0.2696597 58 10
3.1910589 -0.34722343 -0.39412567 48 4
3.1809411 -0.34668431 -0.27994433 48 5
3.1745329 -0.3476679 -0.055742819 1 7
3.1680202 -0.35199147 0.055638202 1 8
3.1163981 -0.34735715 0.16433497 1 9
3.0710583 -0.34338889 0.27035698 63 10
3.1938355 -0.35824603 -0.39461315 31 4
3.1777318 -0.35756302 -0.27977005 33 5
3.1735277 -0.35765079 -0.16737035 1 6
3.1812482 -0.35964549 -0.055882435 1 7
3.1667726 -0.3630479 0.055638205 1 8
3.1270721 -0.35960239 0.16496299 2 9
3.0619853 -0.35265911 0.26965973 63 10
3.2201726 -0.3725867 -0.39802513 4 4
3.1784432 -0.36888281 -0.27994433 10 5
3.17226 -0.36872631 -0.16737035 1 6
3.1680555 -0.36935848 -0.055673007 1 7
3.1535704 -0.37269154 0.055428777 1 8
3.1099305 -0.36863488 0.16412562 2 9
3.0646288 -0.36434996 0.27000871 61 10
3.2168813 -0.38358989 -0.39778137 39 4
3.1810927 -0.38044858 -0.28029296 40 5
3.170887 -0.38035074 -0.16737033 5 6
3.162776 -0.3799378 -0.055603195 2 7
3.1402733 -0.38279563 0.055219345 1 8
3.0653162 -0.37528738 0.27018267 30 10
3.2450073 -0.3990117 -0.40143782 45 4
3.2074299 -0.39495939 -0.28273332 45 5
3.1495237 -0.38950306 -0.055393774 2 7
3.1389868 -0.39320704 0.055219345 1 8
3.0716109 -0.38585627 0.16224153 32 9
3.1941721 -0.4046506 -0.28168744 46 5
3.1860569 -0.40418753 -0.16831237 48 6
3.1600466 -0.40200868 -0.055603195 31 7
3.1118121 -0.40084058 0.054765582 16 8
3.0960655 -0.39936161 0.16360226 47 9
3.1967645 -0.41575456 -0.2820361 46 5
3.1786854 -0.41453174 -0.16799839 50 6
3.1586964 -0.41248557 -0.055603199 55 7
3.1045182 -0.41037139 0.054660868 33 8
3.0966322 -0.41042882 0.16370693 49 9
3.1992433 -0.42743844 -0.28238469 50 5
3.1812525 -0.42559993 -0.16820772 50 6
3.1770563 -0.42616758 -0.05595224 57 7
3.0990651 -0.42231515 0.16391627 48 9
3.193784 -0.43806183 -0.2820361 51 5
3.1697781 -0.43589658 -0.16768436 48 6
3.157645 -0.43535116 -0.055638105 9 7
3.1529958 -0.43975812 0.055568393 1 8
3.1054838 -0.43423659 0.16433495 50 9
3.2060461 -0.45115107 -0.28325629 45 5
3.1702147 -0.44723743 -0.16778903 45 6
3.1554008 -0.45132777 0.055638202 1 8
3.1000733 -0.44396621 0.16412564 50 9
3.2103677 -0.46319309 -0.2837792 48 5
3.1941891 -0.46256617 -0.056336194 1 7
3.153887 -0.46178898 0.055638205 1 8
3.1004806 -0.45507479 0.1642303 47 9
3.220557 -0.47614482 -0.28482506 47 5
3.2123356 -0.47664821 -0.056685247 1 7
3.1957622 -0.47932068 0.056406107 1 8
3.1107235 -0.4676764 0.16485833 47 9
3.2050858 -0.48529589 -0.28360489 43 5
3.2286317 -0.48943752 -0.17113854 1 6
3.2106521 -0.48785838 -0.056685247 1 7
3.1584918 -0.48500988 0.055777818 1 8
3.1169684 -0.47974735 0.16527702 46 9
3.2307634 -0.50188088 -0.17134787 1 6
3.2089293 -0.49906275 -0.056685243 1 7
3.1606441 -0.49720448 0.055847634 1 8
3.1290853 -0.49279973 0.16600972 43 9
3.2053216 -0.50939351 -0.17009181 1 6
3.2387657 -0.51528811 -0.057243716 1 7
3.1668754 -0.50895214 0.055987254 1 8
3.195729 -0.51874006 -0.16967313 1 6
3.2211573 -0.52402163 -0.056964479 1 7
3.167053 -0.52032775 0.05602216 13 8
3.2076912 -0.53218031 -0.17040582 15 6
3.2074728 -0.53329456 -0.056755055 1 7
3.2058139 -0.54337394 -0.17040582 40 6
3.1878483 -0.54147357 -0.056440908 9 7
3.1712267 -0.54377681 0.056161772 50 8
3.2294817 -0.55898929 -0.17176658 48 6
3.1919467 -0.55306625 -0.056545626 9 7
3.1654663 -0.55360109 0.056091964 57 8
3.2079415 -0.56622386 -0.17071985 55 6
3.1713889 -0.56605268 0.056231581 53 8
3.2059457 -0.57741833 -0.17071985 48 6
3.2391727 -0.58457023 -0.057453144 1 7
3.1752961 -0.57819414 0.056336302 57 8
3.2155936 -0.59133226 -0.17134787 10 6
3.2213795 -0.5929774 -0.057173908 1 7
3.1888838 -0.5927518 0.056615539 55 8
3.2310822 -0.6064319 -0.057383336 1 7
3.1790414 -0.60183543 0.056475922 55 8
3.2446585 -0.62071258 -0.057662573 1 7
3.1788847 -0.61330748 0.056510825 53 8
3.2602479 -0.63490909 -0.057976723 1 7
3.1807575 -0.62461627 0.056580629 20 8
3.2423198 -0.6431728 -0.057697479 1 7
3.247895 -0.65607041 -0.057837091 1 7
3.2162046 -0.66136211 -0.057313524 13 7
3.2309477 -0.68852746 -0.057662573 9 7
3.0594599 0.25744781 -0.26861411 2 5
3.0563676 0.24644706 -0.26826546 23 5
3.0233982 0.23370069 -0.26530218 36 5
3.0559871 0.22549066 -0.26809117 46 5
3.0289683 0.21233848 -0.26565084 17 5
3.0841327 0.19349632 -0.27035722 1 5
3.0767694 0.18333282 -0.26965994 1 5
3.0601134 0.172695 -0.37633237 2 4
3.0933046 0.17348498 -0.27105445 1 5
3.120837 0.17448272 -0.1638115 1 6
3.0938628 0.16322686 -0.27105445 1 5
3.0276842 0.15867424 -0.15889193 5 6
3.0989158 0.15318935 -0.38096344 49 4
3.0824742 0.1518373 -0.27000862 1 5
3.0162504 0.1475199 -0.15826389 21 6
3.0657203 0.14082186 -0.37681991 48 4
3.1028883 0.14198649 -0.2717517 1 5
3.0287182 0.13753316 -0.15889193 37 6
3.0602431 0.12986924 -0.37608865 46 4
3.0874405 0.13048215 -0.27035722 1 5
3.0431483 0.12754473 -0.15962462 40 6
3.0626614 0.11926262 -0.37633237 45 4
3.0958405 0.12001206 -0.27105445 1 5
3.0355921 0.11661679 -0.15920593 46 6
3.0789106 0.10967028 -0.37828228 47 4
3.0803108 0.10864511 -0.26965994 2 5
3.0379579 0.10661899 -0.15931061 43 6
3.081259 0.098985113 -0.37852603 43 4
3.0567749 0.097131997 -0.2675682 23 5
3.0303264 0.09576074 -0.15889192 43 6
3.0895226 0.088458307 -0.37950099 48 4
3.0630703 0.08662945 -0.26809117 36 5
3.0346503 0.084765621 -0.15910128 45 6
3.0818884 0.07693509 -0.37852603 31 4
3.0693295 0.076085575 -0.26861408 15 5
3.0349276 0.074171379 -0.15910126 43 6
3.0626321 0.074315093 -0.053474009 2 7
3.0411472 0.064235359 -0.15941527 38 6
3.0448794 0.063249469 -0.053159866 27 7
3.1021883 0.056315828 -0.38096341 1 4
3.0976651 0.055692915 -0.27105445 1 5
3.035085 0.05244837 -0.052985348 44 7
3.1222146 0.045777004 -0.38340116 1 4
3.1217468 0.045226708 -0.27314618 1 5
3.0894508 0.043678764 -0.16192739 1 6
3.0632422 0.042238813 -0.053474009 57 7
3.13274 0.036088433 -0.49621013 4 3
3.1342654 0.035011865 -0.38486323 1 4
3.1298549 0.034416299 -0.27384344 1 5
3.069613 0.032682315 -0.16088067 1 6
3.0313771 0.031217018 -0.052915528 53 7
3.1111181 0.024979113 -0.49276853 27 3
3.0827575 0.023673847 -0.37852603 1 4
3.1100323 0.023341984 -0.27210033 1 5
3.0657139 0.021937769 -0.16067134 2 6
3.0454657 0.02073127 -0.053159866 53 7
3.1269894 0.014190015 -0.49527147 31 3
3.0828216 0.01291499 -0.37852603 1 4
3.1220496 0.012532963 -0.27314621 1 5
3.0537887 0.011194474 -0.16004331 8 6
3.0395205 0.01007978 -0.053055152 55 7
3.1645522 0.0033131591 -0.50121605 59 3
3.1106389 0.002172444 -0.38193837 1 4
3.0981653 0.0016215565 -0.27105445 1 5
3.0395372 -0.00053049932 -0.053055152 55 7
3.1447906 -0.0076841884 -0.49808732 42 3
3.1304789 -0.0087419674 -0.38437581 1 4
3.1001446 -0.0091983415 -0.27122876 3 5
3.0897427 -0.010246012 -0.16192739 40 6
3.0475175 -0.010637886 -0.053194772 56 7
3.0434976 -0.015404657 0.053125057 5 8
3.1467233 -0.018124025 -0.49840021 48 3
3.1026418 -0.018953195 -0.38096344 1 4
3.0657251 -0.020332959 -0.16067134 47 6
3.0574598 -0.021345442 -0.053369295 52 7
3.1486158 -0.029126298 -0.49871302 49 3
3.1224065 -0.029973872 -0.3834008 2 4
3.1239126 -0.031078884 -0.27332053 46 5
3.059644 -0.030973556 -0.16035733 41 6
3.0613661 -0.032059714 -0.053439107 52 7
3.1524386 -0.040717382 -0.49933881 49 3
3.1078467 -0.041768979 -0.27192599 50 5
3.0674984 -0.042297661 -0.16077602 41 6
3.0612357 -0.042745687 -0.053439107 52 7
3.0471599 -0.047868609 0.053194866 49 8
3.1562274 -0.051786017 -0.49996451 48 3
3.1181421 -0.05224986 -0.38291368 33 4
3.0857604 -0.052784678 -0.27000862 45 5
3.071326 -0.05307398 -0.16098537 41 6
3.0610583 -0.053965397 -0.053439107 53 7
3.0895412 -0.063637726 -0.27035722 45 5
3.077101 -0.064456083 -0.16129936 42 6
3.0648499 -0.064734593 -0.053508915 52 7
3.1574054 -0.07440839 -0.38778809 1 4
3.1152067 -0.074501947 -0.27262327 15 5
3.0668874 -0.074417509 -0.16077602 41 6
3.0826101 -0.075337373 -0.053823058 49 7
3.0784895 -0.08007542 0.053753339 1 8
3.2009439 -0.08549685 -0.50716048 1 3
3.1452348 -0.084558211 -0.38632566 1 4
3.0726128 -0.084752478 -0.16109002 36 6
3.0862024 -0.090518124 0.053892955 1 8
3.253643 -0.096565872 -0.6327228 1 2
3.1927447 -0.09587393 -0.50590897 1 3
3.1330154 -0.095174961 -0.38486359 1 4
3.1524646 -0.096867234 -0.27593517 1 5
3.0720317 -0.096005797 -0.053648531 2 7
3.089865 -0.10142165 0.053962771 1 8
3.0461419 -0.10105095 0.15972941 3 9
3.1806674 -0.10606935 -0.61860293 4 2
3.2042184 -0.10797445 -0.50778627 1 3
3.1723437 -0.10745467 -0.38973802 1 4
3.1401601 -0.10746193 -0.27488929 1 5
3.0839226 -0.10661517 -0.16171806 13 6
3.0736768 -0.10679805 -0.053683437 31 7
3.0774825 -0.11230833 0.053753342 1 8
3.1567347 -0.11630391 -0.61402351 16 2
3.1919773 -0.11871809 -0.50590903 1 3
3.1560585 -0.11848538 -0.38778809 1 4
3.1318018 -0.11812211 -0.27419207 1 5
3.0591102 -0.12179702 0.053439204 5 8
3.1602328 -0.12748051 -0.61478668 23 2
3.195514 -0.12946236 -0.50653481 1 3
3.1794496 -0.12992322 -0.39071295 1 4
3.1253986 -0.12880731 -0.27366912 12 5
3.0911078 -0.1279345 -0.16213675 47 6
3.0748546 -0.12833698 -0.053718343 57 7
3.0269585 -0.13215986 0.15878735 47 9
3.1852906 -0.13907279 -0.61974776 35 2
3.2029362 -0.14096339 -0.50778621 1 3
3.1353476 -0.13908535 -0.3853507 1 4
3.0886471 -0.13863413 -0.16203207 43 6
3.0863736 -0.13961162 -0.053927768 53 7
3.0284739 -0.14281921 0.15889204 51 9
3.1867204 -0.15083936 -0.62012935 41 2
3.2063444 -0.15288995 -0.508412 1 3
3.1348429 -0.15002893 -0.3853507 12 4
3.130393 -0.1509112 -0.27419207 55 5
3.0960979 -0.15034114 -0.16245076 43 6
3.0798752 -0.15009223 -0.053823054 50 7
3.0756142 -0.15526573 0.053753339 55 8
3.1802921 -0.16166313 -0.61898446 48 2
3.2018459 -0.16387932 -0.50778627 2 3
3.1258678 -0.16163161 -0.27384344 47 5
3.1035328 -0.16156295 -0.16286945 43 6
3.0833263 -0.16105069 -0.053892858 50 7
3.0670958 -0.16503422 0.05361373 46 8
3.1875503 -0.17318949 -0.620511 48 2
3.1594865 -0.17332396 -0.38851967 48 4
3.1292634 -0.1727616 -0.27419207 46 5
3.1149447 -0.17251642 -0.16349746 48 6
3.0887358 -0.17214635 -0.053997584 53 7
3.0786541 -0.17751408 0.16161348 1 9
3.1908786 -0.18398488 -0.62127423 46 2
3.2026277 -0.18578401 -0.50809908 59 3
3.1628258 -0.18458289 -0.38900679 49 4
3.1366296 -0.18360339 -0.27488932 46 5
3.1063485 -0.18291894 -0.16307878 48 6
3.090112 -0.18304524 -0.054032486 49 7
3.074029 -0.18801567 0.16140415 1 9
3.198055 -0.19560142 -0.62280071 46 2
3.0665014 -0.18809249 0.26878852 1 10
3.1921017 -0.19635575 -0.50653476 20 3
3.154237 -0.19513181 -0.38803184 49 4
3.1419351 -0.19492123 -0.27541226 47 5
3.1017044 -0.19351228 -0.16286945 43 6
3.1014292 -0.19458191 -0.054241918 45 7
3.1210752 -0.20073687 0.05459106 1 8
3.0534232 -0.19745599 0.16035743 1 9
3.1895163 -0.20625675 -0.62127423 42 2
3.1436329 -0.20549354 -0.38681319 23 4
3.149188 -0.20640872 -0.27610949 47 5
3.1169534 -0.20538865 -0.16370682 48 6
3.1323259 -0.21244211 0.054800484 1 8
3.0686564 -0.20919998 0.1611948 1 9
3.230068 -0.22133671 -0.51279211 1 3
3.1404974 -0.21685117 -0.27541223 41 5
3.122195 -0.2166824 -0.16402084 44 6
3.1199436 -0.21762051 -0.054590959 1 7
3.111619 -0.22195192 0.05445144 1 8
3.0758755 -0.2204815 0.16161348 1 9
3.032568 -0.21790916 0.2659992 50 10
3.2174547 -0.23175891 -0.51091498 1 3
3.1896391 -0.23087451 -0.39266285 1 4
3.1111875 -0.2279254 -0.054451343 1 7
3.1108253 -0.23281212 0.05445144 1 8
3.0989873 -0.23301405 0.16286956 1 9
3.0377486 -0.22894266 0.26652247 55 10
3.2205653 -0.24328609 -0.51154071 1 3
3.2204843 -0.24441056 -0.3965627 1 4
3.1528139 -0.23982833 -0.27663246 5 5
3.1385295 -0.23984367 -0.16496289 37 6
3.130311 -0.24031472 -0.054800387 2 7
3.1259425 -0.24491914 0.054730676 1 8
3.0583751 -0.24016224 0.16077612 2 9
3.0369308 -0.23954497 0.26652247 57 10
3.2196963 -0.2545265 -0.51154065 1 3
3.1919513 -0.25289375 -0.39315033 1 4
3.1277187 -0.25000203 -0.16443953 44 6
3.12551 -0.25037456 -0.054730572 12 7
3.1330857 -0.25593507 0.054870304 1 8
3.0675147 -0.25111762 0.16129947 4 9
3.0440626 -0.25026751 0.26721972 58 10
3.2306471 -0.26617521 -0.5134179 1 3
3.1653767 -0.26135373 -0.38998175 12 4
3.1769207 -0.26342344 -0.27889848 46 5
3.1308529 -0.26070404 -0.16464888 55 6
3.1202643 -0.26530677 0.054660868 2 8
3.043216 -0.26036063 0.26721972 61 10
3.2415555 -0.2778993 -0.51529515 4 3
3.190156 -0.27461463 -0.39315033 41 4
3.164072 -0.27348199 -0.27785259 50 5
3.1339507 -0.27142957 -0.16485822 49 6
3.1097884 -0.27043054 -0.054486245 57 7
3.0535865 -0.27037668 0.053509008 16 8
3.0517607 -0.27128866 0.16056676 34 9
3.0382724 -0.27115855 0.26687074 63 10
3.2168586 -0.28822887 -0.3965627 49 4
3.1591294 -0.28416795 -0.277504 52 5
3.1349242 -0.2830939 -0.16496289 48 6
3.1347158 -0.28362665 -0.054940008 59 7
3.0784609 -0.2839545 0.053962771 27 8
3.0805774 -0.28523424 0.16213685 47 9
3.0492103 -0.28286672 0.26791659 58 10
3.2453847 -0.30163652 -0.51623374 59 3
3.1802034 -0.29669812 -0.39217576 52 4
3.1660531 -0.2959353 -0.27820122 50 5
3.125963 -0.29328877 -0.16454421 49 6
3.1217098 -0.29398906 -0.054730579 57 7
3.069622 -0.29503027 0.16161348 10 9
3.0561376 -0.29427257 0.26861385 63 10
3.185076 -0.30837122 -0.39290661 49 4
3.1650004 -0.30698514 -0.27820119 51 5
3.1328716 -0.30497268 -0.16496289 48 6
3.1345963 -0.30624518 -0.054974914 53 7
3.1400809 -0.31176135 0.055079725 1 8
3.0590568 -0.30533445 0.26896247 63 10
3.1839797 -0.31948733 -0.39290696 49 4
3.1797693 -0.31962529 -0.2795957 48 5
3.1397364 -0.31670842 -0.16538158 48 6
3.1175914 -0.31557393 -0.054695666 19 7
3.1469307 -0.32353839 0.055219345 1 8
3.1111958 -0.32096198 0.16391627 1 9
3.054009 -0.31560111 0.26861387 61 10
3.1828458 -0.33059952 -0.39290664 48 4
3.1746707 -0.33031052 -0.27924711 48 5
3.1505308 -0.32891047 -0.1660096 48 6
