# .PCD v0.7 - Point Cloud Data file format
VERSION 0.7
FIELDS x y z intensity ring
SIZE 4 4 4 4 2
TYPE F F F F U
COUNT 1 1 1 1 1
WIDTH 1270
HEIGHT 1
VIEWPOINT 0 0 0 1 0 0 0
POINTS 1270
DATA ascii
-4.4283519 0.46778297 0.38958588 47 10
-4.4159951 0.46725699 -0.70332927 1 3
-4.4573722 0.47242278 0.55036181 37 11
-4.42768 0.47005618 -0.54670614 2 4
-4.5002151 0.478551 0.71678281 46 12
-4.4998465 0.47930709 0.87962925 36 13
-4.3751307 0.46679401 -0.23059216 51 6
-4.5226068 0.48332691 1.0500715 40 14
-4.3962107 0.47059616 -0.077174298 48 7
-4.3257356 0.46381465 1.1657212 41 15
-4.4073935 0.47879645 0.077383861 48 8
-4.4217119 0.4819136 0.23310442 49 9
-4.4346147 0.48410293 0.39028317 48 10
-4.5125217 0.49340349 -0.7189728 1 3
-4.4537239 0.48776212 0.55011815 41 11
-4.4496918 0.4881064 -0.549631 2 4
-4.4945903 0.49382544 0.71615714 46 12
-4.5059519 0.49586964 0.88115567 36 13
-4.369504 0.48162565 -0.2303828 48 6
-4.5325136 0.50039506 1.0527709 40 14
-4.4024911 0.48681712 -0.077313915 48 7
-4.3298507 0.47954953 1.1672741 44 15
-4.4215937 0.49596053 0.077663101 52 8
-4.4160333 0.49689874 0.23289508 49 9
-4.432898 0.49957877 0.39028317 47 10
-4.5107713 0.50915331 -0.71897274 1 3
-4.4598842 0.50419766 0.55109304 40 11
-4.4361267 0.50229597 -0.54816812 2 4
-4.5026531 0.51062453 0.7177214 45 12
-4.5080953 0.51203859 0.88191903 36 13
-4.3638268 0.49642372 -0.23017342 55 6
-4.522994 0.51533002 1.0509712 40 14
-4.4007659 0.50218183 -0.077313922 48 7
-4.3319879 0.49509937 1.1683092 45 15
-4.4198356 0.51139188 0.077663101 48 8
-4.4122882 0.51208043 0.23279041 49 9
-4.4350853 0.51550961 0.39063177 52 10
-4.5089669 0.52489591 -0.7189728 1 3
-4.4699268 0.52114189 0.5525555 40 11
-4.450119 0.51961863 -0.55011845 2 4
-4.4988809 0.52610928 0.7174086 46 12
-30.275255 3.5404568 -2.6667924 9 5
-4.5160289 0.52891356 0.88382745 39 13
-4.3759527 0.51328212 -0.23090616 59 6
-4.5289097 0.53202468 1.0527709 40 14
-4.3930278 0.5168395 -0.077209212 47 7
-4.3244777 0.50953978 1.1667563 41 15
-4.4259663 0.52776515 0.077802725 50 8
-4.418406 0.52842683 0.23320909 49 9
-4.4411716 0.53193676 0.39132899 47 10
-4.5071073 0.54063201 -0.71897274 1 3
-4.468081 0.53674072 0.5525555 40 11
-4.4246268 0.53230512 -0.54719353 2 4
-4.4950562 0.541574 0.71709573 45 12
-29.918524 3.6046479 -2.636462 8 5
-4.518054 0.54514372 0.88459027 40 13
-4.3820658 0.52951241 -0.23132484 57 6
-4.5347638 0.54876691 1.0545706 39 14
-4.3911967 0.53216988 -0.077209197 47 7
-4.3226733 0.5246321 1.1667564 41 15
-4.4240975 0.54321164 0.07780274 48 8
-4.4284277 0.54531139 0.2338371 49 9
-4.4353333 0.54694861 0.39098039 45 10
-4.5051928 0.55636054 -0.7189728 1 3
-4.47997 0.55404055 0.55426162 37 11
-4.4385033 0.54969883 -0.54914302 2 4
-4.5049009 0.55871922 0.71897304 45 12
-29.613131 3.6727612 -2.6106639 8 5
-4.5102782 0.56018651 0.88344586 36 13
-4.3841553 0.5452987 -0.23153418 61 6
-4.540556 0.56555533 1.0563701 39 14
-4.4012184 0.54898113 -0.07741864 47 7
-4.3227324 0.53995734 1.167274 44 15
-4.4221745 0.55865043 0.07780274 48 8
-4.434423 0.56177139 0.23425581 49 9
-4.4452562 0.56393093 0.39202678 48 10
-4.5032234 0.57208335 -0.7189728 1 3
-4.474071 0.56917441 0.55377424 38 11
-4.452311 0.56719476 -0.55109298 2 4
-4.5068421 0.57494098 0.71959871 45 12
-29.252287 3.7317345 -2.5799851 8 5
-4.5082955 0.57592708 0.88344538 34 13
-4.374301 0.55958432 -0.23111553 61 6
-4.5462852 0.58239299 1.0581696 39 14
-4.4032421 0.56484985 -0.077488445 47 7
-4.3169894 0.55455011 1.1662388 44 15
-4.4241629 0.57459843 0.07787253 48 8
-4.4284754 0.57673037 0.2340465 51 9
-4.4432607 0.57944453 0.39202628 43 10
-4.5011988 0.58780026 -0.7189728 1 3
-4.4681196 0.58427256 0.55328667 37 11
-4.450304 0.58273292 -0.55109298 2 4
-4.5126414 0.59169757 0.72085011 43 12
-28.934862 3.7939394 -2.5531414 8 5
-4.5198841 0.59344858 0.88611674 30 13
-4.3762808 0.57537079 -0.23132484 57 6
-4.5442247 0.59825915 1.0581697 39 14
-4.4171042 0.58230662 -0.077767685 45 7
-4.3169422 0.56986874 1.1667564 41 15
-4.4320412 0.59136057 0.078047059 48 8
-4.4323735 0.59297973 0.2343605 48 9
-4.4589839 0.59733188 0.3935951 45 10
-4.428637 0.59405339 -0.70770949 1 3
-4.4680209 0.60013008 0.55353045 40 11
-4.4325042 0.59614712 -0.54914308 2 4
-4.5046759 0.60665429 0.71991158 43 12
-28.569967 3.8475783 -2.5221138 7 5
-4.523622 0.61000961 0.88726157 31 13
-4.3861217 0.59224814 -0.23195289 57 6
-4.5382466 0.61359459 1.0572698 39 14
-4.4090996 0.59691679 -0.07766296 43 7
-4.3130126 0.58467591 1.1662388 42 15
-4.4378748 0.60791343 0.078186683 45 8
-4.4302769 0.60844809 0.2343605 49 9
-4.448976 0.61180735 0.39289781 47 10
-4.4969859 0.61920911 -0.7189728 1 3
-4.4796643 0.61762077 0.5552367 38 11
-4.4461269 0.61378759 -0.55109292 2 4
-4.5123143 0.62372732 0.7214759 43 12
-28.228743 3.9019971 -2.4931781 7 5
-4.5292435 0.62687296 0.88878804 31 13
-4.3860064 0.6078282 -0.23205756 55 6
-4.5457282 0.6307717 1.0595194 38 14
-4.4030275 0.61175352 -0.077593148 43 7
-4.309032 0.59946042 1.1657211 40 15
-4.4297843 0.62256598 0.078081965 48 8
-4.4380145 0.62530118 0.23488384 49 9
-4.4428678 0.62677693 0.39254922 48 10
-4.4400291 0.62716687 -0.71021241 1 3
-4.4814124 0.63381004 0.55572414 38 11
-4.4439573 0.62930387 -0.55109292 2 4
-4.5101094 0.63947445 0.72147578 45 12
-27.986118 3.9680655 -2.4729578 7 5
-4.5211968 0.64185148 0.88764316 28 13
-4.391767 0.62425888 -0.23247625 53 6
-4.5550742 0.64828295 1.0622188 37 14
-4.4087844 0.62824786 -0.077732772 45 7
-4.3069134 0.6144982 1.1657211 41 15
-4.4256053 0.63773996 0.078047059 47 8
-4.4437113 0.64193243 0.23530252 51 9
-4.4524837 0.6439929 0.39359504 47 10
-4.4925532 0.65058786 -0.7189728 1 3
-4.4772081 0.6491645 0.55548042 40 11
-4.4417343 0.64481252 -0.55109298 2 4
-4.5254436 0.6577701 0.72429174 42 12
-4.5266991 0.65876037 0.88917011 31 13
-4.3895612 0.63958532 -0.23247625 53 6
-4.5604978 0.66530466 1.0640186 36 14
-4.418437 0.6453678 -0.077942207 43 7
-4.3142991 0.63092619 1.1683092 44 15
-4.4372005 0.65522826 0.078291401 48 8
-4.4376063 0.65607953 0.23509318 49 9
-4.4580927 0.66069859 0.39429238 45 10
-4.4902549 0.66626704 -0.7189728 1 3
-4.4768782 0.66508073 0.55572414 38 11
-4.4276743 0.6585598 -0.549631 2 4
-4.5271449 0.6733548 0.72491741 43 12
-4.5301971 0.67542619 0.89031494 28 13
-4.3833513 0.65431321 -0.23226689 55 6
-4.5523653 0.68035561 1.0626687 38 14
-4.4241829 0.66119868 -0.078081824 43 7
-4.3102732 0.64494383 1.1677917 38 15
-4.4389567 0.67053634 0.078361198 48 8
-4.4372644 0.671866 0.23519786 49 9
-4.4636388 0.67745215 0.39498958 45 10
-4.4880209 0.6811527 -0.7189728 1 3
-4.492311 0.682607 0.55791777 37 11
-4.4293914 0.67383617 -0.55011845 2 4
-4.5189085 0.68826121 0.72397882 40 12
-4.5356965 0.69162917 0.89184093 27 13
-4.394978 0.67095542 -0.23299961 59 6
-4.5443048 0.694565 1.0613191 37 14
-4.4218478 0.67663807 -0.078081824 42 7
-4.3270912 0.66291004 1.1729679 48 15
-4.4504237 0.6881665 0.078605548 48 8
-4.4427862 0.68857336 0.23561652 48 9
-4.4534917 0.69102854 0.39429232 47 10
-4.4856157 0.69681585 -0.7189728 1 3
-4.4859781 0.69767284 0.55743027 37 11
-4.4113207 0.68685043 -0.54816854 2 4
-4.5281897 0.70585769 0.72585607 40 12
-4.5507121 0.710181 0.89527601 31 13
-4.3945827 0.68660116 -0.23310427 53 6
-4.5611062 0.71343505 1.0658182 37 14
-4.4194598 0.69206822 -0.078081831 45 7
-4.3132992 0.67621517 1.169862 48 15
-4.440093 0.70244724 0.078465916 47 8
-4.454164 0.706267 0.23634924 49 9
-4.4588003 0.70859772 0.39498958 47 10
-4.4830313 0.7132507 -0.71897274 1 3
-4.4952779 0.71519911 0.55889273 37 11
-4.4324207 0.70599288 -0.55109292 2 4
-4.5237474 0.72134775 0.7255432 43 12
-4.5442014 0.72623694 0.89451283 30 13
-4.407814 0.70522785 -0.23394164 53 6
-4.5623093 0.73076302 1.066718 37 14
-4.4249148 0.70875597 -0.07822144 45 7
-4.3109131 0.69126856 1.1698624 45 15
-4.4394627 0.71903604 0.078500822 48 8
-4.4536433 0.72213048 0.23645391 49 9
-4.4602327 0.72479677 0.39533818 45 10
-4.4805145 0.72889519 -0.71897274 1 3
-4.4867487 0.73071319 0.5581615 37 11
-4.5042543 0.73437113 -0.56035554 2 4
-4.5348487 0.73935926 0.72773325 43 12
-4.547452 0.74304467 0.89565718 27 13
-4.4053254 0.72060984 -0.23394164 44 6
-4.5751152 0.74920452 1.0703171 36 14
-4.4303064 0.72549117 -0.078361049 45 7
-4.3160992 0.70756245 1.1719327 45 15
-4.4528375 0.73636419 0.078780062 48 8
-4.4491248 0.73734474 0.23634924 51 9
-4.4753642 0.74329954 0.39690697 43 10
-4.517046 0.75022227 -0.7252301 1 3
-4.494092 0.74721593 0.55938023 37 11
-2.1833405 0.36340746 -0.27176875 2 4
-4.5458803 0.7574572 0.72992331 42 12
-4.5488353 0.75876665 0.89642084 27 13
-4.3989711 0.73455662 -0.23373228 51 6
-4.5668402 0.76340723 1.0689675 34 14
-4.4376087 0.74260175 -0.078535572 45 7
-4.3136029 0.72262317 1.1719326 45 15
-4.4522109 0.75223625 0.078814961 48 8
-4.4504628 0.75353867 0.2365586 49 9
-4.4728756 0.75813651 0.39690703 42 10
-4.4754496 0.75937527 -0.7189728 1 3
-4.4992847 0.7642284 0.56035519 35 11
-2.1703169 0.36903006 -0.27030635 2 4
-4.5354195 0.77199388 0.72867191 42 12
-4.5558362 0.77628839 0.89832896 30 13
-4.4042554 0.75125086 -0.23415098 53 6
-4.5660682 0.7796731 1.0694174 36 14
-4.4290767 0.75707579 -0.078430869 42 7
-4.3034377 0.73637283 1.1698622 40 15
-4.4574413 0.76913202 0.078954592 47 8
-4.4576454 0.77077073 0.23708197 49 9
-4.4760914 0.77476364 0.39742997 43 10
-4.4727721 0.77499419 -0.71897292 1 3
-4.5005012 0.78060788 0.56084269 36 11
-2.1533689 0.37388647 -0.26835644 3 4
-4.5365887 0.78849834 0.72929758 43 12
-4.5647035 0.79420573 0.90061814 30 13
-4.4193153 0.76970345 -0.23509304 55 6
-4.5671577 0.79627526 1.070317 36 14
-4.4264073 0.77253163 -0.078430869 42 7
-4.3046474 0.75205535 1.1708975 40 15
-4.4429126 0.78260541 0.078745157 48 8
-4.4608283 0.78736663 0.23739597 49 9
-4.4694362 0.7896902 0.39708138 43 10
-4.4700389 0.79060233 -0.7189728 1 3
-4.5036125 0.79734987 0.56157374 33 11
-2.1540055 0.3817479 -0.26859993 3 4
-4.5415893 0.80570972 0.7305491 43 12
-4.5464401 0.80738866 0.89756525 27 13
-4.4264336 0.786874 -0.23561637 48 6
-4.5797 0.81494427 1.0739164 37 14
-4.4374642 0.79043281 -0.078675203 45 7
-4.3019962 0.76707691 1.1708975 45 15
-4.4519629 0.80023313 0.078954592 47 8
-4.4639502 0.80399531 0.23771001 48 9
-4.4725337 0.8063482 0.39760423 43 10
-4.4672523 0.80619997 -0.7189728 1 3
-4.4968958 0.81236005 0.56108636 33 11
-2.1565666 0.38997096 -0.2690874 4 4
-4.5504122 0.82366908 0.73242629 42 12
-4.557117 0.82570302 0.90023655 33 13
-4.4157991 0.8008948 -0.23519769 51 6
-4.584497 0.83231795 1.075716 37 14
-4.4386134 0.80663294 -0.078745015 45 7
-4.3030934 0.78278059 1.1719327 45 15
-4.4530759 0.8164888 0.079024389 45 8
-4.4611163 0.81957263 0.23771001 48 9
-4.4834089 0.8244769 0.39882442 43 10
-4.4644103 0.82178867 -0.71897274 1 3
-4.5018406 0.82949221 0.56206125 33 11
-2.1317656 0.39317578 -0.26616275 4 4
-4.5552793 0.84098148 0.73367774 43 12
-4.5522761 0.84124976 0.89985496 27 13
-4.4090481 0.81557739 -0.23498833 51 6
-4.5815639 0.84831482 1.075716 36 14
-4.4495344 0.8246727 -0.078989342 47 7
-4.3041329 0.79850119 1.1729679 45 15
-4.4619918 0.83423293 0.07923381 47 8
-4.4621534 0.83587629 0.23791932 48 9
-4.4922533 0.84232515 0.39987028 45 10
-4.5119934 0.84684169 -0.72710735 1 3
-4.5125751 0.84776729 0.56376749 35 11
-2.1206262 0.39877996 -0.26494384 4 4
-4.5484328 0.85614651 0.73305202 42 12
-4.572464 0.86149728 0.9044345 31 13
-4.4179511 0.83318281 -0.23561637 48 6
-4.5785737 0.86430335 1.0757159 36 14
-4.444664 0.83982837 -0.078954451 42 7
-4.3032179 0.81387866 1.1734855 43 15
-4.4649467 0.85092658 0.079338543 43 8
-4.4670568 0.85294455 0.23833802 48 9
-4.4795003 0.8561309 0.39899874 43 10
-4.5555739 0.87149549 -0.73461628 1 3
-4.5115385 0.86388648 0.56401128 33 11
-2.1250699 0.40730089 -0.26567528 5 4
-4.5531774 0.87350833 0.73430353 43 12
-4.5771408 0.87893277 0.90596086 30 13
-4.4228616 0.85010743 -0.23603508 46 6
-4.5831838 0.88175321 1.0775156 38 14
-4.4417048 0.85533702 -0.078954443 43 7
-4.2908673 0.8270669 1.1708976 40 15
-4.4599862 0.86612475 0.07930363 45 8
-4.4758153 0.87082112 0.23896606 46 9
-4.4764853 0.8717612 0.39899877 43 10
-4.5253596 0.88210005 -0.73023605 1 3
-4.5221338 0.88229042 0.56571746 35 11
-2.1392217 0.4177607 -0.26762497 7 4
-4.5636711 0.89204818 0.73649359 43 12
-4.5682645 0.89377385 0.90481597 28 13
-4.4316268 0.86784506 -0.23666312 46 6
-4.5915523 0.89999413 1.080215 36 14
-4.442616 0.87160623 -0.07902424 42 7
-4.2860579 0.84166867 1.1703799 43 15
-4.4569359 0.88168895 0.079303645 45 8
-4.4845033 0.88876802 0.23959409 45 9
-4.489049 0.89048427 0.40039322 40 10
-4.522253 0.89789122 -0.73023605 1 3
-4.5151315 0.89729631 0.56522989 35 11
-2.1377506 0.42522499 -0.26762497 7 4
-4.5624666 0.90835881 0.73680645 43 12
-4.5747433 0.91163307 0.90672404 31 13
-4.4285703 0.88330793 -0.23666309 48 6
-4.592205 0.91677934 1.0811148 37 14
-4.4552345 0.89024454 -0.079303488 43 7
-4.2925653 0.858518 1.172968 48 15
-4.4675527 0.90000558 0.079547964 43 8
-4.4735427 0.90283608 0.23917541 48 9
-4.5015373 0.90930468 0.40178776 40 10
-4.5217004 0.91502041 0.56644857 33 11
-2.1109605 0.42756173 -0.26445636 7 4
-4.5728207 0.92702675 0.73899662 45 12
-4.5792294 0.92915809 0.90825105 30 13
-4.4176311 0.89717144 -0.23624443 55 6
-4.5889769 0.93280375 1.0811149 37 14
-4.4560189 0.90658712 -0.0793733 42 7
-4.2895427 0.87349677 1.172968 45 15
-4.4741783 0.91760367 0.079722486 40 8
-4.4742765 0.91925132 0.23938477 45 9
-4.5022383 0.92581505 0.40213633 40 10
-4.5700498 0.94058967 -0.73899639 1 3
-4.5165339 0.93039805 0.56620485 36 11
-4.5598836 0.94098616 0.7374323 43 12
-4.5778809 0.94553417 0.90863264 27 13
-4.4379435 0.91743857 -0.2375005 34 6
-4.5933251 0.95039594 1.0829142 37 14
-4.4528275 0.92213619 -0.0793733 43 7
-4.2978172 0.8908174 1.176074 45 15
-4.4787788 0.93484938 0.07986211 45 8
-4.4788599 0.93649894 0.23980342 45 9
-4.4950795 0.94070816 0.40178776 43 10
-4.5307455 0.94982404 0.56839854 33 11
-4.5585041 0.95730454 0.73774505 43 12
-4.5764737 0.96191216 0.90901375 27 13
-4.5937939 0.96722704 1.0838141 37 14
-4.4495811 0.93767393 -0.0793733 43 7
-4.2776694 0.9022252 1.1714152 43 15
-4.4696198 0.94923145 0.0797574 42 8
-4.485498 0.95342278 0.24032679 43 9
-4.4995632 0.95805293 0.40248498 40 10
-4.5274024 0.96563256 0.56839854 33 11
-2.1141331 0.45130175 -0.26543137 8 4
-4.5649633 0.97447789 0.73930937 42 12
-4.5730877 0.97788012 0.90901423 27 13
-2.3631694 0.50575709 -0.12665299 1 6
-4.6094446 0.98733813 1.0883131 36 14
-4.4542689 0.95409966 -0.079512917 45 7
-4.2784314 0.91721535 1.1724503 43 15
-4.4742661 0.96573573 0.079897009 42 8
-4.4899511 0.9707616 0.24074547 45 9
-4.5000854 0.97459805 0.40283358 40 10
-4.5280547 0.98148173 0.56888598 33 11
-2.1184442 0.45957196 -0.26616275 8 4
-4.5731163 0.99292153 0.74118662 43 12
-4.5870872 0.99679208 0.91244835 27 13
-2.3029301 0.5008567 -0.12351283 1 6
-4.6099539 1.0034474 1.089213 38 14
-4.4665427 0.97304648 -0.079792164 42 7
-4.2657657 0.93008769 1.1698622 40 15
-4.4786806 0.98306298 0.08003664 43 8
-4.4845848 0.98599976 0.2406408 46 9
-4.5046124 0.99122733 0.40353084 40 10
-4.5323558 0.99899101 0.56986099 32 11
-2.0896883 0.46097776 -0.26275042 8 4
-4.5773387 1.0105813 0.74243814 42 12
-2.2509871 0.49697116 -0.20167847 1 5
-4.5893297 1.0140686 0.91359371 26 13
-2.2738657 0.50285524 -0.12204742 1 6
-4.6026173 1.0186898 1.0883131 36 14
-4.4670238 0.98949683 -0.079861976 42 7
-4.271924 0.94706321 1.1724504 37 15
-4.4869318 1.0013038 0.080246061 42 8
-4.4850135 1.0025192 0.24085014 46 9
-4.5127916 1.0095555 0.40457675 42 10
-4.5269041 1.0143719 0.56961721 30 11
-2.0958145 0.47000647 -0.26372513 9 4
-4.5699291 1.0256879 0.74181247 42 12
-2.2181339 0.49784437 -0.19888946 2 5
-4.585762 1.0300823 0.91359371 26 13
-2.2409186 0.50377989 -0.12037268 1 6
-4.6028366 1.0356054 1.089213 38 14
-4.4635425 1.0050849 -0.079861976 34 7
-4.2817841 0.9649412 1.1760739 40 15
-4.49121 1.0187296 0.080385678 42 8
-4.4912248 1.0203815 0.24137348 45 9
-4.5092397 1.0253019 0.40457672 39 10
-4.5407553 1.0341349 0.57181084 32 11
-2.0922258 0.47687835 -0.26348144 10 4
-4.5720987 1.0429519 0.74275106 40 12
-2.1969578 0.50115305 -0.19714636 7 5
-4.5936227 1.0487052 0.91588342 27 13
-2.2313581 0.50981963 -0.11995398 2 6
-4.606792 1.0534036 1.0910126 38 14
-4.4717021 1.0233347 -0.08007139 27 7
-4.2689738 0.97772527 1.1734856 43 15
-4.4837294 1.0335025 0.080315873 40 8
-4.4993124 1.0387484 0.24200155 45 9
-4.5095153 1.0419329 0.40492532 40 10
-4.5448532 1.051769 0.57278574 32 11
-2.09635 0.48552236 -0.26421288 10 4
-4.5799756 1.0615814 0.74462819 40 12
-2.1971362 0.50926882 -0.19732068 17 5
-4.5880218 1.0642902 0.91550124 26 13
-2.2101099 0.51308894 -0.11890727 3 6
-4.6144757 1.0721253 1.093712 36 14
-4.4564171 1.0362207 -0.079861976 3 7
-4.2617722 0.99174529 1.1724504 43 15
-4.4839883 1.0500581 0.080385678 42 8
-4.5073256 1.0571841 0.24262956 45 9
-4.521369 1.0613093 0.40631986 37 10
-4.5353575 1.0662644 0.57205456 31 11
-2.1062367 0.49556449 -0.26567531 13 4
-4.585856 1.0798259 0.74619251 42 12
-2.1798303 0.51328194 -0.19592617 23 5
-4.5881009 1.0811996 0.91626453 24 13
-2.219969 0.52355075 -0.1195353 3 6
-4.6182919 1.090016 1.0955117 37 14
-4.5072641 1.0646415 -0.080839291 1 7
-4.262044 1.0075055 1.1734856 43 15
-4.4958591 1.0694059 0.08066491 40 8
-4.5055518 1.0733732 0.24273425 46 9
-4.521512 1.0780094 0.40666842 40 10
-4.5374007 1.0834714 0.57278579 32 11
-2.0929096 0.50014585 -0.26421264 12 4
-4.5916653 1.0981245 0.74775696 40 12
-2.1799631 0.52135134 -0.1961005 21 5
-4.5919361 1.0990354 0.91779149 26 13
-2.2103586 0.52943635 -0.11911661 1 6
-4.6144586 1.1061302 1.0955116 37 14
-2.298429 0.55137926 -0.041257367 1 7
-4.2622585 1.0232778 1.174521 43 15
-4.4998736 1.0869722 0.080804534 42 8
-4.5037184 1.0895636 0.2428389 43 9
-4.5215945 1.0947249 0.40701708 40 10
-4.545166 1.1021103 0.57424825 33 11
-2.0950091 0.5083847 -0.26470011 15 4
-4.5878038 1.1141448 0.74775696 40 12
-2.1781299 0.52895725 -0.1961005 28 5
-4.6128721 1.1210852 0.92275202 24 13
-2.2162597 0.53903681 -0.1195353 2 6
-4.6143565 1.1231518 1.0964113 36 14
-2.2848327 0.55655986 -0.041047931 2 7
-4.2661681 1.0399799 1.1765916 43 15
-4.5077052 1.10553 0.08101397 43 8
-4.5095849 1.107661 0.24336226 46 9
-4.5254846 1.1124028 0.40771428 40 10
-4.5509281 1.1203429 0.57546693 31 11
-2.0912945 0.51521927 -0.26445636 14 4
-4.5877228 1.1310982 0.74838269 40 12
-2.1665981 0.53417248 -0.19522896 29 5
-4.6108365 1.1376517 0.92313361 23 13
-2.2182426 0.54772735 -0.11974464 2 6
-4.6217599 1.1420572 1.099111 36 14
-2.2673464 0.56069177 -0.040768698 4 7
-4.256886 1.053473 1.1750386 45 15
-4.4999375 1.1202922 0.080944158 45 8
-4.513443 1.1253275 0.24378094 46 9
-4.521574 1.128193 0.40771428 40 10
-4.5566201 1.1386271 0.57668561 33 11
-2.0914087 0.52299768 -0.26470035 12 4
-4.593328 1.1495045 0.74994707 39 12
-2.1627872 0.54124892 -0.19505464 28 5
-4.6068373 1.1537397 0.92313361 24 13
-2.220192 0.55643773 -0.11995398 2 6
-4.6328659 1.1619768 1.10271 37 14
-2.2673149 0.56908971 -0.0408036 6 7
-4.2438149 1.065972 1.1724504 43 15
-4.4998775 1.1369729 0.081013978 43 8
-4.5191689 1.1435255 0.24430431 45 9
-4.5330606 1.1478823 0.40910882 40 10
-4.548769 1.1535499 0.57619822 33 11
-2.099191 0.53273648 -0.26591882 14 4
-4.6103477 1.17088 0.75338852 36 12
-2.1531603 0.54683346 -0.19435738 27 5
-4.6084914 1.1712636 0.92427856 24 13
-2.1795235 0.55433816 -0.11786054 2 6
-4.6457777 1.1824677 1.1067591 21 14
-2.2633772 0.57650667 -0.040768702 7 7
-4.2438116 1.0817345 1.1734856 43 15
-4.5075035 1.1556522 0.081223391 45 8
-4.5151496 1.1592935 0.24430431 43 9
-4.5406041 1.1666727 0.41015467 42 10
-4.5562501 1.1723894 0.57766062 33 11
-2.0915513 0.5385763 -0.26518759 13 4
-4.6177096 1.1899226 0.75526571 22 12
-2.1686027 0.55882019 -0.19592617 18 5
-4.6271868 1.1932259 0.92885792 9 13
-2.1930466 0.56593591 -0.11869793 3 6
-4.6378489 1.1977018 1.1058593 23 14
-2.265223 0.58540452 -0.04083851 4 7
-4.2418795 1.0970253 1.1740031 40 15
-4.5169897 1.1749043 0.08146774 43 8
-4.528471 1.1795775 0.2452464 28 9
-4.565424 1.1900549 0.41276938 14 10
-4.5713367 1.1932992 0.58009797 13 11
-2.0858173 0.54486996 -0.26470035 15 4
-4.5982389 1.2020375 0.75276279 24 12
-2.1743491 0.56840217 -0.1966234 8 5
-4.6058993 1.2048988 0.92542344 17 13
-2.1833291 0.5715639 -0.11827923 3 6
-4.5978227 1.2045009 1.0973114 22 14
-2.2438221 0.58823764 -0.040489458 3 7
-4.2454996 1.1137857 1.1760739 40 15
-4.5437965 1.1988268 0.082026206 19 8
-4.526257 1.195889 0.24535108 25 9
-4.5342751 1.1988541 0.41032901 19 10
-4.5517912 1.2051855 0.57814807 21 11
-2.0762269 0.5501138 -0.26372537 11 4
-4.5596461 1.2089683 0.74713111 25 12
-2.1723518 0.57598871 -0.19662341 2 5
-4.5694065 1.2124099 0.91893595 16 13
-2.1620166 0.57405615 -0.11723251 4 6
-4.4297347 1.1770056 1.0581697 7 14
-2.2494855 0.59812129 -0.040629078 2 7
-4.2322507 1.1261147 1.1734855 43 15
-4.4990182 1.2038246 0.08129321 22 8
-4.4911871 1.2034104 0.2436763 24 9
-4.4915743 1.2043532 0.40684277 22 10
-4.4957933 1.2071679 0.57156712 6 11
-2.0838799 0.5599336 -0.26494384 11 4
-2.2299738 0.59960598 -0.20202707 1 5
-4.3812513 1.1788718 0.88191897 18 13
-2.1831427 0.58783102 -0.11848858 2 6
-4.3333993 1.1676183 1.0361245 12 14
-2.2473838 0.60596997 -0.040629078 3 7
-4.2264295 1.1403781 1.1729679 40 15
-4.4566121 1.2074941 0.080595113 8 8
-2.0897722 0.56856221 -0.26591882 11 4
-2.2856433 0.62270898 -0.20725645 1 5
-4.3150172 1.175599 0.86932558 9 13
-2.1851389 0.5957374 -0.11869792 3 6
-4.2996292 1.1730199 1.028926 13 14
-2.2416112 0.61197364 -0.040559266 2 7
-4.2358713 1.1572144 1.1765915 43 15
-4.3501711 1.1949699 0.078745157 1 8
-4.4025965 1.2126768 0.39952168 1 10
-2.0724659 0.57163095 -0.26396888 10 4
-4.2841864 1.1840852 0.86398327 7 13
-2.165616 0.59895033 -0.11775587 4 6
-4.2596164 1.178895 1.0203779 10 14
-2.2433157 0.62086195 -0.040629081 1 7
-4.2206349 1.1688995 1.1734856 37 15
-4.3457627 1.2109061 0.078745157 1 8
-4.2889538 1.1974971 0.38958594 8 10
-2.0799155 0.58189684 -0.26518762 12 4
-4.2611232 1.1937358 0.86016667 12 13
-2.163512 0.60650611 -0.11775587 6 6
-4.2085676 1.1805981 1.0091304 9 14
-2.2294736 0.62583673 -0.040419649 2 7
-4.234921 1.1895856 1.1786621 43 15
-4.2310681 1.1972725 0.38470519 13 10
-4.3201995 1.2241219 0.55133677 7 11
-2.0778713 0.58915401 -0.26518759 12 4
-4.2210464 1.1984148 0.85291588 12 13
-2.192121 0.62278819 -0.11943062 3 6
-4.1763043 1.1872873 1.0023818 10 14
-2.2272754 0.63361531 -0.040419649 2 7
-4.2195945 1.2011874 1.1755562 36 15
-4.1847286 1.1999516 0.38087034 13 10
-4.2891884 1.2315254 0.54792446 8 11
-2.0738945 0.59585494 -0.26494384 8 4
-4.4426503 1.2764271 0.73211342 3 12
-4.1791019 1.2022868 0.84528399 7 13
-2.1976116 0.63264614 -0.11984932 3 6
-4.1403003 1.1926877 0.99473351 9 14
-2.2559066 0.64985436 -0.040978123 1 7
-4.2137322 1.2146388 1.1750387 40 15
-4.1441622 1.2039906 0.37755841 14 10
-4.2488637 1.2352133 0.54329348 6 11
-2.0947797 0.60938281 -0.26786897 9 4
-4.1788626 1.217236 0.84604728 7 13
-2.1974187 0.6404891 -0.11995398 3 6
-4.1101317 1.1987723 0.98843503 10 14
-2.2459459 0.65548408 -0.040838506 1 7
-4.2168841 1.2315054 1.1771091 40 15
-4.1095648 1.2087317 0.37476951 16 10
-4.1988249 1.2365768 0.5374437 3 11
-4.2498441 1.2532157 0.70176524 15 12
-2.2300596 0.65803438 -0.20342155 4 5
-4.1727052 1.2312601 0.84566569 12 13
-2.1606905 0.63797522 -0.11806989 4 6
-4.0704131 1.2026209 0.97988671 11 14
-2.2513146 0.66558772 -0.040978123 1 7
-4.2162647 1.2473137 1.1781445 45 15
-4.0841036 1.2175233 0.372852 42 10
-4.1355128 1.2336361 0.52988786 6 11
-0.95298254 0.28445876 -0.12211304 2 4
-4.2019105 1.2550391 0.69456917 10 12
-2.243021 0.67037916 -0.20481606 4 5
-4.1437125 1.239233 0.8407042 22 13
-2.1736453 0.65047055 -0.11890726 2 6
-4.0305076 1.2069103 0.97133857 10 14
-2.2336524 0.66885322 -0.040698886 2 7
-4.2174363 1.2636871 1.1796973 43 15
-4.4630489 1.344924 0.081363015 66 8
-4.0779209 1.2311974 0.37267771 58 10
-4.1423645 1.2522309 0.53135026 7 11
-0.9899348 0.29944471 -0.12698793 2 4
-4.154016 1.2565454 0.68737316 31 12
-2.255923 0.68282235 -0.20621058 4 5
-4.12433 1.2491361 0.83765119 15 13
-2.2095892 0.66964 -0.12100069 1 6
-4.0001621 1.213055 0.96504009 11 14
-2.2351317 0.67780691 -0.040768702 1 7
-4.2000604 1.2744737 1.176074 45 15
-4.4183969 1.3474669 0.080630019 14 8
-4.0831251 1.2483373 0.37354925 81 10
-4.1381888 1.2659606 0.5313502 13 11
-1.0268996 0.31434658 -0.13186258 2 4
-4.1533818 1.2721952 0.68799895 45 12
-4.4041858 1.3498567 -0.40300831 23 5
-2.2111759 0.6781351 -0.12121006 3 6
-3.9756248 1.2200246 0.96009105 16 14
-2.2633376 0.69499606 -0.041327171 1 7
-4.1992784 1.2902625 1.177109 45 15
-3.9111578 1.207714 0.071450055 8 8
-4.0694461 1.2589265 0.37267771 52 10
-4.1071978 1.2721753 0.52793789 13 11
-0.98787361 0.30617607 -0.12698793 2 4
-4.1564631 1.2890251 0.68925041 49 12
-4.4108644 1.3687651 -0.40405414 39 5
-2.2183323 0.68881077 -0.1217334 3 6
-3.9452879 1.225799 0.95379239 15 14
-4.0482287 1.2585573 -0.073997967 1 7
-3.9936814 1.2423645 1.1206865 24 15
-3.9107358 1.2225527 0.071519867 16 8
-4.0362864 1.2648954 0.37006301 11 10
-4.0572724 1.2722496 0.52208817 12 11
-0.98679894 0.30962229 -0.12698793 2 4
-4.1613617 1.3064846 0.69081467 48 12
-4.4269681 1.3907233 -0.40597162 45 5
-2.1967404 0.6909436 -0.12068668 3 6
-3.9147446 1.2320616 0.94749379 19 14
-4.0438108 1.2726817 -0.073997967 1 7
-3.8879747 1.2243812 1.0922163 19 15
-3.9024155 1.2356706 0.071450055 14 8
-4.0128551 1.2729524 0.3683199 16 10
-4.0204191 1.2768967 0.51794463 11 11
-0.97436047 0.30945969 -0.12552539 2 4
-4.1511283 1.3192078 0.68987608 49 12
-4.4201884 1.4055632 -0.4057973 48 5
-2.2038307 0.70163703 -0.12121005 3 6
-3.8827846 1.2361681 0.94074541 12 14
-3.9440761 1.2564409 -0.072252735 1 7
-3.8560691 1.2291452 1.0844519 23 15
-3.9211495 1.2559247 0.071868919 8 8
-4.1577029 1.3324906 0.22881286 1 9
-3.9668758 1.2728609 0.36448509 14 10
-3.9915929 1.2823287 0.51477605 8 11
-1.0035682 0.3224037 -0.12942518 4 4
-4.154253 1.3353844 0.6911276 48 12
-4.4079156 1.4177731 -0.40510002 46 5
-2.2433164 0.72241008 -0.12351283 1 6
-3.8508394 1.240077 0.93399674 11 14
-3.9018214 1.2572473 -0.071554638 6 7
-3.8023281 1.2259201 1.0704757 16 15
-3.8998418 1.2633743 0.071554773 8 8
-4.1302285 1.3396024 0.22755681 1 9
-3.9285209 1.2749382 0.36134747 14 10
-3.9608877 1.2869706 0.51136369 10 11
-0.96656787 0.3142435 -0.12479416 9 4
-4.1683517 1.3559874 0.69425631 48 12
-4.4067283 1.4343842 -0.40544859 48 5
-2.3053455 0.75127763 -0.12707166 1 6
-3.8335168 1.2492858 0.93084741 10 14
-3.9164209 1.277058 -0.071903691 1 7
-3.7906792 1.2367883 1.068405 21 15
-3.9046857 1.2807748 0.071729295 11 8
-4.4706464 1.4681441 0.24660711 10 9
-3.9030004 1.2824868 0.35943004 13 10
-3.9184308 1.2890716 0.50648892 11 11
-0.98237967 0.32337007 -0.12698793 2 4
-4.2121348 1.387324 0.70239085 52 12
-4.412796 1.454267 -0.40649453 48 5
-2.3025768 0.75972158 -0.12707168 1 6
-3.8048549 1.2553892 0.9249987 11 14
-3.8851304 1.2826266 -0.071415029 1 7
-3.7714458 1.245826 1.0642641 20 15
-3.9018631 1.2957079 0.071764201 8 8
-4.4481778 1.4788501 0.24566507 12 9
-3.8812599 1.2911227 0.35786128 13 10
-3.8778951 1.291508 0.50185788 10 11
-0.95482212 0.31818223 -0.12357546 2 4
-4.3681817 1.4564887 0.72929764 58 12
-4.413363 1.4715536 -0.40701747 46 5
-3.8761263 1.2939255 -0.21415867 2 6
-3.770654 1.2594484 0.91780025 12 14
-3.8500569 1.2867168 -0.070856549 27 7
-3.7430365 1.2516762 1.0575347 19 15
-3.8404491 1.2902154 0.070717059 9 8
-3.8521807 1.2964016 0.3555952 14 10
-3.8526707 1.2980636 0.49917677 11 11
-0.98004067 0.33039132 -0.12698793 2 4
-4.41575 1.4894972 -0.40771466 46 5
-3.9398251 1.3297267 0.80826706 1 13
-3.7403882 1.2638693 0.91150165 15 14
-3.813338 1.2892604 -0.07026317 13 7
-3.724005 1.2597818 1.0533937 24 15
-3.7999482 1.2913878 0.070053868 14 8
-4.3491354 1.4788722 0.24074547 1 9
-3.8136816 1.2982837 0.35245803 16 10
-3.8274477 1.30446 0.49649566 10 11
-0.97893971 0.3336395 -0.12698781 2 4
-3.8608382 1.3165932 0.64607447 7 12
-4.4142947 1.5061889 -0.40806326 46 5
-3.9611716 1.3523507 0.8136093 1 13
-3.8159678 1.3035226 -0.21133253 10 6
-3.7158914 1.2693368 0.90655273 10 14
-3.786335 1.294138 -0.069844306 9 7
-3.6887321 1.2614963 1.0445937 56 15
-3.7483652 1.2877392 0.069181256 15 8
-3.7870157 1.3017564 0.20986727 6 9
-3.7792127 1.3005494 0.34966862 17 10
-3.7987013 1.3087391 0.49332702 16 11
-0.97782785 0.33688393 -0.12698793 2 4
-3.8247035 1.3184443 0.64075571 13 12
-4.4149275 1.5227685 -0.40858629 46 5
-4.0680161 1.4039074 0.83650637 1 13
-3.8021846 1.3129103 -0.21080916 4 6
-3.704293 1.2791079 0.90475309 10 14
-3.7517812 1.2962387 -0.069285832 11 7
-3.690006 1.2756152 1.0461466 51 15
-3.7119606 1.2890105 0.068587869 15 8
-3.7447178 1.3018506 0.2077738 15 9
-3.7560613 1.3065289 0.34792551 17 10
-3.7605968 1.3095783 0.48893973 17 11
-0.96539867 0.33637628 -0.12552539 2 4
-3.7715802 1.3148804 0.63262111 21 12
-4.4324293 1.5452712 -0.410678 11 5
-4.0633383 1.4173899 0.83650637 6 13
-3.7450111 1.3070828 -0.20787838 4 6
-3.6961265 1.2907457 0.9038533 9 14
-3.7321322 1.3040494 -0.069006599 12 7
-3.6818838 1.2872131 1.0451114 36 15
-3.6772506 1.2913578 0.068029396 18 8
-3.6986983 1.300341 0.20547102 17 9
-3.6969726 1.3004583 0.34287047 19 10
-3.7241721 1.311488 0.48479623 18 11
-0.97545218 0.34370205 -0.12698793 2 4
-3.7576525 1.3247527 0.63105673 22 12
-4.0639205 1.4335245 0.83765131 6 13
-3.6989903 1.3055242 -0.20557557 4 6
-3.6787357 1.2990967 0.90070403 15 14
-3.7011609 1.3077424 -0.068517938 12 7
-3.6773679 1.3000585 1.0451114 37 15
-3.6689517 1.3028487 0.067959592 58 8
-3.6621451 1.3018703 0.2036916 30 9
-3.6623755 1.3026731 0.34008151 22 10
-3.7008712 1.3178201 0.48235884 20 11
-0.97424644 0.34710518 -0.12698793 2 4
-3.7195134 1.3259224 0.62542516 4 12
-4.43467 1.5808594 -0.41189814 1 5
-4.071835 1.4523181 0.84032249 7 13
-3.6492655 1.3023163 -0.20306346 6 6
-3.6594965 1.3066876 0.8971048 20 14
-3.6476126 1.303162 -0.06761042 9 7
-3.6782649 1.3148369 1.0466642 35 15
-3.6474428 1.3095661 0.067645438 40 8
-3.655699 1.3139702 0.20358695 43 9
-3.6184344 1.3012903 0.33642098 25 10
-3.6719675 1.3219898 0.4791902 16 11
-1.0103813 0.36395893 -0.13186258 2 4
-3.6869869 1.3288511 0.62073207 6 12
-4.0648942 1.4658568 0.83994091 7 13
-3.6108801 1.3028452 -0.20117934 10 6
-3.6420825 1.3148218 0.89395547 15 14
-3.5790954 1.292789 -0.066423655 6 7
-3.6736531 1.3276685 1.0466644 33 15
-3.6332209 1.3195121 0.067470916 39 8
-3.6679842 1.332863 0.20452899 35 9
-3.5893002 1.3056885 0.33415493 12 10
-3.6447141 1.3272882 0.47626531 18 11
-4.4744697 1.6303419 -0.58472884 4 4
-3.6674781 1.3363022 0.61822915 6 12
-4.451323 1.6227893 -0.41451287 46 5
-4.0502729 1.4773819 0.83803296 9 13
-3.5835662 1.3078542 -0.19992329 15 6
-3.6280863 1.3248198 0.89170599 3 14
-3.5351145 1.2908705 -0.065690652 10 7
-3.6762543 1.3431358 1.0487349 32 15
-3.4861505 1.2792003 0.064818159 25 8
-3.6708081 1.3484132 0.20494767 32 9
-3.5735009 1.3140846 0.33310908 3 10
-3.6030331 1.3256584 0.47139058 14 11
-4.4466839 1.6369417 -0.58180451 12 4
-3.6368399 1.3395385 0.61384898 11 12
-4.4381533 1.6355618 -0.41381565 50 5
-4.0490346 1.4921625 0.8387965 7 13
-3.5454791 1.3072926 -0.19803919 24 6
-3.6620669 1.3510081 0.90115386 1 14
-3.4761841 1.2831215 -0.064678423 15 7
-3.6824172 1.3599751 1.0518408 32 15
-3.4704142 1.287189 0.064608723 36 8
-3.6588268 1.3577994 0.204529 42 9
-3.6606398 1.3599252 0.34165034 1 10
-3.5723352 1.3285391 0.46797821 15 11
-4.4204774 1.6448385 -0.57912338 21 4
-3.6212699 1.3474572 0.61197174 13 12
-4.4401736 1.6530509 -0.41451287 48 5
-4.0456414 1.5069716 0.83917809 7 13
-3.5128214 1.3091993 -0.19646914 30 6
-3.4606676 1.29045 -0.064468995 25 7
-3.6815069 1.3735296 1.052876 32 15
-3.4792347 1.3036019 0.064853065 31 8
-3.657805 1.3719647 0.20473833 53 9
-3.5549021 1.3354917 0.46627206 11 11
-4.4242892 1.6629807 -0.58034205 36 4
-3.5703204 1.342707 0.60415006 6 12
-4.4548883 1.676257 -0.41643023 49 5
-4.0442972 1.5217624 0.83994091 9 13
-3.4916382 1.314507 -0.19552708 26 6
-3.4262033 1.2912381 -0.063910522 30 7
-3.6857278 1.3897802 1.0554641 30 15
-3.4597025 1.3100727 0.064573817 28 8
-3.6604643 1.3875564 0.20515703 55 9
-3.5279489 1.3394372 0.4633472 12 11
-3.5397608 1.3453357 0.59976983 5 12
-4.4452858 1.6903812 -0.41608164 48 5
-4.0295177 1.5330857 0.8380329 9 13
-3.4755971 1.3230324 -0.19489904 26 6
-3.417937 1.3017664 -0.06384071 43 7
-3.6826591 1.4033262 1.0559818 30 15
-3.436202 1.3155953 0.064224772 31 8
-3.6665437 1.4052522 0.20578505 56 9
-3.5063367 1.3459563 0.46115354 13 11
-3.5218985 1.3533407 0.59757978 11 12
-4.4464989 1.7095225 -0.41677889 48 5
-3.8937743 1.4977994 0.810938 10 13
-3.4409006 1.324285 -0.19322428 26 6
-3.4224737 1.317878 -0.064015232 42 7
-3.6865048 1.4202862 1.05857 30 15
-3.4238982 1.3252926 0.064085156 43 8
-3.6727908 1.42237 0.20641308 47 9
-3.4773216 1.3494624 0.45798492 14 11
-4.4507494 1.7272257 -0.58619183 8 4
-3.4987388 1.3584765 0.59445113 13 12
-4.4497905 1.7286408 -0.41765043 20 5
-3.8629038 1.5014248 0.80559534 12 13
-3.4064739 1.3247051 -0.19154954 24 6
-3.406671 1.3254663 -0.063805804 37 7
-3.6905255 1.4366499 1.0611582 32 15
-3.4213469 1.3373675 0.064120062 45 8
-3.6568933 1.4301767 0.20578504 48 9
-3.439559 1.3479486 0.45359761 19 11
-3.4831803 1.3657439 0.59257388 19 12
-4.4421782 1.7426597 -0.41747609 4 5
-3.8670402 1.5178127 0.80750382 12 13
-3.3797536 1.3272337 -0.19029349 22 6
-3.4078403 1.3389497 -0.063910514 40 7
-3.700125 1.4545346 1.0652994 53 15
-3.4131732 1.3472377 0.06405025 45 8
-3.6593089 1.4458691 0.20620374 56 9
-3.4221497 1.3542343 0.45189148 18 11
-3.4416609 1.3633451 0.58631653 20 12
-3.854686 1.527735 0.80597693 10 13
-3.3641944 1.3340162 -0.18966547 17 6
-3.3882766 1.3449351 -0.063631274 42 7
-3.6986158 1.4688668 1.0663346 40 15
-3.4121644 1.3606249 0.064120062 45 8
-3.6709344 1.4652966 0.2071458 50 9
-3.4026556 1.3602757 0.44994155 18 11
-4.3479438 1.7390538 -0.57497931 2 4
-3.4167075 1.3672776 0.58287501 15 12
-4.3747206 1.7506496 -0.41224676 1 5
-3.7071664 1.4842614 0.77621114 9 13
-3.3446846 1.3398106 -0.18882808 12 6
-3.3779933 1.3545208 -0.063526563 43 7
-3.7006376 1.4846467 1.068405 45 15
-3.3962648 1.3680453 0.063910633 48 8
-3.3684363 1.3602524 0.44604176 18 11
-4.3197603 1.7452971 -0.57205445 4 4
-3.3990941 1.3740128 0.5806849 16 12
-3.6273415 1.4670136 0.76056486 7 13
-3.3325815 1.3484808 -0.18840937 7 6
-3.4735734 1.4062358 0.86516178 1 14
-3.3750978 1.3670555 -0.063561469 45 7
-3.6632049 1.4844954 1.0590876 13 15
-3.3951731 1.3813986 0.063980438 48 8
-3.3397722 1.3622565 0.44287318 19 11
-3.375989 1.3784026 0.57755619 19 12
-3.503814 1.4320202 0.73575932 7 13
-3.3128276 1.3546382 -0.18757202 5 6
-3.5044684 1.4337163 0.87415981 1 14
-3.3721557 1.3795857 -0.063596368 46 7
-3.6186671 1.4811736 1.0476996 5 15
-3.3937867 1.3953544 0.06405025 49 8
-4.2704692 1.7566735 0.24200155 1 9
-3.3072271 1.3631403 0.43921703 27 11
-4.6778669 1.9290324 -0.62128961 2 4
-3.352895 1.382648 0.57442749 41 12
-3.473388 1.4337549 0.73041666 10 13
-3.2859263 1.3570461 -0.18631595 1 6
-3.5786889 1.4786844 0.89395547 2 14
-3.3784089 1.3959304 -0.063805804 46 7
-3.5724132 1.4768203 1.0357939 3 15
-3.3928344 1.408134 0.064120062 27 8
-4.3343997 1.8006872 0.24597907 1 9
-3.31002 1.3771505 0.44019204 40 11
-4.4735169 1.8621452 -0.59496588 2 4
-3.3462248 1.393584 0.57411468 42 12
-4.4874697 1.8697912 -0.42532015 5 5
-3.4722383 1.4467753 0.73118025 10 13
-3.2961564 1.3740826 -0.18715334 1 6
-3.5719671 1.4897938 0.89350563 7 14
-3.3569064 1.4007833 -0.063491657 45 7
-3.3198338 1.3948479 0.44214195 37 11
-4.4523492 1.8715966 -0.59301597 17 4
-3.3288376 1.3993154 0.57192457 17 12
-4.4665518 1.8784827 -0.42392564 5 5
-3.3151619 1.3949275 0.6991244 3 13
-3.5793169 1.5075474 0.8966549 7 14
-3.3540857 1.4126837 -0.063526563 13 7
-3.2364926 1.3638207 0.94106621 21 15
-3.1824276 1.3462735 0.060315438 6 8
-3.318845 1.4073992 0.44262943 36 11
-3.2730193 1.3893143 0.56316423 6 12
-4.5351562 1.9259939 -0.43107244 1 5
-3.2165513 1.3660077 0.67928028 4 13
-3.5707109 1.5178838 0.89575505 9 14
-3.2228239 1.3713288 0.93847799 15 15
-3.1611583 1.3503046 0.060001295 11 8
-3.2409186 1.38772 0.43287987 6 11
-4.5581121 1.9526681 -0.60885948 14 4
-3.25544 1.3952836 0.56097412 6 12
-4.5393934 1.9465233 -0.43211836 5 5
-3.1919155 1.3687154 0.67508245 4 13
-3.5689723 1.5318761 0.8966549 9 14
-3.1953087 1.3721524 -0.060699284 28 7
-3.1545894 1.3605399 0.059966397 19 8
-3.4143224 1.4739726 0.19489917 1 9
-3.2884321 1.4209874 0.31341186 1 10
-3.225122 1.394298 0.43141744 7 11
-4.5166516 1.9535943 -0.60422796 2 4
-3.2396727 1.4019308 0.55909687 12 12
-4.5508547 1.9702727 -0.43386143 1 5
-3.1706636 1.3733832 0.67164749 5 13
-3.5633337 1.5449468 0.8966549 9 14
-3.1611447 1.3705707 -0.060140807 19 7
-3.261024 1.4145511 0.95245421 0 15
-3.1385822 1.3673004 0.059756968 22 8
-3.3053658 1.4420179 0.3155036 1 10
-3.2036169 1.3989604 0.42922378 15 11
-4.709558 2.0575545 -0.63103974 17 4
-3.227272 1.4106317 0.55784541 24 12
-3.5418522 1.5503429 0.89260578 10 14
-3.1377828 1.374126 -0.059791759 20 7
-3.1191463 1.3718073 0.059477728 24 8
-3.5008836 1.5418842 0.33467785 1 10
-3.2059798 1.413337 0.43019873 21 11
-3.220521 1.421091 0.55753261 35 12
-4.7411437 2.0920827 -0.45338434 33 5
-3.1879394 1.4073777 0.67737174 13 13
-3.5506787 1.5689983 0.89620507 7 14
-3.1165068 1.3777926 -0.059477616 22 7
-3.0850961 1.3697039 0.058919251 20 8
-3.5246086 1.5670469 0.33746684 6 10
-3.2046542 1.4261335 0.43068618 23 11
-3.1993012 1.4250894 0.55471677 15 12
-4.746552 2.1142933 -0.45460448 48 5
-3.138176 1.3985184 0.6678313 8 13
-3.5398417 1.5790006 0.89485532 9 14
-3.0915909 1.3796993 -0.059093665 20 7
-3.0656974 1.3739221 0.058640011 17 8
-3.0724173 1.3782208 0.17647691 1 9
-3.5300241 1.5842345 0.33851272 6 10
-3.1254141 1.403962 0.42069292 16 11
-4.7094812 2.1165245 -0.6339646 4 4
-3.1943073 1.4362485 0.55471677 8 12
-4.7482281 2.1349342 -0.45547602 46 5
-3.1261127 1.4062432 0.66630483 6 13
-3.5414159 1.5945476 0.8966549 9 14
-3.07217 1.3839122 -0.058814429 13 7
-3.0481296 1.378846 0.058395684 13 8
-3.0457537 1.3790523 0.17522085 2 9
-3.5281024 1.5981914 0.33886135 6 10
-3.0463693 1.3812534 0.41069964 23 11
-4.7255664 2.1436119 -0.63713264 42 4
-3.1910732 1.4482065 0.55502963 13 12
-4.7516327 2.1564362 -0.4565219 46 5
-3.1301236 1.4212044 0.66821289 5 13
-3.5340538 1.6060946 0.89620507 7 14
-3.0582192 1.3904886 -0.058639903 13 7
-3.0287454 1.3828326 0.058116443 4 8
-3.0227559 1.381374 0.17417413 2 9
-3.5297496 1.6138107 0.33955857 6 10
-3.0343089 1.3885746 0.40972471 25 11
-4.7631769 2.1807528 -0.64322668 63 4
-3.1446917 1.4404162 0.54783362 13 12
-4.7585678 2.1796472 -0.45791641 44 5
-3.123359 1.4313043 0.6678313 8 13
-3.5337398 1.6208574 0.8975547 9 14
-3.0369895 1.3936493 -0.058325764 13 7
-3.0148189 1.3892121 0.057941917 5 8
-3.0254135 1.394735 0.17459281 2 9
-3.5222864 1.6252865 0.33938426 6 10
-3.0132239 1.3916669 0.40753102 29 11
-4.730309 2.1857071 -0.63981378 48 4
-3.1165867 1.4400644 0.54376638 13 12
-4.7473135 2.1945724 -0.45756778 45 5
-3.1023064 1.4347812 0.66439676 15 13
-3.5121446 1.625815 0.89350563 9 14
-3.0015018 1.3894322 -0.057732388 34 7
-3.0392098 1.4126885 0.058500398 1 8
-2.9915526 1.3918073 0.17291805 2 9
-3.5165911 1.6375728 0.33938426 6 10
-2.9923978 1.3941069 0.40533739 16 11
-4.7338295 2.2064142 -0.64127678 48 4
-3.1097503 1.4501007 0.54345351 15 12
-4.7540689 2.2178693 -0.45896229 44 5
-3.0655062 1.4301207 0.65752804 12 13
-3.5243912 1.645698 0.89800465 9 14
-3.0075035 1.4049791 -0.057941809 53 7
-2.9962413 1.4054554 0.057767395 5 8
-2.9830608 1.4005432 0.17270872 2 9
-3.5111418 1.6492244 0.33938426 6 10
-4.7440615 2.2313752 -0.64371359 55 4
-3.0778584 1.4483306 0.53876042 11 12
-4.7502928 2.2353187 -0.45931089 44 5
-3.001879 1.4132165 0.64493418 9 13
-3.5239136 1.6604824 0.89935434 9 14
-3.0152428 1.4214368 -0.058186144 15 7
-3.1450915 1.4833217 0.93174863 0 15
-3.0509622 1.4441388 0.058919251 1 8
-2.9528842 1.3989757 0.1712433 2 9
-3.5197661 1.6682982 0.34077877 6 10
-3.0202563 1.4328309 0.41045591 1 11
-4.7416239 2.2504752 -0.64444482 48 4
-3.0478024 1.4472026 0.53438026 10 12
-4.7694592 2.2647049 -0.46192557 24 5
-2.9827409 1.4169471 0.64188123 11 13
-3.5057769 1.6669147 0.89620507 7 14
-3.0048451 1.4293773 -0.058081437 8 7
-3.0352318 1.4444816 0.9006905 0 15
-3.0386851 1.4513319 0.058779631 1 8
-2.9515867 1.4109976 0.17145264 5 9
-3.5175166 1.6822929 0.34112737 7 10
-4.7283683 2.2644393 -0.64371419 48 4
-2.9857259 1.4305198 0.52436846 7 12
-2.9813175 1.4290483 0.64264452 11 13
-3.5069652 1.6825141 0.89800477 7 14
-3.0893815 1.4834993 0.91829008 0 15
-2.9466434 1.4212921 0.17145264 3 9
-3.4969728 1.6882443 0.33973289 6 10
-4.7472463 2.2938862 -0.64736974 53 4
-2.9718215 1.4366344 0.52280408 10 12
-2.9619217 1.4331244 0.63959193 16 13
-3.5007744 1.6953562 0.89800465 7 14
-3.1780658 1.5397595 0.94624257 1 15
-2.9994502 1.4590435 0.058221158 1 8
-2.9452562 1.4333172 0.171662 2 9
-3.4946408 1.7021858 0.34008151 6 10
-4.7548637 2.319102 -0.64956331 48 4
-2.963238 1.4452677 0.52217841 12 12
-4.7683558 2.3267126 -0.46419168 2 5
-2.9427874 1.4365649 0.63653862 23 13
-3.508842 1.7144097 0.90160376 7 14
-3.1674647 1.5482985 0.94468957 8 15
-2.9425311 1.4434415 0.057208918 5 8
-2.9689202 1.4576733 0.17333674 2 9
-3.4958305 1.717889 0.34077877 7 10
-4.7631793 2.3427422 -0.65175694 51 4
-2.9581752 1.4556025 0.52217841 22 12
-2.9256778 1.4402461 0.63386738 16 13
-3.5031376 1.7260362 0.90160376 7 14
-2.9558971 1.4570457 -0.057522956 1 7
-3.1707034 1.5636185 0.94727778 16 15
-2.9530756 1.4627082 0.17270871 2 9
-3.5008259 1.7347801 0.34182462 7 10
-4.7585287 2.3611193 -0.65224445 53 4
-2.94069 1.4597713 0.51998824 16 12
-4.7934542 2.3794913 -0.46820083 39 5
-2.9505243 1.4652941 0.64035481 16 13
-3.4866211 1.7330496 0.89890438 7 14
-2.9507928 1.4673555 -0.057522956 1 7
-3.1617675 1.5729554 0.94624257 12 15
-2.9801116 1.4890769 0.17459282 2 9
-3.5018773 1.7505531 0.34252188 7 10
-4.7555833 2.3803811 -0.65297568 51 4
-2.9532397 1.4788716 0.52311695 17 12
-4.8082786 2.4078054 -0.47046685 49 5
-2.9524126 1.4791028 0.64188135 16 13
-3.4805505 1.745209 0.89890438 7 14
-2.9242039 1.4668865 -0.057104096 1 7
-3.1597104 1.5857154 0.94727778 12 15
-2.9608874 1.4917618 0.17375542 2 9
-3.4779558 1.7537948 0.34077877 6 10
-4.7561064 2.4014382 -0.65419436 46 4
-2.9571362 1.4931086 0.52468127 16 12
-4.780282 2.4146934 -0.46854943 46 5
-2.959497 1.4955982 0.64455265 17 13
-3.4813931 1.7608669 0.90070403 7 14
-3.1475399 1.592696 0.9452073 10 15
-2.9805894 1.5147573 0.17522085 2 9
-3.4824677 1.7713443 0.34182462 6 10
-4.7799592 2.4334087 -0.65858233 53 4
-2.9571869 1.5061115 0.52561992 15 12
-4.7860255 2.4386024 -0.46994394 48 5
-2.945775 1.5009477 0.64264458 16 13
-3.4824789 1.7759424 0.90250361 7 14
-3.1436818 1.6045517 0.94572496 9 15
-2.9859481 1.530618 0.17584887 2 9
-3.4765747 1.7828829 0.34182462 7 10
-4.7767334 2.4527996 -0.65931284 48 4
-2.9677248 1.5245491 0.52843571 16 12
-4.7956347 2.4635644 -0.47168702 46 5
-2.9527409 1.5175023 0.64531589 15 13
-3.476258 1.7880887 0.90250361 7 14
-3.1466501 1.6199359 0.94831318 12 15
-2.9805868 1.5410316 0.17584887 2 9
-3.4827178 1.8014151 0.34304482 6 10
-4.7681422 2.4694586 -0.65931284 48 4
-2.9676468 1.5376257 0.52937436 15 12
-4.7923131 2.4830394 -0.47221002 46 5
-2.9613702 1.5350282 0.64836884 15 13
-3.4630761 1.7966226 0.90070403 7 14
-3.1478341 1.6344718 0.95038366 12 15
-2.989357 1.5588143 0.17668624 2 9
-3.4870076 1.8190897 0.34409067 6 10
-4.7753282 2.4943604 -0.66150647 46 4
-2.9622617 1.5479746 0.5293743 15 12
-4.7977438 2.5071332 -0.47360447 46 5
-2.9681723 1.5517229 0.65104014 13 13
-3.456784 1.8086994 0.90070403 7 14
-3.1472435 1.6481384 0.9519366 13 15
-3.0978377 1.6277812 0.061083347 1 8
-2.9768269 1.5655204 0.17626756 2 9
-3.4771097 1.829396 0.34374204 6 10
-4.7736177 2.514714 -0.66248143 44 4
-2.9655783 1.5629107 0.53093874 13 12
-4.7977757 2.5285101 -0.47447601 46 5
-2.9644749 1.5629894 0.65142179 15 13
-3.4607899 1.8262115 0.90340334 7 14
-3.1295137 1.6527984 0.94831318 12 15
-2.9925172 1.5871325 0.17752363 2 9
-3.4583826 1.8349854 0.34252188 6 10
-4.777082 2.5378811 -0.66418827 42 4
-2.9653375 1.5760332 0.53187728 15 12
-4.7977171 2.549916 -0.47534752 45 5
-2.957267 1.5724068 0.65104014 15 13
-3.457835 1.840112 0.90430319 7 14
-3.1169047 1.6600798 0.94624251 11 15
-4.9172106 2.6299598 0.29224408 2 9
-3.4572265 1.8498653 0.34304479 6 10
-4.7786927 2.5601656 -0.66565007 42 4
-2.9737465 1.5938408 0.53438026 12 12
-4.7993236 2.5722964 -0.47639346 45 5
-2.9621415 1.5882865 0.65332985 15 13
-3.4582591 1.8558568 0.90610278 7 14
-3.1196005 1.6755202 0.94883078 11 15
-4.8833904 2.6338336 0.2907787 8 9
-3.457762 1.8657067 0.34374204 7 10
-4.7714739 2.5777733 -0.66589439 40 4
-2.975116 1.6079686 0.53563178 13 12
-4.8025842 2.595665 -0.47761366 42 5
-2.9634871 1.6023517 0.65485668 13 13
-3.4483325 1.8660625 0.90520316 7 14
-3.1171305 1.6882397 0.949866 13 15
-4.8811851 2.6546807 0.29119736 13 9
-3.47048 1.8882396 0.34565946 4 10
-4.7763915 2.6020112 -0.6678443 38 4
-2.969485 1.6183439 0.53563178 12 12
-4.8039908 2.6181335 -0.47865948 42 5
-2.9682183 1.6183246 0.65714598 15 13
-3.4400866 1.8771545 0.90475309 9 14
-3.1129136 1.7000362 0.9503836 11 15
-4.9016595 2.6880293 0.29297677 27 9
-3.4586267 1.8974683 0.34513655 1 10
-4.786418 2.6291811 -0.67052543 42 4
-2.9620867 1.6277473 0.53531885 12 12
-4.8070459 2.6416025 -0.47987965 44 5
-2.9728734 1.6343505 0.65943605 15 13
-3.435221 1.89009 0.90520304 9 14
-2.8379838 1.5621307 -0.056545623 1 7
-3.1086531 1.7118239 0.95090133 11 15
-4.9044805 2.711889 0.29370946 30 9
-2.7162058 1.5037594 0.38120729 1 11
-4.7963147 2.6564519 -0.67320597 44 4
-2.9753935 1.6486084 0.53876042 12 12
-4.811738 2.6660917 -0.48127416 44 5
-2.9723015 1.6475742 0.66058093 13 13
-3.411562 1.8926162 0.90070403 2 14
-2.8325136 1.5720277 -0.056545623 1 7
-3.10097 1.7217263 0.95038366 12 15
-4.9194078 2.7426074 0.2951749 40 9
-2.6832068 1.4977503 0.37730744 1 11
-4.7991447 2.6799531 -0.67491215 42 4
-2.9299564 1.636827 0.53156447 13 12
-4.8163161 2.6906464 -0.4826687 45 5
-2.9870977 1.6694323 0.66516036 17 13
-3.4746656 1.9435177 0.91915005 1 14
-2.8270092 1.5819048 -0.056545623 1 7
-3.1016839 1.736315 0.95245427 10 15
-4.8993578 2.7538908 0.29454684 40 9
-2.8198185 1.5869414 0.39729401 1 11
-4.79495 2.6996107 -0.67564332 44 4
-2.6557269 1.4958143 0.48275691 23 12
-4.8207827 2.7152627 -0.48406309 45 5
-2.9744108 1.6759942 0.66363394 13 13
-2.82147 1.5917634 -0.056545623 1 7
-3.0989685 1.7490312 0.95348954 12 15
-4.903616 2.7788537 0.29538423 40 9
-2.910948 1.6516333 0.41094339 4 11
-4.8027611 2.726131 -0.67808074 44 4
-2.5766258 1.4631325 0.46930355 27 12
-4.8251362 2.7399449 -0.48545769 46 5
-2.9890263 1.6980033 0.66821289 16 13
-3.099561 1.7636589 0.95556003 12 15
-4.9146967 2.8078418 0.29664028 40 9
-2.915504 1.6676974 0.41240585 6 11
-4.8104453 2.7527387 -0.68051809 46 4
-2.5595024 1.4652479 0.46711344 31 12
-4.8259172 2.7627106 -0.48650354 45 5
-3.0035255 1.7201344 0.67279279 16 13
-2.8102887 1.6114222 -0.056545623 1 7
-3.085007 1.7696614 0.95297188 12 15
-4.9157443 2.8301036 0.29726833 41 9
-2.9131036 1.6798483 0.41289327 6 11
-4.8116083 2.7746255 -0.68198055 44 4
-2.5529184 1.4727403 0.4668006 37 12
-4.8231468 2.7835217 -0.48720074 46 5
-2.9856007 1.7237376 0.67012143 13 13
-3.0757766 1.7779485 0.9519366 12 15
-4.9270639 2.8584168 0.29852441 39 9
-2.9006519 1.6855093 0.41191834 7 11
-4.8143954 2.7975464 -0.68368673 42 4
-2.5258191 1.4682921 0.46273327 24 12
-4.8311129 2.8095167 -0.48894387 45 5
-2.9832623 1.7356036 0.67088431 15 13
-3.0848873 1.7968893 0.95659524 13 15
-4.9222279 2.8786228 0.29883841 33 9
-2.9001858 1.6981282 0.41264954 7 11
-4.8165898 2.8213592 -0.68539351 40 4
-2.5036356 1.4671123 0.45960459 9 12
-4.8436208 2.8394623 -0.49120992 46 5
-2.9978144 1.7574004 0.67546403 16 13
-3.0686007 1.801778 0.95348948 11 15
-2.8959498 1.7092505 0.41289327 6 11
-4.8118424 2.8411815 -0.68612415 42 4
-4.8422556 2.8614221 -0.49208146 45 5
-3.0031831 1.7753698 0.6781354 17 13
-3.072268 1.8183814 0.9565953 13 15
-2.8947833 1.722899 0.4136245 6 11
-4.8201575 2.8699706 -0.68880522 38 4
-2.535501 1.5102624 0.46742627 1 12
-4.8425088 2.8844237 -0.49312732 13 5
-3.013833 1.7958919 0.68195117 17 13
