# .PCD v0.7 - Point Cloud Data file format
VERSION 0.7
FIELDS x y z intensity ring
SIZE 4 4 4 4 2
TYPE F F F F U
COUNT 1 1 1 1 1
WIDTH 1245
HEIGHT 1
VIEWPOINT 0 0 0 1 0 0 0
POINTS 1245
DATA ascii
-2.1419303 -3.6261404 0.66703665 52 12
-2.1853426 -3.6981599 -0.37581569 1 5
-2.1340394 -3.6099038 0.81513619 49 13
-2.1584263 -3.6497016 -0.22221836 23 6
-2.1413441 -3.6193755 0.97088867 42 14
-2.1535516 -3.6400092 -0.073823445 53 7
-2.1362038 -3.6092496 1.1237923 62 15
-2.1588817 -3.6345251 0.07378868 58 8
-2.1483328 -3.6138926 0.22033446 58 9
-2.1970289 -3.6958082 -0.83574355 1 2
-2.1488159 -3.6132691 0.36779696 58 10
-2.2361324 -3.7586002 -0.69269174 1 3
-2.1513395 -3.6146405 0.51648217 45 11
-2.166327 -3.6369328 0.67047817 54 12
-2.1941607 -3.6836617 -0.37511846 1 5
-2.1556737 -3.6176116 0.81857032 52 13
-2.1731999 -3.6455765 -0.22242774 34 6
-2.1559625 -3.6152256 0.97178853 42 14
-2.1750755 -3.6458292 -0.074102685 53 7
-2.15833 -3.6163259 1.1284512 68 15
-2.1797721 -3.6406927 0.074067913 60 8
-2.167093 -3.6166511 0.22096249 58 9
-2.2240427 -3.7116938 -0.84108621 1 2
-2.1696098 -3.6194184 0.3691915 56 10
-2.249238 -3.750772 -0.69269174 1 3
-2.1700709 -3.6173236 0.51794469 46 11
-2.1779916 -3.627656 0.67016536 52 12
-2.2254648 -3.7067273 -0.37825599 1 5
-2.178396 -3.6268954 0.8223865 52 13
-2.1972265 -3.6568007 -0.22357912 36 6
-2.1725838 -3.6143594 0.97358811 42 14
-2.1908791 -3.6433558 -0.074207388 52 7
-2.1779099 -3.6203578 1.1320746 65 15
-2.1986675 -3.6433339 0.074277341 60 8
-2.1879654 -3.6227405 0.22179982 58 9
-2.2735252 -3.7644067 -0.85482442 1 2
-2.180171 -3.6084116 0.36884284 56 10
-2.262316 -3.7428985 -0.69269174 1 3
-2.193984 -3.6284115 0.52062577 47 11
-2.1926877 -3.6234109 0.67079109 52 12
-2.1961279 -3.6276662 0.82429463 52 13
-2.2141175 -3.655942 -0.22399783 38 6
-2.1952858 -3.62342 0.97808713 42 14
-2.2077308 -3.6425264 -0.074347019 50 7
-2.1925383 -3.6160367 1.1331098 65 15
-2.2134492 -3.6390541 0.074347161 60 8
-2.2109826 -3.6321423 0.22284657 58 9
-2.2499008 -3.6960762 -0.84108609 1 2
-2.2010429 -3.6143937 0.37023735 56 10
-2.2815349 -3.7451003 -0.69456893 1 3
-2.2159324 -3.6359866 0.52281934 52 11
-2.2156079 -3.6326003 0.67391986 54 12
-2.2138891 -3.6283574 0.82620311 52 13
-2.2320676 -3.6567147 -0.22452118 57 6
-2.211982 -3.6223881 0.97988671 42 14
-2.2298136 -3.6501567 -0.074661158 53 7
-2.2132053 -3.6215484 1.1372509 62 15
-2.2324085 -3.641535 0.074556582 58 8
-2.2278244 -3.6312125 0.22326526 60 9
-2.2627881 -3.6882007 -0.84108609 1 2
-2.2240689 -3.6236682 0.37198049 58 10
-2.3152649 -3.7707813 -0.70082635 1 3
-2.2254934 -3.6231556 0.52208817 46 11
-2.2344806 -3.6349416 0.6757971 54 12
-2.231684 -3.628969 0.82811123 52 13
-2.2510982 -3.6591072 -0.2251492 23 6
-2.2307425 -3.6246016 0.98258615 42 14
-2.2498808 -3.6542697 -0.074905492 52 7
-2.2359657 -3.630249 1.1424273 62 15
-2.253516 -3.6473296 0.074835822 58 8
-2.2467895 -3.6336055 0.22389328 58 9
-2.31282 -3.7403929 -0.85482442 1 2
-2.2450891 -3.6294391 0.373375 56 10
-2.3284144 -3.7626762 -0.70082641 1 3
-2.2402184 -3.618741 0.52257574 46 11
-2.2617209 -3.6506281 0.68017727 57 12
-2.2546799 -3.6378448 0.831927 54 13
-2.247489 -3.6234176 0.98438573 42 14
-2.2700028 -3.658289 -0.075149834 53 7
-2.2557554 -3.6339123 1.1460508 58 15
-2.2740514 -3.6534183 0.075115062 58 8
-2.2581928 -3.6265292 0.22389327 56 9
-2.3252101 -3.7327032 -0.85482442 1 2
-2.2655416 -3.6355021 0.37476951 56 10
-2.3241575 -3.7281134 -0.69582039 1 3
-2.2669115 -3.6348734 0.52598798 47 11
-2.268995 -3.6368008 0.67892563 57 12
-2.2667303 -3.6303484 0.831927 51 13
-1.3458903 -2.1547129 -0.13314264 1 6
-2.2677548 -3.6291654 0.98798501 43 14
-2.2867839 -3.6596181 -0.075324349 52 7
-2.27228 -3.6349988 1.1486391 56 15
-2.3010275 -3.6695745 0.075603724 60 8
-2.2835789 -3.6389253 0.22514933 56 9
-2.3382266 -3.7245634 -0.85482442 1 2
-2.2782187 -3.6275711 0.37476951 56 10
-2.3638239 -3.7638788 -0.70395499 1 3
-2.2874024 -3.6407828 0.52793795 47 11
-2.2900889 -3.6422365 0.68142861 57 12
-2.2892108 -3.6394298 0.83574319 51 13
-1.3296275 -2.1130481 -0.13083987 1 6
-2.2860053 -3.6315205 0.99068433 42 14
-2.307003 -3.6634588 -0.075568691 53 7
-2.2880445 -3.6319475 1.1501919 58 15
-2.3106177 -3.6564496 0.075499013 56 8
-2.3090768 -3.6511889 0.22640541 55 9
-2.350564 -3.7167895 -0.85482442 1 2
-2.2955608 -3.6284149 0.37564099 58 10
-2.391737 -3.7789733 -0.70833516 1 3
-2.3107152 -3.6495483 0.53037536 46 11
-2.3144181 -3.652575 0.68487018 55 12
-2.3008485 -3.6297586 0.83536148 51 13
-1.328438 -2.0949004 -0.13000248 2 6
-2.3070183 -3.6366839 0.99428362 43 14
-2.3283477 -3.668891 -0.075847924 53 7
-2.3089912 -3.636987 1.1543331 58 15
-2.3330352 -3.6635413 0.075813152 58 8
-2.3282475 -3.6532123 0.22703345 55 9
-2.364172 -3.7081487 -0.85482442 1 2
-2.3206303 -3.6384542 0.37755841 56 10
-2.4055727 -3.7701812 -0.70833516 1 3
-2.3223734 -3.6397851 0.53013152 46 11
-2.3324709 -3.6527987 0.68643463 54 12
-2.3204811 -3.6312268 0.83765119 51 13
-1.3468654 -2.1068447 -0.13104919 1 6
-2.3266323 -3.6380537 0.99698305 43 14
-2.3529923 -3.6792715 -0.076231867 55 7
-2.3279207 -3.6386685 1.157439 58 15
-2.356169 -3.6701112 0.076127298 55 8
-2.3437817 -3.6480145 0.22724277 55 9
-2.3771007 -3.6998742 -0.85482442 1 2
-2.344089 -3.6470931 0.37930161 55 10
-2.4571779 -3.8215775 -0.71959841 1 3
-2.3399928 -3.6379275 0.53110641 46 11
-2.3576035 -3.6624961 0.68987608 54 12
-2.3437705 -3.6396108 0.8414678 49 13
-1.3866602 -2.1525013 -0.13418935 1 6
-2.3445947 -3.6381001 0.99923253 46 14
-2.3740461 -3.6823883 -0.076476216 53 7
-2.3496168 -3.6430998 1.16158 68 15
-2.3754818 -3.6719384 0.076336719 55 8
-2.3641002 -3.651546 0.22797547 53 9
-2.3633046 -3.648921 0.38034743 53 10
-2.4705017 -3.8129778 -0.71959841 1 3
-2.3656349 -3.6497262 0.53403133 46 11
-2.3757482 -3.6625311 0.69144052 52 12
-2.3671489 -3.6478758 0.84528357 48 13
-1.4528906 -2.2381101 -0.13984163 4 6
-2.3636491 -3.6396999 1.001932 46 14
-2.3868861 -3.674078 -0.076476201 53 7
-2.3696892 -3.646214 1.1652035 62 15
-2.3948383 -3.6736748 0.076546155 53 8
-2.3838325 -3.6553972 0.22870818 55 9
-2.3782043 -3.6439865 0.38069603 53 10
-2.387044 -3.6547432 0.53598124 43 11
-2.3889616 -3.6562853 0.69175321 51 12
-2.3895373 -3.6543801 0.84871817 48 13
-1.463974 -2.2380397 -0.14015567 5 6
-2.3848748 -3.6444721 1.0055311 45 14
-2.4056256 -3.6761825 -0.07668563 55 7
-2.3859992 -3.6448016 1.1672741 65 15
-2.4135921 -3.6757429 0.076755583 53 8
-2.4075453 -3.6637459 0.22975489 51 9
-2.3974776 -3.6456518 0.38174191 55 10
-2.4963987 -3.7960732 -0.71959841 1 3
-2.4089689 -3.6617334 0.53817493 45 11
-2.4082286 -3.6578231 0.69363052 51 12
-2.4038017 -3.6497159 0.8494814 46 13
-1.471387 -2.2331729 -0.14015566 7 6
-2.403383 -3.6463053 1.0082306 48 14
-2.4294508 -3.6844585 -0.077034689 53 7
-2.4050908 -3.6461258 1.1703798 62 15
-2.4286163 -3.6706305 0.076825403 55 8
-2.4291422 -3.668642 0.23059231 52 9
-2.4205573 -3.6542909 0.38348502 52 10
-2.4239304 -3.656611 0.53866243 45 11
-2.4351778 -3.6707947 0.69769794 52 12
-2.4241269 -3.6527522 0.85215271 48 13
-1.4703363 -2.2147112 -0.13931829 13 6
-2.4311898 -3.6606214 1.0145292 46 14
-2.4478312 -3.6842828 -0.077209212 52 7
-2.4274268 -3.6521888 1.1750386 68 15
-2.4502873 -3.6754417 0.077104636 53 8
-2.4419322 -3.6601405 0.23059228 51 9
-2.4427848 -3.6586514 0.38487953 55 10
-2.5629973 -3.8372478 -0.73086172 1 3
-2.4421918 -3.6563816 0.53988111 43 11
-2.4556596 -3.6737683 0.69988799 51 12
-2.4451389 -3.6552665 0.85482407 49 13
-1.4773335 -2.2076471 -0.13921361 18 6
-2.4467573 -3.6549251 1.015429 45 14
-2.4717999 -3.6923332 -0.077558249 50 7
-2.4487596 -3.6565354 1.1791798 68 15
-2.4726651 -3.6797135 0.077383861 55 8
-2.4658372 -3.6681693 0.23163903 51 9
-2.4666629 -3.6666327 0.38662261 53 10
-2.5366726 -3.76928 -0.71959841 1 3
-2.4622293 -3.6572852 0.54134351 43 11
-2.4728832 -3.6717269 0.70113939 49 12
-2.4699538 -3.6646161 0.85902178 51 13
-1.4861468 -2.204133 -0.13931829 19 6
-2.4660401 -3.656055 1.0181284 45 14
-2.4846747 -3.683682 -0.077558249 50 7
-2.4733953 -3.6655796 1.1848737 65 15
-2.49382 -3.6847429 0.077663101 55 8
-2.4853458 -3.669462 0.23226704 51 9
-2.4794459 -3.6580005 0.38662261 52 10
-2.4865978 -3.6671736 0.54402465 45 11
-2.5853009 -3.8113062 -0.56547403 2 4
-2.49123 -3.6712456 0.70270377 52 12
-2.4931185 -3.6726494 0.86283797 51 13
-1.4945694 -2.2008452 -0.13942295 15 6
-2.4880054 -3.6623654 1.0221776 43 14
-2.5042613 -3.6849103 -0.077767678 47 7
-2.4883468 -3.6601191 1.1859089 65 15
-2.5134273 -3.6859272 0.077872522 55 8
-2.5110056 -3.6809995 0.23352309 54 9
-2.5895102 -3.7946563 -0.8929863 1 2
-2.496057 -3.6563394 0.38731983 55 10
-2.5094626 -3.6732228 0.54621828 43 11
-2.627712 -3.8448696 -0.57181066 2 4
-2.5145376 -3.6792727 0.70583242 52 12
-2.5092492 -3.6687849 0.86398286 49 13
-2.5117824 -3.669739 1.0266765 42 14
-2.5300217 -3.6963871 -0.078186534 45 7
-2.5070205 -3.6614108 1.1890148 65 15
-2.5324285 -3.6874638 0.078081973 55 8
-2.5283656 -3.6787951 0.23394176 51 9
-2.5223532 -3.6673043 0.38941163 55 10
-2.5227542 -3.6665173 0.54646206 45 11
-2.6336939 -3.8263242 -0.57034826 2 4
-2.5340865 -3.6802356 0.70770973 52 12
-2.5291967 -3.671762 0.86665416 51 13
-2.5316789 -3.672621 1.0298259 45 14
-2.5508549 -3.6990573 -0.078430869 50 7
-2.531852 -3.6701295 1.1947089 60 15
-2.561213 -3.7016237 0.078570627 56 8
-2.5434647 -3.6732321 0.23415114 49 9
-2.5458448 -3.6752985 0.39115471 53 10
-2.5434532 -3.6691093 0.54816824 45 11
-2.6244111 -3.784482 -0.56547403 2 4
-2.5581784 -3.6875978 0.71083844 54 12
-2.5464749 -3.6693635 0.86818069 48 13
-2.5489309 -3.6701629 1.0316255 45 14
-2.5774441 -3.709837 -0.078849725 50 7
-2.5523665 -3.6723733 1.1983323 56 15
-2.5764067 -3.6959412 0.078640439 53 8
-2.5676994 -3.6807108 0.23519784 51 9
-2.5707045 -3.6822789 0.39289787 53 10
-2.5676122 -3.6764827 0.55060565 46 11
-2.6671641 -3.8176079 -0.57181066 2 4
-2.5732965 -3.6818833 0.71146405 52 12
-2.5711598 -3.6760926 0.87199688 51 13
-2.5668344 -3.6671824 1.0334251 46 14
-2.5892305 -3.6991794 -0.078814819 50 7
-2.5751419 -3.6776845 1.2029911 60 15
-2.6037297 -3.7061093 0.07905931 55 8
-2.592659 -3.6876144 0.23624459 49 9
-2.6422377 -3.7581317 -0.89298624 1 2
-2.5835416 -3.6732836 0.39289787 53 10
-2.589067 -3.6784103 0.55231172 45 11
-2.5981488 -3.6885774 0.71459275 54 12
-2.5952835 -3.6831439 0.87581348 48 13
-2.5886037 -3.6709421 1.0370245 48 14
-2.6142974 -3.7060053 -0.079163864 50 7
-2.5908325 -3.6713774 1.2040263 58 15
-2.6189618 -3.7002614 0.079129107 52 8
-2.615906 -3.6932094 0.23718661 49 9
-2.6055636 -3.6772473 0.39429232 52 10
-2.6110783 -3.6823044 0.55426168 42 11
-2.6201551 -3.692373 0.71709573 52 12
-2.6103981 -3.677263 0.87657666 48 13
-2.6149457 -3.6809471 1.0424232 49 14
-2.6388028 -3.7131572 -0.079512917 50 7
-2.6159439 -3.6796312 1.2097201 62 15
-2.643471 -3.7073796 0.079478152 53 8
-2.6380615 -3.6970625 0.23802398 48 9
-2.7094624 -3.7971258 -0.90672445 1 2
-2.6276436 -3.6811035 0.39568681 53 10
-2.6285305 -3.6796293 0.55523664 45 11
-2.644515 -3.699275 0.72022444 52 12
-2.6312118 -3.6793082 0.87924755 46 13
-2.6345825 -3.6813052 1.0451225 49 14
-2.6610596 -3.7169311 -0.079792142 50 7
-2.6400223 -3.6861835 1.2148968 62 15
-2.6680613 -3.714371 0.079827197 52 8
-2.6532838 -3.6910748 0.23823336 49 9
-2.7547874 -3.8322802 -0.91740984 1 2
-2.6567631 -3.6945543 0.3981272 52 10
-2.6552742 -3.6897659 0.5581615 45 11
-2.6689565 -3.7060502 0.72335309 52 12
-2.6589582 -3.6908083 0.88420904 43 13
-1.2985342 -1.8017873 -0.11639513 1 6
-2.6565349 -3.684732 1.0487218 49 14
-2.6868863 -3.7254598 -0.0801761 50 7
-2.658524 -3.6847789 1.217485 68 15
-2.6868732 -3.713135 0.080001727 48 8
-2.6778653 -3.6979678 0.23928005 48 9
-2.7243907 -3.7622168 -0.90290827 1 2
-2.6743178 -3.6917124 0.39882442 52 10
-2.6751275 -3.6901186 0.55962396 42 11
-2.686516 -3.7031076 0.72460455 52 12
-2.6810503 -3.6942167 0.88726157 41 13
-1.2790004 -1.7616867 -0.11409234 2 6
-2.6762509 -3.6848974 1.0514212 48 14
-2.699873 -3.7160583 -0.080176093 50 7
-2.6838629 -3.6926668 1.2231789 65 15
-2.7092407 -3.7166612 0.08028096 52 8
-2.7013521 -3.7031198 0.24022216 49 9
-2.6918852 -3.6887934 0.39952168 48 10
-2.6985297 -3.6951857 0.56181759 42 11
-2.7087517 -3.7064657 0.72710752 49 12
-2.7078342 -3.7038531 0.89184093 38 13
-1.2875007 -1.7604355 -0.1143017 3 6
-2.7006049 -3.6912601 1.0559202 49 14
-2.7222776 -3.7195206 -0.08045534 50 7
-2.7024436 -3.6910689 1.2257671 68 15
-2.7269328 -3.7136278 0.080420576 52 8
-2.7237227 -3.7065437 0.24105951 49 9
-2.7165468 -3.6954267 0.40126479 48 10
-2.725527 -3.7049325 0.56474245 40 11
-2.7333837 -3.7128966 0.73023629 51 12
-2.7195816 -3.6927984 0.89145935 42 13
-1.2971914 -1.7607547 -0.11461571 5 6
-2.7273464 -3.7006359 1.061319 46 14
-2.7471101 -3.7260911 -0.080804393 50 7
-2.7221904 -3.6909418 1.2288729 72 15
-2.7493923 -3.716949 0.080699831 52 8
-2.7509029 -3.7162774 0.24231556 49 9
-2.7412853 -3.7019339 0.40300789 48 10
-2.7408075 -3.6985848 0.56522995 40 11
-2.7616248 -3.7239585 0.73430353 52 12
-2.744153 -3.6990492 0.89527553 44 13
-1.2914268 -1.7401778 -0.11356899 12 6
-2.7541881 -3.7098691 1.066718 45 14
-2.7696395 -3.729322 -0.081083633 48 7
-2.7431233 -3.6922715 1.2324965 65 15
-2.773649 -3.7238474 0.081048869 57 8
-2.765599 -3.7103357 0.24252486 51 9
-2.7606936 -3.7024062 0.40405378 50 10
-2.7578053 -3.6958401 0.56620491 40 11
-2.7822311 -3.7258599 0.73649359 51 12
-2.7681534 -3.7056584 0.89909166 41 13
-1.2983865 -1.7374852 -0.11367366 22 6
-2.7711415 -3.7069588 1.0685174 45 14
-2.7975588 -3.7409358 -0.081537388 45 7
-2.7738674 -3.7079058 1.2407787 62 15
-2.803431 -3.7365372 0.081537537 54 8
-2.7833302 -3.7070496 0.2429436 52 9
-2.7879584 -3.7118642 0.40614551 52 10
-2.7826166 -3.7020607 0.56864232 41 11
-2.8023436 -3.7255979 0.73837078 51 12
-2.7869728 -3.7038169 0.90100032 44 13
-1.2852249 -1.7074114 -0.11199892 32 6
-2.7910969 -3.7066045 1.0712169 45 14
-2.8166153 -3.7391348 -0.081711911 43 7
-2.7949331 -3.7090001 1.2444023 60 15
-2.8261037 -3.7394907 0.081816778 54 8
-2.8131208 -3.7196121 0.24440899 49 9
-2.800899 -3.7021093 0.40614551 50 10
-2.809902 -3.7113156 0.57156712 40 11
-2.8248758 -3.7283881 0.74087375 52 12
-2.8164887 -3.715971 0.90634257 44 13
-1.3020378 -1.7172379 -0.11294097 9 6
-2.8134408 -3.7092597 1.0748161 48 14
-2.8344862 -3.7356517 -0.081851542 43 7
-2.8148694 -3.7084541 1.2475078 60 15
-2.8415611 -3.7327855 0.081886582 56 8
-2.8381898 -3.7256579 0.24545573 51 9
-2.8282959 -3.7113266 0.40823722 48 10
-2.8324687 -3.7141123 0.57351702 40 11
-2.853452 -3.7389195 0.74494106 52 12
-2.833015 -3.710798 0.90748781 42 13
-1.3201463 -1.7285557 -0.11398769 4 6
-2.8382013 -3.7149019 1.0793152 45 14
-2.8645079 -3.7479784 -0.082340203 45 7
-2.8371832 -3.7108836 1.251649 60 15
-2.8643074 -3.7355402 0.08216583 52 8
-2.8609049 -3.7284031 0.24629305 49 9
-2.8533657 -3.7172346 0.40998086 50 10
-2.8526731 -3.7136476 0.57497948 40 11
-2.8737104 -3.7383327 0.74681836 52 12
-2.8555264 -3.7133362 0.91054022 41 13
-1.3286082 -1.7271026 -0.11419703 3 6
-2.8606603 -3.7173266 1.0829144 49 14
-2.8824534 -3.7442937 -0.082479812 45 7
-2.8630862 -3.7177932 1.2573431 62 15
-2.8907757 -3.7429268 0.082549773 50 8
-2.8787873 -3.7247164 0.24671179 51 9
-2.8785102 -3.7230153 0.41172349 52 10
-2.8729062 -3.713088 0.57644188 41 11
-2.8964162 -3.7407746 0.74932128 49 12
-2.8828967 -3.7219722 0.91511965 41 13
-1.3236187 -1.7082458 -0.11325498 2 6
-2.8807809 -3.7165604 1.0856137 49 14
-2.9163363 -3.761075 -0.083073199 45 7
-2.8878863 -3.7230422 1.2625195 56 15
-2.9136455 -3.745441 0.082829013 49 8
-2.9046168 -3.7324872 0.24786317 49 9
-2.9086258 -3.7349522 0.4141638 48 10
-2.8943927 -3.7139969 0.57814813 40 11
-2.9124477 -3.7358232 0.75025982 49 12
-2.9091561 -3.7289126 0.91931754 41 13
-1.349234 -1.7288071 -0.11492972 1 6
-2.8978853 -3.7131326 1.0874134 49 14
-2.9275625 -3.7498059 -0.083038285 45 7
-2.9121082 -3.7286694 1.2676958 62 15
-2.9408474 -3.7546492 0.08324787 49 8
-2.9292955 -3.7385564 0.24890988 48 9
-2.9209964 -3.7252853 0.4141638 48 10
-2.9299746 -3.7340508 0.58277905 41 11
-2.9370182 -3.7416825 0.75338852 49 12
-2.936058 -3.7377722 0.92389685 38 13
-2.9567251 -3.7627304 -0.25079381 19 6
-2.9294481 -3.7280178 1.0946118 49 14
-2.9449239 -3.7463663 -0.083177902 43 7
-2.9268441 -3.7220292 1.268731 62 15
-2.9582341 -3.751157 0.083387487 49 8
-2.9522254 -3.7408514 0.24974723 44 9
-2.9456787 -3.7312169 0.41590691 45 10
-2.9583385 -3.7445645 0.58594775 40 11
-2.9574127 -3.7407043 0.75526571 48 12
-2.9496539 -3.7295556 0.92427844 37 13
-2.9803383 -3.7670021 -0.25173584 44 6
-2.9497008 -3.7269371 1.0973113 48 14
-2.977843 -3.7611494 -0.083736382 45 7
-2.947015 -3.7208776 1.2718369 65 15
-2.9812593 -3.7533355 0.083666719 50 8
-2.9814227 -3.7508488 0.25110799 45 9
-2.9735668 -3.7396252 0.41799867 45 10
-2.9738638 -3.7373202 0.58643514 37 11
-2.9839869 -3.7473569 0.75870728 48 12
-2.9748876 -3.734592 0.92809463 37 13
-3.0046732 -3.7706337 -0.25267792 42 6
-2.9796975 -3.7379522 1.1036098 48 14
-3.0009289 -3.7632389 -0.084015623 43 7
-2.9768522 -3.73171 1.2790838 65 15
-3.0118327 -3.7647662 0.084155396 50 8
-2.9982409 -3.7450964 0.25142199 45 9
-2.9928288 -3.736999 0.41887024 43 10
-2.9955814 -3.7377615 0.58814138 33 11
-3.0143516 -3.7584929 0.76308751 49 12
-2.9989619 -3.7379675 0.93152922 38 13
-3.027817 -3.7725837 -0.25351527 46 6
-3.0024862 -3.7396853 1.107209 48 14
-3.0240648 -3.7652123 -0.084294856 45 7
-3.0067987 -3.7423799 1.2863306 62 15
-3.0375035 -3.7698007 0.08450444 49 8
-3.022578 -3.7486019 0.25236407 46 9
-3.0246193 -3.7497902 0.42148489 48 10
-3.0248201 -3.7473619 0.59131002 40 11
-3.0299361 -3.7510204 0.76371318 48 12
-3.0268002 -3.7458003 0.93610865 38 13
-3.051013 -3.7744172 -0.25435269 42 6
-3.0204244 -3.7352424 1.1090086 46 14
-3.0409622 -3.7592983 -0.084399574 40 7
-3.0295672 -3.7438755 1.2904719 62 15
-3.0556834 -3.7653863 0.084644057 49 8
-3.0482361 -3.753531 0.25341076 46 9
-3.0389454 -3.7407563 0.4216592 47 10
-3.0491517 -3.750644 0.59350365 37 11
-3.0617104 -3.763407 0.76840633 51 12
-3.0497699 -3.7473938 0.9391616 39 13
-3.0717344 -3.7730379 -0.25498071 42 6
-3.0469806 -3.7412987 1.1139576 43 14
-3.0717478 -3.7703657 -0.084888235 39 7
-3.0474977 -3.7392673 1.2925423 62 15
-3.0814626 -3.7701812 0.084993102 49 8
-3.0739663 -3.7583275 0.2544575 46 9
-3.0646007 -3.7455468 0.42340234 47 10
-3.0785744 -3.7599428 0.59667218 40 11
-3.0886004 -3.7695034 0.77184778 49 12
-3.0703003 -3.7458351 0.94145131 39 13
-3.1013484 -3.7823715 -0.25634146 44 6
-3.0723813 -3.7457063 1.1184566 43 14
-3.1026497 -3.7812624 -0.085376911 39 7
-3.0666597 -3.7360742 1.2951307 58 15
-3.1073143 -3.7748401 0.085342161 49 8
-3.0997646 -3.762991 0.25550422 45 9
-3.0928617 -3.7532766 0.42549405 45 10
-3.0967314 -3.755301 0.59764713 40 11
-3.1117971 -3.7708881 0.7743507 49 12
-3.0908556 -3.7441797 0.94374102 41 13
-3.1234353 -3.7823012 -0.25707412 46 6
-3.104053 -3.7574952 1.125205 46 14
-3.123472 -3.7796581 -0.085586332 39 7
-3.1006088 -3.7506583 1.3039305 53 15
-3.1294065 -3.7747457 0.085586488 47 8
-3.1192567 -3.7598348 0.25602761 44 9
-3.1205962 -3.7587786 0.42741147 43 10
-3.1212349 -3.758213 0.59984082 38 11
-3.1400919 -3.7782345 0.77810526 49 12
-3.1271553 -3.7599945 0.9506101 39 13
-3.1526053 -3.789253 -0.2583302 46 6
-3.1202989 -3.7490883 1.1261051 48 14
-3.151998 -3.7871757 -0.086005196 39 7
-3.1223354 -3.7502038 1.307554 51 15
-3.1586025 -3.7816687 0.086005345 47 8
-3.1413267 -3.7596509 0.25676027 46 9
-3.1464791 -3.7631474 0.42915466 43 10
-3.147728 -3.7619717 0.60227817 38 11
-3.1570659 -3.7717941 0.77904379 49 12
-3.1528668 -3.7641072 0.95442629 38 13
-3.1812069 -3.7965953 -0.25958627 48 6
-3.1433802 -3.7501214 1.1297041 49 14
-3.1716204 -3.7838128 -0.086179711 37 7
-3.1515424 -3.7585266 1.3142833 62 15
-3.186569 -3.7895401 0.086424202 45 8
-3.1737194 -3.7715862 0.25833035 44 9
-3.1672945 -3.7612851 0.43020046 42 10
-3.1742532 -3.768214 0.60495937 37 11
-3.1829438 -3.7758551 0.78217256 48 12
-3.1792526 -3.7701409 0.95862466 37 13
-3.2040808 -3.7982385 -0.26042363 45 6
-3.1708813 -3.7575481 1.135103 46 14
-3.2067387 -3.7986944 -0.08677309 42 7
-3.1708741 -3.7548833 1.3168714 68 15
-3.2062399 -3.7860229 0.086598724 43 8
-3.1997793 -3.7757211 0.25937709 44 9
-3.1926353 -3.7659583 0.43194357 40 10
-3.2002306 -3.7722476 0.60739672 36 11
-3.2012191 -3.7707438 0.7834239 48 12
-3.1987491 -3.7665019 0.96053219 37 13
-3.2431834 -3.8174725 -0.26251706 49 6
-3.2041695 -3.7702162 1.1423014 49 14
-3.2264547 -3.7950962 -0.086947612 42 7
-3.1989815 -3.7614505 1.323083 68 15
-3.2311141 -3.7885025 0.08691287 45 8
-3.228498 -3.7827599 0.26063314 45 9
-3.2186973 -3.769944 0.43368667 45 10
-3.2159567 -3.7640727 0.60788417 36 11
-3.2323332 -3.7805674 0.78780413 49 12
-3.2195327 -3.7642658 0.9628219 34 13
-3.2603855 -3.8106804 -0.26283109 47 6
-3.2299809 -3.7738144 1.1468004 48 14
-3.2565889 -3.8035583 -0.087401375 39 7
-3.2296867 -3.7708015 1.33033 85 15
-3.2625611 -3.7984369 0.087401532 45 8
-3.2481911 -3.7790411 0.26115653 45 9
-3.2422304 -3.770771 0.43508118 43 10
-3.2459068 -3.7723861 0.61105281 33 11
-3.2622669 -3.7887204 0.79187143 49 12
-3.2493088 -3.7723434 0.96778291 38 13
-3.2827933 -3.8098688 -0.26356381 45 6
-3.2558591 -3.777277 1.1512996 45 14
-3.2855167 -3.8103397 -0.087820224 37 7
-3.246614 -3.7638941 1.331883 62 15
-3.2823403 -3.7945879 0.087576061 43 8
-3.2770493 -3.7857997 0.26241258 45 9
-3.2788491 -3.7865415 0.43821877 45 10
-3.274657 -3.7790341 0.61397767 32 11
-3.2845302 -3.7877576 0.79406148 49 12
-3.2714634 -3.7713568 0.97045475 35 13
-3.3091619 -3.8134711 -0.2646105 45 6
-3.2817986 -3.7806044 1.1557984 45 14
-3.3053534 -3.8063974 -0.087994754 34 7
-3.2508647 -3.7423296 1.3282595 40 15
-3.3178959 -3.8087401 0.088169441 45 8
-3.3033693 -3.7893918 0.26345927 45 9
-3.2946649 -3.7780771 0.4385674 45 10
-3.3074064 -3.7900147 0.6176337 35 11
-3.3146241 -3.7956123 0.7981289 48 12
-3.306566 -3.7850497 0.97694176 37 13
-3.332967 -3.8139277 -0.26544785 42 6
-3.3039539 -3.7793961 1.1589478 43 14
-3.3265185 -3.8038678 -0.088204183 34 7
-3.25246 -3.7178726 1.3236005 35 15
-3.3390832 -3.8061545 0.088378869 45 8
-3.3350234 -3.7988517 0.26492468 46 9
-3.3249245 -3.786015 0.44083345 47 10
-3.3324096 -3.7918661 0.61982733 33 11
-3.3422029 -3.8003354 0.80157042 49 12
-3.3184619 -3.7720106 0.97656012 37 13
-3.3647327 -3.8232615 -0.26691329 42 6
-3.3312912 -3.7839293 1.1638968 46 14
-3.3596008 -3.8147433 -0.088727757 37 7
-3.2615862 -3.7021489 1.3220478 35 15
-3.3689017 -3.8118708 0.088797726 45 8
-3.3648024 -3.8045554 0.26618072 45 9
-3.3519816 -3.7887247 0.44257662 47 10
-3.352865 -3.7870588 0.62104613 37 11
-3.3783782 -3.8131952 0.80688912 49 12
-3.3557034 -3.7862687 0.98342925 38 13
-3.3866732 -3.819869 -0.26754129 51 6
-3.3632393 -3.7921059 1.1701953 48 14
-3.3961213 -3.8278329 -0.089321136 39 7
-3.2879584 -3.704618 1.3272243 40 15
-3.3981409 -3.8180127 0.089216582 45 8
-3.3860343 -3.8017352 0.26680881 46 9
-3.3824155 -3.79634 0.44484264 45 10
-3.3819168 -3.793112 0.62397093 37 11
-3.4048193 -3.8161185 0.81001776 49 12
-3.3858945 -3.7935731 0.98839027 38 13
-3.4199393 -3.830373 -0.26911142 56 6
-3.3803515 -3.7847028 1.171545 43 14
-3.4254496 -3.8338504 -0.089739993 40 7
-3.2995815 -3.6916785 1.3267066 37 15
-3.4261289 -3.8225076 0.089600533 43 8
-3.4119534 -3.8053572 0.2678555 46 9
-3.4116137 -3.8023057 0.44693437 43 10
-3.4150293 -3.8034406 0.62762702 33 11
-3.4200954 -3.8077462 0.81064355 49 12
-3.4122393 -3.7963333 0.99220645 37 13
-3.4586613 -3.8466301 -0.27110016 100 6
-3.4046087 -3.7865143 1.1755941 45 14
-3.4501803 -3.8358495 -0.090054125 55 7
-3.3092208 -3.6778436 1.3256712 37 15
-3.4588809 -3.8333955 0.090124108 43 8
-3.440613 -3.8118138 0.26911157 45 9
-3.4348881 -3.8027997 0.44832885 42 10
-3.4449272 -3.8112388 0.6307956 35 11
-3.4525766 -3.818362 0.81533664 49 12
-3.4458857 -3.8082893 0.99831235 37 13
-3.4633567 -3.8262551 -0.27047214 72 6
-3.4328399 -3.7925408 1.180993 46 14
-3.4776464 -3.840693 -0.09043809 69 7
-3.311024 -3.6553953 1.3215302 36 15
-3.4742627 -3.8248644 0.09019392 73 8
-3.4700193 -3.8175147 0.27036762 45 9
-3.4635644 -3.809077 0.45042059 40 10
-3.4722433 -3.8159451 0.63347673 33 11
-3.4765244 -3.8179717 0.81783962 46 12
-3.4657698 -3.8034933 1.0002204 34 13
-3.4740009 -3.8111901 -0.27026281 63 6
-3.4631238 -3.7992575 1.1868417 42 14
-3.4829469 -3.8196654 -0.090228662 55 7
-3.3172536 -3.6366787 1.318942 35 15
-3.4963572 -3.8209572 0.090403341 63 8
-3.506918 -3.8298116 0.27214703 72 9
-3.492305 -3.8125188 0.45233801 47 10
-3.496937 -3.8148997 0.6354267 33 11
-3.5051825 -3.8212166 0.82128114 48 12
-3.4903078 -3.8023355 1.003274 34 13
-3.4690337 -3.7778358 -0.26879737 63 6
-3.4954782 -3.8066344 1.1931403 43 14
-3.4847484 -3.7936199 -0.089914516 47 7
-3.3318682 -3.6259189 1.3194598 36 15
-3.5062737 -3.8037052 0.090298638 57 8
-3.5094318 -3.8058023 0.27130967 61 9
-3.5278745 -3.8231201 0.455127 70 10
-3.5243635 -3.8166413 0.63786405 42 11
-3.5426271 -3.8350763 0.82691276 52 12
-3.5235493 -3.811754 1.0089983 37 13
-3.4713519 -3.7539723 -0.26796001 60 6
-3.5246215 -3.8115788 1.1985391 41 14
-3.4911799 -3.7740929 -0.089739993 50 7
-3.3445044 -3.6142659 1.3194597 36 15
-3.5134265 -3.7861934 0.090159014 54 8
-3.5179582 -3.7897515 0.27099568 48 9
-3.5364647 -3.8070221 0.45460409 61 10
-3.5545704 -3.8238339 0.6410327 56 11
-3.5728128 -3.842113 0.83098012 64 12
-3.5562315 -3.8216064 1.0147219 35 13
-3.4756167 -3.7336688 -0.26733196 58 6
-3.5452085 -3.8084276 1.2012385 43 14
-3.4914103 -3.7493248 -0.089425854 45 7
-3.3525212 -3.5989146 1.3179067 35 15
-3.515043 -3.7628317 0.089879781 50 8
-3.5161622 -3.761399 0.26984429 52 9
-3.5381832 -3.7836301 0.45321012 54 10
-3.5604489 -3.8047791 0.63981396 43 11
-3.5929527 -3.8368282 0.83254445 94 12
-3.5957284 -3.8384497 1.0223544 47 13
-3.4825163 -3.7162933 -0.26691329 58 6
-3.5771389 -3.8159347 1.2075372 42 14
-3.4949024 -3.726903 -0.08918152 45 7
-3.3597775 -3.5815549 1.3158363 35 15
-3.511713 -3.7330611 0.089460917 50 8
-3.5224266 -3.7418301 0.26932091 50 9
-3.5438297 -3.7619362 0.4521637 49 10
-3.5669022 -3.7851033 0.63859528 40 11
-3.5914161 -3.8084543 0.82910293 58 12
-3.6003401 -3.8152487 1.0196835 52 13
-3.4878855 -3.6947916 -0.26628524 58 6
-3.6111712 -3.8240497 1.2142857 61 14
-3.502399 -3.7088652 -0.089041904 45 7
-3.3656242 -3.5627837 1.3132479 34 15
-3.5171194 -3.7114563 0.089251496 52 8
-3.5244734 -3.717917 0.26848355 49 9
-3.5487125 -3.7408702 0.45111784 52 10
-3.56845 -3.7590477 0.63640165 41 11
-3.6006081 -3.7915962 0.82816422 60 12
-3.5933504 -3.7813113 1.0139587 42 13
-3.4870028 -3.6681168 -0.26523852 58 6
-3.6338973 -3.8213072 1.2174351 73 14
-3.5070548 -3.687923 -0.088832475 43 7
-3.3767085 -3.5496137 1.3127302 35 15
-3.5252666 -3.6954315 0.089146771 52 8
-3.526397 -3.6940341 0.26764619 50 9
-3.5617492 -3.7284601 0.45111784 49 10
-3.568553 -3.7342772 0.63420796 40 11
-3.6110904 -3.7761502 0.82753855 60 12
-3.6058695 -3.7693741 1.0139593 41 13
-3.4798141 -3.6363318 -0.26377311 60 6
-3.6249878 -3.7867122 1.2102365 58 14
-3.5143747 -3.6698818 -0.088692859 43 7
-3.3904159 -3.5391996 1.3132479 33 15
-3.525676 -3.6701257 0.088832639 52 8
-3.5281968 -3.6701825 0.26680878 50 9
-3.563045 -3.7051404 0.44972336 50 10
-3.5719316 -3.7117858 0.63250184 41 11
-3.600956 -3.7393334 0.82221979 58 12
-3.6203678 -3.7581785 1.0143403 40 13
-3.4924865 -3.6241632 -0.26377314 65 6
-3.6327744 -3.7684238 1.2084371 57 14
-3.5063422 -3.6360004 -0.088169284 47 7
-3.4000671 -3.5245624 1.3122127 34 15
-3.5370758 -3.6563578 0.088797726 54 8
-3.5354292 -3.6521053 0.26639009 49 9
-3.5544212 -3.6691589 0.44693437 56 10
-3.5821018 -3.6964438 0.63201433 41 11
-3.6098609 -3.722486 0.82128108 55 12
-3.6245475 -3.7350216 1.011669 44 13
-3.4973993 -3.6027398 -0.26314509 60 6
-3.6343446 -3.7425005 1.204388 54 14
-3.5064759 -3.6108265 -0.087855145 48 7
-3.4029264 -3.502974 1.3085893 35 15
-3.5281231 -3.6204562 0.08823926 54 8
-3.5418193 -3.6319721 0.26586673 53 9
-3.5560763 -3.6453204 0.44553986 52 10
-3.5900803 -3.6776066 0.63103932 41 11
-3.6151981 -3.7007523 0.81940395 10 12
-3.6114922 -3.6956677 1.0044181 6 13
-3.5043693 -3.5847979 -0.26272646 60 6
-3.6419351 -3.7242188 1.2025883 54 14
-3.514092 -3.5922334 -0.087715521 48 7
-3.4170928 -3.4918594 1.3091069 34 15
-3.5365374 -3.6038363 0.088134542 52 8
-3.550277 -3.6153123 0.2655527 50 9
-3.5659866 -3.6300423 0.44519123 54 10
-3.5806291 -3.6424036 0.62713957 41 11
-1.4555316 -1.4790932 0.40337014 2 13
-3.4972453 -3.5526154 -0.26126099 65 6
-3.6521783 -3.7087066 1.2016885 50 14
-3.5223992 -3.5756719 -0.087610804 45 7
-3.4251935 -3.4757812 1.307554 32 15
-3.5364463 -3.5786674 0.087820396 56 8
-3.5453973 -3.5864749 0.26429665 50 9
-3.5674279 -3.6062405 0.44379675 52 10
-3.5821495 -3.6185968 0.62518966 40 11
-1.4677978 -1.4822141 0.33038971 8 12
-3.5011888 -3.5318758 -0.26063299 63 6
-3.6458912 -3.676563 1.1953899 54 14
-3.5271978 -3.5568712 -0.087436289 48 7
-3.4380612 -3.4657748 1.3080716 33 15
-3.5454726 -3.5640857 0.087750584 54 8
-3.5438044 -3.5599227 0.26324996 49 9
-3.5771809 -3.5909431 0.4434481 52 10
-3.584321 -3.5968549 0.62348348 40 11
-3.5058274 -3.5131767 -0.26010957 55 6
-3.6498024 -3.6561775 1.1926905 36 14
-3.5212226 -3.5261436 -0.086982533 47 7
-3.447408 -3.4510193 1.3070364 33 15
-3.5479858 -3.5417986 0.08750625 52 8
-3.5527625 -3.5453293 0.26304057 50 9
-3.5721405 -3.5621793 0.44135645 52 10
-3.5898242 -3.5773153 0.62226474 40 11
-1.4694558 -1.4638238 0.32851246 50 12
-1.4720765 -1.4654118 0.40375173 39 13
-3.5336425 -3.5164149 -0.26126102 40 6
-3.5229721 -3.5045748 -0.086738184 42 7
-3.4451346 -3.4259462 1.30186 9 15
-3.5426717 -3.5131176 0.0870874 50 8
-3.5566046 -3.5244713 0.26241258 49 9
-3.5703957 -3.5356688 0.43961328 49 10
-3.5946136 -3.5584087 0.62104613 38 11
-1.473152 -1.4572967 0.3281996 54 12
-1.4727399 -1.4563806 0.40260708 57 13
-3.5609083 -3.5201228 -0.2624124 40 6
-1.4970096 -1.4793476 0.48589426 8 14
-3.5479875 -3.5049036 -0.08705233 30 7
-3.5577636 -3.503535 0.087157205 38 8
-3.560343 -3.5036299 0.26178449 48 9
-3.5735788 -3.5154254 0.4385674 52 10
-3.5900245 -3.5291407 0.61812121 37 11
-1.4796392 -1.4535297 0.32851246 57 12
-1.4834182 -1.4567329 0.40413332 62 13
-3.5860007 -3.5202641 -0.26335442 42 6
-1.4785194 -1.4509094 0.47824594 21 14
-3.5887513 -3.520504 -0.08775042 30 7
-1.4965525 -1.4675808 0.56163734 10 15
-3.588558 -3.5092702 0.087610967 35 8
-3.579695 -3.4981599 0.26230791 41 9
-3.5878642 -3.5036969 0.43874171 45 10
-1.5548743 -1.517868 -0.34415579 1 3
-3.5966408 -3.51104 0.61714625 41 11
-1.4818755 -1.4455975 0.32788673 49 12
-1.4789063 -1.4416932 0.40146223 50 13
-3.6131835 -3.5210366 -0.26440117 38 6
-1.4880151 -1.44956 0.47959572 31 14
-3.6196384 -3.5260959 -0.088204183 29 7
-1.5127387 -1.4731305 0.56577861 24 15
-3.6300914 -3.523952 0.088309057 36 8
-3.6111279 -3.5030956 0.26366866 41 9
-3.6072242 -3.4980872 0.43961328 40 10
-1.6310798 -1.5811782 -0.35979927 1 3
-3.6109109 -3.4992154 0.61738998 33 11
-1.4758118 -1.4291624 0.32538375 49 12
-1.4867512 -1.4392532 0.40222526 54 13
-3.6455452 -3.5278473 -0.26586655 38 6
-1.5056716 -1.4565517 0.48364481 14 14
-3.6426003 -3.522536 -0.088448517 27 7
-1.5306283 -1.4796602 0.57043725 18 15
-3.6582079 -3.5265248 0.088693015 38 8
-3.6449101 -3.5112536 0.2652387 42 9
-3.634376 -3.4986596 0.44135645 40 10
-1.6169364 -1.5560139 -0.3554191 1 3
-3.6331141 -3.4962265 0.61909616 26 11
-1.4836396 -1.4267409 0.32600954 51 12
-1.493432 -1.4351548 0.40260687 46 13
-3.6814966 -3.5366004 -0.26754129 58 6
-3.6741896 -3.528348 1.1760441 21 14
-3.6721826 -3.5264208 -0.088867374 29 7
-3.4980199 -3.3579979 1.2992717 18 15
-3.6791615 -3.5220313 0.088902436 36 8
-3.6738496 -3.5157177 0.26649478 42 9
-3.6646774 -3.5044889 0.44362244 36 10
-1.5706838 -1.5015029 -0.34415582 1 3
-3.6696956 -3.5068364 0.6232397 27 11
-1.494076 -1.427271 0.327261 51 12
-1.4896625 -1.4220606 0.40031719 48 13
-3.7090986 -3.5395403 -0.2686927 67 6
-3.6774087 -3.5080745 1.1733446 41 14
-3.7113473 -3.5404503 -0.089530565 53 7
-3.4979517 -3.3357136 1.2951307 30 15
-3.7140071 -3.5318587 0.089460917 49 8
-3.7020254 -3.5180063 0.26764616 39 9
-3.7014477 -3.5149994 0.44658574 38 10
-1.6272212 -1.5452553 -0.3554191 1 3
-3.6957006 -3.5083156 0.62567711 30 11
-1.501915 -1.4247662 0.32788673 48 12
-1.4972192 -1.4198147 0.40108043 42 13
-3.722265 -3.5285945 -0.26879737 45 6
-3.705996 -3.5119457 1.1787435 38 14
-3.7352974 -3.5384743 -0.089809798 55 7
-3.513783 -3.3274684 1.2966837 33 15
-3.742305 -3.5339761 0.089844875 56 8
-3.7288096 -3.5187688 0.26869288 49 9
-3.7261276 -3.5150104 0.44815454 38 10
-3.7209258 -3.507648 0.62787074 27 11
-1.509755 -1.4222238 0.32851246 48 12
-1.5021662 -1.4145797 0.40108043 15 13
-3.7432849 -3.5237951 -0.26942542 38 6
-3.726747 -3.5070007 1.1814429 39 14
-3.7418008 -3.5199335 -0.089670181 27 7
-3.5253756 -3.3151834 1.2966837 33 15
-3.7575355 -3.523627 0.08991468 43 8
-3.7483561 -3.5125613 0.26921624 57 9
-3.7674558 -3.5292246 0.45164081 50 10
-3.7635794 -3.5231278 0.63298923 33 11
-3.768023 -3.5248189 0.81721383 25 12
-3.7684529 -3.5239897 1.0028924 26 13
-3.7789066 -3.5325291 -0.27110013 38 6
-3.7574766 -3.5112662 1.1872916 38 14
-3.7803679 -3.5314233 -0.090298481 32 7
-3.5397496 -3.3054936 1.2977186 34 15
-3.7961535 -3.5350201 0.090542972 31 8
-3.7752156 -3.5130613 0.27026296 42 9
-3.7753754 -3.5119808 0.45111784 56 10
-3.7976632 -3.5302417 0.63664532 41 11
-3.802012 -3.5318115 0.82190686 42 12
-3.7719877 -3.5039208 -0.45042107 1 5
-3.7908018 -3.5201657 1.0055631 26 13
-3.7838964 -3.5125237 -0.27057683 36 6
-3.7882798 -3.515362 1.1931403 38 14
-3.8043997 -3.5290847 -0.090577707 29 7
-3.5342693 -3.2773542 1.2915072 34 15
-3.814343 -3.5271783 0.090682589 35 8
-3.8109257 -3.5215495 0.27193773 36 9
-3.8022473 -3.5123003 0.45286095 31 10
-3.8099632 -3.5169642 0.63664538 41 11
-3.8390012 -3.5412879 0.82722569 67 12
-3.7549064 -3.4637146 -0.44693485 15 5
-3.8304889 -3.5321984 1.0128138 35 13
-3.7858546 -3.4898176 -0.26984411 36 6
-3.8220239 -3.5219252 1.1998889 38 14
-3.8064001 -3.5062995 -0.090333372 27 7
-3.5456872 -3.2649984 1.2915072 34 15
-3.8325241 -3.5192509 0.090822205 31 8
-3.8437963 -3.5271311 0.27340311 38 9
-3.8291671 -3.5124748 0.45460409 36 10
-3.8295329 -3.5103514 0.63786405 25 11
-3.8513393 -3.5278654 0.82722569 49 12
-3.7787275 -3.4613523 -0.44832927 37 5
-3.8529308 -3.5280869 1.0154858 43 13
-3.7759144 -3.4563525 -0.26827404 36 6
-3.8616107 -3.5335577 1.2084371 50 14
-3.8068116 -3.4821935 -0.090054125 27 7
-3.5513599 -3.2473867 1.2894366 36 15
-3.8196657 -3.4829462 0.090228826 26 8
-3.8383698 -3.4975486 0.27214703 35 9
-3.8649712 -3.5205536 0.45739305 38 10
-3.8667192 -3.5196772 0.64200759 31 11
-3.7701519 -3.4293725 -0.44588891 31 5
-3.86958 -3.5185781 1.0166299 30 13
-3.7761331 -3.4324038 -0.26743665 36 6
-3.8782475 -3.523989 1.2097868 64 14
-3.8100631 -3.4608173 -0.089844711 27 7
-3.5669644 -3.2388661 1.2909895 35 15
-3.8258703 -3.4642239 0.090089209 26 8
-3.8292162 -3.4660375 0.27068165 32 9
-3.8772361 -3.5070417 0.45739305 29 10
-3.8922362 -3.5181386 0.64420128 27 11
-1.6869997 -1.5243216 0.36011222 1 12
-3.7673154 -3.4028356 -0.4441458 31 5
-3.8920386 -3.5142591 1.0193019 12 13
-3.7880907 -3.4192026 -0.26743665 36 6
-3.894866 -3.5143452 1.2111363 34 14
-3.808157 -3.4361072 -0.089530572 26 7
-3.5705132 -3.2205505 1.2884015 34 15
-3.8313901 -3.4461684 0.089949585 26 8
-3.8383217 -3.4499788 0.27047229 35 9
-3.8642559 -3.4708529 0.45442975 28 10
-3.8935421 -3.495928 0.64249504 21 11
-1.6805482 -1.5078698 0.35760927 5 12
-3.7673049 -3.3790219 -0.44275132 31 5
-3.784538 -3.3932886 -0.26638991 36 6
-3.9282653 -3.520921 1.217885 37 14
-3.8052344 -3.4094486 -0.08918152 26 7
-3.5759757 -3.2029119 1.2863306 34 15
-3.8269904 -3.4181204 0.089565635 28 8
-3.8473604 -3.4339006 0.27026296 33 9
-3.8623645 -3.4460814 0.45286095 26 10
-3.8894222 -3.4677854 0.63981396 20 11
-1.678427 -1.4954233 0.35604492 11 12
-3.7725394 -3.3612087 -0.44205409 33 5
-1.6977074 -1.512071 0.44191355 4 13
-3.7993426 -3.3827131 -0.26659924 36 6
-3.9550896 -3.5201421 1.222384 29 14
-3.8081477 -3.3881707 -0.088972092 26 7
-3.5871346 -3.1904101 1.2863307 33 15
-3.829922 -3.3967791 0.089356191 28 8
-3.8443763 -3.4072022 0.26921624 33 9
-3.8698964 -3.4286144 0.45233801 24 10
-3.8925853 -3.4462917 0.6383515 20 11
-1.6806778 -1.4869382 0.35541922 15 12
-3.7782795 -3.3427398 -0.44135687 33 5
-3.7916763 -3.3522317 -0.26523852 38 6
-3.813957 -3.369561 -0.088832475 26 7
-3.5895627 -3.1701956 1.2832251 6 15
-3.8387539 -3.3807473 0.089286394 28 8
-3.8442519 -3.3832061 0.26837888 34 9
-3.8743615 -3.4085047 0.45146647 26 10
-3.8941553 -3.4235079 0.63664532 17 11
-1.6873418 -1.4823661 0.35573205 26 12
-3.7839375 -3.3242702 -0.44065952 33 5
-1.6978961 -1.4911133 0.43924218 22 13
-3.7883449 -3.3258002 -0.26419181 36 6
-3.9810324 -3.4937313 1.222834 4 14
-3.8317089 -3.3615022 -0.088972092 26 7
-1.7066207 -1.4966656 0.60822481 4 15
-3.8475218 -3.3646932 0.089216582 28 8
-3.8500216 -3.3645098 0.26796019 35 9
-3.8772333 -3.3870952 0.45042065 26 10
-3.9015951 -3.4059787 0.63591415 20 11
-1.6850632 -1.4699743 0.35416773 25 12
-3.7940171 -3.3097317 -0.44048524 34 5
-3.946259 -3.4413269 1.0177749 11 13
-3.7984257 -3.3112438 -0.26408714 36 6
-3.9843884 -3.4721313 1.2201344 4 14
-3.8192952 -3.3270895 -0.088413611 26 7
-1.7147481 -1.4932371 0.60926014 8 15
-3.8501842 -3.3433757 0.089007162 29 8
-3.8557088 -3.345813 0.26754147 35 9
-3.8739822 -3.3604848 0.44867748 26 10
-3.9074614 -3.3871369 0.63493919 20 11
-1.6901839 -1.4640837 0.35416773 26 12
-3.7925665 -3.2840657 -0.43891647 37 5
-3.9612148 -3.4301019 1.0185381 15 13
-3.8054302 -3.2940426 -0.26377311 36 6
-3.8218107 -3.3058887 -0.088204183 26 7
-1.7316407 -1.4973513 0.61340123 8 15
-3.8512297 -3.3207753 0.08876282 29 8
-3.8613129 -3.3271194 0.26712281 35 9
-3.8802338 -3.3410633 0.4479802 28 10
-3.9192612 -3.3734767 0.63493919 20 11
-1.7087626 -1.4697677 0.35698351 26 12
-3.790411 -3.2591166 -0.43734768 35 5
-3.9603596 -3.4040437 1.0151042 18 13
-3.8144491 -3.2774701 -0.26356381 38 6
-3.9780886 -3.4168668 1.2106866 23 14
-3.8272593 -3.2873161 -0.088064566 26 7
-3.6261458 -3.113476 1.2806367 31 15
-3.8466647 -3.2923336 0.088378869 29 8
-3.8607612 -3.3032331 0.26628539 34 9
-3.8858149 -3.322319 0.44728297 28 10
-3.90745 -3.3384578 0.63103932 20 11
-1.7033682 -1.4548136 0.35479346 14 12
-3.8002479 -3.2445724 -0.43717331 37 5
-3.9572861 -3.3774526 1.0112875 17 13
-3.8106718 -3.2511716 -0.26251706 40 6
-3.9914737 -3.4042239 1.2111363 24 14
-3.8326249 -3.2687459 -0.08792495 26 7
-3.641403 -3.1045599 1.2821898 30 15
-3.8529899 -3.2756746 0.088274159 33 8
-3.8600912 -3.2793915 0.26544803 35 9
-3.8928311 -3.304867 0.44676003 28 10
-3.9063916 -3.3152068 0.62908947 20 11
-3.953207 -3.3525622 0.82096821 28 12
-3.803952 -3.2248454 -0.43630177 34 5
-3.9684637 -3.3643122 1.0112875 17 13
-3.8061955 -3.2256043 -0.26147035 36 6
-3.9848981 -3.3758531 1.2057376 23 14
-3.8424852 -3.2540562 -0.087890051 27 7
-3.6566412 -3.0955749 1.2837427 35 15
-3.8628728 -3.2609153 0.08823926 29 8
-3.8654091 -3.2607462 0.26502937 35 9
-3.9007232 -3.289371 0.44641143 28 10
-3.9194582 -3.3028295 0.6293332 3 11
-3.946753 -3.3234751 0.81721383 27 12
-3.8085294 -3.2070799 -0.43560454 35 5
-3.9711721 -3.3428519 1.0089983 17 13
-3.8174319 -3.2122986 -0.26147038 38 6
-3.9787617 -3.3468702 1.2003387 24 14
-3.8339248 -3.223892 -0.087436289 27 7
-3.654115 -3.071604 1.2790838 33 15
-3.8635039 -3.2384188 0.087994911 31 8
-3.8675811 -3.2395387 0.26440135 34 9
-3.8877401 -3.2552698 0.44362244 28 10
-1.8619554 -1.5579405 0.29809237 1 11
-3.891948 -3.2553282 -0.62299639 2 4
-3.9507527 -3.3033423 0.81564945 27 12
-3.7967732 -3.1745956 -0.43298984 33 5
-3.9722724 -3.3201563 1.0063264 19 13
-3.8209574 -3.1925514 -0.26094699 36 6
-3.9904203 -3.3329611 1.2003387 22 14
-3.839015 -3.2053626 -0.087296672 27 7
-3.6737127 -3.066258 1.2821897 43 15
-3.8624887 -3.2146795 0.087715678 31 8
-3.8727236 -3.2209101 0.26398265 35 9
-3.892951 -3.2365839 0.44292521 29 10
-1.844479 -1.5324038 0.29443631 12 11
-3.8880162 -3.2290399 -0.62055844 2 4
-3.9592204 -3.2870066 0.81502372 25 12
-3.8032339 -3.1575043 -0.43246695 35 5
-3.9717505 -3.2962403 1.003274 16 13
-3.8274672 -3.1753685 -0.26063299 38 6
-3.996031 -3.3140347 1.1985391 22 14
-3.8486404 -3.1906672 -0.087261766 27 7
-3.6962931 -3.0632772 1.2863307 70 15
-3.8613534 -3.1909878 0.087436438 33 8
-3.8777831 -3.2022851 0.26356399 35 9
-3.9026878 -3.2217073 0.44275087 29 10
-1.8360353 -1.5145873 0.29224268 20 11
-3.8992631 -3.2154493 -0.62055844 2 4
-3.9539025 -3.259346 0.81158215 4 12
-3.8080819 -3.1391406 -0.43176967 34 5
-3.9695971 -3.2711198 0.99983889 15 13
-3.8200297 -3.146749 -0.25937691 34 6
-4.0015564 -3.2951112 1.1967394 22 14
-3.8458591 -3.1657751 -0.086947612 29 7
-3.7099473 -3.05281 1.2873659 75 15
-3.8693781 -3.1749523 0.087366641 29 8
-3.8796694 -3.1811316 0.26293591 31 9
-3.9031248 -3.199223 0.44153073 29 10
-1.8674181 -1.5295526 0.29638624 41 11
-3.8920336 -3.1867268 -0.61763412 2 4
-1.9061968 -1.5602038 0.39014766 2 12
-3.8113079 -3.119519 -0.43089813 37 5
-3.9946661 -3.2684319 1.003274 4 13
-3.8263519 -3.1296029 -0.25906289 34 6
-4.0039825 -3.2737222 1.1940402 18 14
-3.8553383 -3.1510661 -0.086912714 27 7
-3.6936529 -3.0178411 1.2780486 42 15
-3.8680353 -3.1513205 0.0870874 31 8
-3.8783596 -3.1574819 0.26209855 33 9
-3.9142685 -3.1855791 0.44153073 29 10
-1.8388634 -1.4954703 0.29102397 28 11
-3.8507633 -3.1305463 -0.60934645 2 4
-1.8871034 -1.5336071 0.38514173 8 12
-3.8175354 -3.1024263 -0.43037519 35 5
-3.9755747 -3.2297096 0.99564099 4 13
-3.8264 -3.1074135 -0.2583302 38 6
-3.8507867 -3.1249881 -0.086563662 27 7
-3.683161 -2.9878905 1.2708017 18 15
-3.8779156 -3.139154 0.0870874 31 8
-3.8773913 -3.1364887 0.26136586 30 9
-3.9025664 -3.1557279 0.43909034 29 10
-1.8574488 -1.5009141 0.2932176 24 11
-3.8420472 -3.1034648 -0.60642207 2 4
-1.9042071 -1.5375988 0.38764465 21 12
-3.8102114 -3.0766487 -0.42845774 33 5
-1.9034821 -1.5364648 0.47549593 5 13
-3.833035 -3.0928702 -0.25812089 34 6
-1.899043 -1.5317872 0.56327748 4 14
-3.8512452 -3.1053438 -0.086354233 27 7
-3.870146 -3.1105654 0.086668536 29 8
-3.888315 -3.1229355 0.26136583 30 9
-3.9042366 -3.1346021 0.43804449 29 10
-1.873515 -1.5031176 0.29492378 16 11
-3.8776357 -3.1099057 -0.6103214 2 4
-1.9033979 -1.5260001 0.38639319 10 12
-3.8116007 -3.0558524 -0.42741185 31 5
-3.9723949 -3.1836278 0.98953563 8 13
-3.8438082 -3.0794704 -0.25812086 36 6
-4.0125794 -3.213532 1.1868417 5 14
-3.8542557 -3.0856335 -0.086179718 26 7
-1.9215845 -1.5378281 0.65947104 5 15
-3.8684766 -3.0870576 0.086389296 26 8
-3.8929465 -3.1043625 0.26094714 31 9
-3.9120398 -3.11847 0.43769589 28 10
-1.8803031 -1.4978052 0.29516754 13 11
-3.8636212 -3.0765662 -0.60642153 2 4
-3.9843416 -3.1715603 0.80657625 27 12
-3.8160088 -3.0375664 -0.42671463 31 5
-3.9865565 -3.1721869 0.99029893 13 13
-3.8279619 -3.0448976 -0.25634143 34 6
-4.003943 -3.1837397 1.180993 15 14
-3.8618727 -3.0696712 -0.086109906 29 7
-3.877661 -3.0722942 0.08635439 28 8
-3.8912311 -3.0808372 0.26010975 31 9
-3.9135273 -3.0973778 0.43665004 29 10
-3.937639 -3.1142247 0.61641508 11 11
-3.8587635 -3.05075 -0.60398471 2 4
-3.98454 -3.1490593 0.8043862 27 12
-3.8234622 -3.0217566 -0.426366 33 5
-3.9914446 -3.153383 0.98877192 19 13
-3.8322966 -3.026566 -0.2559227 34 6
-4.0089135 -3.1649139 1.1791934 20 14
-3.8725643 -3.0561717 -0.086109906 27 7
-3.7371442 -2.9482436 1.2754605 34 15
-3.8852186 -3.0562673 0.086284585 29 8
-3.8894012 -3.0573604 0.25927243 31 9
-3.9243152 -3.0836976 0.43665001 29 10
-3.9438012 -3.0967839 0.61568385 22 11
-3.866267 -3.034811 -0.60349673 2 4
-3.9737511 -3.1180594 0.80000603 28 12
-3.8277168 -3.0034716 -0.42566875 31 5
-4.0055151 -3.1418557 0.98953563 19 13
-3.839695 -3.0107057 -0.2557134 34 6
-4.0153365 -3.1472931 1.1778437 22 14
-3.8674679 -3.0303032 -0.085760854 26 7
-3.7413294 -2.9304154 1.2733898 30 15
-3.8879836 -3.0365326 0.08611007 29 8
-3.8969004 -3.0413072 0.25906307 28 9
-3.9099212 -3.0503716 0.43386102 28 10
-3.9467595 -3.076896 0.61446518 20 11
-3.8329947 -2.9871294 -0.59667253 2 4
-3.9768193 -3.0980992 0.79844165 25 12
-3.8287477 -2.9827459 -0.42462292 31 5
-4.0056167 -3.1194105 0.98686391 20 13
-3.8470287 -2.9948304 -0.25550404 34 6
-4.0262976 -3.1332591 1.1778438 24 14
-3.8590817 -3.0020504 -0.085342005 27 7
-3.7362854 -2.9054785 1.2682135 34 15
-3.8811755 -3.0094645 0.08572612 29 8
-3.8948629 -3.0178995 0.25822571 31 9
-3.9126689 -3.0306056 0.43298948 24 10
-3.9496262 -3.0570245 0.61324638 21 11
-3.8559594 -2.9834502 -0.59862196 2 4
-3.9891715 -3.085407 0.79875451 27 12
-3.8296804 -2.9620492 -0.42357707 31 5
-4.0071616 -3.0982034 0.98457462 17 13
-3.8527191 -2.9777195 -0.25519007 34 6
-4.0217896 -3.1072707 1.1733446 24 14
-3.8647897 -2.9848945 -0.085237294 27 7
-3.7372291 -2.8853359 1.2651075 32 15
-3.8932421 -2.9971168 0.085761011 29 8
-3.9053729 -3.0042865 0.25822571 31 9
-3.9184866 -3.0132844 0.43246654 26 10
-3.9429581 -3.0299151 0.6105653 20 11
-3.8883898 -2.986902 -0.60203487 2 4
-3.9983504 -3.0702612 0.79844165 25 12
-3.8368354 -2.9462368 -0.42322841 31 5
-4.0039363 -3.0734398 0.98113966 19 13
-3.8519979 -2.9557414 -0.25445735 34 6
-4.0264263 -3.0884688 1.171545 23 14
-3.8735983 -2.9701688 -0.085202381 26 7
-3.7488122 -2.8734472 1.2656252 31 15
-3.8941474 -2.9762225 0.085551582 29 8
-3.9031377 -2.980938 0.25738832 28 9
-3.9258142 -2.9971702 0.43211794 27 10
-3.9440424 -3.008908 0.6091029 20 11
-3.8766935 -2.9564576 -0.59862196 2 4
-3.9980469 -3.0479026 0.79625165 27 12
-3.8439274 -2.9304099 -0.42287982 33 5
-4.0130792 -3.0582533 0.98075801 17 13
-3.8575253 -2.9386463 -0.25414333 34 6
-4.0278797 -3.0673122 1.1688457 22 14
-3.8823514 -2.9554176 -0.085167475 27 7
-3.7603571 -2.8615141 1.266143 32 15
-3.9013262 -2.9601951 0.085481778 31 8
-3.9007883 -2.9576404 0.25655094 31 9
-3.9298997 -2.9786346 0.43142062 26 10
-3.956104 -2.996321 0.60934663 21 11
-3.8648322 -2.9261324 -0.5952096 2 4
-3.9897599 -3.0196226 0.79249716 25 12
-3.8509552 -2.9145691 -0.42253113 31 5
-4.0159011 -3.0383039 0.97884989 19 13
-3.861387 -2.9203451 -0.25372463 36 6
-4.0261269 -3.0438306 1.1652464 23 14
-3.8703096 -2.9249687 -0.084678821 27 7
-3.7718635 -2.8495357 1.2666606 31 15
-3.9084408 -2.9441521 0.085411966 31 8
-3.9073839 -2.9422858 0.25634161 30 9
-3.927537 -2.9553151 0.43002614 26 10
-3.9586055 -2.9765294 0.60812795 20 11
-3.8908908 -2.9245508 -0.59764695 2 4
-3.9871197 -2.9968803 0.7899943 25 12
-3.8467703 -2.890336 -0.4209623 34 5
-4.0217724 -3.0207307 0.977705 17 13
-3.865169 -2.9020517 -0.25330597 36 6
-4.0351682 -3.0285881 1.1647965 22 14
-3.8783882 -2.910917 -0.084643908 27 7
-3.7704751 -2.8288963 1.2630371 30 15
-3.8973665 -2.9156027 0.084958203 33 8
-3.9080317 -2.9214542 0.25571358 30 9
-3.9314444 -2.9368176 0.42932892 26 10
-3.9605007 -2.9574461 0.60690922 21 11
-3.8878415 -2.9021323 -0.59569758 2 4
-3.9943902 -2.9805806 0.78936845 25 12
-3.853642 -2.8745096 -0.42061374 34 5
-4.0144577 -2.9944651 0.97350723 19 13
-3.8715694 -2.8868308 -0.25309664 36 6
-4.0326905 -3.0058739 1.1611974 22 14
-3.8821113 -2.8925834 -0.084504284 29 7
-3.7787778 -2.8145633 1.2625195 31 15
-3.9059145 -2.9007893 0.084923297 33 8
-3.9198093 -2.9089849 0.25581825 31 9
-3.9379613 -2.9213903 0.42898026 27 10
-3.9612322 -2.9365108 0.60544682 21 11
-3.8947587 -2.8861797 -0.5952096 2 4
-3.9968336 -2.9607413 0.78780413 25 12
-3.8572476 -2.8562975 -0.41991648 35 5
-4.015419 -2.9734235 0.97121751 19 13
-3.8655694 -2.8614154 -0.25204989 36 6
-4.0384583 -2.988302 1.1598476 22 14
-3.8889689 -2.8766358 -0.084434472 27 7
-3.7839203 -2.7979093 1.2609665 30 15
-3.9095776 -2.8823903 0.084783673 33 8
-3.9154673 -2.8846233 0.2548762 31 9
-3.9422245 -2.9022121 0.42828304 27 10
-3.9634645 -2.9167826 0.60422814 22 11
-3.8696315 -2.8466883 -0.58984739 2 4
-4.0087352 -2.9479415 0.78811699 25 12
-3.8671944 -2.8428154 -0.41991648 34 5
-4.0199623 -2.9540348 0.96969157 19 13
-3.8663731 -2.8401334 -0.25142184 38 6
-4.0415297 -2.9677129 1.157598 21 14
-3.8989868 -2.8630431 -0.084434472 29 7
-3.796778 -2.7869697 1.2620016 30 15
-3.9168892 -2.865679 0.084713861 31 8
-3.9158401 -2.8638639 0.25424814 31 9
-3.9507229 -2.8872585 0.42810878 27 10
-3.9693193 -2.8987238 0.60349691 22 11
