# .PCD v0.7 - Point Cloud Data file format
VERSION 0.7
FIELDS x y z intensity ring
SIZE 4 4 4 4 2
TYPE F F F F U
COUNT 1 1 1 1 1
WIDTH 1270
HEIGHT 1
VIEWPOINT 0 0 0 1 0 0 0
POINTS 1270
DATA ascii
-4.5004649 0.47619477 0.71678281 48 12
-4.5000968 0.47695103 0.87962925 40 13
-4.3614717 0.46302733 -0.22985946 55 6
-4.5209212 0.48075289 1.0496217 41 14
-4.4024215 0.46892977 -0.077279016 50 7
-4.327899 0.46175474 1.1662389 38 15
-4.4215612 0.47799337 0.07762821 50 8
-4.4080644 0.47809094 0.23237173 49 9
-4.4388289 0.48221147 0.39063177 48 10
-4.4440465 0.4835619 -0.7080223 1 3
-4.4559512 0.48564526 0.55036187 40 11
-4.4262662 0.48319158 -0.54670566 2 4
-4.490921 0.49104166 0.71553141 48 12
-4.5062108 0.4935104 0.88115567 39 13
-4.3757119 0.47999126 -0.23069684 53 6
-4.5250268 0.49716952 1.0509713 41 14
-4.3947949 0.48363709 -0.077174298 50 7
-4.3493032 0.47939906 1.1724504 45 15
-4.4198651 0.49342358 0.077628203 50 8
-4.4143081 0.49436432 0.23279041 49 9
-4.4331589 0.49725777 0.39028317 48 10
-4.4739552 0.50341624 0.55279917 41 11
-4.4245529 0.49863827 -0.54670566 2 4
-4.4931045 0.50715917 0.71615702 46 12
-30.815855 3.4783394 -2.7131591 9 5
-4.5083623 0.50967818 0.88191897 37 13
-4.3759937 0.49548718 -0.23080149 55 6
-4.5271368 0.51340109 1.0518711 41 14
-4.3910933 0.49874926 -0.077139392 48 7
-4.3456836 0.49435979 1.1719327 51 15
-4.4181166 0.50884897 0.07762821 50 8
-4.4145393 0.50999838 0.23289508 49 9
-4.4274378 0.51227146 0.38993454 47 10
-4.4405622 0.51457649 -0.70802236 1 3
-4.4761143 0.51948798 0.55328667 41 11
-4.4346161 0.51545507 -0.54816854 2 4
-4.499156 0.52375376 0.71740866 48 12
-30.368143 3.5352027 -2.6748106 9 5
-4.5143552 0.52632171 0.88344586 37 13
-4.3901081 0.51261145 -0.23163888 57 6
-4.5330591 0.53010613 1.0536706 41 14
-4.3913116 0.51430678 -0.077174298 50 7
-4.3381758 0.50885105 1.1703799 48 15
-4.4123416 0.52379656 0.077558391 48 8
-4.4267073 0.52628547 0.2336278 51 9
-4.4335361 0.52866781 0.39063177 45 10
-4.4644203 0.53392994 0.55206811 38 11
-4.4723039 0.53487283 -0.55304283 2 4
-4.5032783 0.53937554 0.71834719 45 12
-4.510541 0.54184139 0.88306415 40 13
-4.3724279 0.5260253 -0.23080149 61 6
-4.5428848 0.54653215 1.0563701 41 14
-4.4114203 0.53149736 -0.077558249 48 7
-4.3403001 0.52369612 1.1714151 48 15
-4.4185209 0.53939509 0.077698022 48 8
-4.4209728 0.54047745 0.23341845 49 9
-4.4495568 0.54554838 0.39220059 47 10
-4.5075407 0.5534572 -0.71928561 1 3
-4.4645944 0.54897392 0.55231178 40 11
-4.4271588 0.54437077 -0.54768103 2 4
-4.5093074 0.55527079 0.71959865 45 12
-29.710604 3.6637998 -2.619031 8 5
-4.5067716 0.55655551 0.88268214 39 13
-4.3785877 0.54150259 -0.23122017 61 6
-4.5333114 0.56063735 1.0545706 40 14
-4.4056649 0.54563189 -0.077488445 48 7
-4.3385396 0.5380863 1.1714151 48 15
-4.424644 0.55504018 0.077837631 50 8
-4.4170771 0.55565703 0.23331375 49 9
-4.4477234 0.56030077 0.39220059 47 10
-4.5056801 0.56840187 -0.71928561 1 3
-4.4765353 0.56551778 0.55401796 37 11
-4.4252319 0.55982131 -0.54768056 2 4
-4.5053821 0.57076079 0.71928579 46 12
-29.353718 3.7238505 -2.5887008 8 5
-4.5263267 0.57421565 0.8868801 33 13
-4.3886561 0.55752885 -0.23184818 59 6
-4.5390596 0.57744199 1.0563701 39 14
-4.3977828 0.56024814 -0.077383727 47 7
-4.3442998 0.55420536 1.1734856 54 15
-4.4345794 0.57201564 0.078047059 50 8
-4.4269953 0.57260948 0.23394179 49 9
-4.4416876 0.57608622 0.39185244 45 10
-4.4784713 0.58165187 0.55450547 37 11
-4.4389997 0.57731205 -0.54963052 2 4
-4.5072803 0.58699334 0.71991163 46 12
-29.032333 3.7860994 -2.5615082 8 5
-4.5241909 0.59080267 0.88687998 28 13
-4.3905444 0.57412845 -0.23205756 55 6
-4.5407772 0.59457964 1.0572698 39 14
-4.4037313 0.57663453 -0.077523351 47 7
-4.3097763 0.56509793 1.1646858 42 15
-4.4205589 0.58668798 0.077837631 50 8
-4.4288263 0.58935839 0.23415112 49 9
-4.4396501 0.59158725 0.39185193 47 10
-4.5014977 0.60062808 -0.71928561 1 3
-4.48418 0.59911394 0.55548042 38 11
-4.4250484 0.59199971 -0.54816806 2 4
-4.5109715 0.60429621 0.72085011 45 12
-28.663483 3.8398015 -2.5301321 7 5
-4.514317 0.60554636 0.88535392 28 13
-4.3924732 0.58998275 -0.23226692 57 6
-4.5463996 0.61146539 1.0590695 38 14
-4.4055519 0.59330499 -0.077593155 45 7
-4.3153343 0.58192199 1.1667564 42 15
-4.4244285 0.60292411 0.077942349 45 8
-4.4346576 0.60589588 0.23456983 46 9
-4.4533505 0.60924155 0.3932465 48 10
-4.4993739 0.61633778 -0.71928567 1 3
-4.4702606 0.61314464 0.55401796 38 11
-4.4308214 0.60852289 -0.54914302 2 4
-4.5127487 0.62057716 0.7214759 43 12
-28.318308 3.894233 -2.5008478 7 5
-4.5180111 0.62210417 0.88649833 31 13
-4.3785152 0.60367513 -0.23163888 59 6
-4.551959 0.6283977 1.0608691 38 14
-4.4173198 0.61059642 -0.07783749 42 7
-4.3171039 0.59751159 1.1677917 42 15
-4.4401207 0.62085706 0.078256488 48 8
-4.4346018 0.62087542 0.2346745 51 9
-4.449224 0.6245051 0.39307219 48 10
-4.4971948 0.6320399 -0.71928561 1 3
-4.4759555 0.62985152 0.55499285 38 11
-4.4405732 0.62487257 -0.55060601 2 4
-4.5204468 0.63691568 0.72304022 42 12
-28.053986 3.9577119 -2.4787099 7 5
-4.5216436 0.63869512 0.88764316 28 13
-4.3842912 0.62007409 -0.23205754 55 6
-4.5440612 0.64267051 1.0595194 38 14
-4.4192305 0.62580234 -0.077907301 43 7
-4.3131862 0.61155337 1.1672741 40 15
-4.4320989 0.6347273 0.078151777 48 8
-4.428565 0.63500994 0.23446517 51 9
-4.4569883 0.64067334 0.3939437 45 10
-4.4950743 0.64694977 -0.71928561 1 3
-4.4856324 0.64639002 0.55645537 38 11
-4.4070392 0.63506454 -0.54670614 2 4
-4.5183096 0.65190274 0.72304022 43 12
-4.5331011 0.65565324 0.89031494 30 13
-4.3980241 0.63689864 -0.23289493 57 6
-4.5476913 0.65857261 1.0608691 38 14
-4.4131732 0.63987988 -0.07783749 45 7
-4.3187814 0.62696332 1.1693447 41 15
-4.4517336 0.65261179 0.078535728 48 8
-4.4401531 0.65249848 0.23519784 48 9
-4.4489264 0.65457988 0.39342079 48 10
-4.4929042 0.66185158 -0.71928561 1 3
-4.4854274 0.66155106 0.55669904 37 11
-4.4558554 0.65798301 -0.55304283 2 4
-4.5160069 0.66767067 0.72304022 42 12
-4.5464401 0.67298204 0.89336747 30 13
-4.3958879 0.65147972 -0.23289493 55 6
-4.5511475 0.67530233 1.0622189 37 14
-4.410912 0.65528089 -0.077837482 45 7
-4.30128 0.63976032 1.1652035 40 15
-4.4375634 0.66636568 0.078326292 48 8
-4.4437733 0.6688844 0.23551185 49 9
-4.4524074 0.67177445 0.39394373 47 10
-4.490448 0.67831445 -0.71928561 1 3
-4.4948678 0.67898208 0.5581615 40 11
-4.4260526 0.66937715 -0.54963052 2 4
-4.5234137 0.6849103 0.72460455 40 12
-4.530355 0.68757778 0.89069664 27 13
-4.4013686 0.66878831 -0.23331361 57 6
-4.5602012 0.69373614 1.0649183 38 14
-4.4204602 0.67247754 -0.078046918 43 7
-4.3028402 0.65535253 1.1662388 41 15
-4.4331145 0.68232161 0.078291394 48 8
-4.453136 0.68699443 0.23613992 51 9
-4.457911 0.68852758 0.39464092 45 10
-4.4880538 0.69398516 -0.71928567 1 3
-4.4825406 0.6939348 0.55694282 38 11
-4.4667253 0.69228363 -0.55499321 2 4
-4.5306325 0.70299816 0.72616887 43 12
-4.5376272 0.70489562 0.89260417 31 13
-4.3950605 0.68353307 -0.23310426 55 6
-4.565454 0.71084929 1.0667179 36 14
-4.421917 0.68929178 -0.078116722 45 7
-4.3004098 0.67111897 1.1662388 41 15
-4.4425578 0.69965863 0.078500822 48 8
-4.4467649 0.70191187 0.23593056 51 9
-4.4554806 0.70408452 0.39464092 47 10
-4.4879336 0.71081877 0.55791777 37 11
-4.4093857 0.69916683 -0.54816806 2 4
-4.5359559 0.72004777 0.72742039 43 12
-4.5487113 0.7228865 0.89527601 33 13
-4.3985653 0.69981211 -0.2334183 53 6
-4.5590963 0.72616959 1.0658182 36 14
-4.4333076 0.70692641 -0.078361064 39 7
-4.3056707 0.68734419 1.1683092 38 15
-4.4479856 0.71643382 0.078640439 48 8
-4.4502029 0.71838474 0.23624459 49 9
-4.464797 0.72154015 0.39568681 43 10
-4.5337987 0.73350322 -0.72742009 1 3
-4.4893441 0.72711509 0.55840522 37 11
-4.4225941 0.71709609 -0.55011851 2 4
-4.5256147 0.73461086 0.72616893 43 12
-4.5442228 0.73844534 0.89489394 31 13
-4.4079247 0.7170862 -0.23404635 48 6
-4.5565333 0.74207842 1.0658182 37 14
-4.4327865 0.72271901 -0.078395963 43 7
-4.3242183 0.70579296 1.1740032 43 15
-4.4592695 0.73422903 0.078884773 48 8
-4.4516096 0.7345649 0.23645391 48 9
-4.4622507 0.73711979 0.39568731 43 10
-4.4805398 0.74094534 -0.71928561 1 3
-4.5004878 0.74505109 0.56011146 37 11
-4.4278979 0.73382682 -0.55109298 2 4
-4.5327668 0.75202042 0.72773325 40 12
-4.5571108 0.75687653 0.89794731 31 13
-4.3975134 0.73115808 -0.23362765 55 6
-4.5654488 0.7598989 1.0685174 38 14
-4.4322095 0.73851675 -0.078430869 45 7
-4.3064842 0.71834135 1.1698622 43 15
-4.4487915 0.74846452 0.078745157 50 8
-4.4589963 0.75098163 0.23697728 49 9
-4.459651 0.7526927 0.39568681 43 10
-4.4779258 0.75658095 -0.71928561 1 3
-4.509603 0.76274145 0.5615738 35 11
-4.4253092 0.74927968 -0.55109292 2 4
-4.5399866 0.76869655 0.72929764 42 12
-24.688229 4.184567 -2.1907475 5 5
-4.546699 0.77146453 0.89642084 30 13
-4.4146247 0.74984843 -0.23467436 51 6
-4.5666113 0.77648419 1.0694174 36 14
-4.4356508 0.75421631 -0.078535594 43 7
-4.3097925 0.73358887 1.1714151 45 15
-4.4502268 0.76388878 0.078814961 48 8
-4.4622531 0.76755661 0.23729128 49 9
-4.4727044 0.77096295 0.39708138 43 10
-4.5454726 0.78350604 -0.73054886 1 3
-4.5031371 0.77701682 0.56108636 36 11
-4.426712 0.76462638 -0.55158043 2 4
-4.5431151 0.78554922 0.73023623 40 12
-4.5595927 0.78921688 0.89947349 30 13
-4.4101458 0.76414293 -0.23456968 55 6
-4.5755315 0.79362178 1.0721167 36 14
-4.4389009 0.77072024 -0.078640297 45 7
-4.3167214 0.75028354 1.1740032 43 15
-4.4554124 0.78080034 0.078954592 48 8
-4.4537816 0.78131467 0.23697728 49 9
-4.477972 0.78717059 0.39777857 45 10
-4.5427103 0.79936695 -0.73054886 1 3
-4.4925776 0.79135364 0.56011146 37 11
-4.4122868 0.77800572 -0.55011851 2 4
-4.5443749 0.80129653 0.73086184 43 12
-4.5529428 0.80444479 0.89871007 31 13
-4.4133515 0.78057623 -0.2348837 55 6
-4.5688958 0.8089081 1.0712169 36 14
-4.4422278 0.78648192 -0.078745008 43 7
-4.3123078 0.76425731 1.1734856 45 15
-4.4547672 0.7959215 0.078989491 47 8
-4.4608574 0.79861653 0.23750065 48 9
-4.4869642 0.80490673 0.39882448 45 10
-4.5205908 0.81093895 -0.72742021 1 3
-4.5114207 0.81010669 0.56279254 33 11
-4.4448504 0.79895467 -0.55450529 2 4
-4.5434957 0.81750345 0.73117483 42 12
-4.5637746 0.82197446 0.90138191 27 13
-4.4225316 0.79733342 -0.23551171 48 6
-4.5738592 0.82543927 1.0730165 37 14
-4.439456 0.80198359 -0.078745015 43 7
-4.3077126 0.77896178 1.172968 43 15
-4.4596887 0.8136794 0.079129107 47 8
-4.4698319 0.81633615 0.23812872 46 9
-4.4762869 0.81912971 0.39812717 45 10
-4.5370188 0.83106154 -0.73054886 1 3
-4.5162315 0.82806861 0.56376755 33 11
-4.4301777 0.81308943 -0.55304283 2 4
-4.546443 0.83442807 0.73211348 43 12
-4.5723171 0.84082675 0.90367115 27 13
-4.4235091 0.81425977 -0.23572108 48 6
-4.5784683 0.8436113 1.0748161 36 14
-4.4366288 0.81747651 -0.078745015 42 7
-4.2992678 0.79294264 1.1714151 45 15
-4.4530339 0.8277331 0.079059303 47 8
-4.470881 0.83266515 0.23833802 46 9
-4.4773173 0.83548099 0.3984758 45 10
-4.5148191 0.84247893 -0.72742021 1 3
-4.5212655 0.8444984 0.56474245 32 11
-4.4274569 0.82777613 -0.55304283 2 4
-4.5493274 0.85138333 0.73305207 43 12
-4.559854 0.85417813 0.9017635 31 13
-4.428637 0.83039671 -0.23613977 48 6
-4.5813923 0.85986692 1.0761658 38 14
-4.4435754 0.83480453 -0.078919537 47 7
-4.2926769 0.80723017 1.1703798 45 15
-4.4540467 0.84401673 0.079129107 47 8
-4.4757957 0.8497566 0.2387567 49 9
-4.4823523 0.85181183 0.39917308 43 10
-4.4613962 0.84863502 -0.71928561 1 3
-4.5085402 0.85841912 0.56352377 35 11
-4.4323406 0.8447125 -0.55401784 2 4
-4.5560298 0.86911023 0.73461646 43 12
-4.5626311 0.87119365 0.90290785 27 13
-4.4178643 0.84435087 -0.23572108 48 6
-4.5879326 0.87768579 1.0784154 38 14
-4.4484906 0.85181385 -0.079059169 45 7
-4.3050108 0.82511866 1.1745209 48 15
-4.4628544 0.86183327 0.079338543 45 8
-4.4688816 0.86461639 0.2385474 48 9
-4.4909363 0.87050974 0.40021893 45 10
-4.4582553 0.86498237 -0.71928561 1 3
-4.5074649 0.87452984 0.56376749 33 11
-4.4332623 0.86093497 -0.55450529 2 4
-4.5626631 0.88689196 0.73618066 46 12
-4.5671163 0.88941085 0.90443438 28 13
-4.4147396 0.86053759 -0.23572108 48 6
-4.5827723 0.89412129 1.0779654 38 14
-4.4494143 0.86810249 -0.079128951 45 7
-4.2945213 0.83866125 1.1724505 45 15
-4.4655509 0.87934476 0.079443254 43 8
-4.465683 0.8809889 0.2385474 48 9
-4.4937334 0.8873387 0.40074185 43 10
-4.552104 0.89968884 -0.73492908 1 3
-4.5198083 0.89412659 0.56571746 33 11
-4.4183936 0.87486577 -0.55304289 2 4
-4.5535693 0.90245599 0.73524207 45 12
-4.5697603 0.9064948 0.90557915 30 13
-4.4312992 0.87983233 -0.2367678 46 6
-4.5853572 0.91125232 1.0793151 36 14
-4.4403195 0.88323438 -0.079024248 45 7
-4.3027859 0.85665792 1.1755562 48 15
-4.4702973 0.89649898 0.07958287 43 8
-4.4743285 0.89893311 0.23917541 46 9
-4.4906092 0.90301836 0.40074185 40 10
-4.5218239 0.91011643 -0.73054886 1 3
-4.5244436 0.91146648 0.56669235 32 11
-4.4736905 0.90205449 -0.56035554 2 4
-4.5658822 0.92147183 0.73774505 43 12
-4.5858116 0.926328 0.90939534 27 13
-4.4360313 0.89687836 -0.23718649 48 6
-4.5859685 0.92802584 1.080215 38 14
-4.4450483 0.90031654 -0.079163864 45 7
-4.2921958 0.87013704 1.1734855 45 15
-4.4749784 0.9136982 0.079722501 42 8
-4.4789901 0.91614598 0.23959409 46 9
-4.4854779 0.91828859 0.40056753 43 10
-4.5457115 0.93144757 -0.73492903 1 3
-4.5348463 0.93004596 0.56839848 36 11
-4.4627366 0.9160676 -0.55938005 2 4
-4.5645723 0.93780279 0.73805791 42 12
-4.580627 0.94193447 0.90901423 28 13
-4.4367862 0.91316187 -0.23739581 51 6
-4.5922441 0.94599414 1.0824642 38 14
-4.4575477 0.91905791 -0.079443112 42 7
-4.2872405 0.88472295 1.1729679 43 15
-4.4639297 0.92768568 0.07958287 43 8
-4.4874973 0.93421757 0.24022213 43 9
-4.4997993 0.93759805 0.40213636 43 10
-4.5153599 0.94166368 -0.73054898 1 3
-4.5218563 0.94384092 0.5671798 33 11
-4.4672837 0.93326479 -0.56035554 2 4
-4.5651379 0.95453906 0.73868364 43 12
-21.565466 4.5091915 -1.9275371 3 5
-4.5849981 0.95952588 0.91054022 28 13
-4.4296618 0.92782587 -0.23718649 48 6
-4.6098943 0.96641684 1.0874133 38 14
-4.4621406 0.93625361 -0.079582721 42 7
-4.2860169 0.9000811 1.1734856 45 15
-4.4704461 0.94533181 0.079757392 45 8
-4.4746046 0.9470259 0.23969875 43 9
-4.5003967 0.95412719 0.40248495 40 10
-4.5120454 0.95741856 -0.73054898 1 3
-4.5243592 0.96085668 0.56791103 31 11
-4.5028324 0.95710731 -0.56523025 2 4
-4.5735412 0.97213691 0.74056089 42 12
-21.339127 4.5396619 -1.9087113 3 5
-4.5816207 0.97552472 0.91054022 28 13
-4.4342093 0.94494784 -0.23760517 46 6
-4.5874343 0.97843653 1.0829144 37 14
-4.4590106 0.95104551 -0.079582714 43 7
-4.2830086 0.91428924 1.1734856 45 15
-4.4770627 0.96225023 0.079931922 42 8
-4.477129 0.96390063 0.24001278 46 9
-4.5048294 0.97150975 0.40318218 42 10
-4.5358791 0.97820592 -0.73492903 1 3
-4.5269699 0.9771114 0.56864226 33 11
-4.4724693 0.96616602 -0.56181741 2 4
-4.5701203 0.98809469 0.74056089 43 12
-4.5917921 0.99361926 0.91321212 26 13
-4.4388595 0.96133816 -0.23802385 51 6
-4.599401 0.99694639 1.0865136 38 14
-4.4556642 0.96660477 -0.079582721 43 7
-4.2816782 0.92964405 1.1740031 43 15
-4.4814901 0.97958142 0.080071531 42 8
-4.4834924 0.9816578 0.24053612 45 9
-4.5015831 0.98644316 0.40318218 42 10
-4.5351644 0.99546111 0.57010466 33 11
-4.4535584 0.97836339 -0.55986798 2 4
-4.5666432 1.0040414 0.74056089 42 12
-5.4329848 1.194519 -0.48667783 1 5
-4.5902133 1.0100635 0.91359371 26 13
-4.4432788 0.97854412 -0.23844253 48 6
-4.6035047 1.0146731 1.0883131 36 14
-4.4561682 0.98301476 -0.079652533 42 7
-4.2746353 0.94375056 1.172968 43 15
-4.4780431 0.99521887 0.080071531 40 8
-4.4897861 0.99947333 0.2410595 46 9
-4.5020018 1.0030173 0.40353084 42 10
-4.5452237 1.0143123 0.57181078 35 11
-4.4733653 0.99909592 -0.56279236 2 4
-4.5708222 1.0216998 0.74181247 43 12
-5.4560037 1.2195613 -0.48911816 1 5
-4.5866599 1.0260805 0.91359323 27 13
-4.4437351 0.99492115 -0.23865192 48 6
-4.6113448 1.033293 1.0910126 36 14
-4.4644179 1.0011884 -0.079861976 42 7
-4.2656598 0.95739698 1.1714151 40 15
-4.4823446 1.0126069 0.080211155 42 8
-4.5020323 1.0178792 0.24189688 46 9
-4.5140181 1.0222466 0.40492582 42 10
-4.5253868 1.0256503 -0.73492903 1 3
-4.5339127 1.0284157 0.57083595 31 11
-4.5048738 1.0218289 -0.56717962 2 4
-4.5828195 1.0403501 0.74431539 42 12
-5.3895416 1.224474 -0.48354018 4 5
-4.5868788 1.0429553 0.91435641 28 13
-4.4402347 1.0104266 -0.23865189 46 6
-4.6116934 1.0494441 1.0919125 38 14
-4.4727712 1.0186518 -0.08007139 42 7
-4.2718787 0.97368377 1.1740032 43 15
-4.4867582 1.029254 0.080350772 40 8
-4.4947376 1.0319091 0.24168751 48 9
-4.5183711 1.0389963 0.40562257 40 10
-4.5324116 1.0438907 0.57107967 32 11
-4.497592 1.0358711 -0.56669217 2 4
-4.5812693 1.0559855 0.74462819 40 12
-5.3446822 1.2329336 -0.47987965 5 5
-4.5929594 1.0603685 0.91626501 26 13
-4.4368596 1.0251456 -0.23865192 48 6
-4.6081877 1.0647314 1.0919125 37 14
-4.4732652 1.0343785 -0.080141202 42 7
-4.2686262 0.98784459 1.1740031 43 15
-4.4911103 1.0459412 0.080490395 42 8
-4.4930534 1.0480462 0.24179217 45 9
-4.5187807 1.05488 0.40597117 40 10
-4.5366573 1.060722 0.57205462 33 11
-4.4978137 1.0524689 -0.56717962 2 4
-4.5814013 1.0728704 0.74525392 40 12
-5.3190074 1.2465831 -0.47796226 5 5
-4.6008873 1.0782816 0.91855425 26 13
-4.4451022 1.0425897 -0.2392799 46 6
-4.6082373 1.0817001 1.0928122 36 14
-4.4657331 1.0490733 -0.080071375 42 7
-4.2707939 1.0040654 1.1755562 40 15
-4.4952164 1.0634524 0.080630019 42 8
-4.5029716 1.0669481 0.24252489 46 9
-4.5187616 1.0723542 0.40631983 43 10
-4.5387206 1.0779285 0.57278579 31 11
-4.5327396 1.0773427 -0.57205451 2 4
-4.5776286 1.088856 0.74525392 40 12
-5.2913651 1.2596058 -0.47587049 5 5
-4.6102729 1.0983213 0.92122555 24 13
-4.4490223 1.0607265 -0.23969857 48 6
-4.6156144 1.1012976 1.0955116 37 14
-4.4698248 1.0665119 -0.080211014 42 7
-4.25599 1.0162743 1.1724504 45 15
-4.4893436 1.0794536 0.080595106 40 8
-4.5067983 1.0853145 0.24294357 46 9
-4.5227385 1.0899895 0.40701708 37 10
-4.5559659 1.0996791 0.57546699 33 11
-4.52876 1.0939498 -0.57205445 2 4
-4.5832081 1.1079476 0.74681836 39 12
-5.2750936 1.2761788 -0.47482458 5 5
-4.5987778 1.112561 0.91969961 24 13
-4.4608226 1.0800114 -0.24053599 46 6
-4.6193185 1.1192371 1.0973113 36 14
-4.4717169 1.0843003 -0.080315739 39 7
-4.2522359 1.0318675 1.1724504 40 15
-4.4952617 1.0974892 0.080769628 42 8
-4.5146232 1.1038861 0.24357161 48 9
-4.5225835 1.1075057 0.40736568 40 10
-4.5520992 1.1155757 0.57546693 32 11
-4.4979224 1.1031308 -0.56864208 2 4
-4.5889049 1.1262937 0.74838269 40 12
-5.2667375 1.2936357 -0.47447601 4 5
-4.6042013 1.1317521 0.92160761 24 13
-4.4626517 1.0977839 -0.24084999 38 6
-4.6265378 1.1389563 1.1000105 36 14
-4.4795542 1.102772 -0.08052516 39 7
-4.2542353 1.0480896 1.1740032 43 15
-4.5028543 1.1168464 0.080979064 45 8
-4.5068655 1.1186762 0.24336228 48 9
-4.5341587 1.1271311 0.40876016 40 10
-4.5460544 1.1317732 0.57522327 30 11
-4.5092587 1.1234485 -0.57059258 2 4
-4.5906954 1.1437378 0.74932128 39 12
-5.254456 1.3100829 -0.47377872 2 5
-4.6021285 1.1482924 0.92198884 26 13
-4.4665442 1.1152904 -0.24126869 42 6
-4.6225343 1.1550981 1.1000105 36 14
-4.4892578 1.1217943 -0.080769479 42 7
-4.2580481 1.0648082 1.176074 43 15
-4.5068841 1.133724 0.081118688 45 8
-4.5068069 1.1353772 0.24357161 46 9
-4.5379233 1.1448998 0.40945792 39 10
-4.5595975 1.1512157 0.57741678 32 11
-4.5363016 1.1461761 -0.57449234 2 4
-4.5905046 1.1607238 0.74994689 39 12
-4.6154242 1.1678817 0.92542332 24 13
-4.462821 1.1300961 -0.24126869 48 6
-4.6224566 1.1713781 1.1009104 37 14
-4.4833765 1.1369666 -0.080734581 40 7
-4.2543049 1.0796652 1.1760739 43 15
-4.5106487 1.1514263 0.081258297 43 8
-4.5146275 1.1532823 0.24419965 43 9
-4.530242 1.1589546 0.40910882 40 10
-4.5690126 1.1705735 0.57912302 35 11
-4.6000252 1.1793734 0.75213706 31 12
-4.5332913 1.1631081 -0.4094578 5 5
-4.6303353 1.1888682 0.92923951 15 13
-4.4801278 1.1511338 -0.24242008 51 6
-4.665524 1.199639 1.1121581 22 14
-4.4795818 1.1518279 -0.080734581 39 7
-4.2357335 1.0899158 1.1719326 43 15
-4.5106778 1.1673801 0.081328109 47 8
-4.5202408 1.1715398 0.24472299 34 9
-4.5338826 1.1767644 0.40980604 24 10
-4.5843191 1.1907091 0.58156037 12 11
-4.5360804 1.1790237 -0.57546681 76 4
-4.6054392 1.1979108 0.75370145 16 12
-4.607368 1.1992711 0.92542344 17 13
-4.4685545 1.1639704 -0.24200137 51 6
-4.6068339 1.2008491 1.099111 25 14
-4.5026226 1.1745241 -0.081223242 39 7
-4.2319036 1.1046938 1.1719327 37 15
-4.5143123 1.1851494 0.08146774 14 8
-4.531785 1.1905832 0.24556038 21 9
-4.5434437 1.1953405 0.41102627 22 10
-4.5571008 1.2006345 0.57863563 20 11
-4.5223398 1.1923202 -0.57424808 100 4
-4.5785198 1.2071322 0.74994689 22 12
-4.5406814 1.1980048 -0.41085234 1 5
-4.5651898 1.205322 0.91779095 17 13
-4.4818435 1.1841545 -0.24294345 19 6
-4.5102978 1.1925145 1.0770656 9 14
-4.5141697 1.1935382 -0.081502482 16 7
-4.2394223 1.1216862 1.1750386 43 15
-4.5064917 1.1990846 0.081397928 22 8
-4.4947929 1.1976517 0.24378097 25 9
-4.5103674 1.2034891 0.40841153 26 10
-4.5109 1.2044735 0.5732733 15 11
-4.5475616 1.2159644 0.74556673 6 12
-4.4902792 1.2014863 -0.40666881 2 5
-4.4189267 1.1823941 0.88917011 27 13
-4.4643869 1.1953932 -0.24221072 27 6
-4.3463192 1.1645932 1.038824 11 14
-4.4771414 1.2004832 -0.080909111 19 7
-4.2354813 1.1364778 1.1750386 43 15
-4.4748282 1.2090771 0.08090926 16 8
-4.4593139 1.2065555 0.24210621 7 9
-4.4924641 1.2163663 0.40719137 3 10
-4.4121523 1.1971012 -0.56133044 8 4
-4.4377756 1.204886 -0.40231103 4 5
-4.3215203 1.1741316 0.87047035 7 13
-4.4289274 1.2041425 -0.24053596 23 6
-4.2929258 1.167972 1.0271266 14 14
-4.4396977 1.2087362 -0.080315739 9 7
-4.2366776 1.154256 1.1765914 45 15
-4.5343018 1.2446986 0.41137481 1 10
-4.3926353 1.2082837 -0.55938005 4 4
-4.4469891 1.2240708 -0.40353122 1 5
-4.3041463 1.185559 0.86779904 7 13
-4.264401 1.176214 1.0212778 10 14
-4.227036 1.1674956 1.1750385 37 15
-4.3371835 1.204437 0.078570627 1 8
-4.2842388 1.192153 0.38906303 6 10
-4.4421468 1.2377627 0.56620491 1 11
-1.0650691 0.29697216 -0.13576239 2 4
-4.2640543 1.1905451 0.86054838 10 13
-4.2915316 1.1990254 -0.23352294 2 6
-4.2208576 1.1800725 1.01183 10 14
-4.3290863 1.211146 -0.078465782 1 7
-4.219214 1.1812022 1.1740031 36 15
-4.2493701 1.1984464 0.38627401 8 10
-4.3212667 1.2203507 0.55133682 5 11
-4.2962198 1.214088 -0.54816854 4 4
-4.2258682 1.1958011 0.8536796 12 13
-4.2873206 1.2139975 -0.23352294 2 6
-4.1923385 1.1878927 1.0059811 10 14
-4.3017459 1.2197053 -0.078046925 1 7
-4.2187834 1.1969768 1.1750387 36 15
-4.1991844 1.2001323 0.38209054 13 10
-4.2921705 1.2283283 0.54816824 8 11
-1.0324359 0.29565626 -0.13186258 2 4
-4.4207535 1.2667958 0.72835898 1 12
-4.2009106 1.2045918 0.84948152 10 13
-4.2830572 1.2289559 -0.23352297 2 6
-4.1469588 1.1906879 0.9960832 10 14
-4.2667103 1.2258774 -0.077488437 1 7
-4.2238626 1.2143648 1.1776268 45 15
-4.16435 1.205915 0.37930161 13 10
-4.2611647 1.2355639 0.54475588 7 11
-0.99326825 0.28819519 -0.12698781 2 4
-4.1891379 1.2170572 0.84795487 6 13
-4.1253123 1.1992948 -0.2251492 2 6
-4.1128383 1.1964469 0.98888475 10 14
-4.2048063 1.2239969 -0.07644131 1 7
-4.225162 1.2307224 1.1791798 43 15
-4.4504452 1.3030872 0.080944166 12 8
-4.1237903 1.2097875 0.37598968 16 10
-4.2358737 1.2442762 0.54207468 3 11
-1.0189196 0.29949772 -0.13040015 2 4
-4.256403 1.2519206 0.70270377 16 12
-4.1697969 1.2272383 0.84490198 9 13
-4.1402602 1.2193292 -0.22619593 2 6
-4.0787282 1.2019824 0.98168623 10 14
-4.1717367 1.2301829 -0.075917728 6 7
-4.211576 1.2427299 1.1765915 45 15
-4.0947137 1.2167978 0.3737236 50 10
-4.147789 1.2341447 0.53135026 5 11
-0.99123192 0.29512247 -0.12698793 2 4
-4.2084646 1.2537985 0.69550771 10 12
-4.4012852 1.3112442 -0.40178815 31 5
-4.1410298 1.2344939 0.83994091 16 13
-4.1398063 1.2349169 -0.22640526 2 6
-4.0502324 1.2089666 0.97583759 10 14
-4.1904097 1.251604 -0.076336578 40 7
-4.2146163 1.2596363 1.1786621 45 15
-4.4488988 1.3364275 0.081083775 50 8
-4.077086 1.2270643 0.3725034 43 10
-4.1320524 1.2451793 0.52988791 7 11
-0.99019575 0.29858077 -0.12698793 2 4
-4.1662397 1.2570679 0.68925041 16 12
-4.4138479 1.331778 -0.40335688 44 5
-4.1216593 1.2444029 0.83688802 22 13
-4.0666409 1.2285662 -0.22263707 4 6
-4.0217385 1.2157657 0.96998888 11 14
-4.2032423 1.2714357 -0.076650739 39 7
-4.2175889 1.276579 1.1807326 48 15
-4.4403815 1.3507842 0.081013978 40 8
-4.0861187 1.2453537 0.37372404 65 10
-4.1314774 1.2607551 0.53037536 12 11
-0.98914754 0.30203515 -0.12698793 2 4
-4.1901631 1.2802614 0.69394338 63 12
-4.4129829 1.3483417 -0.40370551 42 5
-4.0722308 1.2450066 0.82772911 6 13
-4.0126715 1.2275622 -0.21991563 2 6
-3.9764757 1.2172481 0.96009105 14 14
-4.2131071 1.2912923 1.1807325 45 15
-4.0874591 1.2613722 0.37424657 63 10
-4.132741 1.2769259 0.53110647 12 11
-1.0260177 0.31721306 -0.13186258 2 4
-4.1500368 1.2830637 0.68799883 43 12
-4.415863 1.3660944 -0.40440273 48 5
-3.9969149 1.2380159 -0.21928759 6 6
-3.9480038 1.2236223 0.95424235 18 14
-4.0951672 1.2692333 -0.074835688 1 7
-4.1405315 1.2840842 1.16158 34 15
-3.9137104 1.2197347 0.071554773 19 8
-4.0468979 1.2643437 0.37093464 17 10
-4.0811172 1.2758163 0.52501309 15 11
-0.97191226 0.30402005 -0.12503789 2 4
-4.1511889 1.2993124 0.68893749 49 12
-4.405364 1.3797128 -0.40387982 49 5
-3.9737294 1.2452911 -0.2182409 6 6
-3.9123139 1.2267946 0.94659412 18 14
-4.04492 1.2691516 -0.073997967 1 7
-3.8982577 1.2238816 1.0948046 18 15
-3.8979862 1.2297786 0.071345337 16 8
-4.0179858 1.269951 0.36866856 14 10
-4.0444646 1.2798729 0.52086949 12 11
-0.98598504 0.31220478 -0.12698781 2 4
-4.154161 1.3161817 0.690189 48 12
-4.4083619 1.3967214 -0.40457708 49 5
-3.95032 1.2531152 -0.21719415 4 6
-3.8912911 1.2351377 0.942545 15 14
-3.9909124 1.2675253 -0.073090449 1 7
-3.8645043 1.2281202 1.0865225 20 15
-3.9089098 1.2482433 0.071624584 8 8
-3.9869614 1.2754686 0.36622819 14 10
-3.9927104 1.2788453 0.51477605 8 11
-0.99245065 0.31806773 -0.12796287 2 4
-4.1570649 1.3330872 0.69144046 48 12
-4.4148431 1.4157515 -0.40562296 48 5
-3.9002817 1.2522435 -0.21468201 2 6
-3.8665471 1.242157 0.93759602 12 14
-3.9255435 1.2618657 -0.071973503 3 7
-3.8307688 1.232138 1.0782403 18 15
-3.9121399 1.2643404 0.071764201 9 8
-4.0363774 1.305271 0.22232319 1 9
-3.9464695 1.2777187 0.36291626 14 10
-3.9617856 1.2842042 0.51136369 11 11
-0.97811675 0.31724334 -0.1262566 7 4
-4.1638961 1.350522 0.69331771 48 12
-4.4117689 1.4317687 -0.40579727 48 5
-3.952873 1.2843665 -0.21782222 2 6
-3.8306816 1.2454033 0.92994756 11 14
-3.9289448 1.2773489 -0.072113127 1 7
-3.8027799 1.237065 1.0715109 19 15
-3.9022233 1.275443 0.071659483 11 8
-4.4361148 1.4516594 0.24461831 4 9
-3.9230521 1.2852837 0.36117315 14 10
-3.9348691 1.2899146 0.50843883 11 11
-0.94122112 0.30872968 -0.12162555 2 4
-4.1798015 1.3718246 0.69675922 49 12
-4.4162092 1.4502671 -0.40666884 46 5
-3.8954632 1.2800102 -0.21489139 2 6
-3.7987623 1.2489698 0.92319912 11 14
-3.9244614 1.2910556 -0.072113119 1 7
-3.7819231 1.2448962 1.0668522 20 15
-3.9110367 1.2934526 0.071903817 8 8
-4.4708376 1.4803194 0.24681643 18 9
-3.8847246 1.2870075 0.35803553 11 10
-3.9020803 1.2942681 0.5047828 8 11
-0.95521003 0.31701574 -0.12357546 2 4
-4.2668486 1.4169102 0.71208984 52 12
-4.4094853 1.4642761 -0.40649453 48 5
-3.9175043 1.3024213 -0.21635677 2 6
-3.7758887 1.2560704 0.9187001 12 14
-3.836447 1.2769592 -0.070577301 8 7
-3.7445629 1.2471025 1.0575347 20 15
-3.8628821 1.2925023 0.07110101 8 8
-3.8575399 1.292961 0.35594383 13 10
-3.8806005 1.3021983 0.50258911 12 11
-0.95786148 0.32161164 -0.12406295 2 4
-4.2918377 1.4418612 0.71709573 19 12
-4.4062357 1.4802938 -0.40666884 46 5
-3.9712222 1.3349215 0.81437254 1 13
-3.8220685 1.2855252 -0.21133253 14 6
-3.756705 1.2642705 0.91510081 15 14
-3.8300717 1.2897061 -0.07054241 32 7
-3.7182181 1.2527632 1.0513231 22 15
-3.801523 1.2867446 0.070053868 14 8
-4.3506813 1.4743172 0.24074547 1 9
-3.8265865 1.2974616 0.35350344 16 10
-3.8290386 1.2997833 0.49649566 8 11
-0.94169587 0.31984594 -0.12211304 2 4
-3.9239357 1.3335241 0.65639913 4 12
-4.4142461 1.5001529 -0.40788901 46 5
-3.9293642 1.3361341 0.80674022 1 13
-3.8194482 1.2995021 -0.21143717 57 6
-3.7282865 1.269213 0.90925211 15 14
-3.7895815 1.2908164 -0.069879219 9 7
-3.6973658 1.2601259 1.0466644 32 15
-3.7686303 1.2902907 0.069530301 17 8
-3.8183794 1.3088129 0.211542 4 9
-3.7918801 1.3004694 0.3507145 16 10
-3.7981918 1.3041159 0.49308324 13 11
-0.96310234 0.33087081 -0.12503789 2 4
-3.8277202 1.3157482 0.64106858 12 12
-4.4184036 1.518791 -0.40876055 46 5
-4.0137892 1.3804913 0.82505792 1 13
-3.7884495 1.303728 -0.2099718 4 6
-3.7054079 1.275875 0.90475309 10 14
-3.7718182 1.2994772 -0.069634892 11 7
-3.6911178 1.2723948 1.0461466 59 15
-3.7225323 1.2890418 0.068762399 13 8
-3.7479668 1.2985828 0.2078785 13 9
-3.7647295 1.3058616 0.34862274 17 10
-3.7748642 1.3108543 0.49064586 16 11
-0.96569192 0.3355335 -0.12552539 2 4
-3.7766874 1.312225 0.63324678 21 12
-4.4375401 1.5427101 -0.4110266 31 5
-4.0645733 1.4138435 0.83650637 4 13
-3.7518086 1.3057847 -0.20819239 4 6
-3.6788485 1.2811104 0.89935434 9 14
-3.7410495 1.3027712 -0.069146223 10 7
-3.6905267 1.2858995 1.047182 35 15
-3.6937006 1.2927912 0.068308637 16 8
-3.715137 1.3017509 0.20630841 17 9
-3.705626 1.2998707 0.34356773 19 10
-3.7442744 1.3141618 0.48723361 16 11
-0.96457392 0.33873406 -0.12552539 2 4
-3.7609015 1.321472 0.63136959 21 12
-4.0709748 1.4312212 0.8387965 7 13
-3.7173128 1.3076133 -0.20651762 4 6
-3.6856084 1.2971846 0.90205365 13 14
-3.7006426 1.303202 -0.06848304 13 7
-3.6860156 1.2987732 1.0471818 35 15
-3.651463 1.2923332 0.067610539 30 8
-3.6787944 1.30273 0.204529 21 9
-3.6599822 1.2975051 0.33973289 22 10
-3.7190855 1.3199193 0.48455244 23 11
-0.95590287 0.33944213 -0.12455054 2 4
-3.7267148 1.3233604 0.62636375 7 12
-4.4626069 1.5855536 -0.41433853 1 5
-4.0659542 1.4454221 0.8387965 7 13
-3.6637995 1.3031796 -0.20379616 6 6
-3.6645348 1.3041618 0.89800465 20 14
-3.6680417 1.3054098 -0.067959473 10 7
-3.676229 1.3090453 1.045629 36 15
-3.6396258 1.3017412 0.067470916 43 8
-3.6591816 1.3101764 0.2036916 47 9
-3.6347992 1.3028787 0.33781546 24 10
-3.6754487 1.3181722 0.47943395 15 11
-0.93608773 0.33590528 -0.12211304 2 4
-3.6904666 1.3250134 0.62104493 6 12
-4.4457951 1.5970789 -0.41329265 26 5
-4.0629869 1.4595612 0.83917767 7 13
-3.6143491 1.2991078 -0.20128404 8 6
-3.6491873 1.3123499 0.89530522 18 14
-3.6390011 1.3094039 -0.067505702 7 7
-3.6807253 1.3251429 1.0482173 33 15
-3.6496429 1.3211521 0.067750163 54 8
-3.6562331 1.3242595 0.2037963 40 9
-3.6075232 1.3080417 0.33572373 19 10
-3.6405046 1.3214382 0.47553414 18 11
-4.4761739 1.6256555 -0.58472931 2 4
-3.6837289 1.3378556 0.62073207 6 12
-4.4492741 1.6167661 -0.41416419 45 5
-4.0573516 1.475152 0.83917809 9 13
-3.5868113 1.3047831 -0.20002797 13 6
-3.6294718 1.32102 0.89170599 8 14
-3.5477393 1.2912717 -0.065900087 10 7
-3.6794736 1.3399465 1.0492525 32 15
-3.5062683 1.2824181 0.065167211 16 8
-3.6590903 1.3397609 0.20421498 27 9
-3.5935819 1.3171982 0.33485219 4 10
-3.6174653 1.3266685 0.47309676 14 11
-4.4334879 1.6268141 -0.57985413 8 4
-3.6363869 1.3350478 0.61353612 9 12
-4.4529543 1.6357223 -0.41503575 45 5
-4.0542812 1.4892759 0.83955932 7 13
-3.5637181 1.3097804 -0.19898126 18 6
-3.4756489 1.2787901 -0.064643517 10 7
-3.685652 1.3567857 1.0523584 32 15
-3.4848897 1.2884084 0.064853065 39 8
-3.6543913 1.3525255 0.20421498 32 9
-3.598536 1.332567 0.33572373 1 10
-3.5904763 1.3310077 0.47017187 14 11
-4.435226 1.6450411 -0.58082956 19 4
-3.6187406 1.3429233 0.61134613 13 12
-4.4456382 1.6497871 -0.4148615 50 5
-4.0601015 1.5075184 0.84184909 7 13
-3.5310407 1.3117791 -0.19741116 28 6
-3.4486725 1.2825494 -0.064224653 22 7
-3.6790829 1.3689691 1.0518408 31 15
-3.4672589 1.2956645 0.064608723 33 8
-3.6590009 1.3687724 0.20473833 55 9
-3.5672195 1.336568 0.46773449 11 11
-4.427598 1.6598176 -0.5805853 36 4
-3.5844376 1.3444462 0.60634011 8 12
-4.4361215 1.6638948 -0.41451287 46 5
-4.0437856 1.517543 0.83955932 7 13
-3.5058718 1.3163749 -0.19625978 26 6
-3.4404311 1.2931727 -0.064154848 30 7
-3.6760895 1.3824841 1.0523584 30 15
-3.4496198 1.3028148 0.064364396 25 8
-3.6693885 1.3865466 0.20557572 56 9
-3.5328293 1.3377633 0.46383464 13 11
-3.5633347 1.3500268 0.60352433 6 12
-4.4396009 1.6829004 -0.41538435 49 5
-4.023778 1.5260794 0.83650678 7 13
-3.467644 1.3158494 -0.19437569 26 6
-3.4286458 1.3017355 -0.064015232 43 7
-3.6787086 1.397411 1.0544288 28 15
-3.4434123 1.3135338 0.06432949 31 8
-3.657063 1.3964959 0.20515703 56 9
-3.5135407 1.3437984 0.46188477 13 11
-3.5364628 1.3539813 0.59976983 9 12
-4.4448628 1.7026637 -0.41643023 49 5
-3.9490285 1.5127277 0.82200491 9 13
-3.4371519 1.3173347 -0.1929103 26 6
-3.4278152 1.3151286 -0.064085037 42 7
-3.6882372 1.4157814 1.05857 30 15
-3.43694 1.3248273 0.064294584 40 8
-3.6633461 1.4135671 0.20578505 55 9
-3.4903126 1.348899 0.45944738 13 11
-4.3973112 1.7003096 -0.57887912 2 4
-3.5059226 1.3563393 0.59538972 12 12
-4.4518995 1.7232023 -0.41765043 42 5
-3.8704894 1.4981552 0.80674022 12 13
-3.4213572 1.3249967 -0.19228223 24 6
-3.4082875 1.3213034 -0.063805804 39 7
-3.7048857 1.4370304 1.0647817 32 15
-3.4229782 1.3331869 0.064120062 45 8
-3.6658325 1.4292489 0.20620374 43 9
-3.463393 1.3524104 0.45652252 16 11
-4.4209323 1.7272066 -0.58277947 4 4
-3.4809294 1.3606576 0.59194815 19 12
-3.8759408 1.5166243 0.80902988 12 13
-3.3904409 1.3273336 -0.19081683 24 6
-3.3999305 1.3317339 -0.063735992 39 7
-3.6944509 1.4478396 1.0632287 43 15
-3.4087656 1.342061 0.063945539 46 8
-3.6642861 1.4441391 0.20641308 56 9
-3.4381022 1.3570775 0.45384139 19 11
-3.4630582 1.3683263 0.5897581 22 12
-4.4267888 1.7491163 -0.41643023 1 5
-3.8669722 1.5287004 0.80826664 12 13
-3.3727858 1.3340191 -0.19008414 17 6
-3.3913085 1.3427134 -0.06366618 42 7
-3.6873236 1.4606594 1.0627111 40 15
-3.4096341 1.3561697 0.06405025 43 8
-3.6759229 1.4635704 0.20735514 52 9
-3.4075291 1.3587766 0.45042902 19 11
-3.4178994 1.3642946 0.58287495 17 12
-4.3762469 1.7468302 -0.41224676 2 5
-3.6993446 1.4773854 0.77430266 7 13
-3.3384337 1.3339272 -0.18840939 14 6
-3.3903139 1.3560292 -0.063735992 45 7
-3.698344 1.4799813 1.0673697 36 15
-3.4030242 1.3673171 0.064015351 49 8
-3.6654902 1.4735175 0.20704113 11 9
-3.3751454 1.3595383 0.44677296 18 11
-4.2844572 1.726685 -0.56718016 2 4
-3.4023635 1.3711913 0.58099777 13 12
-3.6686752 1.4800076 0.76896006 7 13
-3.3226449 1.3410864 -0.18778136 8 6
-3.5109386 1.4177982 0.87415981 1 14
-3.3876534 1.3680127 -0.063770905 42 7
-3.6826692 1.4878955 1.0642641 23 15
-3.4077363 1.3823529 0.064189866 49 8
-4.2876487 1.7410337 0.24252486 3 9
-3.3577466 1.3654878 0.44506678 19 11
-4.3816767 1.7827786 -0.58082956 2 4
-3.3792601 1.3756114 0.57786906 17 12
-3.5328345 1.4388466 0.74148357 7 13
-3.2978339 1.3438071 -0.18662998 5 6
-3.5062177 1.4294332 0.87415981 1 14
-3.3698955 1.3745435 -0.063526563 46 7
-3.6166396 1.4759229 1.0466644 5 15
-3.4028904 1.3942398 0.064189874 51 8
-3.5442405 1.4535991 0.2007608 1 9
-3.3309252 1.3681499 0.44214195 21 11
-3.3488598 1.3768827 0.57348889 41 12
-3.5096338 1.4437009 0.7376678 9 13
-3.293123 1.3553104 -0.18662997 1 6
-3.5840969 1.4757946 0.89485532 1 14
-3.3650773 1.3862976 -0.063526563 49 7
-3.5882463 1.4789681 1.0399351 5 15
-3.3887639 1.4022866 0.064015344 49 8
-4.2993779 1.7808609 0.24388561 1 9
-3.3297961 1.3812898 0.44262943 39 11
-3.358628 1.3946245 0.57599181 41 12
-4.4584703 1.851319 -0.4223569 2 5
-3.4719388 1.4423857 0.7307983 15 13
-3.2846835 1.3652643 -0.18642062 1 6
-3.5861211 1.4912896 0.8966549 6 14
-3.3639102 1.3995718 -0.063596375 46 7
-3.3137529 1.3793821 0.96177179 11 15
-3.3048141 1.3844676 0.43994829 39 11
-4.4582944 1.8676889 -0.59350342 8 4
-3.3448761 1.4019358 0.57442749 33 12
-4.4721913 1.8753457 -0.42427427 12 5
-3.3719783 1.4153712 -0.19165421 1 6
-3.5721719 1.4994015 0.89440536 7 14
-3.3610945 1.4114938 -0.063631281 34 7
-3.2539485 1.3671658 0.94572496 21 15
-3.2114732 1.354598 0.060839012 1 8
-3.3075182 1.3985115 0.44092321 38 11
-4.4337921 1.8747318 -0.59106654 4 4
-3.2801719 1.3876227 0.56410277 6 12
-3.2469056 1.3748871 0.68538612 2 13
-3.5600026 1.5081984 0.89260578 10 14
-3.2262754 1.3681439 0.9389956 18 15
-3.1775253 1.3527081 0.060280539 13 8
-3.2900815 1.4040179 0.43921703 14 11
-4.5550179 1.9447589 -0.60812831 10 4
-3.2535093 1.3897529 0.56034839 6 12
-4.5384417 1.9386181 -0.43176967 5 5
-3.2080276 1.370988 0.67813498 4 13
-3.5547161 1.5206161 0.89260578 10 14
-3.1675684 1.3556591 -0.060140811 15 7
-3.2285841 1.3824385 0.94106621 4 15
-3.1617606 1.3590531 0.060071103 20 8
-3.2977331 1.4195458 0.31410912 1 10
-3.2268231 1.390357 0.43141744 6 11
-4.5117431 1.9449306 -0.60325295 4 4
-3.2413826 1.3979728 0.55909687 11 12
-4.5645776 1.9686525 -0.43490729 1 5
-3.1924071 1.3775102 0.67584574 4 13
-3.5511751 1.5337887 0.89305568 10 14
-3.1554749 1.3635342 -0.060001194 19 7
-3.1386535 1.3621207 0.059722058 22 8
-3.4439428 1.4960396 0.19678326 1 9
-3.2671757 1.4199305 0.31166875 1 10
-3.22013 1.4008206 0.43117371 11 11
-4.6905842 2.041471 -0.62811488 8 4
-3.2183719 1.401392 0.55596823 16 12
-4.7111225 2.051388 -0.44954944 19 5
-3.1713803 1.3815886 0.67241073 6 13
-3.5529451 1.5492903 0.89485532 9 14
-3.1433644 1.3713422 -0.059861571 20 7
-3.1137321 1.3642402 0.0593381 23 8
-3.4665427 1.5209844 0.33119205 1 10
-3.2024975 1.4064648 0.4294675 23 11
-4.7179599 2.0730042 -0.63274598 6 4
-3.2243106 1.4173874 0.55784541 41 12
-4.7568278 2.0910726 -0.45460454 45 5
-3.1809151 1.3989735 0.67546403 16 13
-3.5617838 1.5679643 0.89845449 9 14
-3.1257477 1.3766642 -0.059617236 22 7
-3.1016357 1.3718662 0.059198488 23 8
-3.5377238 1.566965 0.33851272 4 10
-3.2030129 1.420048 0.43019873 24 11
-3.2229548 1.4302362 0.55847114 23 12
-4.7422147 2.1044314 -0.45390722 33 5
-3.1562748 1.4013054 0.67126584 9 13
-3.5473852 1.5764309 0.89620507 9 14
-3.1008234 1.3786312 -0.059233285 20 7
-3.0840464 1.3769779 0.058954157 16 8
-3.0706909 1.3723005 0.17626755 1 9
-3.537689 1.5817442 0.33903563 6 10
-3.1654217 1.4166249 0.42581144 16 11
-3.185493 1.4269412 0.55283952 9 12
-4.75666 2.1307452 -0.45599896 46 5
-3.1424062 1.4082998 0.66935778 6 13
-3.5383048 1.587208 0.89530522 9 14
-3.0740995 1.3796208 -0.058814429 15 7
-3.0719287 1.3844476 0.058814533 15 8
-3.0585997 1.3797261 0.17584887 2 9
-3.523066 1.5899845 0.33816406 6 10
-3.0718126 1.3876222 0.41386822 20 11
-4.7430258 2.1435506 -0.63908309 42 4
-3.1732926 1.4347976 0.55158812 11 12
-4.7419314 2.1440542 -0.45530176 46 5
-3.1392598 1.4200697 0.66973984 6 13
-3.536293 1.601158 0.89620507 9 14
-3.058336 1.3853924 -0.058605 16 7
-3.0434146 1.3843985 0.05836077 9 8
-3.0464947 1.3870832 0.17543019 2 9
-3.5193081 1.6030988 0.3383384 6 10
-3.0488887 1.3901008 0.41143087 25 11
-4.7698302 2.1757472 -0.64371359 63 4
-3.1646707 1.4442255 0.55096239 13 12
-4.7452936 2.1655567 -0.45634764 46 5
-3.1253545 1.4269414 0.6678313 8 13
-3.5377719 1.6167321 0.89800465 7 14
-3.0298393 1.3852503 -0.058151241 12 7
-3.030745 1.3927052 0.17480215 2 9
-3.5206492 1.6193172 0.33903563 6 10
-3.0203311 1.3904752 0.40826225 30 11
-4.7423706 2.1832533 -0.64103305 48 4
-3.139874 1.4461725 0.54752076 16 12
-4.7554197 2.1912715 -0.45809066 44 5
-3.0987082 1.4285244 0.66325194 11 13
-3.5338764 1.6298876 0.89845449 9 14
-3.021354 1.3941416 -0.058081429 22 7
-3.0082741 1.3938423 0.057872113 5 8
-3.0079899 1.3943484 0.17375544 2 9
-3.5224891 1.6343377 0.33973292 6 10
-2.9850967 1.3862687 0.40411869 21 11
-4.7243028 2.1939502 -0.63957006 46 4
-3.1117716 1.4457573 0.54345345 9 12
-4.7553544 2.2103887 -0.45878798 44 5
-3.0743718 1.429686 0.6590541 17 13
-3.5196178 1.6374875 0.89620507 9 14
-3.0112758 1.4016219 -0.057976719 57 7
-3.0271864 1.4148169 0.058325868 2 8
-2.966922 1.3879139 0.17166199 2 9
-3.5278773 1.651077 0.34077877 7 10
-2.9768882 1.3944761 0.40363124 4 11
-4.7274003 2.2154832 -0.64103246 46 4
-3.0852437 1.446547 0.53969902 13 12
-4.7624297 2.2329123 -0.46018246 44 5
-3.0109591 1.412359 0.64646071 8 13
-3.513881 1.6497625 0.89620507 7 14
-3.0136044 1.4155253 -0.058116335 38 7
-3.022229 1.4253758 0.058325868 2 8
-2.9584475 1.3965561 0.17145266 2 9
-3.5112829 1.6582764 0.33973289 6 10
-4.7393775 2.2413054 -0.64371419 48 4
-3.0533912 1.4446355 0.53500599 11 12
-4.7528057 2.2486708 -0.46000817 42 5
-2.9953635 1.4178218 0.644171 9 13
-3.516906 1.6661899 0.89845449 9 14
-3.0032239 1.4234676 -0.058011625 30 7
-3.1018307 1.4708674 0.91984302 0 15
-3.00279 1.4290423 0.058046632 2 8
-2.9499476 1.4051574 0.1712433 3 9
-3.5090699 1.6722374 0.34008151 7 10
-4.7404828 2.2621102 -0.64493227 44 4
-3.0019815 1.4331574 0.52687138 7 12
-2.9742041 1.421172 0.64073682 11 13
-3.5110686 1.6784562 0.89845449 9 14
-3.0862219 1.4766831 0.91673726 0 15
-3.040792 1.4608201 0.058884349 1 8
-2.9483783 1.4176906 0.17145267 5 9
-3.5100994 1.6885426 0.34077877 6 10
-4.7500448 2.2880847 -0.64736968 51 4
-2.9878109 1.4398636 0.52530712 10 12
-2.9548287 1.4252403 0.63768387 12 13
-3.5101581 1.6938545 0.89980417 7 14
-3.2025592 1.5467985 0.95297188 0 15
-2.9539425 1.4337207 0.17208068 2 9
-3.4967177 1.6979152 0.34008151 7 10
-4.7416272 2.3054793 -0.64736974 44 4
-2.9700787 1.4447562 0.52311701 10 12
-2.9533665 1.4372641 0.63844675 24 13
-3.5039263 1.7067084 0.89980417 7 14
-3.182976 1.5517535 0.94883078 7 15
-2.9440408 1.4403594 0.057208914 6 8
-2.9596825 1.4492934 0.17270871 2 9
-3.497927 1.7136161 0.34077877 6 10
-4.7478075 2.3290093 -0.64932013 51 4
-2.9490573 1.4472822 0.5203011 23 12
-4.7934704 2.3524482 -0.46715492 26 5
-2.9395201 1.4432385 0.63653862 16 13
-3.4979472 1.7189292 0.89980417 7 14
-2.9430647 1.4468915 -0.057243716 1 7
-3.1844745 1.5662653 0.95090133 16 15
-3.039412 1.5001911 0.059163578 1 8
-2.95486 1.4591001 0.17270871 2 9
-3.4883513 1.7240502 0.34043011 7 10
-4.7556615 2.3534937 -0.65151322 55 4
-2.9353898 1.4526731 0.51873684 16 12
-4.7923713 2.3727024 -0.46785215 42 5
-2.9555759 1.4639466 0.64111811 16 13
-3.4919257 1.7311289 0.89980417 7 14
-2.9525836 1.4637491 -0.05752296 1 7
-3.1584949 1.5665158 0.94468963 11 15
-3.0200989 1.503134 0.058884341 1 8
-2.9747772 1.4818727 0.17417412 2 9
-3.485878 1.7379953 0.34077877 7 10
-4.7584882 2.3745682 -0.65297627 55 4
-2.9585786 1.477028 0.52374274 17 12
-4.7894082 2.3920863 -0.46837515 39 5
-2.9419229 1.4693534 0.63921034 17 13
-3.4931381 1.7461845 0.90160376 7 14
-2.9081092 1.4543681 -0.056755055 1 7
-3.1547348 1.5783967 0.9452073 12 15
-2.9698467 1.4917294 0.17417412 2 9
-3.4872158 1.7531251 0.34147599 7 10
-4.7700944 2.4001503 -0.65565681 46 4
-2.9536643 1.4868309 0.52374274 15 12
-4.801023 2.4178131 -0.47029251 49 5
-2.9437892 1.4831474 0.64073646 16 13
-3.4838481 1.7560046 0.90070403 7 14
-3.1546581 1.5914592 0.94676018 11 15
-2.9613199 1.4997649 0.17396477 2 9
-3.4884915 1.7682818 0.34217367 6 10
-4.7691889 2.4195473 -0.6566323 53 4
-2.9663329 1.5055575 0.52687144 15 12
-4.7947559 2.434623 -0.47046685 46 5
-2.9528575 1.5000144 0.64378935 16 13
-3.4745312 1.7657821 0.89980417 7 14
-3.1510847 1.6027876 0.94727778 10 15
-2.9667387 1.5155445 0.17459282 2 9
-3.4826083 1.7798405 0.34217367 7 10
-4.7624817 2.4370849 -0.65687543 51 4
-2.9575422 1.5141022 0.52624565 15 12
-4.7986412 2.4577026 -0.47168702 46 5
-2.9513617 1.5115883 0.64455259 16 13
-3.4718151 1.7796769 0.90070403 7 14
-3.1489089 1.6155412 0.94831324 10 15
-2.9898379 1.5405273 0.17626758 2 9
-3.4725201 1.7907668 0.34182462 6 10
-4.7733498 2.4637082 -0.65955722 46 4
-2.9610152 1.5289485 0.52780998 13 12
-4.7935734 2.4762671 -0.47203568 46 5
-2.963243 1.5314091 0.64836884 15 13
-3.4687304 1.7941803 0.90160376 7 14
-3.1363871 1.6229715 0.94624251 12 15
-2.984442 1.5509545 0.17626756 2 9
-3.4750862 1.8074741 0.34269619 6 10
-4.7748513 2.4866898 -0.66101903 46 4
-2.960916 1.5420123 0.52874857 13 12
-4.7919688 2.4966662 -0.47273293 45 5
-2.9613609 1.5435584 0.64913237 15 13
-3.4693577 1.8098822 0.90340334 7 14
-3.1289904 1.6330161 0.94572496 11 15
-2.9931619 1.5687802 0.17710494 2 9
-3.4758139 1.8232951 0.34339345 6 10
-4.7806392 2.5098922 -0.66296893 44 4
-2.9695067 1.5596864 0.53125161 15 12
-4.7938056 2.5189395 -0.47377872 46 5
-2.9510121 1.5506305 0.64798713 15 13
-3.4667864 1.8231913 0.90430319 7 14
-3.1318185 1.6484275 0.94831318 10 15
-2.9770727 1.5736194 0.1764769 2 9
-3.4785552 1.8394673 0.34426501 6 10
-4.7753582 2.5284212 -0.66345704 44 4
-2.967535 1.5718915 0.53187728 13 12
-4.799068 2.5431213 -0.47517326 45 5
-2.9646637 1.5710341 0.65218538 13 13
-3.4500709 1.8298037 0.90160364 7 14
-3.1328709 1.6629719 0.95038366 12 15
-2.9821372 1.5896382 0.17710495 1 9
-3.4717886 1.8522061 0.34426498 6 10
-4.7717566 2.5478802 -0.66418833 42 4
-2.9637723 1.5831723 0.53219014 13 12
-4.8042202 2.5673692 -0.47656778 45 5
-2.9623485 1.5837402 0.6529482 13 13
-3.4467785 1.8442749 0.90250361 9 14
-3.1236408 1.6720742 0.94934839 12 15
-4.8940997 2.6307955 0.29119736 6 9
-3.4547753 1.8586493 0.34321913 7 10
-4.7676287 2.5681765 -0.66491884 40 4
-2.9704018 1.600065 0.53438026 13 12
-4.7952285 2.5841236 -0.47656778 44 5
-2.9723551 1.6024569 0.6563828 12 13
-3.4506099 1.8618475 0.90520304 7 14
-3.1160843 1.6820505 0.94883072 11 15
-4.8901548 2.6507187 0.29151139 12 9
-3.455271 1.8744975 0.34391633 6 10
-4.7852545 2.598181 -0.66857493 42 4
-2.9682701 1.6123097 0.53500599 12 12
-4.7966828 2.6065543 -0.47761366 44 5
-2.9618502 1.6094921 0.65523791 13 13
-3.4478405 1.875142 0.90610278 7 14
-3.1034069 1.6892234 0.94676024 11 15
-4.8948927 2.6754344 0.29234874 22 9
-3.4542801 1.8888131 0.34443927 3 10
-4.7848616 2.6196351 -0.66979426 40 4
-2.9747517 1.6293039 0.5371961 13 12
-4.8085217 2.6347718 -0.47970536 44 5
-2.971709 1.6283123 0.65867245 13 13
-3.4481084 1.890914 0.90790236 10 14
-2.840162 1.5581669 -0.056545623 1 7
-3.1059597 1.7046928 0.94934839 12 15
-4.8995171 2.700218 0.29318613 28 9
-3.4717593 1.9149323 0.34687966 1 10
-2.7113507 1.4961287 0.3802323 1 11
-4.7895913 2.6439965 -0.67174351 44 4
-2.9742346 1.6425421 0.53813475 12 12
-4.8115034 2.6582844 -0.48092556 42 5
-2.9777491 1.6458405 0.66134381 13 13
-3.4326289 1.898823 0.90565288 3 14
-3.1067512 1.7192659 0.95141894 12 15
-4.9018073 2.7249491 0.29391882 40 9
-2.6885037 1.4964013 0.37779489 1 11
-4.7868061 2.6653965 -0.67271847 44 4
-2.9595652 1.6486263 0.53657037 12 12
-4.8208723 2.6865687 -0.48284295 44 5
-2.9788458 1.6600469 0.66287065 13 13
-3.4327872 1.9145904 0.90745246 1 14
-2.8289399 1.5784502 -0.056545626 1 7
-3.1054895 1.733466 0.95297188 11 15
-4.9009771 2.7469258 0.29444218 42 9
-2.7871327 1.5640653 0.39241925 1 11
-4.7965131 2.6927788 -0.6753996 42 4
-2.7367795 1.5370648 0.49714887 18 12
-4.8184123 2.7072856 -0.48354018 45 5
-2.9881437 1.6796123 0.66630518 15 13
-3.0910017 1.7395582 0.9503836 12 15
-4.9109707 2.7739687 0.29559362 41 9
-2.9201632 1.6514757 0.41191834 2 11
-4.8048353 2.7184455 -0.67783701 42 4
-2.5872612 1.4643984 0.47086781 26 12
-4.8202872 2.7282984 -0.48458606 46 5
-2.9811444 1.6880237 0.66592324 13 13
-2.8181303 1.5976688 -0.056545623 1 7
-3.085216 1.7497989 0.9503836 10 15
-4.9168773 2.799989 0.29653561 42 9
-2.9195535 1.6646092 0.41264954 5 11
-4.8160081 2.7470031 -0.68076181 42 4
-2.5701244 1.4665672 0.46867779 32 12
-4.8315005 2.7569561 -0.48667783 45 5
-2.9905787 1.7071801 0.66935778 13 13
-3.0891516 1.7663113 0.95348948 12 15
-4.9127617 2.8192611 0.29684964 40 9
-2.9033988 1.6688548 0.41118711 6 11
-4.811553 2.7667651 -0.68149304 44 4
-2.5618222 1.4731127 0.46805206 36 12
-4.8373904 2.7827458 -0.48824659 46 5
-2.989706 1.7205466 0.67050266 15 13
-3.0816035 1.7755814 0.95297188 11 15
-4.9098063 2.8403924 0.29726833 40 9
-2.9150264 1.6884233 0.4136245 7 11
-4.8126569 2.7886772 -0.6829555 46 4
-2.5412829 1.47313 0.46523619 35 12
-4.8431587 2.8086116 -0.48981544 46 5
-2.994174 1.736361 0.67279279 15 13
-3.0870807 1.7931187 0.9565953 12 15
-4.9205651 2.8695889 0.29852441 39 9
-2.9074008 1.6975867 0.41338074 6 11
-4.8183203 2.8144708 -0.68514919 42 4
-2.5003092 1.4610626 0.45866597 14 12
-4.8372593 2.8266656 -0.49016404 46 5
-2.9965694 1.7517552 0.67470044 16 13
-3.0657988 1.7950985 0.9519366 11 15
-2.9100115 1.7127597 0.41459948 6 11
-4.8221507 2.8393304 -0.68709904 42 4
-2.4951942 1.4697818 0.458666 3 12
-4.8410964 2.8516235 -0.49155852 45 5
-2.988745 1.7612079 0.67431879 16 13
-3.059514 1.8057895 0.9519366 11 15
