# .PCD v0.7 - Point Cloud Data file format
VERSION 0.7
FIELDS x y z intensity ring
SIZE 4 4 4 4 2
TYPE F F F F U
COUNT 1 1 1 1 1
WIDTH 1228
HEIGHT 1
VIEWPOINT 0 0 0 1 0 0 0
POINTS 1228
DATA ascii
-4.2141113 -0.53685039 -0.22263707 57 6
-4.3572454 -0.55508476 1.0140793 38 14
-4.2431512 -0.53979629 -0.074661158 50 7
-4.3963327 -0.55850494 1.1874617 65 15
-4.2618508 -0.5353741 0.074975438 55 8
-4.2588263 -0.53348428 0.22494 52 9
-4.2821441 -0.5356462 0.37755841 48 10
-4.3099828 -0.53760064 0.53330016 42 11
-4.3341608 -0.53907913 0.69175321 46 12
-4.3446746 -0.5396179 0.85100788 42 13
-4.2317252 -0.52483946 -0.22347446 57 6
-4.3630247 -0.54034966 1.0149791 39 14
-4.2331018 -0.52350998 -0.07445173 52 7
-4.3982558 -0.54315531 1.1874617 62 15
-4.267663 -0.52097976 0.075045243 55 8
-4.2586799 -0.51837355 0.22483535 53 9
-4.2740984 -0.51949435 0.37668687 48 10
-4.3078914 -0.52207488 0.53281265 41 11
-4.3399391 -0.52442175 0.69237918 46 12
-4.3562765 -0.52562457 0.85291636 40 13
-4.2394805 -0.51078141 -0.22378848 31 6
-4.3687534 -0.52558297 1.0158789 38 14
-4.238874 -0.50920737 -0.074521542 47 7
-4.3886175 -0.52641773 1.1843561 62 15
-4.2654839 -0.5056088 0.074975438 56 8
-4.2683969 -0.50444335 0.22525403 53 9
-4.2739072 -0.5043382 0.37651259 48 10
-4.3096876 -0.50703424 0.53281265 42 11
-4.3456674 -0.50972944 0.69300485 46 12
-4.3424869 -0.50858819 0.84986311 40 13
-4.2412376 -0.49597961 -0.22378848 4 6
-4.3744326 -0.51078188 1.0167786 38 14
-4.2426119 -0.49463931 -0.07455644 29 7
-4.3923469 -0.5113197 1.1848737 60 15
-4.2553039 -0.48934457 0.074766017 53 8
-4.2741003 -0.4899956 0.22546338 55 9
-4.2836447 -0.48957402 0.37720981 48 10
-0.5868293 -0.066964597 -0.093547806 18 3
-4.3035426 -0.49108827 0.53183776 42 11
-4.3552709 -0.49545017 0.69425631 46 12
-4.354075 -0.49377471 0.85177112 42 13
-4.3801494 -0.49518323 1.0176786 39 14
-4.2542486 -0.48094994 -0.074730977 16 7
-4.3960242 -0.49620095 1.1853913 62 15
-4.2689929 -0.47507274 0.074975438 55 8
-4.2678442 -0.47418982 0.22504467 55 9
-4.2873082 -0.47483858 0.3773841 48 10
-0.5870595 -0.064915612 -0.093547806 18 3
-4.3053136 -0.47531059 0.53183776 40 11
-4.3608999 -0.48067811 0.69488198 46 12
-4.359674 -0.47900179 0.85253477 40 13
-4.3741016 -0.47904179 1.0158789 38 14
-4.2578888 -0.46631444 -0.074765876 13 7
-4.4092517 -0.48211262 1.1884971 62 15
-4.2784977 -0.46177182 0.075115062 55 8
-4.2694736 -0.45928925 0.22504467 56 9
-4.2869582 -0.45965761 0.37720981 48 10
-0.50870675 -0.054544721 -0.081033051 22 3
-4.3187089 -0.46229857 0.53330016 43 11
-4.3448734 -0.46356553 0.69206613 45 12
-4.3631907 -0.46474972 0.85291636 43 13
-4.369853 -0.46391684 1.0145293 38 14
-4.2555137 -0.45102715 -0.074696071 11 7
-4.4089875 -0.46651629 1.1879797 60 15
-4.2800837 -0.44683412 0.075115062 52 8
-4.2749467 -0.44554257 0.22525403 55 9
-4.2864776 -0.44523305 0.3770355 48 10
-0.56783938 -0.058880728 -0.090419129 19 3
-4.3163466 -0.44681275 0.53281265 42 11
-0.62989008 -0.065092862 -0.077752613 14 4
-4.350317 -0.44956186 0.69269192 45 12
-4.3686929 -0.44991973 0.85367918 39 13
-4.373384 -0.44885918 1.0149791 40 14
-4.2569857 -0.43691269 -0.074696064 9 7
-4.408587 -0.4516958 1.1874617 62 15
-4.271594 -0.43163306 0.07494054 53 8
-4.2844243 -0.43141881 0.22567271 55 9
-4.2860231 -0.43006867 0.37686121 48 10
-0.57589352 -0.057786383 -0.091670603 19 3
-4.3217554 -0.43289232 0.53330016 41 11
-0.58269668 -0.058263596 -0.071902886 16 4
-4.3616881 -0.43535352 0.69425631 48 12
-4.3564858 -0.43406743 0.85100788 40 13
-0.9321155 -0.092708953 -0.049091116 4 6
-4.378727 -0.4347389 1.0158789 39 14
-4.256495 -0.42185408 -0.074661158 9 7
-4.4043703 -0.43573356 1.1859089 60 15
-4.2771997 -0.41561487 0.075010344 53 8
-4.2900257 -0.41534963 0.22588208 55 9
-4.2915368 -0.41473994 0.37720981 48 10
-0.56431359 -0.054436632 -0.089793384 20 3
-4.3154817 -0.41553372 0.53232515 42 11
-0.61453182 -0.059064459 -0.075802699 15 4
-4.3633275 -0.41860369 0.69425631 46 12
-4.3542123 -0.4169623 0.85024458 40 13
-0.8966769 -0.085708462 -0.04720702 19 6
-4.3900633 -0.41884804 1.0181284 38 14
-4.2779899 -0.40740296 -0.075010203 8 7
-4.4175506 -0.41991568 1.1890148 60 15
-4.2826071 -0.40105492 0.075080156 52 8
-4.2874718 -0.4000009 0.22567271 53 9
-4.296926 -0.40012652 0.37755841 47 10
-0.54876506 -0.051003985 -0.087290436 20 3
-4.3169055 -0.40046719 0.53232515 42 11
-0.5593884 -0.051794421 -0.068978086 17 4
-4.3647623 -0.40337017 0.69425631 46 12
-4.3693252 -0.4030228 0.85291588 40 13
-0.87310445 -0.080380738 -0.045950957 30 6
-4.3817954 -0.40263063 1.0158788 38 14
-4.2853603 -0.3930153 -0.075114928 6 7
-4.4093695 -0.40361235 1.1864265 65 15
-4.2879639 -0.38646325 0.075149961 52 8
-4.280818 -0.38506505 0.22525403 55 9
-4.3022652 -0.38548151 0.37790751 47 10
-0.54106975 -0.04838435 -0.086038969 21 3
-4.3182778 -0.38539588 0.53232521 41 11
-0.57142949 -0.050898179 -0.070440464 16 4
-4.3660765 -0.38889372 0.69425637 48 12
-4.3707056 -0.38776842 0.85291588 39 13
-0.89128494 -0.078917921 -0.046893001 40 6
-4.3831744 -0.38733277 1.0158789 39 14
-4.2846475 -0.37862614 -0.075080007 6 7
-4.4222312 -0.39000633 1.1895325 62 15
-4.2971907 -0.37293318 0.075289585 52 8
-4.2900953 -0.37080768 0.22567271 55 9
-4.2956443 -0.36977682 0.37720981 48 10
-0.56090808 -0.048283976 -0.08916764 20 3
-4.3274431 -0.37175328 0.53330016 41 11
-0.57950646 -0.049681328 -0.071415484 16 4
-4.3575654 -0.37280878 0.69269192 45 12
-4.3778362 -0.3737734 0.85406077 36 13
-0.895522 -0.07630118 -0.047102351 32 6
-4.3883185 -0.37312558 1.0167787 39 14
-4.2879362 -0.36383665 -0.075114928 6 7
-4.4197149 -0.37424025 1.1884972 62 15
-4.286509 -0.35693514 0.075080149 52 8
-4.2953439 -0.35616118 0.22588207 53 9
-4.2988329 -0.35569507 0.3773841 48 10
-0.52563703 -0.043399896 -0.083535999 21 3
-4.3425632 -0.35778731 0.53500634 40 11
-0.54406482 -0.04473022 -0.06702812 17 4
-4.3706522 -0.35856473 0.69456905 45 12
-4.3732433 -0.35800999 0.85291588 39 13
-0.89976406 -0.073499739 -0.047311693 51 6
-4.3934789 -0.35812175 1.0176786 39 14
-4.2951598 -0.34935397 -0.075219646 6 7
-4.4152174 -0.35834238 1.1869441 60 15
-4.2917166 -0.34228712 0.075149968 52 8
-4.3045249 -0.34179771 0.22630075 53 9
-4.3060665 -0.34040764 0.37790704 47 10
-0.52579254 -0.041473165 -0.083535999 21 3
-4.3299327 -0.34153396 0.5333001 42 11
-0.56004941 -0.044076778 -0.068978019 17 4
-4.3758163 -0.34361637 0.69519484 43 12
-4.3803983 -0.34243676 0.85406077 42 13
-0.87812406 -0.068493195 -0.046160299 73 6
-4.4064193 -0.34292355 1.020378 38 14
-4.2983465 -0.33451292 -0.075254537 6 7
-4.4202943 -0.34322721 1.1879796 60 15
-4.2969294 -0.32685915 0.075219773 52 8
-4.2977257 -0.32616431 0.22588207 53 9
-4.3072276 -0.32537442 0.37790751 48 10
-0.56532991 -0.042606506 -0.089793384 20 3
-4.3311558 -0.32566166 0.53330016 41 11
-0.58396155 -0.043805853 -0.071902886 16 4
-4.3769894 -0.32833967 0.69519484 43 12
-4.3776517 -0.32685283 0.85329759 40 13
-0.87238252 -0.064982444 -0.045846283 83 6
-4.4017596 -0.32710683 1.0190284 40 14
-4.3034768 -0.31980318 -0.075324357 6 7
-4.431098 -0.32850948 1.1905677 53 15
-4.2979898 -0.31260806 0.075219773 52 8
-4.2948546 -0.31087303 0.22567274 53 9
-4.3222489 -0.31133938 0.37912726 48 10
-0.55758703 -0.040163998 -0.088541903 20 3
-4.3401322 -0.31186619 0.53427517 41 11
-0.56430346 -0.040449813 -0.06946557 17 4
-4.3623466 -0.31193089 0.69269198 45 12
-4.3845863 -0.31275308 0.85444248 40 13
-0.87657768 -0.06237264 -0.046055626 82 6
-4.3931003 -0.31181821 1.0167787 39 14
-4.2925978 -0.30393171 -0.075114921 6 7
-4.4283638 -0.31276879 1.1895325 56 15
-4.3030453 -0.29787946 0.075289585 52 8
-4.2998462 -0.29690403 0.22588207 55 9
-4.3093433 -0.29604852 0.37790704 47 10
-0.5577237 -0.038217392 -0.088541895 20 3
-4.3451548 -0.29698494 0.53476262 41 11
-0.57632416 -0.039289862 -0.070928 16 4
-4.3732114 -0.29813579 0.69425637 46 12
-4.3895688 -0.29771167 0.85520566 39 13
-0.88077557 -0.059582014 -0.046264976 79 6
-4.4019394 -0.29700613 1.0185783 38 14
-4.2915869 -0.28956047 -0.075080007 6 7
-4.4120293 -0.29691446 1.1848737 48 15
-4.3000188 -0.28334531 0.07521978 52 8
-4.3088288 -0.28241536 0.22630078 53 9
-4.3063736 -0.28074595 0.37755841 48 10
-0.5341931 -0.034825716 -0.084787481 21 3
-4.3540397 -0.28308928 0.53573757 42 11
-0.57645136 -0.037378468 -0.070927933 16 4
-4.3781667 -0.28312233 0.69488198 48 12
-4.3807359 -0.28252178 0.85329801 36 13
-0.87698203 -0.056404512 -0.04605563 75 6
-4.3951211 -0.28190804 1.0167787 39 14
-4.3045459 -0.27534512 -0.075289451 6 7
-4.4149661 -0.28163463 1.1853912 46 15
-4.2929974 -0.26783651 0.075080149 50 8
-4.3097882 -0.26737288 0.22630075 55 9
-4.3172245 -0.26707891 0.37842998 48 10
-0.53431153 -0.032960687 -0.084787488 21 3
-4.33915 -0.26691395 0.53378761 41 11
-0.58054107 -0.035609238 -0.071415484 16 4
-4.3850431 -0.26820064 0.69582063 45 12
-4.3816957 -0.26722834 0.85329759 36 13
-0.87318623 -0.053100638 -0.04584628 83 6
-4.4116397 -0.26750898 1.0203779 39 14
-4.305481 -0.26031768 -0.075289458 6 7
-4.4159226 -0.26622066 1.1853913 46 15
-4.3058848 -0.25355473 0.075289592 52 8
-4.3027196 -0.25186136 0.22588207 55 9
-4.3221083 -0.25223836 0.37877864 48 10
-0.55414361 -0.032242797 -0.087916158 20 3
-4.3440194 -0.25199676 0.53427517 42 11
-0.60047966 -0.034728557 -0.0738528 15 4
-4.3898978 -0.25311971 0.69644648 48 12
-4.3845615 -0.25204533 0.85367918 40 13
-0.86937845 -0.049823549 -0.045636941 93 6
-4.4008741 -0.25144085 1.0176786 40 14
-4.3223348 -0.24619678 -0.075568691 6 7
-4.4168253 -0.25080553 1.1853913 46 15
-4.3067436 -0.23852171 0.075289592 50 8
-4.3055673 -0.23695017 0.22598673 53 9
-4.3209729 -0.23704059 0.37860429 48 10
-0.55819774 -0.030524118 -0.088541903 20 3
-4.3528013 -0.2372638 0.53525013 41 11
-0.56888247 -0.030909104 -0.06995298 16 4
-4.3808913 -0.23726025 0.69488198 48 12
-0.85348433 -0.046222996 -0.074779652 100 5
-4.3991375 -0.23747845 0.85635048 42 13
-0.8775245 -0.047217775 -0.046055626 100 6
-4.3978324 -0.2358685 1.0167787 40 14
-4.3111868 -0.23046687 -0.075359255 8 7
-4.4138165 -0.23518075 1.1843562 36 15
-4.3155379 -0.22390227 0.075429209 50 8
-4.3163409 -0.22243229 0.22651009 53 9
-4.315805 -0.22165048 0.37808135 48 10
-0.58986557 -0.030191014 -0.093547806 18 3
-4.3536029 -0.22206709 0.53525013 41 11
-4.3895845 -0.22236735 0.69613343 46 12
-4.3979793 -0.22202204 0.85596889 40 13
-0.8836683 -0.044455387 -0.046369649 71 6
-4.4180918 -0.22149242 1.0212778 39 14
-4.3179564 -0.21571584 -0.075463966 8 7
-4.4165392 -0.21986811 1.1848737 35 15
-4.3122973 -0.20864342 0.075359382 50 8
-4.3170915 -0.20736499 0.22651009 53 9
-4.318542 -0.20667927 0.37825617 48 10
-0.55445093 -0.026438246 -0.087916166 20 3
-4.3583164 -0.20705706 0.53573751 41 11
-4.3923078 -0.20713539 0.69644648 43 12
-4.3791156 -0.20574732 0.85215318 37 13
-0.881823 -0.041277334 -0.046264976 58 6
-4.418838 -0.20606789 1.0212778 39 14
-4.3186827 -0.2006419 -0.075463958 8 7
-4.4095607 -0.20409383 1.1828032 35 15
-4.3090048 -0.19340998 0.075289585 50 8
-4.3237748 -0.19256075 0.22682412 52 9
-4.3252091 -0.19186828 0.37877864 48 10
-0.59006196 -0.0260721 -0.093547806 18 3
-4.3550472 -0.19166884 0.53525013 41 11
-4.3969502 -0.1919743 0.69707209 48 12
-4.3954988 -0.19114341 0.85520566 39 13
-0.88395709 -0.038285349 -0.046369649 57 6
-4.4234242 -0.19080985 1.0221776 39 14
-4.337338 -0.18633907 -0.075778112 9 7
-4.4102464 -0.18869919 1.1828032 35 15
-4.3176455 -0.17869925 0.075429201 50 8
-4.3164382 -0.17713909 0.22640543 53 9
-4.3258524 -0.17677023 0.37877864 48 10
-4.3457713 -0.17606378 0.53403133 38 11
-4.3995681 -0.17670514 0.69738507 46 12
-4.4020243 -0.1760343 0.85635048 40 13
-0.88608098 -0.035278749 -0.046474315 42 6
-4.4162741 -0.17506021 1.0203779 39 14
-4.3419585 -0.1713554 -0.075847924 9 7
-4.4108782 -0.17330328 1.1828032 33 15
-4.3222394 -0.16377705 0.075499013 50 8
-4.319026 -0.16214666 0.22651009 55 9
-4.3423991 -0.16150528 0.38017309 48 10
-4.3681812 -0.16170079 0.53671247 41 11
-4.3962097 -0.16120179 0.69675922 48 12
-4.4085259 -0.16011257 0.85749537 40 13
-0.88021648 -0.031814631 -0.046160299 29 6
-4.4168863 -0.15887146 1.0203779 39 14
-4.3265429 -0.15562187 -0.075568683 13 7
-4.4172478 -0.15811361 1.1843561 34 15
-4.3188138 -0.14779834 0.075429201 48 8
-4.3235574 -0.14720421 0.22671942 53 9
-4.3230238 -0.14567538 0.37842998 48 10
-4.3667607 -0.1456233 0.5364688 40 11
-4.3947716 -0.14578956 0.69644648 45 12
-4.4110198 -0.14478725 0.85787696 40 13
-0.89828801 -0.029328452 -0.047102351 26 6
-4.4213095 -0.14358012 1.0212778 39 14
-4.3150668 -0.14012995 -0.07535924 11 7
-4.4061871 -0.14231925 1.1812502 33 15
-4.3192801 -0.13347462 0.075429201 50 8
-4.3260417 -0.13217215 0.22682409 53 9
-4.3334641 -0.13088599 0.37930161 43 10
-4.3692036 -0.13120119 0.53671247 41 11
-4.403152 -0.13068235 0.69769794 45 12
-4.4036264 -0.12992723 0.85635048 42 13
-0.89438742 -0.026232317 -0.046893004 27 6
-4.4334488 -0.12925832 1.0239772 39 14
-4.3295221 -0.12547208 -0.075603582 11 7
-4.4027953 -0.12682655 1.180215 32 15
-4.3157215 -0.11828803 0.075359389 52 8
-4.3344626 -0.11728662 0.22724277 52 9
-4.3378568 -0.1166219 0.37965015 45 10
-4.3537598 -0.11552766 0.53476262 41 11
-4.4095049 -0.11546668 0.69863647 46 12
-4.4020905 -0.11450375 0.85596889 40 13
-0.88449061 -0.022852423 -0.046369646 21 6
-4.4377694 -0.11388178 1.024877 39 14
-4.3339324 -0.11046026 -0.075673401 13 7
-4.4109364 -0.11165258 1.1822857 33 15
-4.3241048 -0.10341375 0.075499013 50 8
-4.332849 -0.10210967 0.22713813 53 9
-4.3402295 -0.10152571 0.37982449 48 10
-4.3620744 -0.10051332 0.53573751 41 11
-4.4138303 -0.10016343 0.69926214 48 12
-4.4122767 -0.099358797 0.85787696 40 13
-0.9005391 -0.020121522 -0.04720702 12 6
-4.4303465 -0.098217487 1.0230774 39 14
-4.3402886 -0.095464155 -0.075778112 13 7
-4.4074359 -0.096170433 1.1812502 36 15
-4.3284383 -0.088399701 0.075568825 50 8
-4.3291855 -0.086904287 0.22692879 53 9
-4.3505173 -0.086571902 0.38069603 48 10
-4.3743076 -0.085518934 0.53719997 41 11
-4.412178 -0.084718689 0.69894928 48 12
-4.4145594 -0.083993688 0.85825908 39 13
-0.89661002 -0.016902616 -0.046997674 6 6
-4.4345593 -0.082825802 1.0239772 39 14
-4.3246017 -0.080016054 -0.075498886 13 7
-4.4019504 -0.080678701 1.1796973 35 15
-4.330719 -0.073324844 0.075603724 48 8
-4.3334565 -0.071857154 0.22713813 53 9
-4.3348565 -0.07112468 0.37930161 47 10
-4.3765635 -0.070279926 0.53744364 40 11
-4.4065213 -0.069223583 0.69801062 46 12
-4.4148259 -0.068582311 0.85825908 39 13
-0.91263974 -0.014018347 -0.047835052 5 6
-4.4348216 -0.067345679 1.0239772 40 14
-4.3248539 -0.064919762 -0.075498879 16 7
-4.3848205 -0.065055534 1.1750386 34 15
-4.3289495 -0.058180377 0.075568818 48 8
-4.3356776 -0.056757186 0.22724277 52 9
-4.3430467 -0.056095567 0.3799988 47 10
-4.3847227 -0.055103149 0.53841871 40 11
-4.4146371 -0.053936891 0.69926214 46 12
-4.4071865 -0.053077642 0.85673207 40 13
-0.86874646 -0.01031105 -0.045532268 7 6
-4.4428239 -0.051954821 1.0257767 39 14
-4.3310523 -0.049892817 -0.075603582 19 7
-4.3850207 -0.04974914 1.1750386 36 15
-4.3251271 -0.04302926 0.075499013 48 8
-4.3438377 -0.04169907 0.22766146 53 9
-4.3491931 -0.040991373 0.38052174 50 10
-4.3749638 -0.039707076 0.53720003 40 11
-4.4207249 -0.038579248 0.70020086 48 12
-4.4191236 -0.037793983 0.85902178 40 13
-0.8607884 -0.0072115441 -0.045113578 8 6
-4.4507728 -0.03651103 1.0275763 40 14
-4.3352003 -0.034806311 -0.075673401 27 7
-4.3793726 -0.034395572 1.1734856 40 15
-4.3372488 -0.028009878 0.075708434 48 8
-4.335968 -0.026487067 0.22724277 52 9
-4.3592715 -0.025869641 0.38139331 48 10
-4.3770599 -0.02444632 0.5374437 38 11
-4.4228082 -0.023158025 0.70051366 48 12
-4.4192281 -0.022368005 0.85902226 40 13
-4.3679538 -0.021346154 -0.22891741 2 6
-4.4391813 -0.020919487 1.024877 39 14
-4.345293 -0.019718677 -0.075847916 29 7
-4.3756022 -0.01909152 1.1724504 45 15
-4.3353209 -0.012862798 0.075673543 48 8
-4.3400292 -0.011362925 0.22745216 52 9
-4.3633204 -0.010661363 0.38174191 48 10
-4.3850594 -0.0091849351 0.53841871 37 11
-4.4149599 -0.0077054873 0.69926214 46 12
-4.4310594 -0.0069613219 0.86131155 42 13
-4.3400402 -0.0060598571 -0.22745202 8 6
-4.4431243 -0.005428364 1.0257767 39 14
-4.3313375 -0.0045348401 -0.075603582 34 7
-4.3833699 -0.0038253651 1.174521 45 15
-4.343338 0.0022746853 0.075813152 45 8
-4.3400431 0.0037878298 0.22745217 53 9
-4.355361 0.0045613074 0.38104469 47 10
-4.3870497 0.0061257738 0.53866243 38 11
-4.4189115 0.0077116117 0.69988799 46 12
-4.4349842 0.0085147247 0.86207491 40 13
-4.3080783 0.0090229381 -0.22577725 23 6
-4.4606547 0.010119922 1.0298259 41 14
-4.3273282 0.010573694 -0.075533777 39 7
-4.3717661 0.011445253 1.1714152 48 15
-4.339304 0.017418779 0.07574334 47 8
-4.3559799 0.019007219 0.22828948 52 9
-4.3553185 0.01976341 0.38104469 48 10
-4.3929563 0.021468621 0.5393936 40 11
-4.4267588 0.023178993 0.70113939 48 12
-4.434927 0.023995779 0.86207479 40 13
-4.3459682 0.024271911 -0.22776602 57 6
-4.4566951 0.025669193 1.0289261 39 14
-4.339263 0.025750142 -0.075743206 50 7
-4.3697672 0.026693814 1.1708975 51 15
-4.335218 0.032535784 0.075673543 48 8
-4.3558931 0.033452235 0.22828951 50 9
-4.3651848 0.035046291 0.3819162 48 10
-4.3868999 0.036751959 0.53866243 37 11
-4.4365335 0.037942104 0.70270377 48 12
-4.4230366 0.03937063 0.85978508 36 13
-4.3119044 0.039133992 -0.22598656 48 6
-4.4643793 0.040517829 1.0307256 40 14
-4.343152 0.040176671 -0.075813003 50 7
-4.3793125 0.041275531 1.1734855 48 15
-4.3430843 0.046998419 0.075813152 47 8
-4.3517642 0.047851924 0.22808017 53 9
-4.3630524 0.049499139 0.38174191 47 10
-4.386754 0.051299412 0.53866243 38 11
-4.4383588 0.052677587 0.70301658 49 12
-32.077137 0.38632083 -2.8065903 10 5
-4.4385867 0.054230843 0.86283797 42 13
-4.3097539 0.053407993 -0.22588192 51 6
-4.4603238 0.055273905 1.0298259 41 14
-4.3469944 0.054629292 -0.07588283 50 7
-4.375289 0.055748582 1.1724504 48 15
-4.3509021 0.061513588 0.075952768 47 8
-4.3515711 0.063042246 0.22808017 52 9
-4.3688412 0.06405507 0.38226488 48 10
-4.3964839 0.065995269 0.53988111 40 11
-9.1601458 0.13910122 -1.1248547 2 4
-4.4262972 0.067988127 0.70113939 48 12
-32.047794 0.49225557 -2.8041503 10 5
-4.4383831 0.068949603 0.86283809 40 13
-4.3215356 0.067887753 -0.22650996 48 6
-4.4581556 0.070812188 1.029376 39 14
-4.3327808 0.069578163 -0.075638488 50 7
-4.3769994 0.071051277 1.172968 51 15
-4.3586588 0.076841824 0.076092392 48 8
-4.3553181 0.078303605 0.22828951 52 9
-4.3665986 0.079268739 0.38209054 48 10
-4.3962269 0.08134158 0.53988111 41 11
-9.2191467 0.1721876 -1.1321658 2 4
-4.4319587 0.083551258 0.70207804 48 12
-32.053848 0.60427898 -2.8048475 21 5
-4.4420404 0.08451578 0.86360127 40 13
-4.3252649 0.083049104 -0.22671926 48 6
-4.4598293 0.086412549 1.0298259 40 14
-4.3405099 0.084857419 -0.075778119 50 7
-4.3747931 0.086291455 1.1724504 54 15
-4.352366 0.091928303 0.075987682 48 8
-4.3630052 0.09367764 0.22870819 52 9
-4.3682866 0.094552711 0.38226533 48 10
-4.4117932 0.097036116 0.54183102 41 11
-31.95809 0.70848149 -3.9249225 13 4
-4.4375639 0.099152602 0.70301658 48 12
-32.023655 0.71553415 -2.8024068 10 5
-4.4240537 0.099623218 0.86016667 39 13
-4.3289437 0.098238394 -0.22692867 55 6
-4.4711905 0.10224612 1.0325254 41 14
-4.3461847 0.10014642 -0.075882837 48 7
-4.3706026 0.10147329 1.1714151 54 15
-4.3560166 0.10721887 0.076057486 48 8
-4.3706384 0.10910524 0.22912689 49 9
-4.3838649 0.11020204 0.38365936 52 10
-4.3935676 0.11197942 0.53963739 38 11
-4.4470649 0.11489723 0.70458096 48 12
-32.009007 0.82700527 -2.8013606 10 5
-4.4413419 0.11552396 0.86360127 40 13
-4.3205876 0.11313859 -0.22650996 51 6
-4.472754 0.11790433 1.0329752 40 14
-4.3478079 0.11536999 -0.075917736 50 7
-4.3721528 0.11677957 1.1719327 51 15
-4.3576155 0.12248091 0.076092392 47 8
-4.3582525 0.12402023 0.22849888 52 9
-4.3874369 0.12561807 0.38400799 47 10
-4.4010868 0.1275453 0.54061234 38 11
-4.3514585 0.12686816 -0.53451926 2 4
-4.4545345 0.13065144 0.70583242 48 12
-31.993977 0.93838298 -2.8003149 10 5
-4.4409113 0.13102759 0.86360168 40 13
-4.3241582 0.12833814 -0.22671926 53 6
-4.4703674 0.13345842 1.0325254 40 14
-4.3533745 0.13072614 -0.076022446 50 7
-4.3717184 0.13204065 1.1719327 51 15
-4.357161 0.13769016 0.076092392 47 8
-4.365778 0.13948889 0.22891755 48 9
-4.3869715 0.1409314 0.38400799 47 10
-4.404582 0.1430372 0.54109973 38 11
-8.2317619 0.26876158 -1.0112724 2 4
-4.4402308 0.14574529 0.70364237 48 12
-32.010418 1.0507039 -2.8020577 10 5
-4.442389 0.14659335 0.86398327 40 13
-4.3316689 0.1436965 -0.22713797 55 6
-4.4737692 0.14919102 1.0334251 40 14
-4.3448973 0.14565359 -0.07588283 48 7
-4.3847461 0.14775553 1.1755562 54 15
-4.3666458 0.15324944 0.076266915 48 8
-4.3752446 0.15508132 0.22944093 51 9
-4.3864522 0.15624402 0.38400796 48 10
-4.4358306 0.15877907 -0.7030164 1 3
-4.4060402 0.15848267 0.54134351 41 11
-4.4396949 0.16124488 0.70364237 48 12
-31.970722 1.1611418 -2.7989204 10 5
-4.4536223 0.16252899 0.86627305 40 13
-4.3311405 0.15881507 -0.22713797 53 6
-4.4732213 0.16480769 1.0334252 41 14
-4.3483586 0.16096728 -0.075952634 48 7
-4.3706899 0.16255674 1.1719327 51 15
-4.3620887 0.16833687 0.07619711 50 8
-4.3786674 0.17050731 0.22965026 49 9
-4.38588 0.17155477 0.38400796 50 10
-4.4173622 0.17433043 0.54280597 41 11
-4.4529219 0.17729159 0.70583242 48 12
-31.954527 1.2722588 -2.7978745 10 5
-4.4451814 0.17775935 0.86474609 40 13
-4.3325558 0.17401393 -0.22724263 55 6
-4.4726181 0.18042126 1.0334251 39 14
-4.355763 0.17646782 -0.076092258 48 7
-4.3662357 0.1776564 1.1708975 51 15
-4.3634725 0.18364555 0.076232016 48 8
-4.3780456 0.18579081 0.22965026 51 9
-4.389236 0.18703412 0.38435659 50 10
-4.4346142 0.18974209 -0.7030164 1 3
-4.4107766 0.18949334 0.54207474 38 11
-4.3690948 0.18846759 -0.53695655 2 4
-4.4503026 0.1927477 0.70551962 46 12
-31.957857 1.3841313 -2.7985721 10 5
-4.4484563 0.19344555 0.86550927 42 13
-4.3299265 0.18904929 -0.22713797 51 6
-4.4855895 0.19662899 1.0365744 40 14
-4.3591156 0.19184712 -0.076162063 50 7
-4.3675189 0.19298172 1.1714151 48 15
-4.3747907 0.19942331 0.076441452 48 8
-4.3673944 0.20061274 0.22912689 49 9
-4.4004979 0.20290397 0.38540247 48 10
-4.4062996 0.20394212 -0.69863623 1 3
-4.4081059 0.20479669 0.54183102 41 11
-4.396172 0.20501116 -0.54036897 2 4
-4.4634156 0.20892766 0.70770973 48 12
-31.909042 1.4936279 -2.7947371 10 5
-4.4536376 0.20924999 0.86665416 40 13
-4.3332305 0.20434968 -0.22734731 48 6
-4.473197 0.21173272 1.033875 40 14
-4.3644114 0.20734794 -0.076266773 45 7
-4.3668189 0.20822512 1.1714151 48 15
-4.3800592 0.21498717 0.076546155 53 8
-4.3746476 0.21625219 0.22954559 49 9
-4.4037423 0.21846089 0.38575107 48 10
-4.3858314 0.21833967 -0.69550759 1 3
-4.4133124 0.22047989 0.54256231 42 11
-4.3954296 0.22035553 -0.54036897 2 4
-4.4488492 0.22381198 0.70551968 48 12
-31.915293 1.6111736 -2.795783 10 5
-4.4607234 0.22518983 0.86818069 42 13
-4.3364801 0.21967645 -0.22755668 48 6
-4.4860544 0.22803846 1.0370245 41 14
-4.3576703 0.22227482 -0.07616207 48 7
-4.3795705 0.22415823 1.1750386 51 15
-4.383276 0.23048525 0.076615959 52 8
-4.3818431 0.23194364 0.22996424 48 9
-4.390975 0.23396397 0.38470519 48 10
-4.3850012 0.23441312 -0.69550747 1 3
-4.420444 0.23630784 0.5435372 38 11
-4.4501357 0.23867397 -0.54719353 2 4
-4.4539576 0.2396585 0.70645815 48 12
-31.897539 1.7219254 -2.7947371 10 5
-4.4696693 0.24206859 0.87008876 40 13
-4.3476129 0.23621923 -0.22818473 51 6
-4.4812961 0.24426706 1.0361245 41 14
-4.3628583 0.23781124 -0.07626678 52 7
-4.3652587 0.23870619 1.1714151 48 15
-4.3724194 0.24598771 0.076441452 48 8
-4.3790135 0.24712533 0.22985961 51 9
-4.398088 0.24974184 0.38540244 50 10
-4.4314885 0.25241438 -0.7030164 1 3
-4.4294577 0.25307316 0.54475588 40 11
-1.0285752 0.058947083 -0.12650034 2 4
-4.4629545 0.25576949 0.70802253 46 12
-31.863487 1.8316581 -2.7922966 10 5
-4.4629173 0.25733027 0.86894387 40 13
-4.3467617 0.25139391 -0.22818473 48 6
-4.4920893 0.26058552 1.0388241 41 14
-4.3659935 0.25327072 -0.076336578 50 7
-4.3624701 0.25383025 1.1708975 51 15
-4.3755713 0.26072279 0.076511249 48 8
-4.3860989 0.26288649 0.23027828 49 9
-4.3971891 0.26509261 0.38540244 50 10
-4.3320379 0.26116487 -0.68737304 1 3
-4.4226494 0.26740116 0.54402471 38 11
-4.4681759 0.27093747 -0.549631 2 4
-4.4699216 0.2718263 0.70927399 48 12
-31.856899 1.9428645 -2.7922966 10 5
-4.4581213 0.27188855 0.86818081 40 13
-4.3379297 0.26531935 -0.22776602 46 6
-4.4989805 0.27595776 1.0406235 40 14
-4.3670793 0.26863119 -0.076371491 50 7
-4.3634858 0.26917562 1.1714151 48 15
-4.3846135 0.27662551 0.076685771 50 8
-4.3852029 0.27743006 0.23027828 49 9
-4.4082165 0.28043193 0.38644829 47 10
-4.4020696 0.28081116 -0.69863635 1 3
-4.4177275 0.28258416 0.5435372 38 11
-4.3919244 0.28170434 -0.54036897 2 4
-4.4749093 0.28702712 0.71021259 48 12
-31.826424 2.0469623 -2.790205 10 5
-4.4649806 0.28795519 0.86970717 40 13
-4.336977 0.28046003 -0.22776602 44 6
-4.4902115 0.2911551 1.038824 41 14
-4.3781376 0.28388801 -0.076580919 50 7
-4.3702803 0.28414547 1.1734856 54 15
-4.3876624 0.2914291 0.076755576 52 8
-4.3881927 0.29300174 0.2304876 51 9
-4.4111872 0.29608372 0.38679695 50 10
-4.3814039 0.29408464 -0.69550759 1 3
-4.4385524 0.29869863 0.54621828 41 11
-4.4186945 0.29813796 -0.54378074 2 4
-4.4679675 0.30224478 0.70927399 48 12
-31.842936 2.159663 -2.7922966 10 5
-4.4718361 0.30329049 0.87123406 42 13
-4.351964 0.29592454 -0.22860339 44 6
-4.4872775 0.30591124 1.0383741 40 14
-4.3671446 0.29848716 -0.076406389 52 7
-4.3596253 0.29873869 1.1708975 44 15
-4.3945436 0.30806711 0.076895192 48 8
-4.3850975 0.30894306 0.23038295 49 9
-4.3982019 0.31063771 0.3857511 50 10
-4.4000015 0.31153759 -0.69863623 1 3
-4.437428 0.3149648 0.54621828 41 11
-4.417572 0.31433031 -0.54378074 2 4
-4.4688001 0.31876034 0.7095868 48 12
-31.783531 2.2671254 -2.7877645 10 5
-4.4726529 0.31981865 0.87161517 37 13
-4.3608108 0.31258634 -0.22912674 55 6
-4.4919572 0.32277605 1.0397239 39 14
-4.3739996 0.31506628 -0.076546021 52 7
-4.3430862 0.31360143 1.1667564 44 15
-4.3894539 0.32311162 0.076825403 50 8
-4.3919597 0.32483742 0.23080164 49 9
-4.4050388 0.32657778 0.38644835 47 10
-4.3988872 0.32689363 -0.69863623 1 3
-4.4402604 0.33074746 0.54670578 41 11
-4.4283252 0.33063555 -0.54524374 2 4
-4.4794798 0.33524105 0.71146411 48 12
-31.779398 2.3783472 -2.7881129 10 5
-4.4754252 0.33572304 0.87237847 39 13
-4.3616843 0.32795739 -0.2292314 48 6
-4.5102358 0.33991754 1.044223 40 14
-4.3808489 0.33093515 -0.076685637 50 7
-4.3342595 0.32817751 1.1646858 44 15
-4.3922868 0.33873829 0.076895207 52 8
-4.4007549 0.3409377 0.23132499 49 9
-4.4157901 0.34287781 0.38749418 50 10
-4.4252911 0.34439248 -0.7030164 1 3
-4.4311624 0.34562746 0.54573089 40 11
-4.4350595 0.34671018 -0.54621863 2 4
-4.4763126 0.35072112 0.71115118 48 12
-31.758986 2.4883311 -2.7870674 10 5
-4.4722686 0.35118958 0.87199688 42 13
-4.3525491 0.34255278 -0.22881272 46 6
-4.5148497 0.35611895 1.0455725 40 14
-4.3836536 0.34654039 -0.076755442 50 7
-4.3446426 0.34422049 1.1677917 44 15
-4.3910766 0.35406932 0.076895192 52 8
-4.3915753 0.35565132 0.23090631 49 9
-4.4185376 0.35861212 0.38784277 48 10
-4.4673772 0.36336076 -0.70989954 1 3
-4.4378433 0.36173716 0.54670578 40 11
-4.4417367 0.36283594 -0.54719353 2 4
-4.4829369 0.36698911 0.71240276 48 12
-31.758049 2.5998266 -2.7877645 10 5
-4.4788423 0.36744186 0.87352335 36 13
-4.3513265 0.35774407 -0.22881272 51 6
-4.4999838 0.37075654 1.0424232 41 14
-4.3883967 0.36233491 -0.07686016 48 7
-4.3337884 0.35858661 1.1652035 38 15
-4.4017706 0.37040111 0.077104636 53 8
-4.3942876 0.37131613 0.23111565 49 9
-4.4252005 0.37470609 0.38854006 48 10
-4.450335 0.37761554 -0.70739657 1 3
-4.4365535 0.37722713 0.54670578 40 11
-4.4443989 0.37867546 -0.54768103 2 4
-4.4835968 0.38280231 0.71271557 48 12
-31.756721 2.711338 -2.7884617 10 5
-4.4931803 0.38441154 0.87657666 34 13
-4.3619914 0.37395456 -0.22944075 55 6
-4.5025449 0.38679478 1.0433229 41 14
-4.3831205 0.37730715 -0.076790348 50 7
-4.3556075 0.37570459 1.1714152 45 15
-4.4084187 0.38646147 0.077244252 53 8
-4.4049015 0.38770357 0.23174366 49 9
-4.4079876 0.38874936 0.38714603 50 10
-4.4214416 0.39071465 -0.7030164 1 3
-4.4510283 0.39411205 0.54865569 40 11
-4.439096 0.39383525 -0.54719305 2 4
-4.4763303 0.39792711 0.71177697 48 12
-31.715309 2.8193588 -2.7856727 10 5
-4.4996338 0.40079021 0.87810326 40 13
-4.3606601 0.38917759 -0.22944078 55 6
-4.5128136 0.40355185 1.0460224 40 14
-4.3777933 0.39224803 -0.076720543 50 7
-4.352345 0.39073357 1.1708975 51 15
-4.3950949 0.40075803 0.077034831 50 8
-4.4035215 0.40307626 0.23174366 51 9
-4.418509 0.40522572 0.38819146 47 10
-4.4633269 0.41012263 -0.70989954 1 3
-4.4614863 0.41073766 0.55011815 40 11
-4.4337401 0.40896359 -0.54670614 2 4
-4.4945836 0.41536787 0.71490568 46 12
-31.705273 2.9300494 -2.7856727 10 5
-4.4806137 0.41486448 0.87466818 40 13
-4.3672299 0.40513593 -0.22985949 48 6
-4.5210791 0.42020392 1.0482718 40 14
-4.3843608 0.40826869 -0.076860152 50 7
-4.3509545 0.40592381 1.1708975 51 15
-4.3976498 0.41647446 0.077104628 52 8
-4.4179935 0.41995707 0.23258103 51 9
-4.4210343 0.42102566 0.38854009 50 10
-4.3950086 0.41932014 -0.69926196 1 3
-4.4481683 0.4251754 0.54865563 41 11
-4.4322863 0.42443898 -0.54670566 2 4
-4.4911394 0.43086585 0.71459275 45 12
-31.722618 3.0433683 -2.7881129 10 5
-4.4908638 0.43162927 0.87695789 40 13
-4.3618121 0.4199951 -0.22965011 48 6
-4.5254035 0.4365443 1.0496216 40 14
-4.3868904 0.42395431 -0.076929964 48 7
-4.3495116 0.42110917 1.1708976 51 15
-4.40413 0.43260464 0.077244252 52 8
-4.4026637 0.43323642 0.23184833 48 9
-4.4274683 0.43723765 0.38923728 45 10
-4.5153966 0.44671685 -0.71865982 1 3
-4.4506087 0.44109157 0.5491432 41 11
-4.4268265 0.43951583 -0.54621816 2 4
-4.4975495 0.44653755 0.71584427 45 12
-4.4971437 0.44808251 0.87848437 39 13
-4.3603191 0.43521821 -0.22965008 55 6
-4.5199742 0.45194957 1.0487218 41 14
-4.3973989 0.43969333 -0.077139392 48 7
-4.3519344 0.43591553 1.1719327 51 15
-4.4106293 0.44801542 0.077383868 53 8
-4.4070859 0.44920966 0.23216237 51 9
-4.4378071 0.45390624 0.39028317 47 10
-4.5138903 0.46168813 -0.71865976 1 3
-4.4510961 0.4560504 0.54938692 38 11
-4.4095473 0.45257208 -0.54426825 2 4
-4.4939985 0.46203122 0.71553141 48 12
-4.5034451 0.46379671 0.88001084 33 13
-4.3667994 0.45049518 -0.23006879 48 6
-4.5184507 0.46693605 1.0487218 40 14
-4.3878813 0.45421693 -0.076999769 50 7
-4.3599944 0.45210031 1.174521 45 15
-4.4110274 0.4636178 0.077418782 48 8
-4.4114499 0.46521801 0.2324764 48 9
-4.4243894 0.4673644 0.38923728 48 10
-4.4632955 0.47305059 0.5510931 40 11
-4.4355764 0.47089449 -0.54768056 2 4
-4.4864655 0.47708887 0.71459281 43 12
-4.4998465 0.47930709 0.87962925 31 13
-4.3691726 0.46615833 -0.23027815 55 6
-4.5226068 0.48332691 1.0500715 40 14
-4.3962107 0.47059616 -0.077174298 50 7
-4.3468647 0.46608016 1.1714151 48 15
-4.4073935 0.47879645 0.077383861 52 8
-4.4177408 0.48148075 0.23289508 48 9
-4.4186854 0.48314333 0.38888866 47 10
-4.5104713 0.49397698 -0.71865982 1 3
-4.4596434 0.48841044 0.55084938 38 11
-4.4575849 0.48897228 -0.55060601 2 4
-4.4965534 0.49404114 0.71646994 45 12
-4.4980597 0.49579564 0.87962925 31 13
-4.3793454 0.48348513 -0.23090617 48 6
-4.5285525 0.50075668 1.0518711 39 14
-4.3965292 0.4861578 -0.077209212 50 7
-4.3413706 0.48082542 1.1703796 45 15
-4.409585 0.4953928 0.077453688 53 8
-4.4258699 0.49878672 0.23341845 51 9
-4.4328103 0.50035346 0.39028317 52 10
-4.5087194 0.5097186 -0.71865982 1 3
-4.4578233 0.50475264 0.55084938 38 11
-4.420259 0.50128067 -0.54621822 2 4
-4.5104156 0.5123021 0.71897304 45 12
-30.631294 3.4791644 -2.6971226 9 5
-4.5021539 0.51215965 0.88077408 34 13
-4.3677092 0.49763751 -0.2303828 55 6
-4.5306492 0.51700318 1.0527709 39 14
-4.4006782 0.50294989 -0.077313922 47 7
-4.3472571 0.49761307 1.1724504 54 15
-4.4118004 0.51124352 0.077523485 52 8
-4.4141822 0.51308 0.23289508 49 9
-4.4389534 0.51674551 0.39098039 48 10
-4.4580059 0.52053958 0.55109304 40 11
-4.442142 0.51947409 -0.54914302 2 4
-4.5066371 0.52781355 0.71866006 46 12
-30.262764 3.5443497 -2.6657462 9 5
-4.510087 0.52901554 0.88268256 34 13
-4.3718967 0.51357991 -0.23069684 53 6
-4.5249462 0.53235972 1.0518711 39 14
-4.4048533 0.51901019 -0.07741864 48 7
-4.3416562 0.51233214 1.1714151 48 15
-4.4179316 0.52758908 0.077663101 50 8
-4.4124565 0.52771533 0.23289508 49 9
-4.4450355 0.53318644 0.39167765 47 10
-4.5050511 0.54118186 -0.71865982 1 3
-4.4660153 0.53728437 0.55231172 38 11
-4.4678926 0.53830123 -0.5525558 2 4
-4.4950562 0.541574 0.71709573 45 12
-29.977242 3.6170228 -2.6416917 8 5
-4.5121117 0.54522669 0.88344538 34 13
-4.3760257 0.52955747 -0.23101084 59 6
-4.5269294 0.54861939 1.0527709 39 14
-4.3991375 0.53313226 -0.077348821 45 7
-4.3399339 0.52672696 1.1714152 48 15
-4.4260821 0.54345536 0.077837639 48 8
-4.4185166 0.54409093 0.23331375 49 9
-4.4431472 0.54869831 0.39167765 48 10
-4.503232 0.55611837 -0.71865982 1 3
-4.4720893 0.55306602 0.55328667 37 11
-4.4227424 0.5477469 -0.54719305 2 4
-4.5049009 0.55871922 0.71897304 43 12
-4.5180721 0.56115454 0.88497186 31 13
-4.3782096 0.54455918 -0.2312202 59 6
-4.5366883 0.56507361 1.0554702 39 14
-4.3952651 0.54823852 -0.077313915 45 7
-4.3361511 0.54163355 1.1708974 51 15
-4.4182062 0.5581491 0.077732913 50 8
-4.4245157 0.5605163 0.23373243 49 9
-4.4294438 0.56192499 0.39063177 47 10
-4.5012631 0.57183433 -0.71865982 1 3
-4.4799786 0.5699259 0.55450547 37 11
-4.4208035 0.56318092 -0.54719305 2 4
-4.5068421 0.57494098 0.71959871 43 12
-29.177185 3.7221537 -2.5733612 8 5
-4.5121899 0.57642454 0.88420904 34 13
-4.3881679 0.56135827 -0.23184818 57 6
-4.5424194 0.5818978 1.0572698 39 14
-4.4052258 0.56510431 -0.077523351 45 7
-4.3246536 0.55553466 1.1683093 48 15
-4.4241629 0.57459843 0.07787253 48 8
-4.4344158 0.57750404 0.23436047 49 9
-4.4472122 0.57995987 0.39237493 45 10
-4.4681196 0.58427256 0.55328667 37 11
-4.4188108 0.57860911 -0.54719305 2 4
-4.5106835 0.59144086 0.7205373 43 12
-28.851889 3.7830601 -2.54582 7 5
-4.5140443 0.59268188 0.88497186 30 13
-4.3861818 0.57667255 -0.23184818 57 6
-4.5461569 0.59851354 1.0586197 38 14
-4.4111562 0.58152246 -0.07766296 45 7
-4.3341804 0.57214427 1.1714152 45 15
-4.4201484 0.58977377 0.077837631 48 8
-4.4244547 0.59192032 0.23394179 48 9
-4.44911 0.59600914 0.39272353 47 10
-4.4758911 0.60118717 0.55450547 40 11
-4.4364381 0.59667617 -0.549631 2 4
-4.5105491 0.60744518 0.72085017 43 12
-28.522581 3.8411965 -2.5179303 7 5
-4.5197306 0.60948485 0.88649833 31 13
-4.382163 0.59171355 -0.23174354 55 6
-4.542109 0.61411685 1.0581697 38 14
-4.4110813 0.59718513 -0.077697873 45 7
-4.3359842 0.58778995 1.1724503 48 15
-4.4378748 0.60791343 0.078186683 45 8
-4.4302769 0.60844809 0.2343605 48 9
-4.4509501 0.61207885 0.39307216 50 10
-4.495028 0.61893958 -0.71865982 1 3
-4.4796643 0.61762077 0.5552367 37 11
-4.442194 0.61324465 -0.55060601 2 4
-4.506444 0.62291586 0.72053725 43 12
-28.232687 3.9025424 -2.4935265 7 5
-4.5331326 0.62741119 0.88955176 31 13
-4.3860064 0.6078282 -0.23205756 57 6
-4.536077 0.6294325 1.0572698 38 14
-4.4089704 0.61257923 -0.077697881 43 7
-4.3319931 0.60265476 1.1719327 51 15
-4.4396858 0.62395751 0.078256488 47 8
-4.4380145 0.62530118 0.23488384 51 9
-4.4527321 0.62816852 0.39342079 52 10
-4.4928398 0.63462651 -0.71865976 1 3
-4.4814124 0.63381004 0.55572414 37 11
-4.4243016 0.62652045 -0.54865599 2 4
-4.5042419 0.63864255 0.72053719 42 12
-27.962446 3.964709 -2.470866 7 5
-4.5386906 0.64433497 0.89107776 31 13
-4.3897901 0.62397784 -0.23237158 55 6
-4.543499 0.64663553 1.0595194 38 14
-4.4107637 0.62852997 -0.077767678 43 7
-4.3183885 0.61613542 1.1688271 43 15
-4.4295635 0.63831037 0.078116871 48 8
-4.4377804 0.64107567 0.23498848 49 9
-4.4505119 0.64370775 0.39342076 48 10
-4.4905977 0.65030462 -0.71865982 1 3
-4.4870305 0.65058869 0.55669904 38 11
-4.4378047 0.64424205 -0.55060601 2 4
-4.5195789 0.65691769 0.72335309 40 12
-4.5247569 0.65847772 0.88878804 30 13
-4.3994427 0.64102513 -0.23299959 53 6
-4.5566401 0.66474193 1.0631186 37 14
-4.4125009 0.64450073 -0.07783749 43 7
-4.3181229 0.63148534 1.1693447 45 15
-4.4292874 0.65405977 0.078151777 48 8
-4.4453945 0.65802485 0.23551185 49 9
-4.4521799 0.65982229 0.39376938 50 10
-4.4883003 0.665977 -0.71865982 1 3
-4.4768782 0.66508073 0.55572414 38 11
-4.415894 0.65680766 -0.54816806 2 4
-4.5231199 0.67356408 0.72429174 42 12
-4.5282559 0.67513674 0.88993287 33 13
-4.3912525 0.65549266 -0.23268557 59 6
-4.5620017 0.68179584 1.0649183 37 14
-4.4181347 0.6610831 -0.077977106 43 7
-4.3273559 0.64827096 1.1724504 45 15
-4.4368629 0.6710121 0.078326292 48 8
-4.4430704 0.67353725 0.23551185 49 9
-4.4656081 0.67775106 0.39516386 48 10
-4.4859476 0.68164009 -0.71865976 1 3
-4.4784546 0.6813001 0.55621159 37 11
-4.4331989 0.67520702 -0.55060601 2 4
-4.5285525 0.69053984 0.7255432 42 12
-4.5355759 0.69241965 0.89184093 31 13
-4.3889375 0.67081821 -0.23268557 55 6
-4.5595942 0.69771618 1.0649183 36 14
-4.4276605 0.67831725 -0.078186542 42 7
-4.3212471 0.66278768 1.1714151 45 15
-4.4443741 0.68802631 0.078500822 48 8
-4.4387188 0.68873626 0.23540719 48 9
-4.4710898 0.69455934 0.39586112 45 10
-4.5538101 0.70822227 -0.72992301 1 3
-4.4917407 0.69937199 0.5581615 37 11
-4.4308147 0.69067883 -0.55060601 2 4
-4.5261145 0.70634234 0.7255432 43 12
-4.5486484 0.71067208 0.89489442 31 13
-4.3905158 0.68675178 -0.23289493 55 6
-4.5532804 0.71302396 1.0640185 36 14
-4.4213138 0.69314915 -0.078116722 42 7
-4.3265409 0.67906582 1.1734856 45 15
-4.4478717 0.70447361 0.078605548 47 8
-4.4481235 0.70610505 0.23603523 48 9
-4.4568324 0.70828497 0.39481527 48 10
-4.4810801 0.71294028 -0.71865982 1 3
-4.4912324 0.71536028 0.55840522 37 11
-4.4283772 0.70614016 -0.55060601 2 4
-4.5275226 0.72275996 0.72616893 43 12
-4.5577726 0.72840583 0.89718366 30 13
-4.4058409 0.70491219 -0.23383695 55 6
-4.5584607 0.73014653 1.0658182 36 14
-4.4188666 0.70857924 -0.078116715 43 7
-4.3146071 0.69263333 1.1708975 43 15
-4.4394627 0.71903604 0.078500822 50 8
-4.4535174 0.72290784 0.23645394 48 9
-4.4661322 0.72575551 0.39586112 45 10
-4.4785643 0.72857797 -0.71865982 1 3
-4.5024233 0.73326606 0.56011152 33 11
-4.4415588 0.72414929 -0.55255532 2 4
-4.5288715 0.73919618 0.72679472 42 12
-4.5416389 0.74209487 0.89451236 27 13
-4.4072967 0.72093225 -0.23404633 48 6
-4.5597301 0.74668509 1.0667179 36 14
-4.4242606 0.72529399 -0.078256346 43 7
-4.3083501 0.7070632 1.1698622 43 15
-4.4369254 0.73452842 0.078500822 50 8
-4.4608188 0.74008369 0.23697731 49 9
-4.4714332 0.74264663 0.39655888 47 10
-4.4759936 0.74420679 -0.71865982 1 3
-4.4861288 0.74669641 0.55840522 37 11
-4.4233394 0.73703879 -0.55060601 2 4
-4.5379543 0.75695169 0.72867191 42 12
-4.5428934 0.75858933 0.89527601 28 13
-4.4008126 0.73565358 -0.23383695 51 6
-4.5724721 0.76517022 1.0703171 38 14
-4.4295902 0.74205363 -0.078395955 42 7
-4.317287 0.724015 1.1729679 43 15
-4.4481363 0.75234509 0.078745149 48 8
-4.4504628 0.75353867 0.2365586 51 9
-4.4806004 0.7602492 0.39760426 47 10
-4.543478 0.77173495 -0.72992313 1 3
-4.4913239 0.76368272 0.55938029 35 11
-4.4481368 0.75713712 -0.55401778 2 4
-4.5432086 0.77331972 0.72992331 43 12
-24.625643 4.1960683 -2.1855178 5 5
-4.5615077 0.77807397 0.89947349 30 13
-4.4021559 0.75168449 -0.23404633 55 6
-4.5620899 0.7798121 1.0685174 36 14
-4.4389329 0.75876045 -0.078605399 42 7
-4.3129592 0.73800206 1.1724504 45 15
-4.4495587 0.76777184 0.078814961 47 8
-4.4537086 0.77008998 0.23687257 48 9
-4.4798827 0.77622622 0.3977786 42 10
-4.4708247 0.77465671 -0.71865982 1 3
-4.5005012 0.78060788 0.56084269 36 11
-4.4338665 0.76984614 -0.55255532 2 4
-4.5404816 0.78917497 0.72992331 42 12
-4.5550332 0.79252321 0.89871007 31 13
-4.4075098 0.76764727 -0.23446502 55 6
-4.5671577 0.79627526 1.070317 37 14
-4.4283767 0.77287537 -0.078465767 45 7
-4.3141623 0.75371766 1.1734856 45 15
-4.4547296 0.78468686 0.078954592 47 8
-4.4627953 0.78771383 0.23750065 46 9
-4.4694362 0.7896902 0.39708138 43 10
-4.5381203 0.80264372 -0.72992319 1 3
-4.5075226 0.79804218 0.56206131 33 11
-4.4428802 0.78739822 -0.55401778 2 4
-4.5454793 0.80639982 0.73117483 43 12
-4.5696359 0.811508 0.90214467 28 13
-4.4166017 0.78512621 -0.23509304 55 6
-4.5720253 0.81357855 1.0721167 36 14
-4.4295897 0.78903013 -0.078535587 43 7
-4.3019962 0.76707691 1.1708975 43 15
-4.4558988 0.80094057 0.079024389 45 8
-4.4639502 0.80399531 0.23771001 46 9
-4.4607692 0.80422723 0.39655837 43 10
-4.5158515 0.81497061 -0.72679448 1 3
-4.5125237 0.81518328 0.56303632 33 11
-4.4401045 0.8029021 -0.55401784 2 4
-4.546524 0.82296532 0.73180056 42 12
-4.5609798 0.82640296 0.90100032 31 13
-4.4216948 0.8019641 -0.23551174 51 6
-4.5806613 0.83162165 1.0748161 37 14
-4.4346781 0.80591774 -0.078675203 43 7
-4.3011928 0.78243482 1.1714151 48 15
-4.4570103 0.81721014 0.079094201 45 8
-4.4689746 0.82101625 0.23812872 46 9
-4.4794893 0.82375622 0.3984758 43 10
-4.4624672 0.82143104 -0.71865982 1 3
-4.5018406 0.82949221 0.56206125 33 11
-4.4255614 0.81623584 -0.55255532 2 4
-4.5513945 0.84026426 0.73305207 43 12
-4.5619283 0.84303343 0.90176302 30 13
-4.4149408 0.81666732 -0.23530237 48 6
-4.5815639 0.84831482 1.075716 36 14
-4.4416695 0.82321501 -0.078849725 45 7
-4.3022342 0.79814893 1.1724504 48 15
-4.4580607 0.833498 0.079164006 45 8
-4.4660807 0.83661193 0.23812869 46 9
-4.4844198 0.84085631 0.39917302 43 10
-4.5100517 0.84647727 -0.72679448 1 3
-4.5125751 0.84776729 0.56376749 36 11
-4.4226856 0.83167809 -0.55255532 2 4
-4.5581398 0.85797364 0.7346164 43 12
-4.5686045 0.86077011 0.90367115 28 13
-4.4238391 0.83429331 -0.23593041 48 6
-4.5747437 0.86358041 1.0748161 36 14
-4.4485931 0.84057081 -0.079024248 43 7
-4.3089132 0.81495583 1.1750387 43 15
-4.4610176 0.85017771 0.079268724 43 8
-4.4670568 0.85294455 0.23833802 46 9
-4.4892855 0.85800105 0.39987028 48 10
-4.5536337 0.87112433 -0.73430336 1 3
-4.5115385 0.86388648 0.56401128 33 11
-4.4470496 0.85234249 -0.55596823 2 4
-4.5512371 0.87313616 0.73399067 43 12
-4.5752125 0.87856251 0.90557915 30 13
-4.4287448 0.85123825 -0.23634908 48 6
-4.5793567 0.88101697 1.0766158 38 14
-4.4397411 0.85495889 -0.07891953 40 7
-4.3041449 0.82962614 1.1745209 48 15
-4.4698009 0.86803079 0.079478152 43 8
-4.4718933 0.87005806 0.23875667 46 9
-4.4843078 0.87328452 0.39969596 42 10
-4.4923978 0.87567496 -0.72491711 1 3
-4.5123916 0.88038963 0.56449872 33 11
-4.4167714 0.862535 -0.55255532 2 4
-4.5539775 0.89015347 0.7349292 48 12
-4.5817509 0.89641243 0.90748781 28 13
-4.429667 0.86746126 -0.23655845 44 6
-4.5839028 0.89849484 1.0784154 37 14
-4.4386921 0.87083638 -0.078954443 45 7
-4.2936406 0.84315759 1.1724504 48 15
-4.4588976 0.88207698 0.079338543 42 8
-4.4727478 0.88643831 0.23896603 46 9
-4.4851408 0.889709 0.40004462 43 10
-4.5474415 0.90289241 -0.73430336 1 3
-4.5209737 0.89845735 0.56596124 33 11
-4.452673 0.88569164 -0.55743009 2 4
-4.564404 0.90874445 0.73711932 43 12
-4.5747433 0.91163307 0.90672404 28 13
-4.4305291 0.88369864 -0.23676778 48 6
-4.592205 0.91677934 1.0811148 37 14
-4.4434695 0.88789362 -0.079094067 45 7
-4.2849879 0.8570025 1.1708974 43 15
-4.4577508 0.89803094 0.079373434 45 8
-4.4852891 0.90520674 0.23980342 48 9
-4.4896607 0.90772122 0.40074185 43 10
-4.5169954 0.91406834 -0.72992313 1 3
-4.511972 0.91305172 0.56522989 31 11
-4.4300976 0.89728832 -0.55499321 2 4
-4.5631404 0.92506444 0.7374323 43 12
-4.5713716 0.92839438 0.90672415 28 13
-4.4233465 0.89913595 -0.23655845 48 6
-4.598362 0.93554711 1.0833642 39 14
-4.4560189 0.90658712 -0.0793733 43 7
-4.2895427 0.87349677 1.172968 43 15
-4.4720597 0.91798139 0.07968758 43 8
-4.4742765 0.91925132 0.23938477 45 9
-4.4981742 0.92579657 0.40178776 43 10
-4.540864 0.93540996 -0.73430336 1 3
-4.5183167 0.93158728 0.56644863 33 11
-4.434556 0.91512328 -0.55596823 2 4
-4.5656872 0.94218373 0.73837078 40 12
-21.752028 4.4927526 -1.9432249 3 5
-4.579638 0.94673049 0.90901423 27 13
-4.4280043 0.91618967 -0.23697713 48 6
-4.5893431 0.95040727 1.0820146 38 14
-4.4645762 0.92456925 -0.079582721 42 7
-4.2883587 0.88885689 1.1734856 45 15
-4.4729061 0.93362355 0.079757392 43 8
-4.4710407 0.93486398 0.23938477 43 9
-4.5046654 0.94353592 0.4026593 43 10
-4.5377374 0.95046306 -0.73430336 1 3
-4.5268593 0.94900936 0.56791103 33 11
-4.4897814 0.9420532 -0.56327987 2 4
-4.5546374 0.95649248 0.73711932 40 12
-21.455446 4.5096407 -1.9181242 3 5
-4.5783949 0.96231598 0.90939534 27 13
-4.424942 0.93086761 -0.23697716 53 6
-4.5899801 0.96642405 1.0829144 36 14
-4.4397979 0.93561226 -0.079198778 40 7
-4.28334 0.9034211 1.172968 43 15
-4.4833121 0.95213932 0.080001727 45 8
-4.4833789 0.95378906 0.24022216 46 9
-4.4995632 0.95805293 0.40248498 42 10
-4.5614395 0.97206104 -0.73868346 1 3
-4.5274024 0.96563256 0.56839854 33 11
-4.4786997 0.95606327 -0.56230485 2 4
-4.5551343 0.97321093 0.73774505 40 12
-4.5826874 0.97993284 0.91092235 27 13
-4.441195 0.95048863 -0.23802382 48 6
-4.598012 0.98488927 1.0856137 37 14
-4.4580126 0.95571423 -0.079582721 43 7
-4.2801595 0.91836828 1.1729679 43 15
-4.4740973 0.96651757 0.079897009 40 8
-4.4878302 0.9711228 0.2406408 48 9
-4.496191 0.9737547 0.40248498 39 10
-4.5309911 0.98211819 -0.73430336 1 3
-4.5278835 0.98227197 0.56888598 33 11
-4.4830947 0.97337592 -0.56327987 2 4
-4.5729432 0.99371856 0.74118662 42 12
-4.583076 0.99675804 0.91168505 26 13
-4.4417539 0.96683538 -0.23823321 46 6
-4.6021624 1.0025915 1.0874133 37 14
-4.4546494 0.97127098 -0.079582721 42 7
-4.2769279 0.93330342 1.172968 43 15
-4.4824152 0.98470271 0.080106445 42 8
-4.4941654 0.9889285 0.24116416 45 9
-4.5083313 0.99287063 0.40387946 42 10
-4.5302429 0.99935538 0.56961721 31 11
-4.5184379 0.99757713 -0.56815517 2 4
-4.5694466 1.0096751 0.74118662 43 12
-5.4550772 1.205366 -0.48876956 1 5
-4.5949044 1.0161426 0.91473806 27 13
-4.4344516 0.98146987 -0.23802385 48 6
-4.6024394 1.019493 1.0883131 38 14
-4.4590411 0.98854613 -0.079722345 42 7
-4.2774158 0.94906288 1.1740031 43 15
-4.4828539 1.0012151 0.080176249 42 8
-4.4828901 1.0028661 0.2407455 45 9
-4.5126147 1.0103428 0.40457672 40 10
-4.5247893 1.0147274 0.56937343 32 11
-4.487812 1.0072575 -0.56474233 2 4
-4.5774584 1.0282171 0.74306381 42 12
-5.4819388 1.2313871 -0.49155852 1 5
-4.5894132 1.0317438 0.91435689 27 13
-4.4387927 0.99869674 -0.23844253 48 6
-4.5988526 1.0355535 1.0883131 36 14
-4.4711695 1.007621 -0.080001585 42 7
-4.2778463 0.96483839 1.1750386 43 15
-4.4910321 1.0195134 0.080385678 42 8
-4.4892774 1.0199389 0.24126884 43 9
-4.5207171 1.0287414 0.40562257 40 10
-4.5328331 1.0331627 0.57083595 33 11
-4.4842677 1.0229166 -0.56474274 2 4
-4.5682459 1.042073 0.74212521 40 12
-5.3707747 1.2261258 -0.48197141 4 5
-4.5915256 1.0490695 0.91550171 26 13
-4.4469619 1.0168564 -0.23907056 48 6
-4.602809 1.0533382 1.0901128 36 14
-4.4541583 1.01932 -0.079757251 40 7
-4.2746234 0.97901911 1.1750386 43 15
-4.4954205 1.0361973 0.080525294 42 8
-4.4973669 1.0382992 0.24189688 46 9
-4.5054517 1.0418212 0.40457672 42 10
-4.5390525 1.0504265 0.57205462 31 11
-4.4924545 1.0404689 -0.56620526 2 4
-4.5799756 1.0615814 0.74462819 40 12
-5.3198814 1.2340606 -0.47778791 5 5
-4.5975842 1.0665083 0.9174099 24 13
-4.4396739 1.0306942 -0.23886122 48 6
-4.6106791 1.0712432 1.0928122 37 14
-4.4564171 1.0362207 -0.079861976 42 7
-4.258009 0.99086958 1.1714151 40 15
-4.4839883 1.0500581 0.080385678 42 8
-4.5036211 1.055486 0.24242023 45 9
-4.5097303 1.0585774 0.40527394 39 10
-4.5450196 1.068536 0.5732733 33 11
-4.5042548 1.0597806 -0.56815463 2 4
-4.5821981 1.0781194 0.74556667 42 12
-5.2983065 1.2475858 -0.47621918 5 5
-4.5919232 1.0821004 0.91702777 26 13
-4.4516015 1.0498521 -0.2396986 48 6
-4.6220856 1.0909114 1.0964115 36 14
-4.4704709 1.055127 -0.080176093 40 7
-4.2622199 1.0067606 1.1734856 40 15
-4.4804816 1.0649221 0.080385678 42 8
-4.5076814 1.0730504 0.2428389 45 9
-4.5176363 1.0770854 0.40631983 40 10
-4.5453129 1.0845236 0.57376081 33 11
-4.5161619 1.0783999 -0.57010454 2 4
-4.5880141 1.0964049 0.74713123 39 12
-5.2977943 1.2669996 -0.47656778 5 5
-4.6054931 1.1014315 0.92046279 26 13
-4.4519796 1.0655383 -0.23990794 48 6
-4.6222324 1.1071407 1.0973113 36 14
-4.4745398 1.0725902 -0.080315724 40 7
-4.2586799 1.0216316 1.1734856 40 15
-4.5016279 1.0882264 0.08083944 45 8
