# .PCD v0.7 - Point Cloud Data file format
VERSION 0.7
FIELDS x y z intensity ring
SIZE 4 4 4 4 2
TYPE F F F F U
COUNT 1 1 1 1 1
WIDTH 578
HEIGHT 1
VIEWPOINT 0 0 0 1 0 0 0
POINTS 578
DATA ascii
2.4405091 0.49874693 -0.39452773 1 3
2.4402986 0.48983544 -0.39421484 4 3
2.4524722 0.49138862 -0.30711064 1 4
2.4307997 0.47822595 -0.30418605 4 4
2.4375315 0.46277967 -0.39296335 59 3
2.4340792 0.46124408 -0.30418605 40 4
2.4430158 0.45499215 -0.39358908 66 3
2.4317708 0.45201969 -0.30369854 69 4
2.4367387 0.44546792 -0.39233765 60 3
2.4137282 0.44038948 -0.30126089 20 4
2.4460564 0.43835256 -0.39358911 60 3
2.4339521 0.42742041 -0.391399 58 3
2.4597602 0.43106624 -0.30662313 1 4
2.4334829 0.41858619 -0.39108616 52 3
2.4495111 0.42046425 -0.30516073 1 4
2.4310331 0.40943244 -0.39046037 16 3
2.4587944 0.41322657 -0.30613568 2 4
2.4600458 0.41299424 -0.21823806 3 5
2.4538872 0.40447968 -0.39390194 7 3
2.4523871 0.40335199 -0.30516076 2 4
2.4378798 0.40053016 -0.21614632 27 5
2.4537799 0.39478961 -0.30516073 2 4
2.4588938 0.38857168 -0.48389173 1 2
2.4488463 0.38610783 -0.39265049 46 3
2.459065 0.3868382 -0.30564818 2 4
2.456363 0.38597381 -0.21754082 72 5
2.4679959 0.3811841 -0.48541814 11 2
2.4560356 0.37845922 -0.39358905 63 3
2.4505897 0.37674445 -0.30442977 4 4
2.4399714 0.37467608 -0.21597202 61 5
2.4729693 0.37223536 -0.39609203 66 3
2.4333827 0.36497393 -0.21527475 44 5
2.4317513 0.35822266 -0.47778583 47 2
2.4487834 0.36029503 -0.39202473 56 3
2.4472055 0.35919017 -0.30369827 40 4
2.4425273 0.35763273 -0.21597201 51 5
2.429039 0.34959781 -0.47702256 54 2
2.4656689 0.3539913 -0.39452767 58 3
2.4661298 0.35317779 -0.30589193 74 4
2.4319267 0.34741333 -0.21492615 46 5
2.4400256 0.34205472 -0.47893071 67 2
2.4571679 0.34358454 -0.39296335 63 3
2.4457211 0.34154764 -0.30321106 68 4
2.4370711 0.33947244 -0.21527475 46 5
2.458972 0.34164822 -0.13010713 2 6
2.433424 0.33247167 -0.47740421 56 2
2.4544382 0.33447123 -0.39233765 60 3
2.4528577 0.33338392 -0.30394202 47 4
2.4461384 0.3320359 -0.21597201 48 5
2.4482749 0.33145559 -0.12947913 19 6
2.440408 0.324754 -0.47854912 50 2
2.4633663 0.32737046 -0.39358908 60 3
2.4460778 0.32420525 -0.30296734 18 4
2.4650598 0.32584444 -0.21754082 32 5
2.4356306 0.31590131 -0.47740421 52 2
2.4664531 0.31902245 -0.39390194 56 3
2.472265 0.31758216 -0.13063052 61 6
2.4425619 0.3081339 -0.47854906 43 2
2.4695115 0.3106592 -0.39421484 63 3
2.4738874 0.31033143 -0.30613565 1 4
2.4711742 0.30955419 -0.21788944 2 5
2.4515579 0.30622667 -0.12947911 33 6
2.4455712 0.29984653 -0.47893071 9 2
2.4705808 0.30203649 -0.39421484 60 3
2.4631329 0.30025339 -0.30467325 1 4
2.4801509 0.30188856 -0.21858667 2 5
2.4558766 0.29197574 -0.39171189 52 3
2.4720001 0.29301885 -0.30564818 1 4
2.4811895 0.29322994 -0.21858667 2 5
2.4595361 0.29023564 -0.12979315 4 6
2.4846101 0.28747925 -0.48618141 1 2
2.4568806 0.28340304 -0.39171189 39 3
2.4730079 0.2843875 -0.30564818 1 4
2.4900658 0.28590879 -0.21928394 2 5
2.6205914 0.29904237 -0.046039309 1 7
2.4904134 0.27978534 -0.57857406 1 1
2.4621863 0.27617785 -0.48160201 1 2
2.4739854 0.27575389 -0.30564818 1 4
2.4831278 0.2763342 -0.21858667 2 5
2.4694426 0.2739386 -0.13021183 36 6
2.4904387 0.27538663 -0.043735594 2 7
2.4913745 0.27109095 -0.578574 13 1
2.4748461 0.26885429 -0.48389173 1 2
2.5020049 0.27092102 -0.39859498 10 3
2.4670384 0.26626366 -0.30467352 1 4
2.4820962 0.26745063 -0.21841234 4 5
2.4981854 0.26830217 -0.13167723 66 6
2.4794552 0.26541519 -0.043526173 25 7
2.4757695 0.26021436 -0.48389173 1 2
2.4797986 0.25888771 -0.30613565 1 4
2.4693081 0.25648445 -0.13010713 61 6
2.4660645 0.25092831 -0.5722754 34 1
2.4805689 0.251968 -0.48465496 2 2
2.4920435 0.25225359 -0.39671785 59 3
2.4885876 0.25102627 -0.30711091 2 4
2.4799385 0.24971659 -0.21806374 41 5
2.4602518 0.24686685 -0.12958378 43 6
2.4951758 0.24949275 -0.0437705 64 7
2.4805012 0.24365264 -0.57542473 57 1
2.4775259 0.24292386 -0.48389173 2 2
2.4968405 0.24393785 -0.39734349 63 3
2.4657402 0.2400305 -0.30418578 2 4
2.5026085 0.24317862 -0.21998116 72 5
2.4591107 0.23808555 -0.12947911 47 6
2.4860792 0.2398207 -0.043595977 39 7
2.4871569 0.23554315 -0.57677442 57 1
2.4861767 0.23501253 -0.4854182 10 2
2.5055435 0.2359609 -0.39859498 63 3
2.4744687 0.23216428 -0.30516076 2 4
2.4855888 0.2327688 -0.21841235 61 5
2.4658928 0.2300573 -0.12979314 45 6
2.4899044 0.22703859 -0.57722437 49 1
2.5024176 0.22685736 -0.39796931 66 3
2.49108 0.22495295 -0.30711064 10 4
2.4764647 0.22319739 -0.21754082 54 5
2.474638 0.22216201 -0.13021183 50 6
2.4876926 0.22245874 -0.043595973 2 7
2.4906819 0.21834515 -0.57722437 49 1
2.4721103 0.21628115 -0.48236519 47 2
2.489419 0.21692111 -0.39577922 54 3
2.5116267 0.21797295 -0.30954832 38 4
2.4712739 0.21403635 -0.2170179 49 5
2.4833577 0.21420965 -0.13063051 45 6
2.5003712 0.2152376 -0.043805409 1 7
2.5266099 0.21349885 0.044259254 1 8
2.4875081 0.20975633 -0.57632446 49 1
2.4885011 0.20896652 -0.48541814 54 2
2.4901247 0.20866399 -0.39577922 58 3
2.4925535 0.20799266 -0.30711064 5 4
2.48789 0.20672789 -0.21841235 48 5
2.4721119 0.20498361 -0.13000248 42 6
2.5090787 0.20716585 -0.043945026 1 7
2.4735239 0.2003191 0.043316819 13 8
2.4862828 0.20091443 -0.57587463 51 1
2.4930942 0.20102811 -0.48618138 63 2
2.4947753 0.20028603 -0.39640486 54 3
2.4893062 0.1989737 -0.3066234 1 4
2.4806178 0.19784234 -0.21771514 51 5
2.4728124 0.19635242 -0.13000248 42 6
2.5137391 0.19915949 -0.044014838 1 7
2.4908214 0.19297123 -0.57677442 41 1
2.4761643 0.19096506 -0.48274693 52 2
2.4954259 0.19201247 -0.39640492 56 3
2.5057871 0.19192994 -0.30857304 1 4
2.501159 0.19069855 -0.21945824 49 5
2.4933648 0.18966539 -0.13104919 15 6
2.5104308 0.19008347 -0.043945026 1 7
2.4967666 0.185104 0.043700766 49 8
2.4846153 0.18333112 -0.48427331 52 2
2.5000212 0.18359053 -0.39703065 56 3
2.5104017 0.18347186 -0.30906054 1 4
2.4878681 0.18138851 -0.21823806 40 5
2.5070901 0.18103057 -0.043875221 1 7
2.4774501 0.17497917 0.043351725 48 8
2.4793649 0.17424472 -0.48312846 48 2
2.4927647 0.17431086 -0.39577919 54 3
2.5268691 0.17581059 -0.31101042 1 4
2.5344787 0.1750067 -0.13314264 2 6
2.5077064 0.17227863 -0.043875214 1 7
2.4820366 0.16659738 0.043421537 56 8
2.4927053 0.16687652 -0.57677442 1 1
2.4877937 0.16611153 -0.48465496 48 2
2.4835029 0.16495433 -0.39421484 16 3
2.5076597 0.16567975 -0.30857304 1 4
2.518924 0.16554093 -0.22085275 2 5
2.5111585 0.16459043 -0.13188659 2 6
2.5202653 0.16430391 -0.044084642 1 7
2.5333323 0.16116017 -0.6801765 1 0
2.4965727 0.15882167 0.043665867 63 8
2.5166106 0.15965542 -0.58217323 1 1
2.4962232 0.15748724 -0.48618141 38 2
2.5240722 0.15791751 -0.31052324 1 4
2.5015895 0.15563312 -0.21928394 2 5
2.4957972 0.15439828 -0.1310492 2 6
2.5168321 0.15525861 -0.044014838 1 7
2.5550911 0.1535906 -0.68587041 28 0
2.5051222 0.15014932 0.043805487 63 8
2.5405226 0.15182491 -0.5875721 1 1
2.4908781 0.14842184 -0.48503655 5 2
2.5536368 0.15126689 -0.40516526 2 3
2.5206711 0.14843126 -0.3100355 1 4
2.5180292 0.14783472 -0.2206784 14 5
2.5082839 0.14638408 -0.13167723 3 6
2.5014131 0.145107 -0.043735594 2 7
2.5324669 0.14336106 -0.67965883 45 0
2.5016377 0.14117785 0.043735672 59 8
2.5332541 0.14251859 -0.58577245 1 1
2.5245626 0.14158762 0.13251469 2 9
2.5207839 0.14137571 -0.49076086 2 2
2.5423152 0.14169189 -0.40328801 2 3
2.505317 0.13875389 -0.30808586 1 4
2.5187514 0.13817517 -0.1322006 24 6
2.5019045 0.13637389 -0.043735594 2 7
2.5233059 0.13400728 -0.67707062 59 0
2.4981217 0.13223261 0.043665864 61 8
2.5415201 0.13408622 -0.58757204 1 1
2.4771738 0.1302567 0.13000259 15 9
2.5055776 0.13175024 -0.48770791 2 2
2.5230675 0.13178803 -0.40015933 2 3
2.5375054 0.13165286 -0.3119857 1 4
2.5150204 0.13004738 -0.22032979 66 5
2.5263305 0.12886275 -0.044154454 4 7
2.5256882 0.12529473 -0.67758834 60 0
2.4985683 0.12351225 0.043665864 59 8
2.5419731 0.12521316 -0.5875721 1 1
2.5354357 0.12444638 -0.49343213 4 2
2.5274582 0.12317173 -0.40078506 3 3
2.5260527 0.12221944 -0.31052297 2 4
2.5094888 0.12097906 -0.21980685 61 5
2.5196543 0.12058762 -0.13220058 65 6
2.5261095 0.1164782 -0.67758822 60 0
2.5069747 0.11515623 0.043805487 63 8
2.5346074 0.11598227 -0.5857724 1 1
2.4879985 0.11341552 0.13052593 42 9
2.5278728 0.11434783 -0.40078506 22 3
2.5145652 0.11286639 -0.30906081 2 4
2.5098958 0.11221789 -0.21980685 49 5
2.5001068 0.11090583 -0.13115385 61 6
2.5265012 0.10765905 -0.67758828 64 0
2.5113568 0.10657585 0.043875296 61 8
2.534997 0.10713465 -0.5857724 1 1
2.4843881 0.10456146 0.13031657 32 9
2.502897 0.10534044 -0.48694465 47 2
2.5183885 0.10511187 -0.39922076 46 3
2.5208943 0.10433383 -0.30979174 4 4
2.5222166 0.10394883 -0.22085273 51 5
2.5044701 0.1023406 -0.13136323 47 6
2.5255432 0.10231993 -0.044119548 57 7
2.51914 0.098537758 -0.67551774 64 0
2.5157101 0.09796387 0.043945104 61 8
2.5509341 0.098888442 -0.58937168 1 1
2.5032494 0.096603587 -0.48694465 54 2
2.5384793 0.097074583 -0.40234944 48 3
2.5066359 0.094542585 -0.21945824 51 5
2.5088036 0.093748614 -0.13157254 47 6
2.507884 0.093274772 -0.043805405 11 7
2.5194685 0.089743048 -0.67551774 66 0
2.5080278 0.089335531 0.043805491 61 8
2.5239825 0.089462779 -0.58307302 2 1
2.5229666 0.088987119 0.13230535 2 9
2.5153437 0.088277519 -0.48923436 57 2
2.532865 0.088449851 -0.40141085 48 3
2.516907 0.086133465 -0.22032979 54 5
2.5250695 0.085971601 -0.13240993 47 6
2.5351992 0.081887126 -0.67965877 61 0
2.5083241 0.080579646 0.043805487 61 8
2.5340183 0.080963582 -0.58532262 5 1
2.5272403 0.080747016 0.13251469 2 9
2.5136597 0.079873994 -0.48885268 52 2
2.5609348 0.080927603 0.22416444 1 10
2.5292089 0.079484388 -0.40078503 51 3
2.5396922 0.078925297 -0.3119857 68 4
2.5211613 0.077910207 -0.2206784 56 5
2.5113797 0.076729327 -0.13167723 36 6
2.5244508 0.076688901 -0.044084642 1 7
2.5393314 0.073147714 -0.68069404 61 0
2.5125751 0.072376974 0.043875299 59 8
2.5354927 0.0721514 0.13293338 2 9
2.529623 0.071542554 -0.49190563 52 2
2.5253525 0.07098189 0.22102684 2 10
2.5413065 0.071430318 -0.40266231 54 3
2.5121589 0.069732308 -0.30857331 20 4
2.5254016 0.069217749 -0.22102705 56 5
2.5406947 0.068305716 -0.044363879 1 7
2.5434225 0.064825542 -0.68172938 64 0
2.5188096 0.063758336 0.04398001 54 8
2.5384066 0.063811116 -0.58622235 43 1
2.5277424 0.063101597 0.13251469 2 9
2.5082579 0.062615193 -0.48770791 50 2
2.5435152 0.062606998 -0.40297517 50 3
2.5296116 0.060496628 -0.22137569 54 5
2.531811 0.060108323 -0.13272394 2 6
2.5369196 0.05934241 -0.04429407 1 7
2.5359175 0.055333767 -0.67965877 61 0
2.5390091 0.055401225 0.044329058 23 8
2.546407 0.05511925 -0.58802193 54 1
2.5359342 0.054448567 0.13293338 2 9
2.5123961 0.053504501 -0.48847115 49 2
2.4859478 0.052508391 0.21754062 28 10
2.5259528 0.052911155 -0.40015933 24 3
2.5244927 0.05243979 -0.3100355 1 4
2.5198474 0.051463384 -0.22050411 47 5
2.5519831 0.051228579 -0.13377067 1 6
2.5531056 0.050805356 -0.044573303 1 7
2.5360954 0.046481952 -0.67965877 61 0
2.5092046 0.04555105 0.043805487 47 8
2.5465922 0.045785174 -0.58802199 37 1
2.5520847 0.045883927 0.13377076 2 9
2.522382 0.044909552 -0.49037918 52 2
2.5159972 0.044356644 0.22015528 47 10
2.5603871 0.044245269 -0.31442282 1 4
2.5200117 0.042667698 -0.22050411 49 5
2.5361702 0.042055797 -0.13293329 1 6
2.5272748 0.041467112 -0.044119548 1 7
2.5478253 0.038246196 -0.68276465 64 0
2.5113411 0.037258938 0.04384039 50 8
2.5350387 0.037168004 -0.58532256 4 1
2.5362465 0.03718571 0.13293338 2 9
2.5205543 0.036516853 -0.4899976 50 2
2.5161304 0.036012355 0.22015528 48 10
2.5697088 0.036330633 -0.4070425 1 3
2.5446405 0.035533246 -0.31247288 1 4
2.5340846 0.034499962 -0.22172429 38 5
2.5442841 0.03375059 -0.13335198 1 6
2.539396 0.033242486 -0.044328976 2 7
2.5518014 0.029841565 -0.68379992 61 0
2.5194495 0.029023468 0.043980014 48 8
2.5448911 0.028872354 -0.58757204 1 1
2.5283718 0.028243629 0.13251467 2 9
2.5245929 0.027760755 -0.49076092 49 2
2.5162363 0.027668865 0.2201553 49 10
2.5619137 0.027723975 -0.40579098 1 3
2.5407791 0.026608324 -0.3119857 1 4
2.5302052 0.025614342 -0.22137569 37 5
2.5363979 0.024791626 -0.1329333 1 6
2.5554931 0.024532238 -0.044608217 2 7
2.5499618 0.020473598 -0.68328226 56 0
2.5295372 0.019868121 0.04415454 52 8
2.5644667 0.019693663 -0.59207106 1 1
2.5344501 0.01902202 0.1328287 9 9
2.5187879 0.01846486 -0.48961601 52 2
2.5322587 0.018563615 0.22154975 57 10
2.5619979 0.018333254 -0.40579093 1 3
2.5448296 0.01732331 -0.31247288 1 4
2.5601673 0.016532846 -0.22399034 61 5
2.5524495 0.01559205 -0.13377067 2 6
2.5395689 0.015070138 -0.044328976 3 7
2.55002 0.011126732 -0.68328232 30 0
2.5295928 0.010597326 0.044154532 50 8
2.5762138 0.010341796 -0.59477043 1 1
2.5286546 0.0092694545 -0.49152404 47 2
2.5243406 0.0092536416 0.22085252 55 10
2.6015556 0.0090814177 -0.41204834 1 3
2.5567865 0.0080339154 -0.31393531 1 4
2.5363023 0.007083049 -0.2218986 48 5
2.5445004 0.0062177936 -0.13335198 2 6
2.5256155 0.0013218879 0.044084724 52 8
2.5762343 0.00089999934 -0.59477043 1 1
2.5305271 0.00044239787 0.13261935 42 9
2.5345616 -0 -0.49266896 24 2
2.5283422 -0 0.22120114 57 10
2.5857687 -0.00045130178 -0.40954545 1 3
2.5567992 -0.001338737 -0.31393534 2 4
2.5363114 -0.0022133496 -0.22189863 51 5
2.5485005 -0.003113582 -0.13356133 3 6
2.5256059 -0.0070528397 0.044084724 48 8
2.5606337 -0.0075975754 -0.59117126 1 1
2.5385039 -0.007974972 0.13303806 42 9
2.5404372 -0.0084244404 -0.49381378 45 2
2.5362985 -0.0084107146 0.22189842 57 10
2.5897033 -0.0090398062 -0.41017115 2 3
2.5667055 -0.0098554883 -0.31515402 4 4
2.5442591 -0.010657432 -0.22259584 49 5
2.5655813 -0.012090107 -0.044782743 61 7
2.5295622 -0.016335428 0.044154532 52 8
2.5800755 -0.017111961 -0.59567028 1 1
2.5424521 -0.017306188 0.13324741 7 9
2.5560949 -0.017845195 -0.49686673 57 2
2.5402348 -0.017734472 0.22224702 57 10
2.5738499 -0.018418401 -0.4076682 2 3
2.5541646 -0.020060772 -0.22346739 54 5
2.5504141 -0.020921635 -0.13366599 39 6
2.5675192 -0.021510102 -0.044817645 60 7
2.5414958 -0.024397358 0.044363961 52 8
2.56442 -0.02506504 -0.59207112 2 1
2.5285463 -0.025155764 -0.49152404 49 2
2.5441511 -0.025755091 0.22259563 57 10
2.5777299 -0.026544966 -0.40829393 2 3
2.5540938 -0.027639031 -0.22346739 54 5
2.5583289 -0.028578 -0.13408467 55 6
2.5534468 -0.028969178 -0.044573303 57 7
2.5454006 -0.032876786 0.044433776 52 8
2.5818598 -0.033798397 -0.59612024 22 1
2.5602608 -0.033962578 0.13418944 2 9
2.5362957 -0.034087423 -0.49305055 49 2
2.536077 -0.03452719 0.22189839 52 10
2.5776279 -0.035092883 -0.40829393 7 3
2.5625045 -0.035781641 -0.31466684 58 4
2.5480053 -0.036468774 -0.22294445 51 5
2.5562234 -0.037032638 -0.13398002 40 6
2.5533304 -0.037882194 -0.044573307 50 7
2.5412707 -0.041696075 0.044363961 50 8
2.5800965 -0.043233972 0.13523614 1 9
2.5400944 -0.042563666 -0.49381378 50 2
2.5319643 -0.042869482 0.22154978 57 10
2.5537889 -0.043684833 -0.40453956 25 3
2.5623641 -0.044726226 -0.31466684 52 4
2.5478702 -0.044918071 -0.22294445 49 5
2.5491836 -0.046721455 -0.044503499 32 7
2.5371113 -0.050486941 0.044294152 48 8
2.5640259 -0.051470209 -0.59207106 39 1
2.5599616 -0.051835593 0.13418946 1 9
2.5556335 -0.051747955 -0.49686676 50 2
2.547735 -0.052032877 0.22294424 55 10
2.5792952 -0.053127792 -0.4086068 48 3
2.5621922 -0.05367028 -0.31466684 47 4
2.5596502 -0.054063957 -0.22399035 49 5
2.556911 -0.05981043 0.044643197 29 8
2.5599341 -0.060328197 -0.59117126 5 1
2.5637581 -0.060866017 0.13439879 1 9
2.5574 -0.060715064 -0.49724835 52 2
2.5475378 -0.060925815 0.22294424 51 10
2.5771194 -0.062083323 -0.40829396 14 3
2.5500822 -0.062322672 -0.31320408 46 4
2.5654209 -0.063145541 -0.22451328 56 5
2.5477087 -0.063599452 -0.13356133 1 6
2.5787811 -0.065275863 -0.04502707 1 7
2.5555439 -0.069597349 0.1339801 1 9
2.5395091 -0.069160663 -0.49381372 48 2
2.5592594 -0.070145547 0.22399013 49 10
2.557786 -0.071445435 -0.3141793 46 4
2.5671761 -0.072156139 -0.22468758 48 5
2.5834076 -0.073514849 -0.13544542 1 6
2.5785375 -0.074277088 -0.04502707 1 7
2.5724218 -0.078145199 0.044922441 2 8
2.5832338 -0.079376213 0.13544549 2 9
2.5510268 -0.078386575 -0.4961035 49 2
2.5470502 -0.078709356 0.22294424 47 10
2.6003158 -0.08080966 -0.41204834 1 3
2.5575211 -0.080373347 -0.3141793 22 4
2.5609348 -0.080928043 -0.22416465 40 5
2.5831349 -0.082532167 -0.1354454 1 6
2.5822599 -0.083406515 -0.045096878 1 7
2.542155 -0.086108707 0.04439887 13 8
2.5669725 -0.087846421 0.13460812 1 9
2.5507376 -0.087290823 -0.4961035 48 2
2.5606987 -0.088079192 0.22416444 20 10
2.61976 -0.090568468 -0.41517702 1 3
2.5748475 -0.091265492 -0.13502674 1 6
2.5819528 -0.092419781 -0.045096878 2 7
2.5906005 -0.097709619 0.1358642 2 9
2.5621886 -0.096638016 -0.49839321 49 2
2.6154802 -0.099562302 -0.41455135 1 3
2.5906198 -0.099521577 -0.3183226 1 4
2.586189 -0.099803418 -0.22643068 2 5
2.5824957 -0.10056369 -0.1354454 1 6
2.5995982 -0.1021385 -0.045411024 2 7
2.567466 -0.10491546 0.044852629 49 8
2.5822611 -0.10642294 0.13544549 2 9
2.5657589 -0.10574282 -0.49915645 49 2
2.6269586 -0.10918361 -0.41642854 1 3
2.6021569 -0.10906267 -0.31978506 2 4
2.595778 -0.10924916 -0.22730224 2 5
2.5941019 -0.11008576 -0.13607344 1 6
2.5852406 -0.11061378 -0.045166686 22 7
2.5670841 -0.11387695 0.044852629 49 8
2.5739131 -0.11463 0.13502683 2 9
2.5614514 -0.11452297 -0.49839321 48 2
2.6107748 -0.1176414 -0.41392562 1 3
2.5739973 -0.11688452 -0.31637299 2 4
2.5894103 -0.1180373 -0.22677934 11 5
2.5817311 -0.11859032 -0.13544542 1 6
2.574682 -0.12277006 0.044992246 54 8
2.5610361 -0.12346341 -0.49839321 37 2
2.6340468 -0.12744394 -0.41768 1 3
2.5775611 -0.12561283 -0.31686017 10 4
2.6012716 -0.12813361 -0.13649212 1 6
2.5744414 -0.12771285 -0.044992164 45 7
2.5742381 -0.13175662 0.044992249 51 8
2.6099136 -0.13540949 -0.41392562 1 3
2.5949485 -0.13554135 -0.31905383 37 4
2.5785747 -0.13558863 -0.22590779 49 5
2.5968199 -0.13700251 -0.13628279 2 6
2.5959458 -0.1378651 -0.045376118 57 7
2.5777559 -0.14095996 0.045062058 49 8
2.5745659 -0.14168693 0.13513149 47 9
2.6172888 -0.14541271 -0.41517708 1 3
2.6083341 -0.14537184 -0.32076001 40 4
2.588032 -0.14514656 -0.22677933 55 5
2.5923121 -0.14629437 -0.13607344 2 6
2.5974455 -0.14703885 -0.045411024 54 7
2.5812144 -0.15063997 0.045131866 51 8
2.5660539 -0.15065399 0.1347128 51 9
2.6285968 -0.15524666 -0.41705427 2 3
2.5780592 -0.15316494 -0.31710419 46 4
2.5875092 -0.1541796 -0.22677931 49 5
2.6057417 -0.15617877 -0.13680616 23 6
2.5968895 -0.15655796 -0.045411028 54 7
2.5806725 -0.15964918 0.045131862 52 8
2.569499 -0.15985832 0.13492215 46 9
2.620153 -0.16392782 -0.41580281 2 3
2.5854337 -0.16266169 -0.31807885 43 4
2.5949092 -0.16371255 -0.22747657 51 5
2.6011939 -0.16502064 -0.13659681 5 6
2.5923352 -0.16536723 -0.045341205 54 7
2.5920725 -0.16943906 0.045341294 52 8
2.5769272 -0.16890074 0.13534085 49 9
2.5848503 -0.17168558 -0.31807885 46 4
2.5863698 -0.17223991 -0.22677931 51 5
2.6025951 -0.17423297 -0.13670149 1 6
2.5897775 -0.17382887 -0.04530631 50 7
2.5755365 -0.17693734 0.045062058 22 8
2.5842915 -0.17844516 0.13575952 47 9
2.6130645 -0.18134843 -0.41486418 53 3
2.5961485 -0.18108507 -0.31954134 45 4
2.5917153 -0.18168494 -0.22730224 56 5
2.6179416 -0.18398266 -0.13753885 1 6
2.5971339 -0.1834314 -0.045445926 50 7
2.5916212 -0.1880431 0.13617821 27 9
2.6005945 -0.18960676 -0.41298696 37 3
2.5994599 -0.19043627 -0.32002878 45 4
2.5930855 -0.19042429 -0.22747654 49 5
2.6332178 -0.1942956 -0.13837622 1 6
2.5904951 -0.19205241 -0.045341212 31 7
2.6141181 -0.19793311 0.045760155 1 8
2.5908623 -0.19890113 -0.31905383 45 4
2.5943918 -0.19962758 -0.22765088 25 5
2.6245584 -0.20287037 -0.13795753 1 6
2.6253719 -0.20800446 0.045969579 1 8
2.5941095 -0.20826142 -0.31954131 45 4
2.6158714 -0.21138704 -0.13753885 1 6
2.6090229 -0.21175031 -0.045690261 2 7
2.6206443 -0.21683769 0.045899775 2 8
2.6012795 -0.21797833 -0.32051623 45 4
2.6207304 -0.22006887 -0.23009123 1 5
2.6549213 -0.22387327 -0.13963228 1 6
2.6142454 -0.22136238 -0.045794975 4 7
2.6039329 -0.22460927 0.045620531 4 8
2.6064358 -0.22757515 -0.32124746 40 4
2.6318557 -0.2302575 -0.23113713 1 5
2.62428 -0.23051782 -0.13806222 1 6
2.5835772 -0.2278513 -0.0452714 25 7
2.6076024 -0.23685153 -0.32149121 11 4
2.6310356 -0.23944296 -0.23113711 1 5
2.6115253 -0.23858659 -0.13743418 1 6
2.6106448 -0.23942511 -0.045760069 36 7
2.6403568 -0.24912228 -0.32563475 40 4
2.6262167 -0.24825057 -0.23078848 2 5
2.6226068 -0.24883299 -0.13806222 2 6
2.6336815 -0.25081143 -0.046178926 52 7
2.6133804 -0.25302106 0.045829963 49 8
2.6019335 -0.25466335 -0.321004 43 4
2.6372311 -0.25858277 -0.23183435 2 5
2.6256974 -0.25837728 -0.13827157 2 6
2.6108997 -0.25784138 -0.045794971 55 7
2.6204398 -0.2629405 0.045969576 56 8
2.6227536 -0.26594713 -0.32368484 13 4
2.6164906 -0.26577339 -0.23009123 9 5
2.6188188 -0.2669335 -0.13795754 6 6
2.6100304 -0.266498 -0.045794971 45 7
2.6135867 -0.27100998 0.045864869 57 8
2.6056397 -0.27386376 -0.22921968 32 5
2.6249936 -0.27728763 -0.046074215 53 7
2.6126246 -0.28013146 0.045864869 52 8
2.6324477 -0.28551051 -0.23166002 41 5
2.6308396 -0.28626522 -0.13869025 36 6
2.627985 -0.28688285 -0.04614402 53 7
2.6175935 -0.28990987 0.045969579 40 8
2.6294553 -0.29447597 -0.23148572 49 5
2.6218853 -0.29455489 -0.13827157 41 6
2.6309421 -0.29650241 -0.046213832 53 7
2.6225264 -0.29972649 0.046074301 7 8
2.6244531 -0.30319539 -0.23113711 43 5
2.6188571 -0.30347526 -0.13816687 29 6
2.6259181 -0.30522248 -0.04614402 53 7
2.6253569 -0.31259018 -0.23131141 49 5
2.6248367 -0.31438684 -0.04614402 55 7
2.6321602 -0.32272232 -0.23200867 47 5
2.6583035 -0.32686961 -0.140365 1 6
2.6316621 -0.32452625 -0.04628364 53 7
2.6389244 -0.33290583 -0.23270591 34 5
2.6412947 -0.33414146 -0.13952762 1 6
2.6384485 -0.33471718 -0.046423256 53 7
2.6480346 -0.34438962 -0.13994631 1 6
2.645196 -0.34495947 -0.046562884 47 7
2.6824505 -0.35839176 -0.14183041 1 6
2.6360474 -0.3531287 -0.046423256 53 7
2.6811831 -0.36775315 -0.14183041 1 6
2.6387608 -0.36287296 -0.046493068 55 7
2.6640608 -0.37488353 -0.14099303 2 6
2.6453984 -0.37319908 -0.046632688 53 7
2.6508753 -0.3824693 -0.140365 7 6
2.654042 -0.38339904 -0.046807211 52 7
2.6456411 -0.3906742 -0.14015567 33 6
2.6586907 -0.3930755 -0.046911925 47 7
2.6680288 -0.40302518 -0.14141172 36 6
2.6592796 -0.40265301 -0.046946831 36 7
2.6823237 -0.41524565 -0.14224909 4 6
