# .PCD v0.7 - Point Cloud Data file format
VERSION 0.7
FIELDS x y z intensity ring
SIZE 4 4 4 4 2
TYPE F F F F U
COUNT 1 1 1 1 1
WIDTH 758
HEIGHT 1
VIEWPOINT 0 0 0 1 0 0 0
POINTS 758
DATA ascii
1.8548554 1.0511372 -0.26177526 2 4
1.8117911 1.0183936 -0.25519454 20 4
1.8362288 1.0153258 -0.25763172 70 4
1.8171338 0.99650252 -0.25446308 79 4
1.8151976 0.98762453 -0.25373185 65 4
1.8308631 0.98788017 -0.25543827 54 4
1.8307999 0.97960979 -0.25495079 56 4
1.8940983 1.0126297 -0.18790784 1 5
1.8396393 0.97568375 -0.25568178 58 4
1.871217 0.99201322 -0.18529317 3 5
1.8340803 0.96495676 -0.25446308 52 4
1.8482149 0.97156966 -0.18267851 25 5
1.8911502 0.98740864 -0.3378984 1 3
1.8356775 0.95763111 -0.25421935 28 4
1.8803813 0.97386479 -0.33539546 1 3
1.8866422 0.97543758 -0.18581611 69 5
1.8821809 0.96606475 -0.33508265 6 3
1.8440849 0.94569719 -0.25446308 2 4
1.8563484 0.95157814 -0.18250421 37 5
1.8650699 0.94825143 -0.25690046 2 4
1.8791968 0.95502132 -0.18442161 5 5
1.8790047 0.94709587 -0.25836292 2 4
1.8967532 0.95562786 -0.18581611 2 5
1.8692262 0.93481487 -0.33101532 56 3
1.8751954 0.93698311 -0.25738817 2 4
1.8965124 0.94721991 -0.18546745 2 5
1.9318596 0.96403307 -0.11315031 1 6
1.8884069 0.93618053 -0.33383116 68 3
1.8820127 0.93219358 -0.25787568 2 4
1.8926657 0.93705779 -0.18477024 3 5
1.9083602 0.94399995 -0.11158024 3 6
1.8792526 0.92348588 -0.33164108 66 3
1.8852555 0.92561799 -0.25787568 2 4
1.8816156 0.92342442 -0.18337575 4 5
1.8753611 0.91345978 -0.33038959 66 3
1.8884748 0.91903192 -0.25787568 2 4
1.9059223 0.92628884 -0.11105688 36 6
1.8856536 0.91034365 -0.33164105 63 3
1.8880955 0.9107089 -0.25738817 2 4
1.8969901 0.91459215 -0.18424731 37 5
1.9253387 0.92743057 -0.11199892 59 6
1.8959478 0.90716588 -0.33289254 66 3
1.9037997 0.9101063 -0.25909412 7 4
1.9235413 0.9191314 -0.18651335 69 5
1.9033304 0.90865803 -0.11053351 66 6
1.8955331 0.89884889 -0.33226678 66 3
1.9051708 0.90260577 -0.25885037 34 4
1.8997279 0.89962012 -0.1838987 66 5
1.9173226 0.90713412 -0.11116153 52 6
1.8915077 0.8888666 -0.33101532 66 3
1.8974453 0.89044434 -0.18337575 59 5
1.9240947 0.90213108 -0.11137088 55 6
1.9396083 0.90404272 -0.41596368 1 2
1.8963894 0.88309288 -0.33132815 61 3
1.9024264 0.88509631 -0.25763193 75 4
1.9077682 0.88717651 -0.184073 57 5
1.9181751 0.89120191 -0.11084753 50 6
1.9571033 0.9084568 -0.037662178 1 7
1.903541 0.87915617 -0.40756807 1 2
1.8976667 0.87564063 -0.33101532 63 3
1.9018991 0.8767876 -0.25714421 62 4
1.9144723 0.88217998 -0.18442161 57 5
1.9176463 0.88282996 -0.11063819 50 6
1.9800867 0.91115814 -0.038046125 5 7
1.8923166 0.86597109 -0.40451515 7 2
1.9113384 0.87427258 -0.33289251 66 3
1.8975748 0.86717492 -0.25616926 58 4
1.9229776 0.87797379 -0.18494456 61 5
1.9241973 0.8781237 -0.11084753 37 6
1.9161779 0.86841029 -0.3332054 68 3
1.9023975 0.86136585 -0.25641322 54 4
1.9276937 0.87241298 -0.18511885 54 5
1.9345299 0.87469447 -0.11126622 14 6
1.8802599 0.84502262 -0.40069899 42 2
1.9119898 0.8584795 -0.33195394 68 3
1.9126379 0.85796946 -0.25738817 54 4
1.9234556 0.86241782 -0.18442161 51 5
1.9694425 0.88138717 -0.037662178 66 7
1.8921661 0.84244621 -0.40260708 70 2
1.9149742 0.8518014 -0.33195394 66 3
1.9174349 0.85209435 -0.25763193 58 4
1.9410204 0.86216998 -0.18581611 45 5
1.9570199 0.86845779 -0.11220826 2 6
1.9615386 0.86964375 -0.03745275 25 7
1.8950944 0.83583742 -0.40260702 68 2
1.9143206 0.84351802 -0.33132815 47 3
1.9113135 0.84139645 -0.25641322 52 4
1.9421947 0.8545863 -0.1856418 7 5
1.9563822 0.86001414 -0.11199891 1 6
1.8872067 0.8245008 -0.4003174 62 2
1.9251572 0.83947998 -0.25787568 51 4
1.9488184 0.84939408 -0.18599041 2 5
1.9666975 0.85636878 -0.1124176 2 6
1.9858986 0.86390638 -0.037801795 2 7
2.0312924 0.87986171 0.038639586 1 8
1.8864698 0.81634831 -0.39955413 59 2
1.9280752 0.83275622 -0.25787568 24 4
1.9755518 0.85285169 -0.18825649 2 5
1.9586707 0.84475309 -0.11178956 2 6
1.9778835 0.85222071 -0.037592366 2 7
1.9828954 0.85068983 0.037662249 6 8
1.8965257 0.81285244 -0.40108061 59 2
1.9284967 0.82575744 -0.33226678 2 3
1.969357 0.84203345 -0.1873849 2 5
1.9799745 0.84575689 -0.11283628 2 6
1.988203 0.84845138 -0.037731986 7 7
1.9011587 0.80699384 -0.40146217 53 2
1.9495535 0.82673323 -0.33539546 2 3
1.9667428 0.83321393 -0.26226273 2 4
1.9539373 0.82738554 -0.1856418 2 5
1.9681995 0.83261478 -0.11199892 2 6
1.9850993 0.8352747 0.037592433 44 8
1.9093934 0.80263543 -0.40260702 59 2
1.9414998 0.81533438 -0.3335183 2 3
1.9403512 0.8140555 -0.25836292 2 4
1.9641632 0.82364243 -0.18633907 2 5
1.9674093 0.82419628 -0.11178956 2 6
2.0027704 0.8344928 0.037871677 59 8
1.901309 0.79143834 -0.4003174 50 2
1.966221 0.81765461 -0.33727267 2 3
1.9505138 0.81032318 -0.25933784 2 4
1.9596653 0.81372523 -0.18564177 2 5
1.9850332 0.82344556 -0.11262694 3 6
2.0006738 0.82911521 -0.037801795 70 7
2.0019736 0.82597166 0.037801865 58 8
1.920396 0.79153031 -0.40375194 26 2
1.9800233 0.81529838 -0.33914995 2 3
1.9680171 0.80955154 -0.26128775 4 4
1.9698652 0.80990982 -0.18633905 2 5
1.9823529 0.81423533 -0.11231294 17 6
2.0054057 0.82288617 -0.037836701 70 7
2.0029936 0.81822187 0.03776696 57 8
1.9412682 0.79261285 -0.48409459 1 1
1.9609066 0.79943246 -0.33539546 2 3
1.9689897 0.80152571 -0.18599041 2 5
1.9934444 0.80986011 -0.037557464 59 7
2.0021293 0.80972701 0.037697151 56 8
1.9440234 0.78583127 -0.48409459 5 1
1.9440781 0.78545856 -0.4075681 9 2
1.9783394 0.79849792 -0.33789846 2 3
1.9717753 0.79464835 -0.18599041 7 5
1.9972526 0.80410564 -0.11283628 59 6
2.0016849 0.80548424 -0.037662178 55 7
2.012229 0.80605704 0.037836771 56 8
2.050853 0.82069731 0.11576718 1 9
1.9699712 0.78753406 -0.33602127 2 3
1.9541267 0.78040892 -0.25836292 77 4
1.983211 0.79082054 -0.11189424 72 6
2.0081997 0.79997164 -0.037731986 57 7
2.020607 0.80123878 0.037941482 43 8
1.9493273 0.77258039 -0.48409459 67 1
1.9165245 0.75919372 -0.40069902 42 2
1.9763815 0.7821058 -0.33664694 2 3
1.9623773 0.7757718 -0.25909412 62 4
2.0067868 0.79292297 -0.1887794 68 5
1.9896754 0.78535908 -0.1121036 57 6
1.999818 0.78855693 -0.037522562 57 7
2.0308378 0.79710263 0.038081102 8 8
1.937499 0.76007813 -0.48049536 58 1
1.9392686 0.76038194 -0.4048968 68 2
1.9901356 0.7795254 -0.33852419 2 3
1.9632246 0.76819324 -0.2588506 56 4
1.977998 0.77357686 -0.18581611 62 5
1.9924049 0.77840847 -0.1121036 53 6
2.0006955 0.78084391 -0.037487656 52 7
1.9510404 0.75754195 -0.48319486 68 1
2.0314047 0.78833884 0.11419711 59 9
1.9419109 0.75360841 -0.4048968 68 2
1.9781102 0.76686108 -0.33602127 3 3
1.971447 0.76348758 -0.25958183 58 4
1.97697 0.76522869 -0.18546745 55 5
1.9988351 0.77289104 -0.11231294 53 6
2.0127361 0.77745748 -0.037662178 54 7
2.0363526 0.78290641 0.038081102 1 8
1.9482154 0.74863046 -0.48184508 61 1
2.0397377 0.7833907 0.11451111 43 9
1.9408641 0.74541688 -0.40413353 59 2
1.9973731 0.76632005 -0.33883703 5 3
1.9741002 0.7566008 -0.25958183 58 4
1.9889323 0.76188731 -0.18633907 59 5
1.9977903 0.76448089 -0.1121036 53 6
2.0247769 0.7739976 -0.037836701 51 7
2.0428112 0.77721614 0.038150918 1 8
1.9453521 0.7397477 -0.48049536 57 1
2.036859 0.7741366 0.11419709 7 9
1.9452897 0.7393344 -0.40451515 56 2
1.969305 0.74688995 -0.25860664 58 4
1.9934423 0.75564659 -0.18651335 40 5
2.0041821 0.75891763 -0.11231294 49 6
2.0125036 0.76126456 -0.037557464 12 7
2.0567408 0.77430737 0.038360346 1 8
1.957042 0.73638374 -0.48274487 61 1
2.0470264 0.76983458 0.11461578 2 9
1.9460208 0.7318489 -0.40413353 59 2
2.0063732 0.75374651 -0.33946279 60 3
1.9700419 0.7393133 -0.25836292 56 4
2.0105598 0.75331813 -0.11252227 46 6
2.0481875 0.76293468 0.03815091 1 8
1.9669055 0.7322678 -0.48454446 61 1
2.0497012 0.76268494 0.11461578 4 9
1.9430437 0.7229982 -0.4029887 65 2
1.9904755 0.73985642 -0.33633408 5 3
1.9856371 0.73726827 -0.26006928 58 4
2.0187957 0.74837744 -0.11283629 22 6
2.0383966 0.75483465 -0.037941415 2 7
2.0508382 0.75578094 0.038150918 1 8
1.9676212 0.72472358 -0.48409465 57 1
1.9584521 0.72095925 -0.40566003 59 2
2.1110535 0.77671647 0.19679755 3 10
1.9856303 0.73017633 -0.33508262 2 3
1.9844717 0.72896409 -0.25958183 60 4
2.0180788 0.74090946 -0.18808214 2 5
2.0522854 0.75184256 -0.038150847 2 7
2.0421908 0.74450839 0.037941482 1 8
1.960984 0.71451557 -0.48184514 52 1
1.9609569 0.71411806 -0.40566003 57 2
2.0160122 0.73337054 -0.33977565 2 3
1.9981991 0.72609991 -0.26104403 60 4
2.0375073 0.73998213 -0.18965095 1 5
2.0164609 0.73154086 -0.1124176 2 6
2.0586569 0.74603695 -0.038220651 2 7
2.0711126 0.7468726 0.038430147 2 8
1.9542998 0.7043618 -0.47959557 26 1
2.0538175 0.73982465 0.11440644 59 9
1.9652847 0.70793349 -0.40604156 55 2
2.0148427 0.72499061 -0.33914992 2 3
1.9913809 0.71576464 -0.25982538 54 4
2.032578 0.73017055 -0.18895373 1 5
2.0378008 0.7312448 -0.11346433 2 6
2.0461893 0.73344791 -0.037941415 2 7
2.0812414 0.74232519 0.038569767 2 8
2.0562599 0.73300934 0.11440644 65 9
1.9677439 0.70106947 -0.40604162 54 2
2.08904 0.74387407 0.19400856 51 10
2.0210831 0.71927726 -0.33977562 2 3
1.9900026 0.70782584 -0.25933784 52 4
2.0200951 0.71773422 -0.18755923 2 5
2.0328119 0.7214545 -0.11304563 2 6
2.0561492 0.72933185 -0.038081035 2 7
1.9873713 0.70181471 -0.56474316 1 0
2.0780351 0.7334224 0.03846506 11 8
1.9847777 0.70011854 -0.48589423 2 1
2.0624461 0.72751558 0.11461578 56 9
1.9700578 0.6945408 -0.40604162 55 2
2.0877376 0.73561776 0.19365996 56 10
2.0234573 0.71257156 -0.33977565 2 3
2.0017011 0.7045185 -0.26055679 43 4
2.0375009 0.71631837 -0.18895373 1 5
2.0540376 0.72132653 -0.11409234 4 6
2.0510087 0.71986085 -0.037941415 2 7
1.975098 0.69012213 -0.56060201 6 0
1.9870878 0.69353426 -0.48589417 2 1
2.0725162 0.72294372 0.11503448 60 9
1.9723504 0.68800342 -0.40604162 54 2
2.0826397 0.72606736 0.19296271 58 10
2.0146165 0.70195919 -0.33789846 2 3
2.0135224 0.70078903 -0.26177526 22 4
2.0323381 0.70693886 -0.18825649 2 5
2.0553982 0.7133534 -0.037976325 10 7
2.0584066 0.71077681 0.038011298 44 8
1.9894968 0.68659323 -0.48589417 1 1
2.0825796 0.71830922 0.11545316 58 9
1.9821639 0.68367445 -0.4075681 55 2
2.096463 0.72268939 0.19400856 32 10
2.0245252 0.69749588 -0.33914992 2 3
2.0159566 0.6937567 -0.26177529 42 4
2.0611696 0.70891374 -0.19069684 1 5
2.0018051 0.68381119 -0.56681365 58 0
2.0703371 0.70681691 0.038185813 50 8
1.9808156 0.67586815 -0.4831948 1 1
2.0737319 0.70716894 0.11482514 58 9
1.9882542 0.67802 -0.40833133 39 2
2.038167 0.6942457 -0.34102711 2 3
2.1779764 0.741445 0.28249311 1 11
2.0164866 0.68607551 -0.2615315 70 4
2.0675273 0.70263714 -0.19104548 2 5
2.0537918 0.69756836 -0.11367366 66 6
2.069797 0.7021988 -0.038150847 53 7
1.9896553 0.67152596 -0.56267262 61 0
2.0841603 0.70342225 0.038395248 61 8
1.9979347 0.67393303 -0.48679402 1 1
2.0724025 0.69864929 0.11461578 60 9
2.111022 0.71084809 0.19488014 2 10
2.0481863 0.68929148 -0.3422786 2 3
2.1259909 0.7154755 0.27542469 7 11
2.0226326 0.68029773 -0.26201901 56 4
2.058635 0.69160819 -0.18999958 2 5
2.0601213 0.69130737 -0.113883 55 6
2.0741305 0.69560575 -0.038185745 62 7
1.9864894 0.66274399 -0.56111974 72 0
2.0829298 0.69451392 0.038325433 57 8
2.0188792 0.67276597 -0.49129298 1 1
2.0825291 0.69357371 0.11503448 60 9
1.9911926 0.66315466 -0.40794975 3 2
2.1078191 0.70158672 0.19435717 1 10
2.0618265 0.68587834 -0.34415579 2 3
2.0364151 0.67663574 -0.26348144 62 4
2.0421286 0.67813855 -0.18825649 2 5
2.0625222 0.68411148 -0.113883 55 6
2.0823612 0.6898852 -0.03829046 66 7
1.9869559 0.65520024 -0.56060201 61 0
2.0853415 0.68723941 0.038325436 56 8
2.0027058 0.65961879 -0.48679397 1 1
2.0963199 0.69004631 0.11566249 58 9
2.1216109 0.69796103 0.19540305 1 10
2.0491953 0.67374176 -0.34165284 2 3
2.1518004 0.70706046 0.27810577 47 11
2.0312207 0.6670453 -0.26250646 60 4
2.0596275 0.67597687 -0.18965098 2 5
2.0592041 0.67504072 -0.11356899 52 6
2.0752544 0.67950135 -0.038115937 55 7
1.994741 0.65005648 -0.56215495 75 0
2.087728 0.67995536 0.038325436 55 8
2.0012903 0.6514172 -0.48589417 1 1
2.0987158 0.68272507 0.11566251 56 9
2.1240349 0.69055039 0.19540307 1 10
2.0515349 0.66658396 -0.34165284 2 3
2.1334875 0.69280148 0.27542469 58 11
2.0392005 0.6617896 -0.26323789 54 4
2.0638697 0.66939741 -0.18982528 3 5
2.0577478 0.66661799 -0.11335965 52 6
2.0738091 0.67102146 -0.038046129 55 7
2.0080314 0.64664209 -0.56526077 75 0
2.095799 0.67450213 0.038430147 49 8
2.0072622 0.64562118 -0.48679397 2 1
2.1010864 0.67539442 0.11566251 21 9
2.0129805 0.64707267 -0.41100267 63 2
2.1340196 0.68557 0.19610031 2 10
2.0500877 0.65821147 -0.34102711 2 3
2.1377826 0.68595582 0.27566838 55 11
2.0282667 0.65042466 -0.2615315 58 4
2.0562575 0.65821368 -0.1131503 52 6
2.0723293 0.66256088 -0.037976325 37 7
2.0084355 0.6390425 -0.56474316 68 0
2.0943296 0.66597086 0.038360342 19 8
2.0057893 0.63742965 -0.48589417 2 1
2.0040004 0.6364761 -0.40871301 68 2
2.1212072 0.67329496 0.19470581 1 10
2.071202 0.65702379 -0.34415582 5 3
2.1401641 0.67848879 0.27566838 58 11
2.0286322 0.64274168 -0.26128775 56 4
2.081789 0.65918273 -0.19104545 21 5
2.0661595 0.65344143 -0.11356898 53 6
2.010654 0.63202834 -0.56474316 65 0
2.0264835 0.63661563 -0.49039319 3 1
2.111352 0.66287196 0.11597652 2 9
2.0099559 0.6306529 -0.40947619 62 2
2.1349518 0.66946274 0.1957517 1 10
2.1537678 0.67495018 0.27713084 60 11
2.0383298 0.63838333 -0.26226297 54 4
2.0778468 0.64956534 -0.11409234 56 6
2.0035145 0.62249184 -0.56215501 72 0
2.1140928 0.65644276 0.038639586 1 8
2.0305548 0.63011616 -0.49084318 18 1
2.1212833 0.65786493 0.11639522 2 9
2.0120361 0.62398452 -0.40947619 62 2
2.1447723 0.664738 0.19644894 2 10
2.047322 0.63414431 -0.33946279 43 3
2.1599033 0.66860259 0.27761832 58 11
2.0462356 0.63302398 -0.2629942 58 4
2.2080691 0.68266678 0.36605674 1 12
2.0673039 0.63875228 -0.18930234 2 5
2.0820103 0.64289719 -0.11419703 50 6
2.1134377 0.65179467 -0.03860461 2 7
2.0131702 0.61741042 -0.56422555 72 0
2.120194 0.65023315 0.038709391 1 8
2.1273863 0.65162551 0.11660456 2 9
2.0255733 0.62005424 -0.41176593 62 2
2.1624362 0.66153592 0.19784345 2 10
2.0760796 0.63472134 -0.34384298 62 3
2.1546309 0.65873688 0.2766434 60 11
2.0503306 0.62645876 -0.26323792 54 4
2.208549 0.67437845 0.36574382 8 12
2.0809543 0.63502055 -0.19034818 1 5
2.07671 0.63293314 -0.11377832 49 6
2.1386552 0.65140462 -0.039023459 2 7
2.0153129 0.61037892 -0.56422549 72 0
2.1263914 0.64361513 0.038779199 2 8
2.0387423 0.61669809 -0.49174297 61 1
2.133471 0.64535248 0.11681389 2 9
2.0390005 0.61638784 -0.41405556 62 2
2.1609178 0.65283054 0.19749479 2 10
2.0688272 0.62461627 -0.34227863 46 3
2.1532297 0.64968896 0.27615589 60 11
2.0487039 0.61815065 -0.26275042 54 4
2.0831585 0.62775344 -0.19034819 1 5
2.0827324 0.62683094 -0.11398769 52 6
2.1370859 0.64278388 -0.038953651 1 7
2.0265803 0.60646123 -0.56681371 68 0
2.1361773 0.63885242 0.038918816 2 8
2.0258389 0.60547 -0.48814368 51 1
2.1298583 0.63655871 0.11649988 8 9
2.029747 0.60625118 -0.41176593 62 2
2.166889 0.64680129 0.19784342 2 10
2.067101 0.61662346 -0.34165287 19 3
2.1648843 0.64538008 0.2773746 65 11
2.0469382 0.61021882 -0.26226273 54 4
2.2187681 0.66102201 0.3666825 55 12
2.1043246 0.62652785 -0.19209135 2 5
2.0809705 0.61878276 -0.11377834 39 6
2.1238708 0.63113701 -0.038674414 2 7
2.0193169 0.59699923 -0.56422549 72 0
2.1555433 0.63686591 0.039232962 5 8
2.0427876 0.603163 -0.49174297 60 1
2.0279801 0.59840614 -0.41100267 57 2
2.1422677 0.63172197 0.19540307 10 10
2.1708212 0.6393196 0.2778621 65 11
2.056673 0.60531121 -0.26323792 56 4
2.2077961 0.64937156 0.36449239 55 12
2.1026754 0.61805415 -0.19174269 2 5
2.0830112 0.61187804 -0.11377834 12 6
2.1222234 0.62259299 -0.038604606 2 7
2.0196369 0.58905375 -0.56370789 65 0
2.0561059 0.59930003 -0.49444234 61 1
2.0339301 0.59206718 -0.41176596 57 2
2.1092923 0.61320621 -0.34791026 2 3
2.1749451 0.63229257 0.27810577 58 11
2.0663984 0.60034513 -0.26421264 51 4
2.2138436 0.64276195 0.36511815 60 12
2.1086473 0.61182052 -0.19209133 2 5
2.1120965 0.6120221 -0.11524375 19 6
2.1359086 0.61851805 -0.038814034 2 7
2.0421019 0.58787853 -0.56940192 72 0
2.0395598 0.58637583 -0.48994333 52 1
2.1518717 0.61825907 0.11733726 58 9
2.0322101 0.58387893 -0.41100267 57 2
2.0848372 0.59821159 -0.34353006 2 3
2.1696153 0.62212759 0.27713084 60 11
2.0724015 0.59386039 -0.26470011 22 4
2.2161846 0.63464397 0.36511815 59 12
2.1146009 0.60555369 -0.19243994 1 5
2.1026983 0.60135108 -0.11461571 47 6
2.1535437 0.6150794 -0.039093271 2 7
2.0348499 0.57810736 -0.56681371 68 0
2.1391177 0.60732669 0.038814105 50 8
2.0453441 0.58031625 -0.49084318 50 1
2.1348016 0.60529613 0.11629055 58 9
2.0512352 0.58160192 -0.41443723 46 2
2.1718745 0.61539829 0.1974948 56 10
2.1135221 0.59846461 -0.34791026 2 3
2.1698637 0.61401051 0.27688712 55 11
2.2278912 0.62958962 0.3666825 55 12
2.1282055 0.60141903 -0.19348581 1 5
2.1143951 0.5967204 -0.11513906 62 6
2.1441293 0.60430396 -0.038883846 2 7
2.0480165 0.5741291 -0.56991953 65 0
2.148927 0.60201335 0.038953722 61 8
2.0417271 0.57159746 -0.4894934 38 1
2.136797 0.59821302 0.11629054 58 9
2.1720905 0.60727626 0.19732051 56 10
2.1003778 0.58683139 -0.34540725 2 3
2.1815536 0.609101 0.27810577 58 11
2.0803211 0.58044481 -0.26518759 2 4
2.220453 0.61954403 0.36511815 37 12
2.1111 0.58863568 -0.19174269 2 5
2.1203139 0.59040719 -0.11534842 55 6
2.1268563 0.59182906 -0.03853479 2 7
2.0425601 0.56491721 -0.56784898 65 0
2.1547663 0.59595042 0.039023533 59 8
2.0530031 0.56741977 -0.49174297 8 1
2.150423 0.59394133 0.11691856 58 9
2.0703855 0.57144511 -0.41749015 2 2
2.1665139 0.59757179 0.19662347 35 10
2.1251633 0.58616644 -0.34916171 2 3
2.1912167 0.60397381 0.27908078 58 11
2.0918038 0.57617837 -0.2664063 4 4
2.2168882 0.61021733 0.36417949 7 12
2.1208262 0.58337605 -0.19243994 2 5
2.1184082 0.58231336 -0.11513906 52 6
2.1404796 0.58757687 -0.038744222 6 7
2.0444224 0.55814123 -0.56784904 65 0
2.149117 0.58631945 0.038883917 57 8
2.1563373 0.58748174 0.11712792 60 9
2.0646915 0.56251347 -0.41596365 1 2
2.1157603 0.57563257 -0.34728447 2 3
2.1971426 0.59736347 0.27956825 60 11
2.0976329 0.56991434 -0.26689398 25 4
2.1189034 0.57529634 -0.19209133 2 5
2.1358495 0.57909685 -0.11597645 55 6
2.1309364 0.5769664 -0.038534794 24 7
2.0594161 0.55451685 -0.57147247 47 0
2.1434262 0.57673615 0.038744297 59 8
2.0587962 0.55357927 -0.49219283 2 1
2.16609 0.58202368 0.11754659 54 9
2.0969794 0.56345373 -0.42206964 1 2
2.1936228 0.58901 0.19871499 2 10
2.1215725 0.56926787 -0.34791026 2 3
2.1972971 0.58917558 0.27932453 55 11
2.1170495 0.56686622 -0.19174269 2 5
2.1339989 0.57060546 -0.11576711 52 6
2.1425974 0.57210439 -0.038709324 37 7
2.1647542 0.5743795 0.039093342 56 8
2.0644834 0.54738766 -0.49309263 1 1
2.1526635 0.57036614 0.11670921 24 9
2.083751 0.55210727 -0.41901663 2 2
2.201443 0.58288062 0.19923791 1 10
2.1235466 0.5618583 -0.34791026 2 3
2.1935833 0.57997912 0.2785933 15 11
2.0862069 0.55120063 -0.26494384 49 4
2.1557159 0.56875986 -0.19505464 4 5
2.1321146 0.56213599 -0.11555775 55 6
2.1890588 0.57633114 -0.039512128 42 7
2.1667459 0.56681895 0.039093338 56 8
2.0739233 0.54214895 -0.49489227 2 1
2.0819614 0.54347503 -0.41825342 2 2
2.2189877 0.57882953 0.20063265 1 10
2.1351492 0.55656314 -0.34947458 6 3
2.1955941 0.57231909 0.2785933 3 11
2.105407 0.54841787 -0.26713774 61 4
2.1283619 0.55280977 -0.11524375 50 6
2.1765549 0.56087029 0.039232966 55 8
2.0909939 0.53843194 -0.4984915 2 1
2.1973095 0.56539947 0.11890734 2 9
2.0686352 0.53228974 -0.41520041 2 2
2.1901207 0.56314337 0.19784342 1 10
2.1131713 0.54217803 -0.26786897 56 4
2.1380174 0.54735994 -0.11566243 52 6
2.1853771 0.55867076 -0.039372507 1 7
2.1707468 0.55129963 0.039093342 56 8
2.0758605 0.52681702 -0.4944424 18 1
2.1953976 0.55674458 0.11869799 2 9
2.0952196 0.53133982 -0.42016146 4 2
2.2036612 0.55843079 0.19888929 1 10
2.1121733 0.53485566 -0.34509441 43 3
2.1189001 0.53577101 -0.26835641 56 4
2.1422369 0.541273 -0.19331151 55 5
2.1399152 0.53989285 -0.11566243 50 6
2.1795576 0.54908538 -0.039232895 2 7
2.1687782 0.54274851 0.039023533 34 8
2.2128291 0.55295074 0.11953537 2 9
2.2210612 0.55459714 0.20028377 2 10
2.137027 0.53321767 -0.34884882 62 3
2.2246766 0.55467379 0.28151816 50 11
2.1265364 0.52981168 -0.2690874 53 4
2.1402462 0.53283066 -0.19296288 43 5
2.1417868 0.5324204 -0.11566243 49 6
2.1892242 0.54340029 -0.039372507 1 7
2.1040862 0.51837105 -0.50029111 56 1
2.1953523 0.54045039 0.11848867 2 9
2.2268529 0.54779196 0.20063265 2 10
2.1216111 0.52151042 -0.34603307 58 3
2.2304544 0.5478524 0.28200564 63 11
2.1225891 0.52096528 -0.26835644 56 4
2.1440282 0.52583063 -0.19313718 14 5
2.1358726 0.52304012 -0.11524375 49 6
2.1949928 0.53670561 -0.039442323 1 7
2.2074926 0.53608769 0.039651822 2 8
2.0945201 0.50826633 -0.4975917 24 1
2.1894615 0.53090072 0.11806997 2 9
2.0873134 0.50613183 -0.41749018 45 2
2.2481155 0.54470658 0.2023755 2 10
2.1330183 0.51642609 -0.34759739 59 3
2.236212 0.54099733 0.28249311 60 11
2.1243949 0.51355231 -0.26835644 56 4
2.1671541 0.52348977 -0.19505462 2 5
2.1493349 0.51839042 -0.11587177 49 6
2.2085176 0.53184992 -0.039651748 1 7
2.2093499 0.52838027 0.039651815 6 8
2.2068422 0.5269652 0.11890734 2 9
2.1024344 0.50203401 -0.42016152 60 2
2.1444151 0.51126736 -0.34916171 52 3
2.2380869 0.53318757 0.28249311 58 11
2.1377611 0.50889242 -0.26981887 56 4
2.1554003 0.51269382 -0.19383444 2 5
2.1589041 0.51273119 -0.11629046 46 6
2.1870115 0.51860029 -0.039232891 1 7
2.2203338 0.52200174 0.11953537 2 9
2.0984404 0.49334455 -0.41901663 56 2
2.1423407 0.50287646 -0.34853598 50 3
2.2457321 0.52673227 0.28322428 53 11
2.1317935 0.49961567 -0.26884365 41 4
2.1649365 0.50698352 -0.19453168 2 5
2.1587355 0.50473785 -0.11618578 20 6
2.2121766 0.51641858 -0.039651748 1 7
2.2032444 0.5106855 0.039477292 57 8
2.2163048 0.5128966 0.11922135 9 9
2.113539 0.48911455 -0.42168796 59 2
2.2206962 0.51350564 0.19941224 39 10
2.1402335 0.49450523 -0.34791026 50 3
2.2282152 0.51442397 0.28078693 32 11
2.1412618 0.49395666 -0.26981863 8 4
2.1977568 0.50658411 -0.19732068 1 5
2.2217612 0.51048404 -0.03979136 1 7
2.2050138 0.5029912 0.039477292 44 8
2.1171474 0.48217037 -0.42206964 56 2
2.236074 0.50884491 0.20063265 47 10
2.1477251 0.48834574 -0.34884879 47 3
2.1839671 0.49538401 -0.19592617 2 5
2.1719465 0.49186033 -0.11670915 8 6
2.2176781 0.50140303 -0.03968665 1 7
2.214561 0.49704227 0.039616913 58 8
2.2061892 0.49435449 0.11848865 54 9
2.1111548 0.47305954 -0.42054313 56 2
2.2456141 0.50277704 0.20132965 58 10
2.1474891 0.48041508 -0.34853598 28 3
2.1465955 0.4794274 -0.27006236 1 4
2.1973503 0.49036169 -0.19697206 1 5
2.1833978 0.48644689 -0.11723251 30 6
2.2233193 0.49452668 -0.039756462 2 7
2.218235 0.48974058 0.039651815 57 8
2.2175679 0.48918742 0.11901201 42 9
2.1147103 0.46611035 -0.42092472 47 2
2.2337353 0.4919363 0.2001095 54 10
2.1792777 0.47874683 -0.27396217 1 4
2.1912644 0.4809792 -0.1962748 2 5
2.1870332 0.47925043 -0.11733718 32 6
2.2327607 0.48886245 -0.039896086 2 7
2.2237551 0.48323157 0.039721631 57 8
2.2173102 0.48102069 0.11890734 48 9
2.1259177 0.46080565 -0.42283279 13 2
2.2354391 0.48413551 0.2001095 54 10
2.173877 0.47080284 -0.35229039 2 3
2.1808529 0.47151792 -0.27396217 2 4
2.17735 0.46996394 -0.19488032 2 5
2.2120385 0.47704831 -0.11859323 55 6
2.2305434 0.48022321 -0.039826266 2 7
2.2215176 0.47463012 0.039651822 57 8
2.2364726 0.47741824 0.11984939 44 9
2.2487235 0.47921175 0.20115533 52 10
2.1870992 0.46568152 -0.35416761 2 3
2.1824856 0.46390182 -0.27396241 2 4
2.210079 0.46936491 -0.1976693 2 5
2.1902447 0.46435267 -0.11733718 47 6
2.2438614 0.47531182 -0.040035702 4 7
2.230907 0.46890536 0.039791439 57 8
2.2581828 0.47299367 0.20185259 52 10
2.1847646 0.45761567 -0.35354188 3 3
2.1801262 0.45584872 -0.27347496 2 4
2.2136543 0.46205392 -0.19784361 15 5
2.1839521 0.45545536 -0.1169185 45 6
2.2364464 0.46192572 0.039861247 57 8
2.2636418 0.46630716 0.20220122 54 10
2.1661479 0.44504136 -0.27152479 2 4
2.1801217 0.44711825 -0.19470598 29 5
2.1933546 0.4494344 -0.11733718 47 6
2.2255747 0.455226 -0.039651748 32 7
2.2419648 0.45491096 0.039931055 57 8
2.2667971 0.45912576 0.12121013 1 9
2.2633832 0.45761082 0.2020269 58 10
2.1937921 0.44314352 -0.35448048 77 3
2.1871469 0.4414039 -0.27396217 9 4
2.1972947 0.44265378 -0.1961005 37 5
2.2008615 0.44257197 -0.11765119 42 6
2.2330315 0.44863668 -0.039756462 3 7
2.2396946 0.44591025 0.039861247 56 8
2.2723823 0.45159358 0.12141947 2 9
2.2669208 0.45009696 0.20220122 54 10
2.1972632 0.43586683 -0.35479334 51 3
2.1926446 0.4341563 -0.27444965 30 4
2.1988266 0.43498048 -0.1961005 55 5
2.2082713 0.4360491 -0.11796522 47 6
2.266052 0.44663575 -0.040314935 1 7
2.2412376 0.43808892 0.039861247 55 8
2.2817862 0.44518799 0.12183816 1 9
2.2723889 0.44294292 0.20254982 52 10
2.1793818 0.42441884 -0.35166466 13 3
2.1980441 0.42725688 -0.27493712 36 4
2.2042429 0.42806265 -0.19644912 49 5
2.2058585 0.42757741 -0.11775587 47 6
2.2518911 0.43568477 -0.040035702 1 7
2.2466807 0.43101686 0.039931051 55 8
2.2989423 0.44062701 0.12267554 1 9
2.2778351 0.43575728 0.20289844 52 10
2.2034218 0.42032608 -0.27542463 60 4
2.2115953 0.42148414 -0.19697206 50 5
2.2092993 0.42024854 -0.11786053 42 6
2.2729688 0.4319475 -0.040384743 1 7
2.2579234 0.4254148 0.040105578 49 8
2.2886894 0.43038425 0.12204751 2 9
2.2910914 0.43000805 0.20394431 40 10
2.1872432 0.40972683 -0.27323124 52 4
2.2208872 0.41522688 -0.19766931 50 5
2.2126443 0.41328609 -0.11796522 40 6
2.2626677 0.42181233 -0.040175315 1 7
2.2672603 0.41898465 0.040245201 24 8
2.2862494 0.42166853 0.12183816 2 9
2.2866266 0.42132547 0.20342138 14 10
2.1906128 0.40244752 -0.27347496 44 4
2.2144127 0.4064205 -0.19697203 48 5
2.2258608 0.40771851 -0.11859325 28 6
2.2641261 0.41391209 -0.040175311 1 7
2.2549353 0.40857267 0.040000863 42 8
2.2955689 0.41510651 0.12225685 2 9
2.1978652 0.39585555 -0.27420595 42 4
2.2177792 0.39904156 -0.19714637 43 5
2.257684 0.40459472 -0.040035699 1 7
2.258317 0.40104812 0.040035773 50 8
2.3206034 0.41127384 0.12351292 2 9
2.2031434 0.38887063 -0.2746934 40 4
2.2387798 0.39475676 -0.19888946 13 5
2.2620926 0.39805454 -0.12037268 1 6
2.2708998 0.39878714 -0.040245127 1 7
2.2734935 0.39556146 0.040280104 59 8
2.2905397 0.39770362 0.12183816 2 9
2.2025311 0.38083905 -0.27444965 34 4
2.2477226 0.38744119 -0.1195353 1 6
2.2841024 0.39289117 -0.040454552 1 7
2.2866883 0.38963896 0.040489536 58 8
2.2801001 0.3876963 0.12121013 8 9
2.2748773 0.38476717 -0.20185277 2 5
2.2687554 0.38291723 -0.12058201 2 6
2.2894039 0.38557935 -0.04052436 2 7
2.2959244 0.38296998 0.040629152 59 8
2.2565503 0.3735694 -0.20010966 2 5
2.2779603 0.37629691 -0.12100069 2 6
2.2828438 0.37628621 -0.040384747 2 7
2.2893524 0.37366641 0.040489532 59 8
2.2926075 0.37337509 0.12173349 42 9
2.2696409 0.36760196 -0.20115551 2 5
2.2733452 0.36738649 -0.12068668 4 6
2.299937 0.37086138 -0.040663987 4 7
2.2866938 0.3650417 0.040419724 58 8
2.299814 0.3663131 0.12204751 44 9
2.2748463 0.36030003 -0.20150416 19 5
2.299809 0.35890692 0.040629152 59 8
2.2931848 0.35705325 0.12162881 46 9
2.2583699 0.34961432 -0.19993536 33 5
2.2659853 0.34998339 -0.12016333 32 6
2.3089547 0.35208312 0.040768772 59 8
2.3082387 0.35114843 0.1223615 46 9
2.283216 0.34530467 -0.20202707 37 5
2.2928667 0.34594563 -0.12152406 58 6
2.3036945 0.34675583 -0.040663984 69 7
2.3180816 0.34519878 0.040908393 58 8
2.3173528 0.34426352 0.12278019 46 9
2.2725816 0.33558571 -0.20098124 8 5
2.2644212 0.33357316 -0.11995398 47 6
2.3009336 0.33813131 -0.040594175 54 7
2.3153141 0.33653024 0.040838577 58 8
2.3304 0.33789232 0.12340823 38 9
2.2813876 0.32793969 -0.12079135 39 6
2.3119974 0.33151719 -0.040768702 43 7
2.3143804 0.32897279 0.040803675 57 8
2.3354049 0.3311297 0.12361757 12 9
2.2744954 0.31965944 -0.12037268 40 6
2.2971847 0.3220306 -0.040489458 14 7
2.3194761 0.32144162 0.040873487 48 8
2.2796092 0.31186277 -0.12058201 39 6
2.2886028 0.30495816 -0.12100069 39 6
2.3212354 0.30848193 -0.040873412 1 7
2.3593879 0.30978164 0.041536674 2 8
2.3015375 0.29850942 -0.12162873 38 6
2.3302307 0.30140281 -0.041013028 1 7
2.3485532 0.30002287 0.041327246 4 8
2.3144553 0.29197302 -0.12225678 29 6
2.351109 0.29576445 -0.041362077 1 7
2.3481574 0.28706983 -0.041292269 1 7
2.3227961 0.28026709 0.040838577 39 8
2.3451254 0.27880865 -0.041222464 2 7
2.3574765 0.27652258 0.04143196 49 8
2.3500574 0.27108088 -0.041292276 2 7
2.3544536 0.26784018 0.041362152 48 8
2.3609252 0.26398638 -0.041466791 27 7
2.3553739 0.25962043 0.041362148 48 8
2.360287 0.25140885 0.04143196 45 8
2.3607218 0.24728924 -0.041431885 40 7
2.371053 0.24460697 0.041606482 40 8
2.3837903 0.23793398 0.041815914 19 8
