# .PCD v0.7 - Point Cloud Data file format
VERSION 0.7
FIELDS x y z intensity ring
SIZE 4 4 4 4 2
TYPE F F F F U
COUNT 1 1 1 1 1
WIDTH 575
HEIGHT 1
VIEWPOINT 0 0 0 1 0 0 0
POINTS 575
DATA ascii
2.5513234 -0.2983574 -0.31539774 1 4
2.5128205 -0.30274981 -0.3107667 4 4
2.5838625 -0.31954747 -0.41236126 1 3
2.5239439 -0.3210862 -0.40297517 2 3
2.5012615 -0.32707694 -0.39953357 25 3
2.4917982 -0.3267242 -0.30857304 68 4
2.5040207 -0.33633193 -0.40015936 42 3
2.4827733 -0.33436042 -0.30759811 32 4
2.5223997 -0.34776857 -0.40328801 48 3
2.5309498 -0.35795438 -0.40485236 63 3
2.492171 -0.35335726 -0.30906054 1 4
2.5081809 -0.36366898 -0.40141082 54 3
2.4791358 -0.36034119 -0.30759811 1 4
2.512758 -0.37329277 -0.40234944 59 3
2.4778628 -0.36899278 -0.30759811 1 4
2.5133927 -0.38235873 -0.40266231 63 3
2.4726346 -0.37704137 -0.30711091 1 4
2.5033233 -0.38216802 -0.22154996 1 5
2.5100908 -0.39082581 -0.40234944 58 3
2.4909172 -0.38873109 -0.30954832 1 4
2.4744151 -0.38659817 -0.21910961 12 5
2.4989572 -0.39803171 -0.40078506 60 3
2.481704 -0.3961719 -0.30857304 2 4
2.4917035 -0.40579972 -0.39984649 66 3
2.4724693 -0.40355313 -0.30759811 2 4
2.4795213 -0.40514848 -0.21980686 76 5
2.5274248 -0.41977218 -0.49801159 1 2
2.5020359 -0.41600415 -0.40172368 66 3
2.463285 -0.41044483 -0.30662313 2 4
2.456475 -0.41019148 -0.21788946 69 5
2.4911771 -0.4222455 -0.49114242 9 2
2.5005686 -0.42473534 -0.40172371 68 3
2.471622 -0.42070642 -0.30784214 20 4
2.4511731 -0.4176659 -0.21754082 61 5
2.5029635 -0.43413654 -0.40234944 66 3
2.4457743 -0.42553645 -0.2171922 61 5
2.4920349 -0.44030997 -0.49190563 50 2
2.4955971 -0.44183776 -0.40141079 63 3
2.4744885 -0.43899146 -0.30857304 67 4
2.4344654 -0.4323293 -0.21632062 54 5
2.4943476 -0.44970286 -0.49266896 50 2
2.4823763 -0.44843933 -0.3995336 60 3
2.4709876 -0.44727278 -0.30832961 78 4
2.4427438 -0.44260067 -0.2171922 58 5
2.5024166 -0.46018246 -0.49457699 67 2
2.4943948 -0.45960745 -0.40172371 66 3
2.4537947 -0.45301229 -0.30637941 52 4
2.4451027 -0.4518488 -0.21754082 58 5
2.5137641 -0.4654448 -0.13398002 1 6
2.4872875 -0.46638194 -0.49190563 63 2
2.4888921 -0.46758214 -0.40109795 66 3
2.454149 -0.46194199 -0.30662313 24 4
2.4591737 -0.46333221 -0.2189353 34 5
2.449321 -0.46236122 -0.13063051 2 6
2.4817877 -0.47432426 -0.49114242 63 2
2.4911256 -0.47701025 -0.40172374 66 3
2.418273 -0.46524823 -0.12906043 17 6
2.4762635 -0.48223397 -0.49037927 42 2
2.4778118 -0.48343331 -0.39984649 66 3
2.4703467 -0.48287201 -0.30906054 1 4
2.4695666 -0.48316696 -0.22015549 2 5
2.4722347 -0.49130943 -0.39922076 56 3
2.4686463 -0.49149209 -0.30906054 1 4
2.4639571 -0.49100566 -0.21980686 1 5
2.4404275 -0.48720261 -0.13042116 66 6
2.4666319 -0.49915257 -0.39859498 47 3
2.4669156 -0.50010633 -0.30906054 1 4
2.4739435 -0.5019806 -0.22085273 2 5
2.403482 -0.48855707 -0.12853707 36 6
2.4941535 -0.51288354 -0.49495858 1 2
2.470679 -0.5089553 -0.3995336 13 3
2.4496017 -0.50550491 -0.30711064 1 4
2.4682739 -0.50980729 -0.22050411 1 5
2.4095855 -0.4985626 -0.12895577 33 6
2.5121629 -0.52527577 -0.59252101 1 1
2.4961915 -0.52239096 -0.49572185 1 2
2.4727538 -0.51838714 -0.40015933 5 3
2.4633641 -0.51731634 -0.30906054 1 4
2.4469814 -0.51432186 -0.218761 2 5
2.4039211 -0.5061475 -0.12874641 45 6
2.5122201 -0.53444713 -0.59297091 25 1
2.4789913 -0.5278303 -0.49266896 1 2
2.4421301 -0.52176428 -0.30662313 1 4
2.4490678 -0.5236935 -0.21910961 2 5
2.4060462 -0.5153724 -0.12895577 47 6
2.4848087 -0.53814256 -0.4941954 2 2
2.4748657 -0.53689378 -0.40109789 79 3
2.4713314 -0.53703022 -0.31052297 2 4
2.4433312 -0.53139234 -0.218761 2 5
2.3964264 -0.52206731 -0.12853707 45 6
2.5160403 -0.55364776 -0.59477043 76 1
2.5040054 -0.5514577 -0.49839321 4 2
2.48648 -0.54850811 -0.40328804 57 3
2.4423048 -0.53965741 -0.30711064 2 4
2.4492428 -0.54163879 -0.21945824 10 5
2.3945897 -0.53042918 -0.12853707 47 6
2.4539394 -0.54447466 -0.043875214 1 7
2.495075 -0.55817252 -0.59027141 59 1
2.4729855 -0.5545907 -0.40141085 54 3
2.4365325 -0.54730916 -0.30662313 2 4
2.3966203 -0.53966218 -0.12874642 47 6
2.3993552 -0.54115808 -0.042932786 9 7
2.4988122 -0.5681749 -0.59162116 57 1
2.4768121 -0.56453663 -0.40234944 59 3
2.4404132 -0.55713642 -0.30735436 20 4
2.4492865 -0.55961192 -0.21980685 76 5
2.394722 -0.54802459 -0.12874642 47 6
2.4931169 -0.57558137 -0.59072137 57 1
2.4617503 -0.56924504 -0.49114242 50 2
2.473002 -0.57230151 -0.40203655 63 3
2.412384 -0.56004804 -0.21666925 66 5
2.3967826 -0.55686682 -0.12895577 47 6
2.4092498 -0.56064999 -0.04317712 73 7
2.4910927 -0.58428049 -0.59072143 57 1
2.4751396 -0.58099449 -0.4941954 72 2
2.4575286 -0.57776588 -0.39984649 66 3
2.4539545 -0.5778296 -0.30954829 67 4
2.4066353 -0.56713063 -0.21632062 56 5
2.3909361 -0.56431216 -0.12874642 45 6
2.3878174 -0.56445611 -0.042828072 74 7
2.4814551 -0.59116596 -0.58892179 46 1
2.4730966 -0.58963084 -0.4941954 63 2
2.457418 -0.58679938 -0.40015933 63 3
2.4248936 -0.5799278 -0.30613565 54 4
2.4085159 -0.57645547 -0.21666922 56 5
2.3889518 -0.57265472 -0.12874642 45 6
2.3897214 -0.57372141 -0.042897884 19 7
2.4519422 -0.59364027 -0.49037924 63 2
2.4553547 -0.59537387 -0.40015933 63 3
2.4132092 -0.58604634 -0.30491725 10 4
2.4122972 -0.58627087 -0.21719217 49 5
2.3908193 -0.58193493 -0.12895575 47 6
2.4999774 -0.61405337 -0.5943206 1 1
2.4555743 -0.60360134 -0.49152404 66 2
2.4609344 -0.60582989 -0.40141085 60 3
2.4160397 -0.59611964 -0.21771514 39 5
2.3887737 -0.5902769 -0.12895577 45 6
2.3778932 -0.58846903 -0.042758264 2 7
2.5053823 -0.62466198 -0.59612024 1 1
2.4591672 -0.61359519 -0.49266896 63 2
2.4473057 -0.61154312 -0.3995336 60 3
2.4379447 -0.61010808 -0.30857331 1 4
2.3905733 -0.59958345 -0.12916511 45 6
2.4068558 -0.60456038 -0.043316741 2 7
2.4918513 -0.63053536 -0.5934208 1 1
2.4532034 -0.62121159 -0.49190563 41 2
2.4509006 -0.62153876 -0.40047222 58 3
2.4434965 -0.62056899 -0.30954832 1 4
2.3807235 -0.60595387 -0.12874642 45 6
2.4047308 -0.61295819 -0.043316733 2 7
2.5113204 -0.6438632 -0.69467038 8 0
2.380522 -0.61077124 0.042897966 2 8
2.4896352 -0.63922966 -0.59342086 1 1
2.4468029 -0.62959796 -0.40015936 38 3
2.4336262 -0.6271131 -0.30857304 1 4
2.4289575 -0.62636232 -0.21945825 1 5
2.3863289 -0.61625803 -0.12916511 34 6
2.4103208 -0.62335145 -0.043456361 2 7
2.4949317 -0.64988101 -0.59522039 1 1
2.4275811 -0.63460022 -0.30808556 2 4
2.4421763 -0.63887089 -0.22085273 1 5
2.3887875 -0.62668675 -0.043107308 2 7
2.516104 -0.66384393 -0.69725859 66 0
2.5039527 -0.66157281 -0.59791982 1 1
2.4503605 -0.64787066 -0.49266896 2 2
2.4576242 -0.65070933 -0.40266228 2 3
2.4407015 -0.64714026 -0.3100355 1 4
2.4129708 -0.64023834 -0.21841235 1 5
2.4186437 -0.6426475 -0.13115385 30 6
2.3981802 -0.63810647 -0.043316741 2 7
2.4951096 -0.66762918 -0.69208217 63 0
2.3508155 -0.62945938 0.042479105 54 8
2.4978631 -0.66930044 -0.59701997 1 1
2.4746315 -0.66353852 -0.49801159 2 2
2.455338 -0.65928394 -0.40266228 5 3
2.4307599 -0.65359414 -0.30906054 2 4
2.4107211 -0.6486572 -0.21841235 2 5
2.3951726 -0.6453703 -0.13000247 36 6
2.388216 -0.64439023 -0.043177128 2 7
2.4834414 -0.67380518 -0.68949395 55 0
2.352464 -0.63870943 0.042548917 65 8
2.4992733 -0.67903745 -0.59791988 1 1
2.4685113 -0.67114234 -0.49724835 3 2
2.4208024 -0.6599865 -0.30808586 1 4
2.4122865 -0.65811718 -0.218761 2 5
2.4044652 -0.65688521 -0.13063051 66 6
2.3976393 -0.65547007 -0.043386552 2 7
2.4922502 -0.68554425 -0.69259977 56 0
2.356117 -0.64809805 0.042653628 66 8
2.4819765 -0.68318421 -0.5943206 1 1
2.4431767 -0.6738807 -0.40141085 48 3
2.4186006 -0.66801053 -0.30808586 2 4
2.4253371 -0.67078245 -0.22015549 21 5
2.3695505 -0.65579844 -0.12885109 55 6
2.3837745 -0.66063106 -0.043177128 2 7
2.4936852 -0.69484216 -0.69363511 56 0
2.3576925 -0.65739256 0.04272344 66 8
2.4720685 -0.68974888 -0.59252101 1 1
2.461736 -0.68825543 -0.40485236 63 3
2.4277239 -0.67965996 -0.30954832 2 4
2.371093 -0.66514468 -0.12906043 42 6
2.3623178 -0.66312784 -0.042828076 2 7
2.4763713 -0.69934231 -0.68949395 60 0
2.3593488 -0.6662944 0.042793252 66 8
2.496022 -0.70536196 -0.59881967 1 1
2.4350221 -0.68904191 -0.49190563 50 2
2.4499366 -0.69372416 -0.40328801 54 3
2.4139977 -0.68445784 -0.30808556 2 4
2.4207153 -0.68727547 -0.22015551 76 5
2.3727167 -0.67409551 -0.12926978 42 6
2.3734522 -0.67520005 -0.043072406 22 7
2.4739151 -0.70798206 -0.68949395 57 0
2.3492014 -0.67273515 0.042653635 66 8
2.4784331 -0.71021128 -0.59522045 2 1
2.3979409 -0.68759847 0.13073526 1 9
2.4439256 -0.70078439 -0.4941954 63 2
2.4416821 -0.70106363 -0.40234947 57 3
2.4210119 -0.69604349 -0.30930457 12 4
2.3934102 -0.68856019 -0.21788946 61 5
2.3759875 -0.68444604 -0.12958379 50 6
2.4751399 -0.71768939 -0.69052935 60 0
2.3429971 -0.67981678 0.042583816 66 8
2.4778101 -0.71940148 -0.59567028 22 1
2.3648391 -0.68704915 0.12906052 1 9
2.445235 -0.71040642 -0.49495858 63 2
2.4430134 -0.71068579 -0.40297517 59 3
2.3929048 -0.69746822 -0.21806376 54 5
2.3639977 -0.68993789 -0.12906043 42 6
2.3877542 -0.6977759 -0.043421458 64 7
2.4837406 -0.72959167 -0.69363505 60 0
2.3444471 -0.68911916 0.042653628 64 8
2.4446239 -0.71949196 -0.49534026 56 2
2.4405177 -0.71920925 -0.40297517 59 3
2.406574 -0.71011931 -0.30808556 40 4
2.3904552 -0.70581651 -0.21806374 56 5
2.355829 -0.69648677 -0.12874642 40 6
2.3718817 -0.70213318 -0.043177128 10 7
2.4848819 -0.73935902 -0.69467038 56 0
2.3420274 -0.69729865 0.042653628 66 8
2.4577866 -0.73223108 -0.59207106 21 1
2.430809 -0.72465563 -0.49305055 56 2
2.4417782 -0.72885382 -0.40360093 57 3
2.3898859 -0.71472746 -0.21823806 51 5
2.3572102 -0.70585197 -0.12895577 45 6
2.4711878 -0.74468398 -0.6915645 57 0
2.3472373 -0.70777869 0.042793248 63 8
2.3135381 -0.69849831 0.12665306 47 9
2.4207466 -0.73086643 -0.49152404 56 2
2.4448915 -0.73908764 -0.40453953 50 3
2.397758 -0.72575271 -0.30759811 1 4
2.3797491 -0.72075528 -0.21754082 49 5
2.3623772 -0.71639419 -0.12937444 45 6
2.3822293 -0.72332245 -0.043456357 1 7
2.4685733 -0.75330532 -0.6915645 57 0
2.333277 -0.7124638 0.042583816 46 8
2.4805701 -0.75791299 -0.59881961 1 1
2.3244562 -0.71065742 0.12738578 55 9
2.4294455 -0.74275589 -0.49381378 56 2
2.43663 -0.74588281 -0.4036009 59 3
2.4141893 -0.73993498 -0.3100355 1 4
2.3867426 -0.73197854 -0.21841235 40 5
2.3598621 -0.72463596 -0.12937444 45 6
2.3720446 -0.72928303 -0.043316741 2 7
2.4733117 -0.76419902 -0.69363505 53 0
2.4630158 -0.76195973 -0.59522039 1 1
2.3181448 -0.71758568 0.1271764 16 9
2.4230871 -0.75007081 -0.49305055 52 2
2.4264648 -0.75204456 -0.40234947 43 3
2.4002163 -0.74482763 -0.30857304 1 4
2.3535035 -0.73168308 -0.1291651 40 6
2.3923962 -0.74469036 -0.043735594 1 7
2.4798477 -0.77571136 -0.6962232 49 0
2.3549643 -0.73709834 0.043072484 2 8
2.4714992 -0.7740472 -0.59791982 1 1
2.4298213 -0.76145965 -0.49495864 38 2
2.4125159 -0.75696146 -0.40047222 9 3
2.3976018 -0.75320148 -0.30857304 1 4
2.3623667 -0.74349165 -0.12979315 25 6
2.3630812 -0.74462318 -0.043246936 1 7
2.365721 -0.74954212 0.043316819 1 8
2.4873583 -0.78855872 -0.60241884 1 1
2.3130791 -0.73375183 0.12717642 2 9
2.4025252 -0.76397228 -0.30954832 1 4
2.416919 -0.76901388 -0.2218986 1 5
2.3833289 -0.76015908 -0.043665789 1 7
2.370707 -0.76023799 0.043456439 2 8
2.4808795 -0.79604572 -0.60151905 1 1
2.3143072 -0.74304271 0.12738578 2 9
2.4410233 -0.78466684 -0.40610385 2 3
2.4111814 -0.776003 -0.31101042 1 4
2.3990479 -0.77256006 -0.22050411 2 5
2.3647218 -0.76241714 -0.13021183 2 6
2.3578248 -0.7611022 -0.043246932 1 7
2.3414099 -0.75986677 0.04296777 2 8
2.463258 -0.79988581 -0.59791982 1 1
2.3154984 -0.75235105 0.12759511 4 9
2.4441204 -0.7941429 -0.49953809 2 2
2.2907746 -0.74475968 0.21074249 1 10
2.4420264 -0.79440498 -0.40672958 2 3
2.4122331 -0.78564435 -0.31149793 1 4
2.3963363 -0.78092945 -0.22050411 2 5
2.3791347 -0.77624249 -0.13115385 19 6
2.3551538 -0.76932806 -0.043246936 2 7
2.325444 -0.7636677 0.042723432 15 8
2.471559 -0.81212932 -0.60061926 1 1
2.4152224 -0.79408473 -0.49419537 7 2
2.301409 -0.75710976 0.21196266 6 10
2.4242277 -0.79798317 -0.40422663 4 3
2.4019346 -0.79157448 -0.31052297 1 4
2.3898115 -0.78804171 -0.22015549 5 5
2.3498585 -0.77577668 -0.12968846 33 6
2.382833 -0.7875852 -0.043805409 1 7
2.4576137 -0.81706297 -0.59791982 1 1
2.3953905 -0.79869819 -0.3100355 1 4
2.3528197 -0.78587288 -0.1300025 36 6
2.376276 -0.79462975 -0.043735594 2 7
2.3428018 -0.78752965 0.043142293 78 8
2.4621348 -0.8281216 -0.59971941 1 1
2.2904561 -0.77082378 0.12665306 47 9
2.4114807 -0.811553 -0.49457699 48 2
2.427958 -0.81804156 -0.40579101 48 3
2.3963499 -0.80832368 -0.31052297 2 4
2.3861396 -0.80534333 -0.22032979 41 5
2.3746603 -0.80239242 -0.13136323 65 6
2.3583338 -0.79779321 -0.043456357 2 7
2.326786 -0.79119635 0.042897962 49 8
2.4666092 -0.83922184 -0.60151911 2 1
2.3028769 -0.78396326 0.12749043 58 9
2.4086332 -0.81996566 -0.49457705 47 2
2.2895823 -0.77988338 0.21161403 59 10
2.447525 -0.8341589 -0.40954545 69 3
2.3972712 -0.81796563 -0.31101042 2 4
2.3889704 -0.81559896 -0.22085273 72 5
2.3472757 -0.80227923 -0.13000248 57 6
2.3517509 -0.80472571 -0.043386552 2 7
2.3240104 -0.7993136 0.042897966 65 8
2.4526083 -0.84402186 -0.59881961 26 1
2.3057919 -0.79394782 0.12780444 62 9
2.4243193 -0.83476001 -0.49839318 52 2
2.2774277 -0.78462589 0.21074249 64 10
2.4091151 -0.83046567 -0.40360093 51 3
2.4094133 -0.83150947 -0.31296036 2 4
2.3691595 -0.81808025 -0.21928394 69 5
2.3482363 -0.81177294 -0.13021183 42 6
2.3489273 -0.81292981 -0.043386549 16 7
2.3193169 -0.80676389 0.042863056 63 8
2.3011205 -0.80133486 0.12769978 60 9
2.4084122 -0.83869785 -0.49572185 50 2
2.2859631 -0.79650402 0.21178833 60 10
2.4136627 -0.8414709 -0.40485239 54 3
2.4158671 -0.84318542 -0.31417903 27 4
2.3719327 -0.82831591 -0.21980686 56 5
2.3303058 -0.81469196 -0.12937446 45 6
2.3573999 -0.82508779 -0.043595977 43 7
2.3164868 -0.81485486 0.042863056 64 8
2.4282742 -0.85465378 -0.5943206 38 1
2.2870059 -0.80538189 0.12707174 58 9
2.4054699 -0.84709966 -0.49572185 49 2
2.286927 -0.80580282 0.21213722 60 10
2.4144363 -0.85120463 -0.40547812 54 3
2.3792145 -0.83972108 -0.30979174 10 4
2.3690264 -0.83659029 -0.21980685 56 5
2.3312132 -0.82415247 -0.12958378 43 6
2.3526206 -0.83264464 -0.043561075 4 7
2.3249328 -0.82695705 0.043072484 64 8
2.4417994 -0.86900556 -0.59836972 10 1
2.2898257 -0.81537026 0.12738578 62 9
2.4024985 -0.85549122 -0.49572185 50 2
2.2841008 -0.81378084 0.21213695 58 10
2.4095898 -0.85896403 -0.40516526 50 3
2.3717208 -0.8468647 -0.22032979 51 5
2.3433683 -0.83766329 -0.13042116 45 6
2.3666449 -0.84691542 -0.043875221 1 7
2.3220317 -0.83506745 0.043072481 59 8
2.2888446 -0.82403457 0.12749043 56 9
2.4050393 -0.86586732 -0.49686676 52 2
2.2737482 -0.81904799 0.2114397 60 10
2.4158685 -0.8707189 -0.40672958 54 3
2.3751612 -0.85698432 -0.31003577 1 4
2.3537579 -0.84972608 -0.21893527 51 5
2.34043 -0.84583795 -0.13042116 43 6
2.3561521 -0.85244989 -0.043735594 1 7
2.3115857 -0.84043455 0.042932868 64 8
2.2860992 -0.83162016 0.12749043 49 9
2.3927774 -0.87089974 -0.49495858 50 2
2.2708752 -0.82697999 0.2114397 58 10
2.4053903 -0.87644148 -0.40547812 43 3
2.3945343 -0.87343287 -0.31296036 1 4
2.3507779 -0.85793698 -0.2189353 49 5
2.3412151 -0.85537326 -0.13063051 43 6
2.353312 -0.86025858 -0.04373559 1 7
2.2994003 -0.844648 0.042758342 47 8
2.3000534 -0.84579909 0.12843248 13 9
2.4044633 -0.8846702 -0.49801159 49 2
2.2717142 -0.83627814 0.21178833 58 10
2.387641 -0.87895387 -0.40297517 11 3
2.3990757 -0.88411438 -0.31393531 1 4
2.3683305 -0.87372321 -0.22085273 39 5
2.3402395 -0.86382407 -0.13073519 39 6
2.3502951 -0.86846799 -0.043735594 1 7
2.4088778 -0.89537507 -0.49953812 50 2
2.2763979 -0.84658486 0.21248585 60 10
2.3773725 -0.88555419 -0.31149793 1 4
2.3586428 -0.88045305 -0.043945018 1 7
2.3254273 -0.87221825 0.043351725 2 8
2.2942431 -0.86143541 0.1284325 2 9
2.3947101 -0.89963531 -0.49724835 36 2
2.2808893 -0.85732991 0.21318281 58 10
2.4222822 -0.91047603 -0.40985832 1 3
2.3707068 -0.89203471 -0.31101042 1 4
2.347388 -0.8846637 -0.13146789 1 6
2.3630393 -0.89150447 -0.044084646 1 7
2.3315637 -0.88428128 0.043526247 2 8
2.2985392 -0.87267405 0.12885118 2 9
2.2592573 -0.8582114 0.2114397 27 10
2.4300079 -0.92355889 -0.4117355 1 3
2.3637109 -0.89930594 -0.31052297 1 4
2.3629317 -0.89948177 -0.22120135 2 5
2.3441298 -0.89326131 -0.13146789 2 6
2.3448091 -0.89445776 -0.043805409 1 7
2.3209939 -0.88955194 0.043386631 3 8
2.2992084 -0.88212293 0.12906052 2 9
2.3975363 -0.91984779 -0.49915645 15 2
2.4009531 -0.92212033 -0.4073554 2 3
2.3568513 -0.90612668 -0.3100355 1 4
2.3597777 -0.90772444 -0.22120135 3 5
2.3372695 -0.90000302 -0.13125853 2 6
2.3304768 -0.89832163 -0.043595977 1 7
2.2749851 -0.88103855 0.042583816 16 8
2.2961149 -0.89014333 0.12906052 4 9
2.4161351 -0.93764216 -0.41048405 2 3
2.3943822 -0.93016237 -0.31539774 1 4
2.3528807 -0.91451257 -0.22085273 24 5
2.3471429 -0.91322565 -0.13199124 19 6
2.3422337 -0.91225708 -0.043875214 1 7
2.4075084 -0.94300741 -0.50259101 39 2
2.4036515 -0.94246477 -0.40891963 6 3
2.3689468 -0.92981124 -0.31247288 1 4
2.339035 -0.92042738 -0.043875214 1 7
2.3115513 -0.91380805 0.043386627 64 8
2.3968999 -0.94851589 -0.50106454 7 2
2.3619959 -0.93661124 -0.3119857 2 4
2.3649583 -0.93826371 -0.22259583 66 5
2.3537042 -0.93474972 -0.13272396 66 6
2.335808 -0.92858654 -0.043875214 2 7
2.297205 -0.91742164 0.043177199 48 8
2.2736859 -0.9089492 0.12832782 41 9
2.4006817 -0.96069026 -0.40954542 48 3
2.3697689 -0.94927961 -0.31344783 2 4
2.3431752 -0.93910128 -0.22085273 66 5
2.3300369 -0.93477958 -0.13157254 65 6
2.3325524 -0.93673432 -0.043875214 2 7
2.2958426 -0.92618269 0.043212097 61 8
2.2760551 -0.91912383 0.12864181 55 9
2.4137962 -0.97572702 -0.41236123 63 3
2.3774815 -0.96201319 -0.31491026 10 4
2.3380358 -0.94652706 -0.2206784 51 5
2.3323128 -0.94515777 -0.13188659 50 6
2.3403866 -0.94938105 -0.044084646 4 7
2.2925959 -0.93419105 0.043212101 64 8
2.274682 -0.9278174 0.12874649 58 9
2.3829434 -0.97294641 -0.4076682 54 3
2.3439388 -0.95845294 -0.22154999 54 5
2.3142121 -0.94724065 -0.1310492 45 6
2.2967179 -0.94523221 0.043351725 64 8
2.2640429 -0.93270892 0.12832782 60 9
2.3831854 -0.98276472 -0.40829396 47 3
2.3596985 -0.97404325 -0.31344786 40 4
2.3424201 -0.96738964 -0.22172429 51 5
2.3108914 -0.95531303 -0.1310492 43 6
2.3429406 -0.96951962 -0.044259168 4 7
2.2970977 -0.95477855 0.043421533 66 8
2.2644613 -0.9421407 0.12853716 58 9
2.3833871 -0.99259627 -0.40891966 50 3
2.3500626 -0.98016191 -0.22277015 61 5
2.3112288 -0.96491265 -0.13125855 45 6
2.3192461 -0.96921062 -0.043875214 1 7
2.2974384 -0.9643389 0.043491341 63 8
2.2537937 -0.94694471 0.12811847 27 9
2.3926539 -1.0062705 -0.41110978 54 3
2.3601589 -0.99357396 -0.31442308 1 4
2.3429542 -0.98681259 -0.22242153 58 5
2.3170485 -0.97685385 -0.13178189 47 6
2.3342724 -0.98507529 -0.044224262 1 7
2.2866938 -0.96923125 0.043351725 64 8
2.3727629 -1.0076669 -0.40829393 47 3
2.3749447 -1.0095721 -0.31686044 1 4
2.3284948 -0.99030638 -0.22137569 51 5
2.3191376 -0.98728281 -0.13209592 42 6
2.3271406 -0.99164975 -0.044154458 1 7
2.2832968 -0.97720736 0.043351728 61 8
2.3728619 -1.0175 -0.40891963 42 3
2.3606381 -1.0127463 -0.31539774 1 4
2.3378386 -1.0039315 -0.22259584 54 5
2.3101721 -0.99300599 -0.13178188 12 6
2.3311872 -1.0025212 -0.04429407 1 7
2.2873867 -0.98794514 0.043491341 64 8
2.3731012 -1.0269325 -0.40954545 15 3
2.3426936 -1.0142597 -0.31344783 1 4
2.3399811 -1.0140553 -0.22311878 36 5
2.3278501 -1.0102462 -0.04429407 1 7
2.2840979 -0.99552494 0.043491341 64 8
2.3427768 -1.0240209 -0.31393531 1 4
2.3234842 -1.0175209 -0.13293329 2 6
2.30233 -1.0087359 -0.043875214 1 7
2.2877548 -1.0071127 0.043630961 61 8
2.3644316 -1.0438247 -0.31734794 1 4
2.3472443 -1.0372161 -0.22451329 3 5
2.3306987 -1.0308774 -0.13356133 2 6
2.3095896 -1.0220227 -0.044084646 1 7
2.2803934 -1.0138662 0.043561149 63 8
2.3498943 -1.0472232 -0.31588551 1 4
2.3197911 -1.0357497 -0.13314262 2 6
2.331569 -1.0414965 -0.044573303 1 7
2.277019 -1.0214227 0.043561153 63 8
2.3645139 -1.0631506 -0.3183226 1 4
2.3419464 -1.0539867 -0.22468758 48 5
2.3054175 -1.0385147 -0.13251461 3 6
2.3281028 -1.0492226 -0.044573307 1 7
2.2736194 -1.028968 0.043561153 61 8
2.3318665 -1.0582722 -0.31442282 2 4
2.3291826 -1.0580351 -0.22381602 61 5
2.3171453 -1.0540309 -0.044433691 2 7
2.277108 -1.040619 0.04370077 61 8
2.355041 -1.0792165 -0.31807885 3 4
2.3325334 -1.0698876 -0.22451328 61 5
2.3106332 -1.0608188 -0.13324732 39 6
2.3059976 -1.0591779 -0.04429407 2 7
2.2805412 -1.0523092 0.04384039 45 8
2.3368456 -1.0807643 -0.31612894 22 4
2.3269765 -1.077186 -0.22433895 56 5
2.3196011 -1.0747552 -0.13398001 61 6
2.3059146 -1.0689027 -0.044363879 3 7
2.3440428 -1.0935432 -0.3175914 39 4
2.3143651 -1.0806818 -0.22346739 58 5
2.3105965 -1.0799047 -0.13366599 61 6
2.3005462 -1.0756968 -0.044328976 21 7
2.3493843 -1.1055361 -0.31881008 34 4
2.3179791 -1.0917464 -0.22416468 58 5
2.2961631 -1.0824509 -0.13303797 47 6
2.334945 -1.108214 -0.31734794 5 4
2.3215444 -1.1028469 -0.22486192 61 5
2.2907572 -1.0892017 -0.1329333 50 6
2.3005843 -1.0943667 -0.044468593 57 7
2.3226812 -1.114338 -0.22538482 56 5
2.2937598 -1.1014478 -0.13335198 50 6
2.2945635 -1.1023264 -0.044433694 69 7
2.3062246 -1.1163626 -0.22416468 58 5
2.2936897 -1.1107891 -0.13356133 42 6
2.2871025 -1.1085848 -0.044363882 64 7
2.3041036 -1.1252803 -0.22433895 56 5
2.3023603 -1.1249263 -0.13429403 9 6
2.2957935 -1.1227107 -0.044608217 67 7
2.3073108 -1.1368387 -0.22503623 56 5
2.29724 -1.1333719 -0.044712923 64 7
2.3122492 -1.1493198 -0.22590779 51 5
2.2817338 -1.1351453 -0.13356131 1 6
2.28969 -1.1396019 -0.044643123 54 7
2.3224709 -1.1645284 -0.22730222 19 5
2.3029506 -1.1552433 -0.13502674 1 6
2.2803366 -1.1448958 -0.044538401 50 7
2.3061504 -1.1659309 -0.22608209 42 5
2.3024678 -1.1650786 -0.13523607 1 6
2.2711756 -1.1497419 -0.044433694 19 7
2.3056164 -1.175784 -0.22643068 50 5
2.2914755 -1.1690768 -0.13481738 2 6
2.2979543 -1.1820023 -0.22608207 22 5
2.2767248 -1.1715851 -0.13418935 2 6
2.2759609 -1.1817626 -0.1343987 15 6
2.2802281 -1.2037542 -0.1351314 50 6
2.2901161 -1.2192148 -0.13596877 61 6
2.2733154 -1.2209852 -0.13523607 50 6
2.2672834 -1.2279619 -0.1351314 47 6
2.2684579 -1.2383446 -0.13544542 45 6
2.2676213 -1.2481818 -0.13565478 34 6
