# .PCD v0.7 - Point Cloud Data file format
VERSION 0.7
FIELDS x y z intensity ring
SIZE 4 4 4 4 2
TYPE F F F F U
COUNT 1 1 1 1 1
WIDTH 1295
HEIGHT 1
VIEWPOINT 0 0 0 1 0 0 0
POINTS 1295
DATA ascii
9.514061 0.12952794 -0.49865687 2 6
12.067102 0.16007325 -0.21064991 1 7
17.729017 0.23208538 4.7508831 29 15
4.1763687 0.049570724 -1.1191335 3 0
16.322397 0.19087921 0.28492761 3 8
4.6318483 0.05335781 -1.0694171 4 1
24.698511 0.28021011 1.2944779 10 9
5.1414323 0.058330689 -0.99945766 2 2
24.642328 0.27527151 2.1560605 14 10
5.838861 0.064204887 -0.92484045 2 3
17.279219 0.18698859 2.1217451 8 11
6.7092323 0.071433514 -0.82383645 2 4
24.33728 0.25487232 3.8548584 16 12
7.8436074 0.082142226 -0.68626451 1 5
23.404675 0.24102055 4.5496507 33 13
9.5104599 0.096278422 -0.49844751 2 6
14.295251 0.14222179 3.3004818 2 14
12.09558 0.11822636 -0.21113856 1 7
17.73358 0.17023891 4.7519178 29 15
4.1842437 0.035055801 -1.121204 3 0
16.334965 0.13399632 0.28513706 3 8
4.6203146 0.037096422 -1.0667177 4 1
24.651409 0.19362321 1.2919658 21 9
5.1455312 0.040415306 -1.000221 2 2
24.555477 0.18857227 2.1483877 28 10
5.8469505 0.043883603 -0.92609203 2 3
24.461634 0.1793246 3.0035913 35 11
6.7015004 0.047954883 -0.82286149 2 4
24.405188 0.1703802 3.8654966 33 12
7.8797088 0.055010702 -0.68940216 1 5
24.086609 0.16396376 4.6820698 21 13
9.4947596 0.062971629 -0.49761009 2 6
14.217712 0.091814019 3.282486 2 14
12.071924 0.075855963 -0.21071972 1 7
17.695431 0.10809539 4.7415652 10 15
4.1766133 0.020410974 -1.1191335 3 0
16.359329 0.077100173 0.28555593 3 8
4.6360049 0.021037798 -1.0703168 4 1
24.6759 0.10767058 1.2932218 42 9
5.126008 0.022366773 -0.99640477 2 2
17.275862 0.072374463 1.5114541 21 10
5.8431172 0.023456251 -0.92546618 2 3
24.481962 0.094006181 3.0060289 49 11
6.6897159 0.02452293 -0.82139981 2 4
24.389828 0.08513914 3.8629935 49 12
7.8559442 0.02742325 -0.6873104 1 5
24.087036 0.079878382 4.6820698 14 13
9.4829407 0.029797224 -0.49698216 2 6
14.225741 0.042210497 3.2842855 2 14
12.076116 0.033724573 -0.21078953 1 7
17.730474 0.046412479 4.7508831 21 15
4.1650681 0.005816442 -1.1160277 3 0
16.355494 0.019985752 0.28548604 3 8
4.6243582 0.0048415167 -1.0676175 4 1
24.612215 0.021484353 1.2898725 21 9
5.1456876 0.0044917432 -1.0002209 2 2
17.347733 0.012115512 1.5177293 10 10
5.847115 0.0030603355 -0.92609203 2 3
24.194304 0.0084522031 2.9706869 28 11
6.7056417 0.0011723097 -0.82334894 2 4
24.389977 -0 3.8629935 16 12
7.8679466 -0 -0.68835628 1 5
23.655249 -0.0041286196 4.5981164 20 13
9.4789896 -0.0033087921 -0.49677274 2 6
14.295957 -0.0074853459 3.3004818 2 14
12.040164 -0.0084056212 -0.21016124 1 7
17.744055 -0.01548461 4.7545071 21 15
4.1727905 -0.0087394835 -1.1180983 3 0
16.33547 -0.037064068 0.28513703 3 8
4.6360393 -0.011328004 -1.0703169 4 1
24.71999 -0.06471692 1.2955247 10 9
5.1495981 -0.013481645 -1.0009841 2 2
24.532198 -0.068506993 2.146296 14 10
5.8391881 -0.017325273 -0.92484045 2 3
23.251272 -0.07304626 2.8549109 6 11
6.6897244 -0.022184048 -0.82139903 2 4
23.038679 -0.080420479 3.6489909 6 12
7.8439903 -0.027380802 -0.68626457 1 5
22.799116 -0.083563514 4.4317307 24 13
9.4988947 -0.036473315 -0.49781951 2 6
12.080056 -0.05060111 -0.21085934 1 7
4.1688704 -0.023283608 -1.117063 5 0
16.283249 -0.093785815 0.28422946 3 8
4.6125875 -0.027371963 -1.0649182 4 1
5.1495194 -0.031457014 -1.0009841 2 2
22.918007 -0.14399995 2.0051038 11 10
5.8430424 -0.037733249 -0.92546618 2 3
22.68712 -0.1504689 2.7856891 35 11
6.7015166 -0.045616481 -0.82286149 2 4
22.611588 -0.1578612 3.5814114 26 12
7.8518157 -0.054816898 -0.68696177 1 5
22.404083 -0.16032301 4.3550258 17 13
9.4987097 -0.069630429 -0.49781951 2 6
12.067808 -0.092675932 -0.21064991 1 7
11.853477 -0.093098894 3.176228 1 15
4.1764913 -0.037905667 -1.1191336 3 0
16.354809 -0.15129028 0.28548607 3 8
4.612463 -0.043472722 -1.064918 4 1
22.546019 -0.21643291 1.1816417 16 9
5.1493783 -0.049432002 -1.0009841 2 2
22.477066 -0.21969433 1.9665811 33 10
5.8310242 -0.058011144 -0.92358911 2 3
22.372828 -0.22648583 2.7471781 39 11
6.6814656 -0.068804443 -0.8204248 2 4
22.292879 -0.23345898 3.5310395 37 12
7.8515763 -0.082224503 -0.68696177 1 5
22.183517 -0.23618592 4.3122821 50 13
9.4904194 -0.10270022 -0.49740082 2 6
14.443191 -0.15881757 3.3346746 2 14
12.079408 -0.13493389 -0.21085933 1 7
11.791265 -0.13377339 3.1596634 1 15
4.1840601 -0.052581221 -1.121204 3 0
16.282198 -0.20746113 0.28422952 3 8
4.6395636 -0.059925314 -1.0712167 4 1
22.537138 -0.29502729 1.1812229 64 9
5.1413226 -0.067303613 -0.99945766 2 2
22.452253 -0.29783541 1.9644892 44 10
5.8307858 -0.078364849 -0.92358899 2 3
22.373888 -0.30460724 2.7474222 45 11
6.6533961 -0.091743521 -0.81701243 2 4
22.287979 -0.3112191 3.5304136 50 12
7.8751483 -0.10996495 -0.68905354 1 5
22.227705 -0.31425774 4.3210616 100 13
9.4820166 -0.13571301 -0.49698216 2 6
15.389536 -0.22295199 3.5533271 2 14
12.066867 -0.17692219 -0.21064991 1 7
11.806179 -0.17516103 3.1638045 1 15
4.176125 -0.067061923 -1.1191336 3 0
4.6315322 -0.075992182 -1.0694171 4 1
22.551947 -0.37395969 1.1820604 64 9
5.1410565 -0.085249759 -0.99945766 2 2
22.457052 -0.37630671 1.9650121 44 10
5.8423271 -0.098918274 -0.92546618 2 3
22.372688 -0.38270476 2.7474222 50 11
6.6887627 -0.11558501 -0.82139903 2 4
22.294657 -0.38915461 3.5316651 50 12
7.850811 -0.1370364 -0.68696177 1 5
22.214697 -0.39163738 4.3187695 61 13
9.4894714 -0.16895281 -0.49740082 2 6
15.180181 -0.27292183 3.505187 19 14
12.078171 -0.2192601 -0.21085933 1 7
11.78618 -0.21601717 3.158628 1 15
4.1642761 -0.081412345 -1.1160277 5 0
4.6312385 -0.092158765 -1.0694171 4 1
22.564562 -0.44902071 1.1827931 56 9
5.1368017 -0.10311607 -0.99869442 2 2
22.473534 -0.45505717 1.9665811 44 10
5.8458958 -0.11939185 -0.92609191 2 3
22.391064 -0.4612065 2.7498596 50 11
6.6883178 -0.13893244 -0.82139981 2 4
22.314966 -0.46353549 3.5351067 50 12
7.8323569 -0.1640645 -0.68539298 1 5
22.197493 -0.46884707 4.3157167 56 13
9.4848318 -0.2019912 -0.49719152 2 6
12.025397 -0.25819549 -0.2099518 1 7
11.785398 -0.25510043 3.158628 1 15
4.1755552 -0.09621489 -1.1191336 5 0
4.6192183 -0.10724463 -1.0667177 4 1
22.570841 -0.52796972 1.1832117 56 9
5.1481862 -0.12132375 -1.0009841 2 2
22.483757 -0.53378546 1.9676269 44 10
5.8336191 -0.13849558 -0.92421472 2 3
22.393377 -0.53555042 2.7503469 50 11
6.7076669 -0.16158906 -0.82383645 2 4
22.321114 -0.54161811 3.5363584 56 12
7.8476715 -0.19179298 -0.68678743 1 5
22.211515 -0.54283774 4.3187718 50 13
9.4960899 -0.23373778 -0.49781957 2 6
12.05241 -0.30086902 -0.21044049 1 7
11.79216 -0.29643175 3.1606984 1 15
4.1829381 -0.11026464 -1.1212041 3 0
16.277788 -0.43193483 0.28422946 3 8
4.6266074 -0.12357616 -1.0685172 4 1
22.568859 -0.60675353 1.1832117 56 9
5.1516805 -0.1385006 -1.0017473 2 2
22.497799 -0.60877252 1.9690214 22 10
5.8449478 -0.15918052 -0.92609191 2 3
22.403276 -0.61404097 2.7518094 28 11
6.6951547 -0.18467377 -0.82237399 2 4
22.332909 -0.61991376 3.5385482 50 12
7.8629255 -0.21825799 -0.688182 1 5
22.219297 -0.62064123 4.3206801 61 13
9.4832344 -0.2665472 -0.49719143 2 6
16.333658 -0.46194637 3.7724295 28 14
12.05928 -0.34316549 -0.21058008 1 7
11.825814 -0.33858752 3.1700163 1 15
4.1825271 -0.12486514 -1.121204 3 0
16.27618 -0.48875231 0.28422946 3 8
4.630044 -0.13984296 -1.0694171 4 1
17.45598 -0.53027892 0.91525155 19 9
5.1315432 -0.15588637 -0.99793118 2 2
17.397392 -0.53153843 1.522786 27 10
5.8404083 -0.1794609 -0.92546624 2 3
6.6785955 -0.20754978 -0.8204248 2 4
22.328634 -0.69780475 3.5382357 56 12
7.8541489 -0.24545443 -0.68748468 1 5
22.230732 -0.69862896 4.3233514 40 13
9.4862394 -0.29977441 -0.49740082 2 6
16.341681 -0.51926804 3.7746787 28 14
12.05801 -0.38525808 -0.2105801 1 7
11.867038 -0.38122973 3.1814044 1 15
4.182066 -0.13946413 -1.121204 5 0
16.194435 -0.54288393 0.28283331 3 8
4.6139464 -0.15547889 -1.0658178 4 1
17.408215 -0.58661497 0.912844 15 9
5.1388164 -0.17406368 -0.99945766 2 2
17.311804 -0.58941603 1.5154631 16 10
5.8594875 -0.20052221 -0.92859483 2 3
17.109316 -0.58850127 2.1020021 5 11
6.713542 -0.23209578 -0.8248114 2 4
7.837316 -0.27231556 -0.68609023 1 5
16.738323 -0.58451504 3.2555826 5 13
9.4771519 -0.3326056 -0.4969821 2 6
16.335875 -0.57617068 3.7737789 28 14
12.080648 -0.42608777 -0.21099897 1 7
17.814009 -0.63141775 4.7762475 10 15
4.1661091 -0.15349239 -1.117063 3 0
16.22452 -0.59776169 0.2833918 3 8
4.6250901 -0.17121099 -1.0685172 4 1
16.915073 -0.62911642 0.88709468 7 9
5.1460242 -0.19229366 -1.0009841 2 2
16.789991 -0.63033313 1.4699677 5 10
5.8508945 -0.21965544 -0.92734331 2 3
16.633171 -0.62735301 2.0437486 5 11
6.7206697 -0.25465801 -0.82578629 2 4
16.494305 -0.62788123 2.6143334 13 12
7.8442812 -0.29997578 -0.68678743 1 5
9.4839802 -0.36433774 -0.49740082 2 6
16.324137 -0.62996352 3.7715294 31 14
12.067098 -0.46778962 -0.21078952 1 7
17.547232 -0.68329811 4.7053308 14 15
4.1655774 -0.16730686 -1.117063 3 0
16.222334 -0.654392 0.2833918 3 8
4.624464 -0.18735452 -1.0685172 4 1
16.557556 -0.67370379 0.86846304 3 9
5.1453576 -0.2093574 -1.0009841 4 2
16.429478 -0.67136484 1.4385918 4 10
5.8382502 -0.23959158 -0.92546618 2 3
16.250067 -0.66971529 1.9969507 2 11
6.6919723 -0.27696678 -0.82237399 2 4
7.8431864 -0.32735559 -0.68678743 1 5
16.402452 -0.68459857 3.1910889 47 13
9.4706774 -0.39693892 -0.49677277 2 6
16.362728 -0.68866223 3.7809772 18 14
12.081375 -0.51058424 -0.21106875 1 7
17.021681 -0.72234809 4.5650511 13 15
4.1726561 -0.18291174 -1.1191335 3 0
16.168013 -0.70873791 0.28248432 3 8
4.6159949 -0.20315309 -1.0667177 4 1
16.132097 -0.71280563 0.84627271 3 9
5.1406341 -0.22804074 -1.0002209 2 2
16.016882 -0.71331668 1.4026837 4 10
5.8294396 -0.26063532 -0.92421478 2 3
15.870839 -0.70958823 1.9506404 7 11
6.6949315 -0.30050242 -0.82286149 2 4
16.426371 -0.74017149 2.6043215 19 12
7.8658805 -0.3558118 -0.68887925 1 5
15.648681 -0.7106024 3.0449309 17 13
9.4771404 -0.43201184 -0.49719149 2 6
16.443798 -0.75246054 3.8003228 26 14
12.02758 -0.55037642 -0.21016124 1 7
13.960296 -0.64125806 3.7445948 2 15
4.1681323 -0.19729327 -1.1180981 5 0
4.6230049 -0.22044142 -1.0685172 4 1
15.906074 -0.7584585 0.83454943 39 9
5.1437283 -0.24617119 -1.0009841 2 2
15.851109 -0.76138335 1.3883903 42 10
5.840332 -0.281553 -0.92609191 2 3
15.802701 -0.76458716 1.9425973 54 11
6.6779227 -0.32426834 -0.82091153 2 4
15.731144 -0.76387709 2.4945045 39 12
7.8566303 -0.38287881 -0.688182 1 5
15.685323 -0.76714027 3.0525613 55 13
9.4675932 -0.46469891 -0.49677274 2 6
16.380737 -0.80688334 3.7863762 39 14
12.025586 -0.5923571 -0.21016124 1 7
16.450876 -0.81321657 4.4133825 12 15
4.1674185 -0.21184151 -1.1180981 5 0
4.6300335 -0.23616771 -1.0703168 4 1
15.917293 -0.81469101 0.83528221 65 9
5.1193104 -0.26291627 -0.99640477 2 2
15.842383 -0.81640172 1.3878672 42 10
5.8393669 -0.3009187 -0.92609203 2 3
15.81792 -0.81790906 1.9447908 54 11
6.7085295 -0.34805697 -0.8248114 2 4
15.74219 -0.81950319 2.4966946 49 12
7.8313689 -0.40905413 -0.68609023 1 5
15.67093 -0.81853616 3.0502717 55 13
9.4939241 -0.49755552 -0.49823818 2 6
16.379917 -0.86130166 3.7868259 65 14
12.035426 -0.63496268 -0.21037064 1 7
16.162426 -0.85552293 4.3367724 12 15
4.1705508 -0.22586897 -1.1191335 5 0
4.6097226 -0.25126749 -1.065818 4 1
15.922482 -0.86790514 0.83570093 58 9
5.1380138 -0.28096306 -1.000221 2 2
15.849537 -0.86947811 1.3887389 42 10
5.8422256 -0.32151714 -0.9267177 2 3
15.803077 -0.87246251 1.9433284 40 11
6.707273 -0.37147197 -0.82481134 2 4
15.753194 -0.87246639 2.4988849 52 12
7.8379269 -0.4354637 -0.68678743 1 5
15.666017 -0.87312347 3.04989 52 13
9.488142 -0.53046942 -0.49802884 2 6
16.394321 -0.91945511 3.7908747 45 14
12.057214 -0.67621392 -0.21078952 1 7
15.794956 -0.88860607 4.2389388 15 15
4.1658797 -0.24020311 -1.1180981 5 0
4.6244278 -0.26745266 -1.0694171 4 1
15.933311 -0.92428935 0.83643359 58 9
5.1526804 -0.29980865 -1.0032737 2 2
15.858339 -0.92549455 1.3897847 43 10
5.8095751 -0.33904746 -0.9217118 2 3
15.806041 -0.92521048 1.9440596 49 11
6.709969 -0.39394483 -0.82529891 2 4
15.765827 -0.92837888 2.5013876 49 12
7.8522716 -0.46376029 -0.688182 1 5
15.686553 -0.92645812 3.0544693 50 13
9.486331 -0.5619303 -0.49802884 2 6
15.609168 -0.92735541 3.6100144 60 14
12.034818 -0.71710783 -0.21044047 1 7
15.535279 -0.92840773 4.1700926 14 15
4.1726851 -0.25594336 -1.1201688 5 0
4.6039166 -0.28400728 -1.064918 4 1
15.919678 -0.98484522 0.8359102 29 9
5.1437087 -0.31820729 -1.0017473 2 2
15.87075 -0.98459899 1.3911792 43 10
5.8318887 -0.36282396 -0.92546618 2 3
15.806335 -0.98614162 1.9445471 49 11
6.6965199 -0.41896254 -0.82383645 4 4
15.766091 -0.98915559 2.5020137 52 12
7.8425641 -0.49203804 -0.68748468 1 5
15.692677 -0.98729938 3.0563774 50 13
9.4681568 -0.59734499 -0.49719149 2 6
15.615216 -0.98789835 3.6122639 77 14
12.059916 -0.76508522 -0.21092913 1 7
15.244336 -0.96977746 4.0929651 19 15
4.1717663 -0.27050716 -1.1201688 5 0
15.451019 -1.0045887 0.27026764 2 8
4.6067863 -0.30032974 -1.065818 4 1
5.126895 -0.33513576 -0.99869448 2 2
15.879146 -1.0407742 1.392225 43 10
5.8305869 -0.38317886 -0.92546618 2 3
15.818644 -1.0423545 1.946497 49 11
6.7069011 -0.44312045 -0.82529891 4 4
15.772397 -1.0448364 2.5035779 49 12
7.8328471 -0.51888394 -0.68678743 1 5
15.704807 -1.0431123 3.0594306 50 13
9.4739828 -0.6309222 -0.49761009 2 6
15.619451 -1.042919 3.6140635 83 14
12.05717 -0.80717766 -0.21092911 1 7
14.999918 -1.0068119 4.0282602 10 15
4.15345 -0.28388205 -1.1155101 5 0
4.6018214 -0.31614152 -1.064918 4 1
15.332585 -1.0560251 0.80545068 12 9
5.1217766 -0.35276014 -0.99793118 2 2
15.883365 -1.0967453 1.3929223 48 10
5.8252726 -0.40325621 -0.92484039 2 3
15.826789 -1.0983897 1.9479593 45 11
6.7092729 -0.46680468 -0.82578629 4 4
15.772593 -1.1001608 2.5042033 47 12
7.8071375 -0.544559 -0.68469572 1 5
15.710863 -1.0986104 3.0613387 52 13
9.4717236 -0.66398853 -0.49761009 2 6
15.629322 -1.0983913 3.6172128 80 14
11.998426 -0.84532505 -0.20995179 1 7
14.763139 -1.042697 3.965626 15 15
4.169776 -0.29962474 -1.1201688 5 0
4.6162391 -0.33332568 -1.0685172 7 1
15.33279 -1.1098279 0.80566001 21 9
5.1244302 -0.37091982 -0.99869448 2 2
15.887388 -1.1527586 1.3936194 48 10
5.8238292 -0.42358771 -0.92484039 2 3
15.830779 -1.1542064 1.9489344 45 11
6.7036433 -0.48993218 -0.82529885 4 4
15.786388 -1.1565099 2.5070193 52 12
7.8369823 -0.57413685 -0.68748474 1 5
15.708889 -1.1535887 3.0617201 55 13
9.469348 -0.69704711 -0.49761009 2 6
15.648714 -1.1546619 3.6226115 80 14
12.035291 -0.89015239 -0.21064991 1 7
14.63033 -1.0846536 3.9309442 10 15
4.1590719 -0.31345224 -1.1175804 5 0
15.443639 -1.1666344 0.27033743 2 8
4.6111608 -0.34914315 -1.0676174 4 1
15.331016 -1.1608181 0.80576468 24 9
5.1074429 -0.38761654 -0.99564147 2 2
15.907106 -1.2100222 1.3957112 52 10
5.830194 -0.44451487 -0.92609191 2 3
15.830612 -1.2097614 1.9494219 49 11
6.7137675 -0.51423895 -0.82676125 4 4
15.800193 -1.2102108 2.509835 57 12
7.838903 -0.60179454 -0.68783331 1 5
15.704766 -1.208416 3.0617201 57 13
9.4389801 -0.72794712 -0.49614474 2 6
15.642645 -1.2091287 3.6221616 69 14
12.032271 -0.93005788 -0.21064989 1 7
14.628578 -1.1333128 3.9314616 10 15
4.1618052 -0.32827201 -1.118616 5 0
15.457628 -1.2192563 0.27065158 15 8
4.6060929 -0.36412519 -1.0667176 4 1
15.334834 -1.2149569 0.80618334 24 9
5.1412864 -0.40823969 -1.0025105 4 2
15.914703 -1.2664894 1.3967571 52 10
5.8365641 -0.4644728 -0.92734331 2 3
15.832449 -1.2627245 1.950153 47 11
6.6922379 -0.53491795 -0.82432383 4 4
15.786026 -1.2645677 2.5082707 39 12
7.8248386 -0.62819701 -0.68678743 3 5
15.706544 -1.2609595 3.062865 47 13
9.4524412 -0.76052541 -0.4969821 2 6
15.642435 -1.2613084 3.6230617 60 14
12.036925 -0.9726969 -0.21078953 1 7
4.1529918 -0.34143811 -1.1165453 5 0
15.471216 -1.2746838 0.27096573 15 8
4.6009092 -0.37988049 -1.0658178 4 1
15.342444 -1.2694664 0.80681145 21 9
5.1242528 -0.42399153 -0.99945778 2 2
15.918358 -1.319916 1.3974543 43 10
5.8152223 -0.48320767 -0.92421478 2 3
15.853662 -1.3201238 1.9533216 49 11
6.6863742 -0.55794501 -0.82383722 4 4
15.807105 -1.3218035 2.5123379 55 12
7.8385968 -0.65547001 -0.688182 3 5
15.727481 -1.3179092 3.0678263 55 13
9.4537096 -0.79385012 -0.49719149 2 6
15.649589 -1.3168833 3.625761 74 14
11.997588 -1.011683 -0.21016124 1 7
14.602986 -1.2339473 3.9268031 10 15
4.1363759 -0.35461256 -1.1124042 5 0
15.498549 -1.331419 0.27152419 15 8
4.6073213 -0.39660689 -1.0676174 4 1
15.369757 -1.32576 0.80848616 21 9
5.1188293 -0.44153845 -0.99869448 2 2
15.921593 -1.3761598 1.3981515 43 10
5.833179 -0.50520808 -0.92734331 2 3
15.850935 -1.3756272 1.9535654 28 11
6.6962514 -0.58231318 -0.82529885 4 4
15.806332 -1.3773153 2.5129635 28 12
7.8243513 -0.68179005 -0.68713611 3 5
15.742342 -1.3745075 3.0716422 17 13
9.450881 -0.82684487 -0.49719149 2 6
15.674015 -1.3740551 3.6325097 31 14
11.966097 -1.0511067 -0.20967259 1 7
14.59859 -1.2849137 3.9268031 10 15
4.154355 -0.37076628 -1.1175805 5 0
15.481857 -1.3844423 0.2713148 15 8
4.6136727 -0.41338268 -1.0694171 4 1
15.378961 -1.3806524 0.80921888 25 9
5.1328993 -0.46080819 -1.0017474 2 2
17.90107 -1.6102256 1.5724628 17 10
5.8195763 -0.52450275 -0.92546618 2 3
18.726593 -1.6910726 2.3086925 13 11
6.6862693 -0.60496843 -0.82432383 4 4
17.097885 -1.5500118 2.7191443 51 12
7.8020806 -0.70729899 -0.68539298 3 5
17.043524 -1.5480829 3.3265648 63 13
9.4558907 -0.86055332 -0.49761009 2 6
16.942219 -1.544844 3.9276459 73 14
11.966336 -1.0932336 -0.20974237 1 7
14.586321 -1.3351603 3.9247329 10 15
4.1549592 -0.38544393 -1.1180981 5 0
15.616308 -1.4514301 0.27375811 3 8
4.6044407 -0.42876217 -1.0676175 7 1
15.405866 -1.4372953 0.81089365 18 9
5.1234412 -0.47799307 -1.000221 4 2
17.923109 -1.675298 1.5749052 23 10
5.8216438 -0.54518199 -0.92609203 2 3
18.732435 -1.7575427 2.3101549 16 11
6.6959758 -0.62941879 -0.82578635 4 4
17.110069 -1.611352 2.7219601 54 12
7.7995648 -0.73452914 -0.68539304 3 5
17.024336 -1.6062757 3.3238916 69 13
9.4528303 -0.89355558 -0.49761015 2 6
11.986336 -1.1372638 -0.21016124 1 7
14.579646 -1.3858849 3.9242146 10 15
4.1632037 -0.40087092 -1.1206864 5 0
16.120701 -1.5550867 0.28269371 3 8
4.5912776 -0.44370738 -1.064918 7 1
5.1334658 -0.49700946 -1.0025107 2 2
17.919136 -1.7380437 1.5750796 23 10
5.823637 -0.56588215 -0.9267177 2 3
18.740017 -1.8242669 2.311861 13 11
6.6858349 -0.65201771 -0.8248114 4 4
17.104342 -1.6710677 2.7219601 48 12
7.8247151 -0.76446247 -0.68783337 3 5
17.00495 -1.6643535 3.3212206 48 13
9.4178495 -0.9234283 -0.49593535 2 6
16.901926 -1.6602266 3.9208968 28 14
11.994235 -1.1802722 -0.21037067 1 7
14.547807 -1.4341155 3.9169681 10 15
4.1637011 -0.41559258 -1.121204 5 0
16.131092 -1.6129408 0.28297296 3 8
4.6052132 -0.46128494 -1.0685172 7 1
16.319538 -1.6375371 0.85956591 13 9
5.1004438 -0.51178938 -0.99640465 4 2
17.930803 -1.8023757 1.5766463 23 10
5.8216267 -0.58620697 -0.9267177 2 3
18.757235 -1.8920615 2.314786 13 11
6.6914177 -0.67614979 -0.82578629 4 4
17.094473 -1.7303648 2.7213345 48 12
7.8219981 -0.79177111 -0.68783331 1 5
17.040051 -1.7278607 3.3292344 48 13
9.4423885 -0.95912278 -0.49740082 2 6
16.921232 -1.7217799 3.9267452 45 14
11.982083 -1.2213215 -0.21023105 1 7
4.1545386 -0.42932984 -1.1191336 5 0
16.105474 -1.6671798 0.28262389 3 8
4.5977592 -0.47675431 -1.067168 7 1
18.028133 -1.8725672 0.94989783 33 9
5.1142488 -0.53121269 -0.99945766 4 2
17.926388 -1.8651615 1.5768209 29 10
5.843122 -0.60898185 -0.93047214 2 3
18.768286 -1.9593797 2.3169794 16 11
6.6732235 -0.69785142 -0.82383645 4 4
17.119762 -1.7933178 2.7263403 51 12
7.7993717 -0.81699449 -0.68609023 3 5
17.057346 -1.7897894 3.3338137 54 13
9.4072037 -0.98873681 -0.49572614 2 6
16.96163 -1.7857322 3.9375427 73 14
11.977746 -1.2631394 -0.21023104 1 7
4.1453309 -0.44300807 -1.117063 5 0
15.89277 -1.7012526 0.27899382 6 8
4.6038184 -0.49363169 -1.0689672 7 1
18.039362 -1.9374053 0.95083994 41 9
5.1162672 -0.54948086 -1.0002209 4 2
17.93165 -1.9290031 1.5778666 35 10
5.8134637 -0.62641174 -0.92609191 2 3
18.790936 -2.0280764 2.3206358 16 11
6.6628518 -0.72028768 -0.82286149 4 4
17.125185 -1.8543423 2.7282178 54 12
7.8083568 -0.8455013 -0.68713611 3 5
17.062706 -1.8505902 3.3361032 54 13
9.4156075 -1.0228623 -0.49635413 2 6
15.58562 -1.6958923 3.6194623 14 14
11.989169 -1.306675 -0.21051028 1 7
16.942142 -1.8494818 4.5666037 77 15
4.1552811 -0.45874721 -1.1201688 5 0
15.880772 -1.7560589 0.27888909 12 8
4.6098151 -0.51055706 -1.0707668 4 1
18.044399 -2.001684 0.95146799 33 9
5.1065135 -0.56647086 -0.99869448 4 2
17.934708 -1.9926844 1.5787381 35 10
5.795536 -0.64495283 -0.92358899 2 3
18.783743 -2.0936565 2.3206358 16 11
6.6681886 -0.74442208 -0.82383645 2 4
17.155907 -1.9182793 2.7341623 57 12
7.8211985 -0.87452358 -0.68853062 3 5
17.058092 -1.9103568 3.3364868 57 13
9.4000692 -1.0543869 -0.49572602 2 6
11.968636 -1.3467282 -0.21023104 1 7
16.929829 -1.907961 4.5650511 81 15
4.1517344 -0.47303036 -1.1196512 5 0
15.8964 -1.8139764 0.27927306 12 8
4.5808988 -0.52354735 -1.0644683 4 1
18.041271 -2.0651126 0.95167732 33 9
5.1162076 -0.58563191 -1.0009841 4 2
17.945463 -2.0573189 1.580307 48 10
5.8010993 -0.66608042 -0.92484045 2 3
18.799986 -2.1619332 2.3235605 16 11
6.6537166 -0.7663309 -0.82237399 2 4
17.158918 -1.9792848 2.7357266 57 12
7.8180985 -0.90181923 -0.68853062 3 5
17.074728 -1.9725933 3.3410649 57 13
9.4042683 -1.088111 -0.49614474 2 6
16.994268 -1.9693094 3.9496906 38 14
11.979754 -1.3903426 -0.21051028 1 7
16.93074 -1.9679375 4.5671215 74 15
4.1443024 -0.48684353 -1.1180983 5 0
15.911818 -1.8720245 0.27965701 12 8
4.5906544 -0.54090261 -1.067168 7 1
18.03829 -2.1253958 0.95188665 28 9
5.1024337 -0.60210693 -0.99869442 2 2
17.950043 -2.121351 1.5813528 48 10
5.8262029 -0.68957657 -0.92922068 2 3
18.802181 -2.2287121 2.324779 16 11
6.647059 -0.78908402 -0.82188654 2 4
17.154221 -2.0364079 2.7360392 54 12
7.7990746 -0.92722243 -0.68713611 3 5
17.087233 -2.0345047 3.3448808 57 13
9.4004145 -1.1209315 -0.4961448 2 6
15.406403 -1.8398294 3.5821204 5 14
11.955221 -1.4276903 -0.21016124 1 7
16.950975 -2.027283 4.5743685 30 15
4.1387415 -0.50084275 -1.117063 5 0
15.913464 -1.9257406 0.27979663 12 8
4.5927048 -0.55659169 -1.0680678 4 1
17.241644 -2.0925748 0.91022724 15 9
5.1080966 -0.62086159 -1.0002209 4 2
17.960327 -2.186162 1.5829216 42 10
5.804275 -0.70650631 -0.92609203 2 3
18.826214 -2.2948933 2.3286788 16 11
6.6404643 -0.81064105 -0.82139903 2 4
17.170536 -2.0991514 2.7397938 60 12
7.799746 -0.95492482 -0.68748474 3 5
17.097927 -2.0933034 3.3483169 60 13
9.3887138 -1.1511258 -0.49572602 2 6
11.993828 -1.474782 -0.21092911 1 7
16.93996 -2.0859683 4.5733333 23 15
4.1447263 -0.51551831 -1.1191335 5 0
16.083252 -2.0032747 0.28290316 3 8
4.5984693 -0.57358468 -1.0698674 4 1
16.887409 -2.1094246 0.89190966 3 9
5.0904245 -0.63585049 -0.99716794 2 2
17.96484 -2.2471917 1.5839674 30 10
5.8056931 -0.72725374 -0.9267177 2 3
18.837784 -2.3630662 2.3311162 16 11
6.6375942 -0.83381563 -0.82139903 2 4
17.176823 -2.1608007 2.7419837 57 12
7.7846751 -0.97929257 -0.6864388 3 5
17.092464 -2.1532187 3.3486967 54 13
9.3965282 -1.1853918 -0.49635413 2 6
17.023355 -2.1505494 3.9613881 77 14
11.94893 -1.5116199 -0.21023104 1 7
14.810975 -1.8763139 4.000308 10 15
4.1429014 -0.52998304 -1.1191335 5 0
16.080128 -2.059912 0.28297296 3 8
4.5887079 -0.58864105 -1.0680674 4 1
16.634302 -2.1368053 0.87893039 7 9
5.0998578 -0.65511638 -0.99945766 4 2
17.97467 -2.312175 1.5855361 42 10
5.8031197 -0.74751496 -0.9267177 2 3
18.825485 -2.4283001 2.3306291 16 11
6.6622057 -0.86054027 -0.8248114 2 4
17.188766 -2.2232797 2.7451124 57 12
7.8088727 -1.0100379 -0.68887925 3 5
17.09458 -2.2141306 3.3506048 60 13
9.392334 -1.2181844 -0.49635413 2 6
17.008015 -2.2089553 3.9595881 10 14
11.983241 -1.558478 -0.21092913 1 7
14.727706 -1.918023 3.9796021 5 15
4.1486883 -0.54544854 -1.1212041 5 0
4.6020813 -0.60669249 -1.0716671 4 1
16.349531 -2.1582627 0.86427635 3 9
5.1208959 -0.67599738 -1.004037 4 2
17.978342 -2.3764713 1.5865822 36 10
5.8004751 -0.76776719 -0.9267177 2 3
18.838541 -2.4968674 2.3333101 16 11
6.6473536 -0.88222349 -0.82334894 2 4
17.202442 -2.286129 2.7485542 54 12
7.7243233 -1.0265286 -0.68173248 3 5
17.112047 -2.2771554 3.355566 54 13
9.3840647 -1.2504345 -0.49614474 2 6
15.58046 -2.0788774 3.6289103 2 14
11.961873 -1.5981795 -0.21064991 1 7
14.117764 -1.8887275 3.8165464 2 15
4.1486731 -0.56018531 -1.1217217 5 0
4.5960741 -0.62223035 -1.0707669 4 1
16.120234 -2.1852708 0.85255319 6 9
5.0873785 -0.68964887 -0.99793118 4 2
18.005472 -2.4440362 1.5897217 36 10
5.8173342 -0.79067022 -0.92984647 2 3
18.845446 -2.5647526 2.3352599 13 11
6.6678376 -0.90863818 -0.82627386 2 4
17.190441 -2.3456285 2.7479284 57 12
7.736486 -1.0556402 -0.68312693 9 5
17.125389 -2.3397965 3.3597636 54 13
9.3954744 -1.2853492 -0.49698216 2 6
15.515187 -2.1253161 3.6154132 2 14
11.956222 -1.6399245 -0.21064991 1 7
14.723528 -2.0221086 3.9821904 10 15
4.1294699 -0.57227665 -1.1170628 5 0
4.5822921 -0.63666075 -1.0680674 4 1
18.090714 -2.5167301 0.95722502 29 9
5.0888286 -0.70794386 -0.99869442 4 2
18.000782 -2.5074222 1.5900685 36 10
5.8223629 -0.81206304 -0.93109775 2 3
18.852106 -2.6327162 2.3372099 13 11
6.6449652 -0.92915869 -0.82383722 2 4
17.203671 -2.408633 2.75137 54 12
7.7643247 -1.0870591 -0.68591595 6 5
17.130726 -2.401469 3.3624368 51 13
9.3988409 -1.3192478 -0.49740082 2 6
15.546268 -2.1848855 3.6244111 2 14
11.894979 -1.6738476 -0.20967259 1 7
13.683381 -1.9279448 3.7026656 2 15
4.135098 -0.58777535 -1.1191336 5 0
15.475675 -2.2025139 0.2728506 6 8
4.5916176 -0.6543014 -1.0707668 4 1
18.093681 -2.5815561 0.95785308 38 9
5.0902147 -0.72625756 -0.99945778 4 2
17.991919 -2.5702412 1.5900685 36 10
5.7842946 -0.82734752 -0.92546618 2 3
18.868349 -2.7021651 2.3403788 16 11
6.6377501 -0.95178461 -0.82334965 2 4
17.204933 -2.4700737 2.7529342 51 12
7.782176 -1.1172696 -0.68783331 4 5
17.128075 -2.4620895 3.3635805 51 13
9.3902245 -1.3514791 -0.49719149 2 6
15.507687 -2.2346916 3.6172128 2 14
11.960314 -1.7256384 -0.21092913 1 7
13.753049 -1.9867452 3.7233713 2 15
4.1330214 -0.60220593 -1.1191336 5 0
15.499553 -2.2611399 0.27340907 6 8
4.5700231 -0.66750878 -1.0662678 4 1
18.096418 -2.6464329 0.95848107 34 9
5.1070738 -0.74686205 -1.0032738 4 2
18.940924 -2.7733109 1.6747838 20 10
5.777463 -0.84696025 -0.92484045 2 3
18.864693 -2.7688758 2.3411098 13 11
6.6501007 -0.97725797 -0.82529885 2 4
17.217705 -2.533278 2.7563758 51 12
7.8038545 -1.148198 -0.69009942 4 5
17.132969 -2.5238659 3.3662512 54 13
9.3617373 -1.3807515 -0.49593535 2 6
15.455451 -2.2822623 3.6068652 11 14
11.898828 -1.7591881 -0.2099518 1 7
14.688167 -2.1741991 3.9785666 23 15
4.1576438 -0.62062222 -1.1263806 5 0
15.531119 -2.3211408 0.27410716 6 8
4.5753741 -0.68461061 -1.0680674 4 1
18.098921 -2.7113607 0.95910919 34 9
5.0927854 -0.76293927 -1.0009841 2 2
18.954769 -2.8429563 1.6768754 20 10
5.7822847 -0.86829561 -0.92609191 2 3
18.868652 -2.8367748 2.3428159 17 11
6.6348715 -0.99869251 -0.82383645 2 4
17.226337 -2.5960128 2.759192 51 12
7.7919178 -1.1742439 -0.68940216 3 5
17.145409 -2.5868776 3.3704491 57 13
9.3766117 -1.4164053 -0.49698216 2 6
11.951929 -1.8096933 -0.21099895 1 7
14.670939 -2.2240095 3.9759791 21 15
4.1401739 -0.63279611 -1.1222392 5 0
15.562456 -2.3813901 0.27480525 6 8
4.5883656 -0.7029382 -1.071667 4 1
18.119444 -2.7759008 0.96067917 21 9
5.0823298 -0.77952141 -0.99945766 4 2
18.968361 -2.9127326 1.6789671 20 10
5.7987432 -0.89147598 -0.92922062 2 3
18.884142 -2.9065473 2.3459842 17 11
6.6156487 -1.0194278 -0.82188648 2 4
17.225441 -2.6543269 2.760443 57 12
7.7877722 -1.2014356 -0.68940216 3 5
17.161497 -2.6506062 3.3754101 57 13
9.3755589 -1.4497375 -0.49719152 2 6
11.934006 -1.8474818 -0.21078952 1 7
14.682574 -2.2756066 3.9811552 26 15
4.1264887 -0.64545298 -1.1191336 5 0
15.593987 -2.4391646 0.27550334 6 8
4.5744581 -0.71634108 -1.0689671 4 1
19.048866 -2.9863787 1.0105031 13 9
5.0873346 -0.79847485 -1.0009841 4 2
18.948238 -2.9773798 1.6780956 13 10
5.7918525 -0.91008693 -0.92859495 2 3
18.903814 -2.9737806 2.3496406 17 11
6.6396847 -1.0456841 -0.82529885 2 4
17.237535 -2.7178228 2.7638845 54 12
7.7795944 -1.2279915 -0.68905354 3 5
17.168127 -2.70995 3.378463 54 13
9.3628054 -1.4795725 -0.49677274 2 6
11.880082 -1.8816203 -0.2099518 1 7
14.661183 -2.3247268 3.9775314 26 15
4.1205096 -0.65852362 -1.1180981 5 0
15.613023 -2.4980063 0.27599204 3 8
4.5719304 -0.73230445 -1.0689672 4 1
19.054634 -3.0520575 1.0113404 18 9
5.0924139 -0.81658405 -1.0025107 2 2
18.832031 -3.0231457 1.6686827 13 10
5.7691364 -0.92716449 -0.92546618 2 3
18.918798 -3.0438485 2.3528092 17 11
6.6203151 -1.066329 -0.82334894 2 4
17.257681 -2.7796812 2.7685776 57 12
7.7676115 -1.2525139 -0.68835628 3 5
17.172129 -2.7720516 3.3811343 57 13
9.3536425 -1.5116091 -0.49656343 2 6
14.689576 -2.3765614 3.4354527 2 14
11.881674 -1.9222834 -0.21009143 1 7
17.039051 -2.7597244 4.6250968 37 15
4.1372514 -0.67601806 -1.1232746 5 0
16.121714 -2.6342537 0.28513703 3 8
4.5617838 -0.74620324 -1.0671675 4 1
19.024155 -3.1153245 1.0102937 18 9
5.0817823 -0.83308458 -1.0009841 4 2
18.970787 -3.113385 1.6819304 20 10
5.7738276 -0.94757003 -0.9267177 2 3
18.912518 -3.1072128 2.3532965 17 11
6.6363306 -1.0914985 -0.82578629 2 4
17.265415 -2.842793 2.7713933 57 12
7.7907138 -1.2841568 -0.69079661 3 5
17.172527 -2.8305774 3.3830423 57 13
9.3564615 -1.5439191 -0.49698216 2 6
14.58548 -2.4093802 3.4129574 2 14
11.930132 -1.9728813 -0.21106875 1 7
4.1349869 -0.68973398 -1.1232746 5 0
4.5668402 -0.76340747 -1.0689672 4 1
19.066351 -3.1906126 1.0131198 18 9
5.0828643 -0.85057974 -1.0017473 4 2
19.007521 -3.1841786 1.686114 20 10
5.7743812 -0.96837205 -0.92734337 2 3
18.92309 -3.176826 2.3559778 14 11
6.624649 -1.1133411 -0.82481134 2 4
17.272919 -2.9059932 2.7742093 57 12
7.7824831 -1.3093238 -0.69044805 3 5
17.187714 -2.8947427 3.3880036 63 13
9.3352585 -1.5739135 -0.49614474 4 6
14.673059 -2.4764938 3.4354527 2 14
11.911344 -2.0125146 -0.21085934 1 7
4.1325541 -0.70416361 -1.1232746 5 0
16.102932 -2.7467394 0.28513703 3 8
4.5756726 -0.78131205 -1.0716671 4 1
19.051159 -3.2564745 1.0129104 18 9
5.0798645 -0.86831719 -1.0017474 2 2
19.008072 -3.2525237 1.6871598 20 10
5.7748594 -0.98918957 -0.92796916 2 3
18.92754 -3.2455444 2.3579276 17 11
6.6246362 -1.1371304 -0.82529885 2 4
17.270458 -2.9676077 2.7754607 59 12
7.7700109 -1.3351321 -0.68975079 3 5
17.20072 -2.9587152 3.3925831 57 13
9.3336449 -1.6071678 -0.49635413 4 6
14.664325 -2.5276971 3.4354527 2 14
11.908185 -2.0547607 -0.21092913 1 7
17.058714 -2.9465516 4.6385555 57 15
4.1110382 -0.71527314 -1.1180981 5 0
16.112946 -2.8063638 0.28548607 3 8
4.569078 -0.79661006 -1.0707668 4 1
18.87047 -3.2934241 1.0039088 13 9
5.0690665 -0.88469374 -1.0002209 4 2
18.792486 -3.2831941 1.6690315 13 10
5.7830467 -1.0113837 -0.92984641 2 3
18.939558 -3.3157022 2.3608525 14 11
6.6088948 -1.1581919 -0.82383722 2 4
17.28334 -3.0319705 2.7792153 56 12
7.729743 -1.357399 -0.68661314 3 5
17.201887 -3.0207763 3.3948743 54 13
9.3437147 -1.6425047 -0.49719149 4 6
14.655413 -2.5788703 3.4354527 2 14
11.865494 -2.0900712 -0.21030088 1 7
17.067347 -3.0094342 4.6437311 74 15
4.1121941 -0.7310124 -1.1191336 5 0
4.5662689 -0.81255424 -1.0707673 4 1
18.646498 -3.3214464 0.99260408 13 9
5.0812531 -0.90602398 -1.003274 2 2
18.58811 -3.3177419 1.6519489 13 10
5.7676339 -1.0304881 -0.92796922 2 3
18.949366 -3.3856339 2.3635337 14 11
6.6360765 -1.1868457 -0.82773626 2 4
17.290154 -3.0954146 2.7820311 53 12
7.7524133 -1.3892926 -0.68905348 3 5
17.198433 -3.0851905 3.3963993 57 13
9.3376303 -1.6767402 -0.49719143 4 6
17.127756 -3.0786834 4.0176258 10 14
11.881742 -2.1357219 -0.21071972 1 7
17.070049 -3.0713866 4.6473551 77 15
4.1210217 -0.74743068 -1.1222394 5 0
4.5747643 -0.83137566 -1.0734667 4 1
18.538502 -3.3690169 0.98747516 40 9
5.0857854 -0.92516083 -1.0048004 2 2
18.464685 -3.3622608 1.6420131 32 10
5.7795477 -1.0534482 -0.93047208 2 3
18.952448 -3.4579141 2.3654833 14 11
6.6394935 -1.2125866 -0.82871121 2 4
17.294788 -3.1585889 2.7845337 53 12
7.7631955 -1.4192114 -0.69044805 3 5
17.208801 -3.1490929 3.4005969 54 13
9.3277931 -1.7086048 -0.49698216 4 6
11.862413 -2.1750197 -0.21051028 1 7
17.082026 -3.135138 4.6535668 80 15
4.1107893 -0.7604056 -1.1201688 5 0
16.13773 -2.9851248 0.28646341 3 8
4.5604854 -0.84441274 -1.0707668 7 1
18.536446 -3.4355273 0.98799843 40 9
5.0863853 -0.94362414 -1.0055636 4 2
18.484179 -3.4325135 1.6448021 52 10
5.7760224 -1.0726079 -0.93047208 2 3
18.9604 -3.5243711 2.3679214 17 11
6.6120157 -1.2302399 -0.82578707 2 4
17.308905 -3.2236419 2.7886012 50 12
7.7660298 -1.447762 -0.6911453 3 5
17.215631 -3.2093794 3.4040332 57 13
9.3102951 -1.737329 -0.49635413 4 6
15.901483 -2.9701364 3.734637 6 14
11.886199 -2.2222946 -0.21106875 1 7
4.112042 -0.77474868 -1.121204 3 0
4.5613399 -0.86104959 -1.0716671 7 1
5.0716534 -0.95829886 -1.0032738 2 2
18.504017 -3.4997153 1.647591 52 10
5.7644801 -1.0912938 -0.92922062 2 3
18.985035 -3.5975559 2.3725519 17 11
6.6232843 -1.2562723 -0.82773626 2 4
17.305307 -3.2855151 2.7898526 53 12
7.753356 -1.4720205 -0.69044805 3 5
17.229399 -3.2742193 3.4089923 54 13
9.3316441 -1.7750428 -0.49781957 4 6
15.779989 -3.0044851 3.7085433 12 14
11.890156 -2.2660179 -0.21127819 1 7
4.1093121 -0.78909767 -1.1212039 5 0
8.6778135 -1.6679423 0.15424418 1 8
4.5659609 -0.87843907 -1.0734667 7 1
17.311737 -3.3337152 0.92393917 11 9
5.0567093 -0.97376877 -1.0009841 2 2
18.495602 -3.5650394 1.6479398 52 10
5.7528768 -1.1099122 -0.92796916 2 3
18.991856 -3.6675682 2.3749895 17 11
6.599369 -1.2756168 -0.82529885 2 4
17.30925 -3.3489039 2.7923558 53 12
7.7442584 -1.4983191 -0.69009942 3 5
17.240993 -3.3388202 3.4135718 57 13
9.3253899 -1.8076055 -0.49781951 4 6
15.740708 -3.053982 3.7017946 3 14
8.6844101 -1.6865051 -0.15441842 7 7
17.110838 -3.3260102 4.6706491 80 15
4.1065331 -0.80343705 -1.121204 5 0
8.6601629 -1.6959174 0.15403473 11 8
4.5705166 -0.89587134 -1.0752658 7 1
17.264719 -3.3872025 0.92205507 3 9
5.0763988 -0.99594969 -1.0055636 4 2
18.514328 -3.6357222 1.6507289 52 10
5.7605977 -1.1322726 -0.92984641 2 3
19.008152 -3.7395875 2.3786454 14 11
6.626039 -1.3047816 -0.82919866 2 4
17.330402 -3.4157982 2.7976747 53 12
7.7311616 -1.5238012 -0.68940216 3 5
17.248497 -3.4027817 3.417388 57 13
9.319025 -1.8401462 -0.49781957 4 6
15.707007 -3.1043739 3.6963949 3 14
8.6745481 -1.7160333 -0.15434863 16 7
17.101021 -3.3860931 4.6711669 35 15
4.1074929 -0.81852156 -1.1222394 5 0
8.6247749 -1.7202692 0.1535112 16 8
4.563539 -0.91105694 -1.074366 7 1
16.966846 -3.3903103 0.90677309 3 9
5.0728922 -1.0136639 -1.0055636 4 2
16.801805 -3.3603816 1.4990778 15 10
5.7527361 -1.1515985 -0.92922062 2 3
18.993036 -3.805526 2.3784018 14 11
6.6058731 -1.3247803 -0.82724875 2 4
17.335804 -3.4797704 2.8004906 46 12
7.7492366 -1.5554839 -0.69149387 3 5
17.244209 -3.4645162 3.4189162 48 13
8.9855471 -1.8069086 -0.48033935 15 6
15.890941 -3.1984034 3.7422855 6 14
8.6645832 -1.7455126 -0.15427881 13 7
17.113714 -3.4507303 4.6778955 80 15
4.108397 -0.83362269 -1.1232746 5 0
8.6245966 -1.751559 0.15361589 15 8
4.545054 -0.92387551 -1.0707668 4 1
8.846693 -1.798272 0.4731172 9 9
5.0616269 -1.0297996 -1.0040371 2 2
8.8030214 -1.7925949 0.78597003 8 10
5.7293253 -1.1677271 -0.92609191 2 3
8.7545967 -1.7859168 1.0970677 9 11
6.6131139 -1.3490595 -0.82871121 2 4
8.7598248 -1.788576 1.4160452 10 12
7.7242389 -1.5785352 -0.68975073 3 5
8.7035246 -1.7802455 1.7268211 13 13
8.8715677 -1.8162309 -0.47458234 23 6
8.6751442 -1.7760181 2.0443552 9 14
8.6861734 -1.7798556 -0.15476747 7 7
8.6504431 -1.7741078 2.3661239 17 15
4.1093941 -0.84802306 -1.1243099 5 0
8.6461582 -1.7858124 0.15410456 11 8
4.5381479 -0.93815327 -1.0698674 4 1
8.7546206 -1.809808 0.46851161 8 9
5.0504942 -1.0449878 -1.0025107 4 2
8.7209406 -1.8060201 0.77917194 12 10
5.7408953 -1.1899271 -0.92859483 2 3
8.6942024 -1.8036479 1.0902431 12 11
6.6124911 -1.3717883 -0.82919943 2 4
8.6764812 -1.8015511 1.4035305 12 12
7.7384691 -1.6081949 -0.69149387 3 5
8.6245308 -1.7939051 1.7123204 14 13
8.7833719 -1.8285431 -0.47018614 19 6
8.7095871 -1.8147686 -0.15529102 15 7
8.5764313 -1.7885855 2.3474891 26 15
4.1027775 -0.86085212 -1.1232746 5 0
8.6871557 -1.8243377 0.15494226 15 8
4.5388269 -0.95399886 -1.0707668 4 1
8.6466169 -1.8189762 0.46306866 2 9
5.0508432 -1.0625383 -1.0032738 2 2
8.6018229 -1.8111205 0.76906276 12 10
5.7562475 -1.2130315 -0.93172354 2 3
8.5891132 -1.8115755 1.0778124 18 11
6.5765862 -1.388302 -0.82529885 2 4
8.5715723 -1.8110012 1.3875742 6 12
7.7172141 -1.6318998 -0.69009936 3 5
8.5397854 -1.8058424 1.6966735 19 13
8.6873779 -1.8386369 -0.46537125 19 6
8.4817438 -1.7966623 2.0016148 16 14
8.6640759 -1.8368653 -0.15459296 18 7
8.4718666 -1.7976604 2.3205719 29 15
4.1033735 -0.87669098 -1.1243099 5 0
8.5907793 -1.835431 0.15333664 11 8
4.5583367 -0.97472644 -1.0761656 4 1
8.5601416 -1.8320103 0.45877719 11 9
5.054594 -1.0826885 -1.0048004 4 2
8.5055151 -1.8234242 0.76104355 12 10
5.7285862 -1.2291483 -0.92796922 2 3
8.5186872 -1.8278035 1.069769 16 11
6.6221614 -1.4220864 -0.83163601 2 4
8.5053263 -1.8280426 1.377875 28 12
7.7231579 -1.661342 -0.69114524 3 5
8.4198694 -1.8127507 1.6741587 19 13
8.604435 -1.8540578 -0.46128905 19 6
8.4084282 -1.8133584 1.9858681 21 14
8.5735559 -1.8489701 -0.15309204 18 7
8.3711224 -1.8068421 2.2946901 22 15
4.0965128 -0.89018863 -1.1232747 5 0
8.4921551 -1.8469319 0.15169613 13 8
4.5395002 -0.98811126 -1.0725664 7 1
8.4678259 -1.8431884 0.4541716 12 9
5.0507841 -1.1003256 -1.0048004 2 2
8.4309664 -1.8382478 0.75494266 17 10
5.7242603 -1.249137 -0.92796916 3 3
8.3955679 -1.8336002 1.0551448 12 11
6.6169047 -1.4463483 -0.83163601 2 4
8.3985443 -1.8357859 1.3616059 16 12
7.7173123 -1.6882908 -0.69114524 3 5
8.3310251 -1.8240744 1.6577482 14 13
8.5354805 -1.8704009 -0.45793957 49 6
8.3201962 -1.8247472 1.9665221 18 14
8.5064983 -1.8656063 -0.15200998 46 7
8.2873993 -1.8190706 2.2734668 23 15
4.09338 -0.90448284 -1.1232746 5 0
8.4488859 -1.8668854 0.15103295 37 8
4.532393 -1.0023179 -1.0716671 7 1
8.4086885 -1.8610821 0.45134547 37 9
5.050746 -1.1187985 -1.0055636 4 2
8.3894835 -1.8599038 0.75180495 46 10
5.731658 -1.270678 -0.92984641 2 3
8.3797512 -1.8592806 1.053926 61 11
6.6120715 -1.4682828 -0.83163679 2 4
8.3631601 -1.8586628 1.3569129 63 12
7.715261 -1.7160841 -0.69149387 3 5
8.3057652 -1.8474283 1.6539319 60 13
8.521431 -1.8969591 -0.45752081 73 6
8.2285042 -1.8332582 1.9462765 37 14
8.4901762 -1.8931122 -0.15183547 67 7
8.2319765 -1.8370476 2.2600081 53 15
4.1016688 -0.92059052 -1.1263806 5 0
8.442317 -1.896366 0.15103292 37 8
4.5326695 -1.0189878 -1.0725664 7 1
8.3888302 -1.8858896 0.45061275 36 9
5.0546689 -1.1372648 -1.00709 4 2
8.3657761 -1.8837749 0.75023621 57 10
5.7271876 -1.2906775 -0.92984641 3 3
8.3209267 -1.8767277 1.047345 51 11
6.572052 -1.4834867 -0.82724875 2 4
8.3184118 -1.8776866 1.3506553 64 12
7.7134147 -1.7425373 -0.6918425 3 5
8.2590523 -1.8673174 1.6459188 53 13
8.5128107 -1.9262524 -0.45741621 61 6
8.2182531 -1.8611089 1.9453765 55 14
8.4799509 -1.9203728 -0.15176567 54 7
8.2201872 -1.8630551 2.2584555 73 15
4.0984302 -0.93490249 -1.1263806 5 0
8.4554777 -1.9287987 0.15138198 39 8
4.5292654 -1.0340128 -1.0725664 4 1
8.3977728 -1.9187194 0.45145014 43 9
5.0506687 -1.1549021 -1.00709 2 2
8.3630333 -1.9138541 0.75058573 51 10
5.722877 -1.3096625 -0.92984647 2 3
8.3282013 -1.9074126 1.0490513 49 11
6.6019244 -1.5132555 -0.83163679 2 4
8.3098841 -1.9062705 1.3503429 58 12
7.6956348 -1.7667769 -0.69079667 3 5
8.2623844 -1.8968923 1.6478263 53 13
8.5200014 -1.9576017 -0.45814887 59 6
8.2253313 -1.8914082 1.9485261 50 14
8.484889 -1.9526529 -0.15197511 58 7
8.2023392 -1.889136 2.2553496 75 15
4.0951419 -0.9492029 -1.1263806 5 0
8.4464035 -1.9593248 0.15134709 46 8
4.5292416 -1.0514878 -1.0734667 4 1
8.4026976 -1.9507318 0.45207816 41 9
5.054256 -1.1743026 -1.0086166 2 2
8.3252544 -1.9358155 0.74779594 38 10
5.7257338 -1.3324198 -0.93109792 2 3
8.3250208 -1.9388249 1.0495387 25 11
6.5808682 -1.5338378 -0.82968611 2 4
8.289711 -1.932127 1.3481526 24 12
7.6971812 -1.7954392 -0.69149387 3 5
8.2534637 -1.926716 1.6474445 24 13
8.5263834 -1.9919968 -0.45888156 66 6
8.2145491 -1.9206556 1.9476264 24 14
8.493597 -1.9859005 -0.15225431 58 7
8.1750031 -1.9129142 2.2496555 22 15
4.0880423 -0.96260625 -1.1253452 5 0
8.4418077 -1.9877818 0.151382 45 8
4.5219364 -1.0656075 -1.0725664 7 1
8.4036131 -1.9818842 0.45249689 43 9
5.0424819 -1.1901338 -1.00709 4 2
8.3184452 -1.9648641 0.74779588 38 10
5.7135944 -1.3495834 -0.92984647 2 3
8.3359327 -1.9705309 1.0517324 49 11
6.5796094 -1.5565664 -0.83017361 2 4
8.3290501 -1.971974 1.3556614 60 12
7.6792345 -1.8195403 -0.69044805 3 5
8.2986088 -1.9662964 1.6577482 71 13
8.5197306 -2.0202601 -0.45888156 64 6
8.2384729 -1.9550849 1.9548249 60 14
8.5002337 -2.0187714 -0.15249866 58 7
8.2039881 -1.9499269 2.259491 57 15
4.0923443 -0.97795355 -1.1274159 5 0
8.4562101 -2.0223532 0.15176594 46 8
4.5143986 -1.0804784 -1.0716671 4 1
8.4044123 -2.0130672 0.45291552 42 9
5.0461459 -1.2086781 -1.0086166 4 2
8.3196335 -1.9942961 0.74849308 34 10
5.7203727 -1.3722841 -0.93172354 2 3
8.3367233 -2.0014706 1.0527072 51 11
6.5779958 -1.5804513 -0.83066106 2 4
8.3394012 -2.005192 1.3584772 58 12
7.7080283 -1.8533796 -0.69358563 3 5
8.2840586 -1.9934148 1.6562216 52 13
8.5203924 -2.0518575 -0.45930022 64 6
8.2240191 -1.9820045 1.9530252 50 14
8.5067434 -2.0517123 -0.15274301 60 7
8.2234201 -1.9848976 2.2667372 70 15
4.1001687 -0.99496561 -1.1305214 3 0
8.4646454 -2.0556338 0.15204518 46 8
4.5295348 -1.1008321 -1.076166 7 1
8.405097 -2.0442801 0.45333424 42 9
5.0457115 -1.2272134 -1.0093799 4 2
8.3513365 -2.0327485 0.75198025 36 10
5.7270627 -1.3950483 -0.93360066 2 3
8.3374014 -2.0324392 1.0536823 49 11
6.580153 -1.6052852 -0.83163601 2 4
8.320838 -2.0314789 1.3566002 57 12
7.7015119 -1.8802743 -0.69358563 3 5
8.2827721 -2.0237169 1.6573666 55 13
8.5286989 -2.0853817 -0.46013758 66 6
8.2378721 -2.0157945 1.957974 54 14
8.4995298 -2.0813937 -0.15274301 58 7
8.2183189 -2.0140505 2.2672551 68 15
4.0704103 -1.0028023 -1.1232746 5 0
8.4710093 -2.0885193 0.15228951 46 8
4.510529 -1.1129018 -1.0725669 4 1
8.4134216 -2.0774372 0.4541716 42 9
5.0375843 -1.2438772 -1.0086164 4 2
8.3712711 -2.0685792 0.75441968 53 10
5.7144885 -1.4131345 -0.93234932 2 3
8.3437452 -2.064868 1.0553885 51 11
6.5706558 -1.6272901 -0.83114856 2 4
8.3232832 -2.0628879 1.3581645 60 12
7.6813641 -1.903791 -0.69236541 3 5
8.2985239 -2.0582886 1.6619461 61 13
8.5407524 -2.1199512 -0.46118426 66 6
8.2459154 -2.048296 1.9615731 54 14
8.501915 -2.1134622 -0.15291752 61 7
8.2149897 -2.0436585 2.2682908 72 15
4.0556407 -1.0141928 -1.1201688 5 0
8.4559069 -2.1161339 0.15214989 20 8
4.5255208 -1.133374 -1.0770653 4 1
8.3983717 -2.1048508 0.45375299 25 9
5.0217857 -1.2585903 -1.0063268 4 2
8.3601341 -2.0968184 0.754071 36 10
5.6980247 -1.4301878 -0.93047208 2 3
8.3307095 -2.0925298 1.0546571 43 11
6.5687852 -1.6511837 -0.83163679 2 4
8.3217783 -2.0933747 1.359103 30 12
7.6862659 -1.9335089 -0.69341141 3 5
8.264636 -2.080534 1.6566036 27 13
8.542985 -2.1521907 -0.46170768 61 6
8.2443838 -2.0784965 1.9629229 40 14
8.5003023 -2.144594 -0.15302223 58 7
8.1965666 -2.0694842 2.2651849 37 15
4.0745459 -1.0340457 -1.1263807 5 0
8.4581585 -2.1480987 0.15232439 31 8
4.5064273 -1.145324 -1.0734667 4 1
8.4219418 -2.1420305 0.45542768 35 9
5.0287781 -1.2790155 -1.0086166 4 2
8.3759356 -2.1318855 0.75616288 55 10
5.704484 -1.4529946 -0.93234932 3 3
8.3464384 -2.1274803 1.057582 54 11
6.5783706 -1.6780283 -0.83358598 2 4
8.3412161 -2.12925 1.3634833 48 12
7.6636829 -1.9577225 -0.69201678 3 5
8.2896585 -2.1176305 1.6630908 53 13
8.5412264 -2.1834829 -0.46202174 61 6
8.2616224 -2.1135406 1.9687717 50 14
8.5140753 -2.1797082 -0.1534062 58 7
8.2173634 -2.1052742 2.2729492 60 15
4.07447 -1.0499369 -1.1274159 5 0
8.4738483 -2.183598 0.15274329 37 8
4.494854 -1.159101 -1.0716671 4 1
8.4163475 -2.1719143 0.45553234 32 9
5.0278573 -1.29842 -1.0093796 2 2
8.3661356 -2.1620719 0.75598848 31 10
5.69912 -1.4738927 -0.93234932 2 3
8.337039 -2.156105 1.0573382 46 11
6.572473 -1.7009808 -0.83358598 2 4
8.358593 -2.1647918 1.3675504 55 12
7.6799464 -1.99046 -0.69410855 3 5
8.2970419 -2.1519423 1.6661446 56 13
8.5447636 -2.2177832 -0.46264973 64 6
8.2462749 -2.1418474 1.9669718 56 14
8.5160913 -2.2119281 -0.15358071 54 7
8.2286615 -2.1388056 2.2781258 65 15
4.0707798 -1.0641532 -1.1274158 5 0
8.4851322 -2.2197025 0.15309231 37 8
4.5018868 -1.1785287 -1.074366 4 1
8.4160576 -2.2047718 0.45595101 38 9
5.0194969 -1.3149676 -1.0086166 4 2
8.3585386 -2.1912622 0.75598854 34 10
5.697762 -1.4947802 -0.93297517 2 3
8.354043 -2.1932006 1.0605071 49 11
6.573874 -1.7270763 -0.83456087 2 4
8.3353186 -2.191395 1.3650475 55 12
8.3065691 -2.1853871 1.6695784 56 13
8.558217 -2.2531903 -0.46380112 59 6
8.2538242 -2.1745911 1.9705712 54 14
8.5156612 -2.2451649 -0.15372033 54 7
8.2413139 -2.1743722 2.2838197 58 15
4.0670404 -1.0783561 -1.1274158 5 0
8.4850645 -2.2513592 0.15323193 39 8
4.5090466 -1.1972368 -1.0770653 4 1
8.4237518 -2.238239 0.45678836 33 9
5.0110807 -1.3314725 -1.0078532 4 2
8.3527641 -2.2209373 0.75616288 36 10
5.7001452 -1.5166914 -0.93422651 2 3
8.3578434 -2.2254126 1.0619693 51 11
6.5678048 -1.750013 -0.83456165 2 4
8.3428879 -2.2245491 1.3675504 58 12
8.3102722 -2.2174058 1.6718681 56 13
8.2574787 -2.2064071 1.9732707 56 14
8.2243423 -2.2006295 2.2812314 60 15
4.0707135 -1.0945526 -1.1294863 5 0
8.4848795 -2.2830422 0.15337159 37 8
4.497313 -1.2109423 -1.0752658 4 1
5.0253596 -1.3540643 -1.0116695 4 2
8.354578 -2.2526739 0.75703436 36 10
5.6910014 -1.5355502 -0.93360066 3 3
8.332778 -2.2499158 1.0597758 25 11
6.5619659 -1.7717829 -0.83456087 2 4
8.3373718 -2.2527182 1.3678633 43 12
8.289216 -2.2428117 1.6691968 48 13
8.420825 -2.2799981 -0.45720688 2 6
8.2632847 -2.2373431 1.9764199 59 14
8.230052 -2.2314296 2.2848551 62 15
4.063334 -1.1070302 -1.1284511 5 0
8.4926949 -2.3153741 0.15365081 11 8
4.4895124 -1.2248234 -1.074366 4 1
6.7535691 -1.8425006 0.3668752 1 9
5.0019021 -1.3655508 -1.0078533 2 2
8.3931904 -2.292968 0.76121795 36 10
5.6744456 -1.5512881 -0.93172354 2 3
8.3731384 -2.2906315 1.0658692 39 11
6.5637126 -1.7956285 -0.8355366 2 4
8.3527193 -2.2866123 1.3716179 48 12
8.2855196 -2.2713251 1.66996 30 13
8.4170704 -2.3089669 -0.45741621 2 6
8.2708549 -2.2688572 1.9800193 33 14
8.2281961 -2.2602439 2.2864079 28 15
4.0782628 -1.1256385 -1.1336274 5 0
4.4910612 -1.2412618 -1.0757157 4 1
5.0200529 -1.3884106 -1.0124327 4 2
5.6730776 -1.5711513 -0.93234932 2 3
6.5574055 -1.8185295 -0.83553582 2 4
8.3713331 -2.3231492 1.3759977 18 12
8.3082085 -2.3071935 1.6760659 16 13
8.3939714 -2.332588 -0.45657879 2 6
8.2722712 -2.3003242 1.9822687 36 14
8.2463093 -2.2962062 2.2936544 50 15
4.0631461 -1.1367443 -1.1305215 5 0
4.4942064 -1.2590337 -1.0775152 4 1
5.0076146 -1.4038055 -1.0109062 2 2
17.596926 -4.9363322 1.5989584 18 10
5.6751657 -1.5930797 -0.93360066 2 3
17.010931 -4.7783532 2.169518 12 11
6.5624828 -1.8446307 -0.83699906 2 4
17.454655 -4.9095693 2.8718243 13 12
17.42606 -4.904808 3.5188982 59 13
15.697464 -4.4241853 3.7652311 68 14
4.0591536 -1.1509204 -1.1305215 3 0
6.9197731 -1.9633172 0.12555245 1 8
4.4860358 -1.2736492 -1.0766157 4 1
5.0026836 -1.4212767 -1.0109062 4 2
15.726379 -4.4708748 1.4303992 27 10
5.6733708 -1.6139612 -0.93422651 2 3
15.72832 -4.4773612 2.0079191 30 11
6.5483685 -1.8653513 -0.83602333 2 4
17.435511 -4.9699268 2.8715117 13 12
17.4296 -4.9715309 3.5230982 53 13
9.3223982 -2.6608329 -0.50807738 2 6
15.706281 -4.485909 3.7710793 62 14
16.792631 -4.8025246 4.6799664 10 15
4.0474815 -1.163655 -1.1284511 5 0
4.4778171 -1.288223 -1.0757158 4 1
5.0049868 -1.4417768 -1.0124327 2 2
15.717544 -4.5306931 1.4310963 13 10
5.6674175 -1.6347446 -0.93422651 3 3
15.689707 -4.5256352 2.0049942 7 11
6.5456319 -1.8892996 -0.83651084 2 4
17.171341 -4.9594984 2.8308387 9 12
17.435776 -5.04247 3.528059 56 13
9.2358408 -2.6727748 -0.50389045 2 6
15.712198 -4.5499501 3.7764785 34 14
6.6670308 -1.9306437 -0.12115423 3 7
16.775764 -4.8611131 4.6799664 10 15
4.043395 -1.1777766 -1.1284511 5 0
4.4880309 -1.3089917 -1.0793148 4 1
12.687243 -3.7003968 0.69261432 2 9
4.9999237 -1.4592385 -1.0124327 2 2
