# .PCD v0.7 - Point Cloud Data file format
VERSION 0.7
FIELDS x y z intensity ring
SIZE 4 4 4 4 2
TYPE F F F F U
COUNT 1 1 1 1 1
WIDTH 1344
HEIGHT 1
VIEWPOINT 0 0 0 1 0 0 0
POINTS 1344
DATA ascii
2.6496065 4.2534628 -1.3427533 4 0
1.2162451 1.9517014 0.040140484 5 8
2.6243002 4.2079277 0.25990045 1 9
2.7801301 4.4577918 -1.0212098 1 2
2.6333992 4.2208767 0.4352555 1 10
2.7821288 4.4575272 -0.83223122 1 3
2.6115549 4.1826115 0.60544682 1 11
2.7258623 4.3639879 -0.63177097 2 4
2.5918536 4.1478305 0.77466363 1 12
2.7120652 4.3385286 -0.44763207 1 5
2.5600147 4.0952911 0.93878049 1 13
2.6961546 4.3114028 -0.2664946 2 6
2.5590465 4.0905609 1.1139576 1 14
1.032217 1.6493306 -0.03396228 100 7
2.5300808 4.0411267 1.2775309 2 15
2.6487403 4.2175465 -1.334471 4 0
1.2124157 1.9305093 0.039791439 12 8
2.8022249 4.4602137 -1.2160851 2 1
2.638974 4.198741 0.25990045 1 9
2.7860014 4.4309516 -1.0173938 1 2
2.6170268 4.1606011 0.43002614 1 10
2.7795105 4.4172058 -0.8265996 1 3
2.6092236 4.1465869 0.60154694 1 11
2.7283895 4.3342872 -0.62884557 2 4
2.5894716 4.1120148 0.76965773 1 12
2.7123258 4.3054333 -0.44519165 1 5
2.6043181 4.1323872 0.94946533 1 13
2.7204592 4.3150082 -0.26733196 2 6
2.5511496 4.0448918 1.1040596 2 14
1.0433022 1.654174 -0.034136802 100 7
2.5379872 4.0224662 1.274425 2 15
2.6717107 4.2213345 -1.3386122 4 0
1.2194825 1.926053 0.039791439 10 8
2.8143861 4.4433265 -1.2142856 2 1
2.6543446 4.1890407 0.25990045 1 9
2.790942 4.4046164 -1.0135775 1 2
2.6166012 4.1278815 0.42758581 1 10
2.7674086 4.3641024 -0.81846499 1 3
2.6307836 4.1470542 0.6030094 1 11
2.7357473 4.3108497 -0.62689561 2 4
2.6066458 4.1058297 0.77028346 1 12
2.7145245 4.2757545 -0.44309992 1 5
2.5745184 4.0536661 0.93343782 1 13
2.7012322 4.2515402 -0.2639825 2 6
2.5631635 4.0326724 1.1031599 2 14
1.0461388 1.645277 -0.034032088 100 7
1.0720975 1.6854528 0.53523785 1 15
2.680198 4.202209 -1.3355062 4 0
1.2337273 1.9335853 0.040035773 11 8
2.8068092 4.3973389 -1.2043877 2 1
2.6367047 4.1292486 0.25676027 1 9
2.7661502 4.3319688 -0.99907601 1 2
2.6631725 4.1690936 0.43281513 1 10
2.761349 4.3211269 -0.8122077 1 3
2.6088915 4.0809789 0.59472233 1 11
2.7358057 4.2778606 -0.6234833 2 4
2.6060553 4.0734124 0.76590335 1 12
2.7122509 4.2394018 -0.44031093 1 5
2.5780706 4.0281186 0.92962116 1 13
2.6988256 4.2151728 -0.26230773 2 6
2.5646091 4.0040112 1.0977612 2 14
1.0551126 1.646666 -0.034136802 100 7
1.0571245 1.6491719 0.52488512 3 15
2.6969376 4.1960783 -1.3365414 4 0
1.2372252 1.9242204 0.039931055 11 8
2.8073838 4.3645682 -1.1980891 2 1
2.6525438 4.1238422 0.25696963 1 9
2.7855034 4.3288903 -1.0006025 1 2
2.6237874 4.0760083 0.42409962 1 10
2.7742772 4.3081398 -0.81158197 1 3
2.6145201 4.0584974 0.59277236 1 11
2.7421179 4.2549357 -0.62153393 2 4
2.6152692 4.0581055 0.76465178 1 12
2.7227149 4.2232099 -0.4396137 1 5
2.5750918 3.9926963 0.92351526 1 13
2.7265158 4.2258654 -0.26356378 2 6
2.5827987 4.0015821 1.0995606 2 14
1.0594827 1.6414782 -0.0341019 100 7
2.703166 4.1736679 -1.3324004 4 0
2.8091271 4.335608 -1.1926903 2 1
2.6604042 4.1045032 0.25634161 1 9
2.7557359 4.2499566 -0.98457456 1 2
2.6423371 4.0735092 0.42479682 1 10
2.7691998 4.2690849 -0.80595028 1 3
2.6582189 4.0964313 0.59959704 1 11
2.6122062 4.0224442 0.75964594 1 12
2.7244146 4.1936316 -0.43752199 1 5
2.6011496 4.0038924 0.92809463 1 13
2.725276 4.193356 -0.26209837 2 6
2.6236725 4.0354733 1.111258 1 14
1.0619348 1.632741 -0.033997186 100 7
1.0588425 1.6273654 0.52022642 32 15
2.7169926 4.1646805 -1.3324004 4 0
1.2404581 1.9006829 0.039616913 11 8
2.8050668 4.2964053 -1.184592 2 1
2.6681628 4.0851579 0.25571358 1 9
2.767668 4.2375069 -0.98381138 1 2
2.6580098 4.0680609 0.42514545 1 10
2.7603068 4.2230163 -0.7990672 1 3
2.6160114 4.0007324 0.58692265 1 11
2.7405906 4.1896577 -0.61470872 2 4
2.6197407 4.0033836 0.75776863 3 12
2.7077603 4.1378932 -0.4326413 1 5
2.6301653 4.0177841 0.93343735 1 13
2.718014 4.1503997 -0.26000494 2 6
2.6484215 4.042592 1.1157572 1 14
1.0654358 1.6256789 -0.033927374 100 7
1.0581617 1.6139656 0.51712054 19 15
2.7187808 4.1357985 -1.3261888 4 0
1.2613685 1.9180617 0.040070675 12 8
2.8221886 4.2898445 -1.1854919 2 1
2.6538596 4.0324402 0.25299206 1 9
2.7781265 4.2212591 -0.98228484 1 2
2.6437075 4.0154924 0.42061341 1 10
2.7663379 4.2001576 -0.79656422 1 3
2.6299617 3.991576 0.58692265 2 11
2.7617519 4.1900115 -0.61617112 2 4
2.6489222 4.0173035 0.76214886 3 12
2.7287679 4.1383958 -0.43368712 1 5
2.6484993 4.0151339 0.93496388 1 13
2.7566853 4.1775627 -0.26230776 2 6
1.0972143 1.6621199 0.45980003 1 14
1.0744104 1.6269559 -0.034032091 100 7
2.7438672 4.1423893 -1.3313651 2 0
1.2625338 1.9053121 0.039896153 16 8
2.8371444 4.2799673 -1.1854918 2 1
2.6612954 4.013166 0.25236407 1 9
2.7928436 4.2115374 -0.9822849 1 2
2.6466949 3.9896362 0.41887027 3 10
2.7744296 4.1805997 -0.79468697 1 3
2.6592491 4.0055251 0.59033501 1 11
2.769773 4.170423 -0.61470872 2 4
2.6673026 4.0146136 0.76340044 1 12
2.7409928 4.1255264 -0.43333852 1 5
2.6646707 4.0091343 0.935727 1 13
2.7380767 4.1180182 -0.25916758 2 6
1.0943758 1.6452987 0.45620081 5 14
1.0834059 1.62819 -0.034136802 100 7
2.6740434 4.0171499 1.2930599 3 15
1.2780595 1.9141982 0.040175386 15 8
2.8001142 4.1922526 -1.1638966 2 1
2.6542048 3.9722996 0.2503753 11 9
2.800983 4.1919689 -0.97999519 1 2
2.6694615 3.9936244 0.42026472 1 10
2.780221 4.1577539 -0.79218405 1 3
2.673214 3.9962189 0.59033501 2 11
2.7489843 4.1079369 -0.60690963 2 4
2.6900902 4.0184107 0.76590335 1 12
2.7487257 4.1059995 -0.43229261 1 5
2.6852045 4.0095954 0.93801671 1 13
2.7613285 4.1217093 -0.26000497 2 6
1.0879698 1.6227372 -0.034101896 100 7
2.69666 4.020627 1.2972013 2 15
1.3303013 1.9782069 -0.63876545 1 0
1.2780368 1.8997698 0.039965961 15 8
2.8103795 4.1759849 -1.1620969 2 1
2.795862 4.1528521 -0.97312599 1 2
2.7056463 4.0173321 0.42375094 1 10
2.7836802 4.1316404 -0.78905535 1 3
2.6960225 4.0000329 0.59228492 1 11
2.7633078 4.0983152 -0.60690963 2 4
2.6996827 4.0024452 0.76465178 1 12
1.3079886 1.9391733 -0.20464176 1 5
2.7057705 4.0099635 0.94030696 1 13
1.0840241 1.6053182 0.44720271 33 14
1.0880294 1.6106449 -0.033927374 100 7
2.7193305 4.0239944 1.3013422 3 15
1.3328642 1.9671534 -0.63669485 1 0
1.29027 1.9035739 0.040140484 19 8
2.8555615 4.2113123 -1.1746943 2 1
2.7502639 4.0544991 0.2567603 1 9
2.8059335 4.1365676 -0.97159946 1 2
2.7062294 3.9880786 0.4216592 1 10
2.7803333 4.0957494 -0.78404951 1 3
2.7278132 4.0168724 0.59618479 1 11
2.7775974 4.0886436 -0.60690957 2 4
2.7314022 4.0191383 0.76965773 1 12
1.3125094 1.9313002 -0.20429313 3 5
1.1545705 1.698262 0.39917234 1 13
1.320887 1.9421664 -0.12309414 1 6
1.0972941 1.6128029 0.45035201 6 14
1.0880196 1.5985714 -0.033752851 100 7
2.7355361 4.0176711 1.3023776 2 15
1.3437366 1.9691054 -0.63876545 1 0
1.2977031 1.9009355 0.040175382 15 8
2.8057671 4.1084819 -1.1485997 2 1
2.7298954 3.9958811 0.25362015 1 9
2.804132 4.1045446 -0.96625692 1 2
2.7284322 3.9922428 0.42305371 1 10
2.7805202 4.0669389 -0.78029501 1 3
2.7545679 4.0274663 0.59910965 2 11
2.7530286 4.0237083 -0.59862196 2 4
2.7647972 4.0394006 0.7752893 1 12
1.1202658 1.6361068 0.38543409 1 13
1.3216764 1.9295369 -0.12257078 17 6
2.7637498 4.0333376 1.1288043 2 14
1.0933151 1.5949543 -0.033752851 87 7
2.7838044 4.0595617 1.3189421 0 15
1.3462223 1.9580361 -0.63669485 1 0
1.2963979 1.8848612 0.039931051 19 8
2.8289299 4.1115055 -1.152199 2 1
2.7506187 3.9962003 0.25424814 2 9
2.7828195 4.0429831 -0.95404512 1 2
2.7559097 4.002387 0.42514551 1 10
2.7857363 4.0441933 -0.7777921 1 3
2.7528412 3.994941 0.59569728 2 11
2.7783229 4.0304189 -0.60105938 2 4
2.8013103 4.0622487 0.78154677 1 12
1.322232 1.9174008 -0.20377021 37 5
1.1293149 1.6370341 0.38657892 9 13
1.3340753 1.933131 -0.12309414 2 6
2.84092 4.1150756 1.1544487 1 14
1.1147857 1.614164 -0.034241516 89 7
2.8781183 4.1658468 1.3567295 9 15
1.3486494 1.9469723 -0.6346243 1 0
1.3234713 1.90991 0.04055934 22 8
2.8277202 4.0791841 -1.1459004 2 1
2.7850387 4.0161166 0.25613225 1 9
2.799154 4.0364709 -0.95480841 1 2
2.7789502 4.0058389 0.42653996 1 10
2.7930782 4.0247078 -0.77591485 1 3
2.8165772 4.0570579 0.60642177 1 11
2.7697289 3.9880862 -0.59618461 2 4
2.8109636 4.0459571 0.78029525 1 12
1.3311902 1.9160467 -0.20411885 7 5
2.7796836 3.9979508 -0.25519004 2 6
2.8808606 4.1419287 1.1647965 6 14
1.108991 1.5938491 -0.033892471 68 7
2.8904362 4.1526031 1.3556943 6 15
1.3576492 1.9454209 -0.63565958 2 0
2.8307858 4.0533113 -1.1414014 2 1
2.8173437 4.0325656 0.25780702 1 9
2.8019836 4.0105801 -0.95099211 1 2
2.8157403 4.0287762 0.43002614 1 10
2.7980556 4.0019817 -0.77341193 1 3
2.8102441 4.017921 0.60203451 2 11
2.806391 4.0109253 -0.60105938 2 4
2.8545225 4.078196 0.78842992 1 12
1.1485977 1.640368 0.38925046 39 13
2.8371623 4.0503883 -0.25916758 2 6
2.8964188 4.1334438 1.1652464 16 14
1.1065134 1.5785058 -0.033648137 32 7
2.9182234 4.1614699 1.3619059 3 15
1.3599869 1.9343488 -0.63358909 2 0
1.2919059 1.836834 0.039198056 1 8
2.8471606 4.0465922 -1.1423012 2 1
2.8153079 3.9998417 0.25634158 2 9
2.8069253 3.9879322 -0.94793922 1 2
2.8206108 4.0058904 0.42863166 1 10
2.8279347 4.0147991 -0.7777921 1 3
2.8402588 4.0308046 0.60544682 1 11
1.1634341 1.6498836 0.31975213 1 12
2.8314459 4.0153165 -0.42985225 1 5
2.924268 4.1454177 0.98610061 5 13
2.8443754 4.0306683 -0.25853956 2 6
2.9299364 4.150372 1.1728948 15 14
1.1097094 1.571367 -0.033578329 7 7
2.9316163 4.1496806 1.3613884 3 15
1.366731 1.9295893 -0.63358903 2 0
1.2173829 1.7180992 0.036754724 2 8
2.8342192 3.9984744 -1.1315041 2 1
2.8338749 3.996506 0.25676027 1 9
2.8253725 3.9845152 -0.94946569 1 2
2.8576326 4.0285206 0.43211791 1 10
2.8487887 4.0145712 -0.7796694 1 3
2.8297291 3.9847605 -0.60008448 2 4
1.1600338 1.6329298 0.31724918 2 12
2.8408282 3.9989123 -0.42915502 1 5
2.9455452 4.1447854 0.98839027 8 13
2.8653719 4.0304804 -0.25916755 2 6
2.9568288 4.157589 1.1778437 18 14
1.1209842 1.5756304 -0.033752851 6 7
2.9483244 4.1425686 1.3624234 3 15
1.3689694 1.9185168 -0.63151848 1 0
1.2117544 1.6975639 0.036405675 4 8
2.8526907 3.9949005 -1.1333033 2 1
2.8826358 4.035346 0.25990045 1 9
2.8575218 4.0001893 -0.95557159 1 2
2.9689825 4.1546879 0.44676009 1 10
2.8834636 4.0335274 -0.78530091 1 3
2.9584 4.1368217 0.62445843 7 11
2.8574796 3.9942327 -0.60300928 2 4
1.1553797 1.6144134 0.31443337 19 12
2.8733213 4.0148954 -0.43194395 1 5
2.974854 4.15523 0.9933514 11 13
2.8747716 4.0139599 -0.25874889 2 6
2.980402 4.1599159 1.1814429 18 14
2.9650176 4.1353931 1.3634589 3 15
1.3801682 1.9200015 -0.63358909 2 0
1.213003 1.6868293 0.036266055 6 8
2.8893771 4.0165577 -1.1423013 2 1
2.8760552 3.9965632 -0.95709795 1 2
2.9694991 4.1248937 0.44466889 7 10
2.9113774 4.0426736 -0.78905535 1 3
2.9821043 4.1393557 0.62640834 10 11
2.9271164 4.0615344 -0.61470872 2 4
1.1621629 1.611973 0.3147462 30 12
2.8966393 4.0177712 -0.43333849 1 5
2.9962294 4.1543746 0.99564099 11 13
2.8840914 3.9974205 -0.25833017 2 6
2.9971871 4.1526465 1.1823426 18 14
2.9952717 4.1469421 1.370706 4 15
1.3936605 1.9245595 -0.63669479 2 0
1.2177104 1.6809659 0.036231153 11 8
2.9056678 4.0096021 -1.143201 2 1
2.9862156 4.1207523 0.26670414 6 9
2.8945971 3.9928586 -0.95862448 1 2
2.9932365 4.1274071 0.44606283 10 10
2.9231522 4.0292878 -0.78842962 1 3
2.9132845 4.0127387 -0.60885948 2 4
1.1721447 1.6145042 0.31599775 16 12
2.9059639 4.0011864 -0.43264124 1 5
3.0222516 4.1597743 0.99945718 11 13
2.9168146 4.0131798 -0.26000494 2 6
3.0185394 4.1516166 1.1850421 16 14
1.1442051 1.5737085 -0.03396228 46 7
3.0215056 4.1541724 1.3763998 3 15
1.3844305 1.8978337 -0.62944794 2 0
1.2327058 1.6898432 0.036510393 39 8
2.925842 4.0093889 -1.1459005 2 1
3.0135365 4.1280465 0.2678555 13 9
2.9015698 3.9732182 -0.95633483 1 2
3.0099771 4.1201506 0.44641143 12 10
2.9434907 4.0291424 -0.79030693 1 3
1.2157973 1.6636118 0.25300074 1 11
2.9289184 4.0062628 -0.60934651 2 4
3.0412207 4.1583457 0.81596231 12 12
2.9340317 4.010313 -0.43473294 1 5
3.0487823 4.1671581 1.0036551 11 13
2.958416 4.0421667 -0.26251706 2 6
3.0438032 4.1573067 1.1895411 18 14
3.0325623 4.138926 1.3748469 2 15
1.3952914 1.8994594 -0.63151848 2 0
1.2208353 1.6613584 0.035986818 29 8
2.9490521 4.011713 -1.1494997 2 1
3.0373926 4.1303754 0.26869288 13 9
2.9379921 3.9952061 -0.9639672 1 2
3.0366099 4.1278009 0.44832885 14 10
2.987978 4.0602093 -0.79844141 1 3
1.1933516 1.6209911 0.247151 6 11
2.940531 3.9928162 -0.60885894 2 4
3.069777 4.1667895 0.81971675 13 12
2.9756753 4.0390601 -0.43891647 1 5
3.0668035 4.161232 1.0048 11 13
3.0459921 4.1314845 -0.26900673 2 6
3.0698624 4.1623406 1.1940402 15 14
1.1516021 1.5608548 -0.033857569 4 7
3.0630531 4.1500745 1.3820938 1 15
1.4042122 1.8976831 -0.63255382 2 0
1.2397139 1.6747669 0.036370773 16 8
2.963037 4.0013952 -1.1494997 2 1
3.0601153 4.1309814 0.2694256 12 9
2.9706185 4.0101666 -0.97007304 1 2
3.0676062 4.1395874 0.45076919 14 10
2.9762511 4.0148425 -0.79155821 1 3
1.1729892 1.5817367 0.24178876 20 11
3.0041265 4.0494866 -0.61909598 2 4
3.0972521 4.1734986 0.82315838 13 12
3.087162 4.1583824 1.0067079 11 13
3.06635 4.1288428 -0.26953006 13 6
3.0948315 4.1656785 1.1980894 16 14
1.1642009 1.5664549 -0.034066994 3 7
3.077522 4.1393561 1.3820938 0 15
1.4131355 1.8958687 -0.63358909 2 0
1.2563109 1.6848567 0.036684915 7 8
2.9816484 3.9972756 -1.1512994 2 1
3.077379 4.1256146 0.2697396 13 9
2.9798999 3.9934807 -0.96854657 1 2
3.0927651 4.1432233 0.45233801 8 10
3.0091593 4.0297532 -0.79656422 1 3
1.2082026 1.6173923 0.24788223 41 11
3.1156814 4.1693683 -0.63908309 2 4
3.1205347 4.1758628 0.82566124 13 12
3.086113 4.1282969 -0.45094395 9 5
3.1181166 4.1695948 1.0120506 11 13
3.0927074 4.1341081 -0.2705768 18 6
3.1140254 4.1610904 1.1998889 16 14
1.1705867 1.5641869 -0.034101896 4 7
3.1421745 4.1971731 1.4048699 0 15
1.4197451 1.8909236 -0.63358903 2 0
1.247483 1.661492 0.036266055 20 8
3.0089324 4.006063 -1.1566981 2 1
3.1025577 4.1292181 0.27068162 12 9
3.0079775 4.0018859 -0.97312593 1 2
3.1347311 4.1674919 0.64030147 5 11
3.1032317 4.1241174 -0.63372082 10 4
3.1398461 4.171257 0.82691276 13 12
3.1184812 4.1413736 -0.45355862 11 5
3.14728 4.1796188 1.0170116 10 13
3.1136088 4.1334019 -0.27120486 15 6
3.1395357 4.1663036 1.204388 16 14
1.1748357 1.5584946 -0.034066994 4 7
3.1614559 4.1923513 1.4069405 0 15
1.4143579 1.8707947 -0.6284126 2 0
1.2906687 1.7065697 0.037348103 26 8
3.0440588 4.0235114 -1.1647964 2 1
3.1350341 4.1422515 0.27225175 12 9
3.1302342 4.1359096 -1.0082347 1 2
1.2423449 1.640888 0.18006366 1 10
3.1426642 4.1493268 -0.82440954 8 3
3.1528563 4.1612706 0.6410327 8 11
3.1308002 4.130662 -0.63640141 14 4
3.1639321 4.1728663 0.82941574 13 12
3.1382153 4.1389489 -0.45443019 11 5
3.1713431 4.1811204 1.0200646 10 13
3.1425061 4.1416001 -0.27246091 15 6
3.1717296 4.1786041 1.2111362 18 14
1.2371058 1.6292363 -0.035707515 1 7
3.1760714 4.1812887 1.4069403 0 15
1.4232193 1.8689214 -0.62944794 1 0
1.2832876 1.6845565 0.036964148 7 8
3.1615834 4.1471653 0.27329847 11 9
3.1398921 4.1187119 -1.0067084 5 2
3.1583278 4.1399007 -0.82472235 10 3
3.1854284 4.1739087 0.64468867 10 11
3.1560404 4.1339092 -0.6385951 12 4
3.1940668 4.1822042 0.83348304 15 12
3.1538546 4.1295519 -0.45460454 11 5
3.1930714 4.1793838 1.0223542 10 13
3.1666458 4.1433005 -0.27329826 15 6
3.1969497 4.1814389 1.2151854 18 14
1.2622234 1.6503216 -0.036265988 2 7
3.2070823 4.1916575 1.4141874 0 15
1.4226803 1.8547444 -0.62634212 1 0
1.2928126 1.6848255 0.037068862 1 8
3.1812401 4.1443777 -1.2061872 2 1
3.1857688 4.1487784 0.2741358 12 9
3.1697915 4.1279712 -1.0116694 8 2
3.1859992 4.1460824 -0.82816404 11 3
3.2023959 4.165915 0.64517623 11 11
3.1849735 4.1417499 -0.6415199 14 4
3.2255094 4.1929483 0.83786321 15 12
3.1864736 4.1422048 -0.45721918 11 5
3.2208078 4.185329 1.0265527 10 13
3.1908369 4.1448822 -0.27413565 15 6
3.222229 4.1841497 1.2192347 18 14
1.2728567 1.6522433 -0.036405608 2 7
3.2240534 4.183497 1.4152226 0 15
1.4315084 1.8528241 -0.62737739 1 0
3.207608 4.148664 -1.2106863 2 1
3.2075641 4.1471119 0.27476385 3 9
3.1973946 4.1339636 -1.0158672 9 2
1.2265406 1.5852424 0.17535727 26 10
3.214962 4.1536798 -0.83191836 11 3
3.2229958 4.1625581 0.64639491 10 11
3.1981947 4.1290379 -0.64127678 12 4
3.2510138 4.1957178 0.84067899 13 12
3.211895 4.1452317 -0.45878798 9 5
3.2462244 4.1880264 1.0299867 10 13
3.2065094 4.1352978 -0.27424031 15 6
3.2415912 4.1790357 1.2210342 18 14
1.2835203 1.6541088 -0.036545224 2 7
3.2410069 4.1752687 1.4162579 0 15
1.4498317 1.8630624 -0.63255382 2 0
3.2343323 4.154685 0.091904253 7 8
3.2220714 4.1374412 -1.2106863 2 1
1.2924905 1.659083 0.11021957 1 9
3.213012 4.1243267 -1.0162489 8 2
3.2369292 4.1535335 0.46070498 12 10
3.2428029 4.1595683 -0.83535999 10 3
3.2521544 4.1700673 0.64931977 10 11
3.2260189 4.135066 -0.64395785 14 4
3.2717173 4.1921291 0.84224319 15 12
3.232475 4.1418471 -0.45965952 9 5
3.2680709 4.1859536 1.0322769 10 13
3.2369058 4.1445441 -0.27560109 15 6
3.2645588 4.1784439 1.2241836 18 14
1.2745093 1.6307123 -0.036126375 1 7
3.2603178 4.1700196 1.4183284 0 15
1.4491758 1.8488672 -0.62944794 2 0
3.2599208 4.1575313 0.092218392 10 8
3.2509255 4.1445694 -1.2160851 5 1
1.2600533 1.6058512 0.10697473 3 9
3.2310255 4.1177192 -1.0173938 9 2
3.2661719 4.1610146 0.46279669 12 10
3.2634015 4.155992 -0.83692437 11 3
3.2715964 4.1649323 0.65029466 10 11
3.2612853 4.1503139 -0.64810151 14 4
3.2948759 4.1915555 0.84443349 13 12
3.2543001 4.1399374 -0.4607054 9 5
3.2972269 4.1930399 1.0368558 10 13
3.2637022 4.1489167 -0.27664781 13 6
3.3020203 4.1961207 1.2327316 18 14
1.2777203 1.6231104 -0.036056563 2 7
3.2915888 4.1798611 1.4255754 0 15
1.4436496 1.8286345 -0.62427151 2 0
3.2855673 4.1602516 0.092532538 12 8
3.2895329 4.1637788 -1.2250837 2 1
3.2721612 4.1403008 -1.0257893 9 2
3.2917964 4.1636553 0.46436548 14 10
3.2876911 4.1569715 -0.83942735 11 3
3.3095183 4.1830654 0.65492576 11 11
3.2868397 4.152914 -0.65029454 14 4
3.317338 4.1914496 0.84662348 15 12
3.2823346 4.1457353 -0.46262276 11 5
3.3215957 4.1938162 1.0399088 10 13
3.2930472 4.1562848 -0.27790385 13 6
3.327543 4.1983132 1.2367809 18 14
1.2930329 1.6314011 -0.036335796 2 7
3.2694261 4.1235094 1.4100463 0 15
1.4524294 1.8266079 -0.62530684 2 0
3.3105471 4.1634192 0.092846684 13 8
3.3057501 4.1558976 -1.2259831 2 1
1.2697105 1.5956748 0.10687006 32 9
3.2988198 4.1442151 -1.0296055 9 2
3.3236868 4.1739593 0.46680585 14 10
3.3162251 4.1645885 -0.84318167 11 3
3.3270798 4.1767287 0.65565705 10 11
3.3191504 4.165278 -0.65395123 14 4
3.3454943 4.1968341 0.85006505 13 12
3.3067248 4.1467137 -0.4640173 9 5
3.3440523 4.1935239 1.0425801 10 13
3.3205137 4.1625156 -0.27905521 15 6
3.3487391 4.1963954 1.2394803 16 14
1.3087002 1.6393807 -0.03661504 2 7
3.298265 4.1301875 1.416258 0 15
1.4705516 1.8368627 -0.63048315 2 0
3.3450596 4.1768126 0.093405157 5 8
3.3251097 4.1504169 -1.2277826 2 1
3.3541996 4.186727 0.28114885 8 9
3.3199103 4.1424451 -1.0318952 9 2
3.342494 4.1691332 0.46750307 14 10
3.3418636 4.1668577 -0.84599751 11 3
3.3490937 4.1743779 0.65711945 10 11
3.3398833 4.161407 -0.65516931 14 4
3.3729944 4.202662 0.85350657 13 12
3.3354249 4.1543703 -0.46610904 9 5
3.374651 4.201725 1.0475411 10 13
3.3437815 4.161798 -0.27978796 15 6
3.3694701 4.192276 1.2417297 14 14
1.324151 1.6475012 -0.036894277 2 7
3.3603621 4.17945 1.4369634 0 15
1.4624039 1.8136712 -0.62427151 2 0
3.3461947 4.148469 -1.2304827 2 1
3.3562527 4.1594491 0.28010213 12 9
3.3429823 4.1415238 -1.0345664 9 2
3.3745494 4.179143 0.46994346 14 10
3.3655908 4.1680484 -0.84850049 10 3
3.3803821 4.1848674 0.66053176 10 11
3.3636458 4.162662 -0.65711927 14 4
3.3950922 4.2000823 0.85538381 13 12
3.3699517 4.1674886 -0.46889803 11 5
3.4083176 4.2149348 1.0536475 10 13
3.3713801 4.1677675 -0.28093931 15 6
3.396837 4.1977444 1.2466787 16 14
3.3832402 4.1794448 -0.093858749 6 7
3.4308567 4.2367554 1.4607749 0 15
1.471161 1.8115553 -0.62530684 2 0
1.3226721 1.6281286 0.036615107 3 8
3.3810446 4.1603718 -1.2376804 2 1
3.3896468 4.1709566 0.28167221 12 9
3.367326 4.1420178 -1.0376196 9 2
3.3928893 4.1719747 0.47046641 12 10
3.3945608 4.1725378 -0.851942 10 3
3.4082267 4.1878471 0.66296911 8 11
3.3926649 4.1672397 -0.65980035 14 4
3.4234526 4.2050567 0.85882545 13 12
3.3945448 4.1680584 -0.47029251 11 5
3.4373829 4.2191586 1.0578448 11 13
3.39925 4.170866 -0.28198606 15 6
3.4355991 4.2139606 1.2552269 18 14
3.405391 4.176908 -0.094068162 11 7
3.4212039 4.1948123 1.4504219 0 15
1.4799223 1.8093994 -0.62634212 2 0
3.3972871 4.1521549 -1.2385802 2 1
3.4206278 4.1791935 0.28303295 13 9
3.4004209 4.1530223 -1.0433438 9 2
3.4225821 4.1786008 0.47255811 10 10
3.4146359 4.1688991 -0.85350633 10 3
3.4371917 4.1949482 0.66589403 8 11
3.4152751 4.1667118 -0.66150647 12 4
3.4581506 4.2175193 0.86383122 15 12
3.4179151 4.1669693 -0.47151268 11 5
3.4513543 4.207737 1.0578454 10 13
3.4269998 4.1765537 -0.28313744 15 6
3.459445 4.2145953 1.258826 16 14
3.4326377 4.1804528 -0.094417229 11 7
3.435827 4.1828442 1.4504222 0 15
1.4736334 1.7895689 -0.62116569 2 0
1.3095659 1.5897626 0.035951912 33 8
3.4092827 4.1372623 -1.237681 5 1
3.4504418 4.1857204 0.28428903 13 9
3.4254124 4.1553574 -1.0467782 7 2
3.4554315 4.1902885 0.47517285 12 10
3.445508 4.176765 -0.85757363 10 3
3.4568689 4.1890478 0.66686893 8 11
3.4436972 4.171607 -0.66418833 10 4
3.4866872 4.2221785 0.86727291 15 12
3.4451303 4.1703725 -0.47325581 11 5
3.4747751 4.2062578 1.0605167 11 13
3.4466479 4.1707239 -0.28355613 15 6
3.4877925 4.2190166 1.263775 16 14
3.4650517 4.1900182 -0.094905891 6 7
3.5119784 4.2452502 1.4763039 0 15
1.4838829 1.7886164 -0.62271857 3 0
1.3151078 1.5851812 0.035951912 5 8
3.4311721 4.1343331 -1.2403798 7 1
3.4714091 4.181335 0.28481236 15 9
3.453162 4.1578789 -1.0505944 7 2
3.4860475 4.195982 0.47726452 12 10
3.4734187 4.1793013 -0.86070228 10 3
3.4841585 4.1922235 0.6693064 8 11
3.4620464 4.1641388 -0.6649189 12 4
3.5152993 4.2266874 0.87071443 15 12
3.4736829 4.1751704 -0.47517326 9 5
3.5152862 4.2236753 1.0681485 16 13
3.4785235 4.1780171 -0.28491685 15 6
3.5144563 4.2196822 1.2678242 18 14
3.5045142 4.2062521 1.4669865 0 15
1.4987886 1.793803 -0.62634212 2 0
3.5061786 4.1948338 0.095429629 11 8
3.4488015 4.1247206 -1.2412803 7 1
3.4936719 4.1783843 0.28544039 13 9
3.4726939 4.1518226 -1.0521209 7 2
3.5185699 4.2051835 0.47970492 12 10
3.5032017 4.185328 -0.86445683 10 3
3.5211656 4.2052979 0.67344987 8 11
3.4913061 4.1681628 -0.66759998 12 4
3.5351028 4.2204504 0.87196583 13 12
3.5061514 4.1843987 -0.47761366 9 5
3.5400977 4.2234135 1.0712019 16 13
3.5046346 4.1796241 -0.28585887 15 6
3.5379317 4.2178392 1.2709734 16 14
1.3583635 1.6194088 -0.036894277 1 7
3.5415282 4.2206302 1.4763039 0 15
1.4950897 1.7767353 -0.62220097 1 0
3.5368083 4.2030735 0.095883392 13 8
3.4599497 4.11028 -1.2403799 5 1
3.5313933 4.1936626 0.28732452 15 9
3.4998131 4.1546917 -1.0559372 7 2
3.5332291 4.1928744 0.47970492 12 10
3.5374279 4.1978574 -0.86946267 10 3
3.5440488 4.2042217 0.67515606 8 11
3.5243053 4.1793242 -0.67125601 12 4
3.5676467 4.2292228 0.87634605 15 12
3.525877 4.1782236 -0.47831085 9 5
3.5654807 4.2251544 1.074636 15 13
3.5313585 4.1832423 -0.28690562 13 6
3.5644715 4.220973 1.2754724 16 14
1.357556 1.6070189 -0.036719751 20 7
3.5138431 4.1580749 1.4587044 0 15
3.0993471 3.6585095 -1.2847778 4 0
3.5527525 4.1922274 0.095918305 11 8
3.4717553 4.0952058 -1.2394801 5 1
3.5628009 4.2011142 0.28868523 12 9
3.526268 4.1580372 -1.0597533 7 2
3.5600035 4.1963277 0.48144805 12 10
3.5584512 4.1930137 -0.87102699 10 3
3.5792575 4.2160387 0.67905587 8 11
3.5581486 4.189692 -0.67491215 12 4
3.5977364 4.234808 0.88010049 13 12
3.5474529 4.1756201 -0.47935677 9 5
3.5941918 4.2291389 1.0788344 16 13
3.5640519 4.1921921 -0.28837103 13 6
3.5993848 4.2322555 1.2826709 16 14
1.3657485 1.6053169 -0.036789559 36 7
3.5959487 4.2252259 1.4866567 0 15
3.0995612 3.632971 -1.2796015 4 0
3.5829413 4.1980529 0.096337155 11 8
3.4759068 4.0712042 -1.2358814 5 1
3.586525 4.1992826 0.28941795 11 9
3.5649879 4.1740661 -1.0670041 8 2
3.5901594 4.2020531 0.48353973 12 10
3.5833323 4.1925812 -0.87352997 9 3
3.6029816 4.2140813 0.68076205 10 11
3.5895238 4.1968584 -0.67808074 14 4
3.621485 4.2327309 0.88229048 13 12
3.5749581 4.1783509 -0.48109984 11 5
3.6114845 4.2195516 1.0795976 16 13
3.5890563 4.1918616 -0.28920838 11 6
3.6242766 4.2315073 1.2862701 16 14
1.3648382 1.5929475 -0.03661504 20 7
3.6307917 4.2361164 1.494939 0 15
3.109705 3.6191995 -1.2785661 4 0
3.6158235 4.2067509 0.096825831 11 8
3.4824746 4.0501795 -1.2331814 5 1
3.605068 4.1912813 0.28973195 11 9
3.5974588 4.1824355 -1.0723468 8 2
3.6178019 4.2045975 0.48528287 10 10
3.609545 4.1935201 -0.87634581 9 3
3.6293266 4.2150178 0.68295568 8 11
3.6067443 4.1873097 -0.67856818 12 4
3.6555812 4.2425098 0.88698357 15 12
3.6116321 4.191505 -0.48406312 11 5
3.6466992 4.2307134 1.0857035 10 13
3.6466639 4.2276826 1.2889695 20 14
3.6238911 4.1998034 -0.096825652 8 7
3.6329327 4.2087932 1.4897625 0 15
3.129905 3.6170866 -1.2816719 4 0
3.6461897 4.2122474 0.09724468 11 8
3.5042448 4.0468392 -1.2358809 5 1
3.6340621 4.1952767 0.29088333 11 9
3.6107521 4.1683669 -1.0719651 8 2
3.6507223 4.2130241 0.48772386 12 10
3.643568 4.2032857 -0.88103884 9 3
3.6609249 4.2218204 0.68612432 8 11
3.6408494 4.1971884 -0.68222427 12 4
3.6781344 4.2386765 0.88886082 15 12
3.6419101 4.1969309 -0.48615488 11 5
3.6858985 4.2461267 1.0929536 13 13
1.4195306 1.6347117 -0.11346432 1 6
3.6652322 4.2193422 1.2903192 7 14
3.6529577 4.2037306 -0.097209603 11 7
3.6780188 4.2310786 1.5021858 0 15
3.1323597 3.5944874 -1.2775309 4 0
3.6740108 4.2145686 0.097593725 11 8
3.5106659 4.0257683 -1.2331814 5 1
3.6644404 4.2006259 0.29213941 11 9
3.6459305 4.1794076 -1.0780709 7 2
3.6719553 4.2077613 0.48859477 10 10
3.677706 4.212863 -0.88573194 10 3
3.6900036 4.2254615 0.6888054 8 11
3.6659248 4.196414 -0.68417478 12 4
3.7098074 4.2451477 0.89292812 30 12
3.6735826 4.2036948 -0.48842087 11 5
3.6903617 4.2214079 1.0899006 5 13
1.4002467 1.6011811 -0.11147555 10 6
3.6794629 4.2044964 -0.097523749 11 7
3.6495006 4.1687946 1.4845862 2 15
3.1397891 3.5777237 -1.2754602 4 0
3.6992552 4.2137394 0.097872972 11 8
3.5349815 4.0252066 -1.2367808 5 1
3.7028074 4.2148175 0.29402351 11 9
3.6773415 4.1858306 -1.083032 7 2
3.705035 4.2158694 0.4910351 14 10
3.6949961 4.2029672 -0.88635761 10 3
3.728327 4.2393875 0.69319272 21 11
3.6936641 4.1984949 -0.68661219 10 4
3.719383 4.2262411 0.89167672 6 12
3.6974473 4.2013173 -0.48964113 11 5
1.405828 1.5962836 -0.11147556 27 6
3.7152107 4.2170467 1.2975177 1 14
3.7113037 4.2111301 -0.097977489 9 7
3.6742518 4.1676211 1.4887273 2 15
3.1497014 3.5638459 -1.2744249 4 0
3.7218876 4.2097907 0.098082401 11 8
3.5412655 4.0040827 -1.2340819 5 1
3.7320561 4.2183204 0.2951749 12 9
3.6997368 4.1817904 -1.0853218 7 2
3.7434962 4.2297678 0.49417278 22 10
3.7214289 4.2033553 -0.88917339 9 3
3.7312584 4.2129717 0.69099909 5 11
3.7293589 4.2093506 -0.69051135 10 4
3.7341113 4.213233 0.89167666 3 12
3.7266254 4.2047868 -0.49155852 11 5
3.7457919 4.2249222 1.097533 1 13
1.4007899 1.5794122 -0.11063818 21 6
3.743238 4.2175918 -0.098431259 9 7
3.7208436 4.1908855 1.5016685 3 15
3.1621194 3.5528319 -1.2744249 4 0
3.763155 4.2266426 0.09878049 11 8
3.5422609 3.9771438 -1.2295822 5 1
3.7587128 4.2186909 0.29611695 20 9
3.736511 4.1937723 -1.0918093 7 2
3.7569139 4.2151866 0.49399847 5 10
3.7571132 4.2139297 -0.8941794 9 3
3.7551873 4.2102942 0.69270521 2 11
3.7493167 4.2022309 -0.69148701 10 4
3.8093035 4.2679644 0.90606868 1 12
3.7532218 4.2051301 -0.49312732 5 5
3.7665267 4.2170734 -0.29632607 9 6
3.7315767 4.1764755 1.2930186 1 14
3.7672632 4.2149396 -0.098675609 9 7
3.7238598 4.1649113 1.4970095 3 15
3.1719244 3.5388949 -1.2733897 4 0
3.7885671 4.2253909 0.099059738 16 8
3.5561216 3.9647553 -1.2295822 5 1
3.7646821 4.1972814 0.29548889 5 9
3.7589946 4.1894703 -1.0940989 7 2
3.7689433 4.1990795 0.49365044 1 10
3.7915947 4.222837 -0.89887232 10 3
3.7785578 4.205359 -0.69416809 12 4
3.7620671 4.184072 1.0937169 2 13
3.7932463 4.2172632 -0.29726812 13 6
3.7487383 4.1663222 1.2939184 2 14
3.7428198 4.1582842 1.4990802 2 15
3.1661372 3.5077236 -1.2661428 4 0
3.817296 4.2291336 0.099443689 5 8
3.5666361 3.9500492 -1.2286823 5 1
3.7900209 4.195971 0.29632628 2 9
3.7946568 4.1996288 -1.1002048 7 2
3.8294196 4.2366199 -0.90450406 10 3
3.8097928 4.2119451 -0.69733673 10 4
3.7905507 4.1892066 0.89480531 6 12
1.4386556 1.5894014 -0.18755923 2 5
3.7785571 4.1744833 1.09448 1 13
3.8313401 4.2313123 -0.29915223 24 6
3.7703826 4.1625342 1.2966177 2 14
3.8267508 4.22328 -0.099478416 17 7
3.7650974 4.1537814 1.5021859 2 15
3.182946 3.5029259 -1.2682134 4 0
3.8293443 4.2128239 0.099373877 1 8
3.5777819 3.9346905 -1.2277826 5 1
3.824414 4.204452 -1.1047844 7 2
3.8363233 4.2160649 0.49870485 1 10
3.8455153 4.2246866 -0.90481681 10 3
3.8130486 4.1875448 0.69538635 7 11
3.8431861 4.2191677 -0.70074844 10 4
3.8044233 4.1766124 0.89480543 3 12
3.779882 4.1467581 1.0906639 1 13
3.8514686 4.2238164 -0.29957092 9 6
3.7901433 4.1551056 1.2984173 2 14
3.8407338 4.2105675 -0.099478416 3 7
3.7931759 4.1569686 1.50788 2 15
3.1925466 3.4889429 -1.2671781 4 0
3.5881796 3.9199286 -1.2268827 5 1
3.8454692 4.1995382 0.29841974 1 9
3.8483481 4.20121 -1.1074555 3 2
3.8227501 4.1717997 0.49504426 10 10
3.8741853 4.2279305 -0.90825844 9 3
3.8826456 4.234199 -0.70538008 17 4
3.8189802 4.1633062 0.89480531 3 12
1.4561757 1.5869126 -0.1884308 29 5
3.8095374 4.1515617 1.0952433 1 13
3.8627522 4.2080789 -0.29936159 4 6
3.8223553 4.1626086 1.304716 2 14
3.8220387 4.1593528 1.513574 2 15
3.2093349 3.484019 -1.2692485 4 0
3.591274 3.8959177 -1.2232842 5 1
3.842504 4.1670003 0.297059 5 9
3.8915403 4.2201777 -1.1158513 1 2
3.9036548 4.230351 -0.91169995 14 3
3.8185718 4.1366987 0.69124281 2 11
3.8974035 4.2206197 -0.70538014 6 4
3.8334887 4.149951 0.89480531 1 12
1.4684676 1.5891362 -0.18930236 5 5
3.8293364 4.1440053 1.0967704 1 13
3.8395078 4.1521034 1.3056158 2 14
3.8588409 4.1700902 1.5223738 2 15
3.2247107 3.4750659 -1.2702838 4 0
3.8684404 4.1687732 0.099269174 5 8
3.5995471 3.877646 -1.2214839 5 1
3.8475142 4.1433158 0.29632628 2 9
3.9176695 4.2173929 -1.118904 6 2
3.8531363 4.146471 0.4952186 3 10
3.9272044 4.2246947 -0.9135772 4 3
3.8600204 4.1524215 0.69611758 1 11
3.9742942 4.27386 -0.71659207 2 4
3.8721681 4.1625795 0.90043694 1 12
3.884629 4.1730533 1.1082183 1 13
3.8865807 4.172224 1.3164135 2 14
3.8859794 4.1715789 -0.099513315 1 7
3.8904939 4.1749682 1.5291029 2 15
3.2130804 3.438381 -1.2609664 4 0
3.9205654 4.1940069 0.1002116 1 8
3.6110747 3.8615794 -1.2205843 5 1
3.8564963 4.1240263 0.29590762 2 9
3.9337101 4.2051249 -1.1192857 6 2
3.8675876 4.1329951 0.4952186 1 10
3.9635262 4.2340355 -0.9185831 1 3
3.8860683 4.1498394 0.69806755 1 11
1.5226889 1.6254742 -0.27347496 1 4
3.9109848 4.1749864 0.90606868 1 12
3.9072292 4.1680608 1.1105087 1 13
4.0057011 4.2716112 -0.30689794 2 6
3.9144523 4.1728454 1.3209126 2 14
3.9169333 4.1754904 -0.099932164 1 7
3.9275181 4.1853099 1.537903 3 15
3.2303579 3.4327722 -1.263037 4 0
3.9125237 4.1576829 0.09965311 1 8
3.6211872 3.8467457 -1.2196842 5 1
3.8982525 4.1396208 0.29800105 1 9
3.9550943 4.1985145 -1.1211938 2 2
3.9229829 4.162971 0.50044799 1 10
3.9079771 4.145597 0.69952995 1 11
1.5035567 1.5944196 -0.2690874 9 4
3.9309554 4.167057 0.90732008 3 12
3.9210305 4.1550794 1.1105087 1 13
3.9622626 4.1973047 -0.30250171 2 6
3.9657307 4.1995144 1.3335098 1 14
3.9314854 4.1617913 -0.099932164 1 7
3.9487388 4.1785941 1.540491 2 15
3.2443795 3.4248464 -1.2640722 4 0
3.9407687 4.1585145 0.10000215 1 8
3.6319127 3.8312528 -1.2187846 5 1
3.9256997 4.1411643 0.29904774 2 9
4.0284348 4.2480574 -1.137985 1 2
3.9614494 4.1759562 0.50358558 1 10
3.963424 4.1751218 0.70684212 1 11
1.5227823 1.6035563 -0.27152479 30 4
3.9774001 4.1883759 0.91482908 1 12
3.9794583 4.1890793 -0.50550348 1 5
3.9733748 4.1812181 1.1211939 1 13
3.9383585 4.1429176 -0.29957092 2 6
3.9749947 4.179996 1.3317102 2 14
3.9507766 4.1545286 -0.10007179 1 7
3.9865401 4.1906724 1.5498086 2 15
3.2616496 3.4190912 -1.2661427 4 0
3.9738603 4.1656804 0.10049082 1 8
3.6392157 3.8135495 -1.216985 5 1
3.9373724 4.1245475 0.29883838 5 9
3.9760034 4.1621017 0.50358558 1 10
3.9854782 4.1705661 0.70830458 1 11
1.5075154 1.5769743 -0.267869 20 4
4.0029182 4.1858859 0.91733181 3 12
3.9775283 4.157887 -0.50341171 1 5
4.0062199 4.1878791 1.1265366 1 13
3.9686449 4.1471515 -0.300827 2 6
4.0157876 4.1949444 1.3407084 1 14
3.9638708 4.1392689 -0.10003689 6 7
4.0251985 4.2018428 1.5591263 1 15
3.2607732 3.3931854 -1.2609664 4 0
4.0092292 4.1705732 0.10097949 1 8
3.6457281 3.7911191 -1.2142862 5 1
4.0133348 4.1704712 0.50637454 1 10
4.0222569 4.1782827 -0.9185831 1 3
4.0234919 4.1781101 0.71220428 1 11
4.0319376 4.1854134 0.92046052 1 12
3.9927421 4.1432796 -0.50341171 1 5
4.0576963 4.2092161 1.136458 1 13
4.0233598 4.1721358 -0.30375776 2 6
4.0453939 4.1935201 1.3452073 2 14
3.9790163 4.124712 -0.10003689 17 7
4.0566688 4.203743 1.5653375 2 15
3.269912 3.379005 -1.2599311 4 0
4.0202556 4.1543818 0.10090968 1 8
3.6609914 3.7818074 -1.2151853 5 1
4.0306988 4.1622658 0.3036533 1 9
4.0351863 4.1654449 -1.1272998 1 2
4.0278687 4.1564355 0.50637454 1 10
4.0483799 4.1761465 0.71415418 1 11
4.0187058 4.1440887 -0.70879179 2 4
4.0712814 4.196835 0.92609227 3 12
4.0266047 4.1493354 -0.50585204 1 5
4.0771017 4.2013712 1.1379851 1 13
4.0176959 4.1387091 -0.30229241 2 6
4.0619941 4.1828766 1.346107 2 14
4.0142899 4.1323133 -0.10056045 14 7
4.0753579 4.1937122 1.5668905 2 15
3.2757075 3.3626068 -1.2578605 4 0
4.0472922 4.153214 0.10122383 11 8
3.6714475 3.7662175 -1.2142856 5 1
4.0863042 4.1917825 0.30679348 1 9
4.0694523 4.1715822 0.50986141 1 10
1.5589851 1.5975527 -0.35354188 1 3
4.0906672 4.1903987 0.71902901 1 11
4.0775294 4.1754823 -0.71659142 2 4
4.0934563 4.191792 0.92796952 3 12
4.0709715 4.167315 -0.50968695 1 5
4.1082101 4.2039628 1.1425639 1 13
4.0740042 4.1675043 -0.30543253 2 6
4.1119919 4.2048998 1.3578044 1 14
4.0377569 4.1289873 -0.10080478 8 7
4.1068063 4.1981268 1.5736201 2 15
3.2847176 3.3483958 -1.2568252 4 0
4.0764451 4.1554723 0.10160777 16 8
3.6702681 3.7401114 -1.2097865 5 1
4.1149035 4.1917448 0.3078402 1 9
4.09516 4.1687212 0.51125592 1 10
1.5670433 1.595192 -0.35416761 20 3
4.1017566 4.1739793 0.71854156 1 11
4.091351 4.1619406 -0.71659142 2 4
4.1246829 4.1943793 0.93172383 1 12
4.091084 4.1587601 -0.5103842 1 5
4.1276345 4.1959152 1.1440904 1 13
4.0821958 4.1482801 -0.30501387 2 6
4.1368508 4.2023501 1.3614036 2 14
4.1208978 4.1846828 -0.10251512 1 7
4.1444836 4.2071609 1.5824199 3 15
3.2930889 3.3347352 -1.25579 4 0
4.1049805 4.1554427 0.10195682 15 8
3.6915207 3.7355928 -1.2124859 5 1
4.1660166 4.2142868 0.31056166 1 9
4.1341777 4.1806192 0.51439351 1 10
1.5739914 1.5911161 -0.35448042 38 3
4.1330562 4.1765685 0.72146636 1 11
4.1393714 4.1814904 -0.72244179 2 4
4.1587601 4.1996055 0.936104 3 12
4.1336179 4.1727643 -0.51387042 1 5
4.1789145 4.2170172 1.1540126 1 13
4.1367459 4.1730032 -0.30794466 2 6
4.165216 4.2017226 1.3659028 3 14
4.1580081 4.1929917 -0.10307358 1 7
4.1754675 4.2091279 1.5886314 3 15
3.3025656 3.3199029 -1.2547548 4 0
4.1413407 4.1616321 0.1024804 13 8
3.6941884 3.7109902 -1.2088867 5 1
4.1476126 4.1650224 0.30804956 1 9
4.2509041 4.267262 -1.1708041 1 2
4.183219 4.199317 0.51857632 1 10
1.5742351 1.5797399 -0.35322902 16 3
4.218411 4.2316852 0.73365337 1 11
4.1630816 4.1747241 -0.72390366 2 4
4.199235 4.2095084 0.94173563 1 12
4.1601443 4.1688671 -0.51526493 1 5
4.2026649 4.2100072 1.1563021 3 13
4.1689472 4.1747732 -0.3092007 2 6
4.1916032 4.1974607 1.3695021 2 14
4.1733499 4.1777234 -0.1030736 1 7
4.1717501 4.1746645 1.5813845 3 15
3.3092408 3.302319 -1.2526842 4 0
4.1834669 4.1732559 0.1031436 11 8
3.7077637 3.6974256 -1.2088867 5 1
4.1960669 4.1843672 0.31056166 1 9
4.1684465 4.1553731 -1.144091 2 2
4.198585 4.1839528 0.51857704 1 10
4.2113857 4.1937842 0.72975349 1 11
4.1776271 4.1601672 -0.72390425 2 4
4.2223043 4.2031856 0.94361287 6 12
4.2000904 4.1796174 -0.51840252 1 5
4.2256856 4.20362 1.1585925 2 13
4.1919928 4.1686444 -0.30982876 2 6
4.1758304 4.1525722 1.3596041 2 14
4.2020879 4.1772285 -0.10342264 1 7
4.1684818 4.142375 1.5746552 2 15
3.3146865 3.2858856 -1.2506137 4 0
4.2043829 4.1664004 0.10331812 11 8
3.7227728 3.6878536 -1.2097865 5 1
4.2212701 4.181675 0.31139904 1 9
4.2156844 4.1746807 -1.1532497 1 2
4.2407527 4.1980433 0.5220626 1 10
4.2038655 4.1600718 -0.93672943 1 3
4.2450285 4.1993403 0.73316592 2 11
4.2168036 4.1714191 -0.72829092 2 4
4.2446461 4.1974955 0.94549006 3 12
4.2054272 4.1572609 -0.51735663 1 5
4.222846 4.1730232 1.154013 2 13
4.2143188 4.1631427 -0.31045681 2 6
4.1923499 4.1414413 1.3605039 3 14
4.2529125 4.1998024 -0.10433016 1 7
4.1739478 4.1203852 1.5715494 2 15
3.3255639 3.2748761 -1.2506137 4 0
4.2395535 4.1734772 0.10384168 5 8
3.7183151 3.6590853 -1.2043878 5 1
4.2671657 4.1977272 0.31370181 1 9
1.6374984 1.6108519 -0.44649315 1 2
4.2429934 4.1710353 -0.94236106 1 3
4.2702575 4.1963716 0.73511577 1 11
4.2653255 4.190062 -0.73414069 2 4
4.2451763 4.1688132 0.94236135 3 12
4.2732081 4.196341 -0.52398044 1 5
4.2226501 4.1452446 1.1501962 2 13
4.2936735 4.2134948 -0.31527168 2 6
4.1984329 4.1185951 1.3578045 2 14
4.2789679 4.1961331 -0.10460939 1 7
4.174511 4.0922656 1.566373 3 15
3.3452616 3.2713525 -1.2537194 4 0
4.2998543 4.2033834 0.10495863 1 8
3.7366409 3.6515307 -1.2061874 5 1
1.6234498 1.5859199 -0.44115052 7 2
4.2763591 4.1760387 0.52293414 20 10
4.2971072 4.1948352 -0.95112151 1 3
4.2649884 4.1620312 0.73170346 1 11
4.2912936 4.1862354 -0.7360912 2 4
4.2738466 4.1677599 0.94549006 1 12
4.2821264 4.1758342 -0.52328324 1 5
4.2427168 4.1359625 1.1517228 1 13
4.2768874 4.1678143 -0.31296891 2 6
4.2044096 4.0957541 1.355105 2 14
4.3365669 4.2230253 -0.10565653 1 7
4.1804633 4.0695844 1.5632671 3 15
3.3511178 3.2542715 -1.251649 4 0
4.3231091 4.1967063 0.10516806 3 8
3.7493634 3.6384659 -1.2061874 5 1
4.2949343 4.1664438 0.31359714 3 9
1.6007932 1.5529029 -0.43351811 16 2
4.300921 4.1707959 0.52415431 5 10
4.3003764 4.1688113 -0.94861859 1 3
4.2851934 4.1526432 0.73267841 2 11
4.3201375 4.1850433 -0.73852789 2 4
4.2514729 4.1170883 0.93735558 3 12
4.3174429 4.179513 -0.52572358 1 5
4.2289171 4.0938158 1.144091 1 13
4.3516898 4.211195 -0.31736511 2 6
4.19627 4.0593753 1.3479066 3 14
4.3369079 4.1939597 -0.10530749 1 7
4.1904759 4.05094 1.5617143 3 15
3.3491139 3.22856 -1.2464725 4 0
4.3463697 4.1899185 0.1053775 1 8
3.745203 3.6091275 -1.2007884 5 1
4.3022609 4.1444974 0.31307378 2 9
1.6248574 1.5647291 -0.43847913 23 2
4.3018265 4.1411848 0.52241188 1 10
4.3554821 4.1913729 -0.95737886 2 3
4.2882214 4.1266465 0.73072851 2 11
4.4119716 4.2442551 -0.75168985 2 4
4.2515807 4.0885291 0.93422681 3 12
4.3664784 4.1975546 -0.52990705 1 5
4.2438927 4.07829 1.1440904 1 13
4.3959036 4.2228889 -0.31945857 2 6
4.2111216 4.0439672 1.3479067 3 14
4.3688302 4.195416 -0.10572635 1 7
4.1822925 4.014883 1.5534321 3 15
3.3519905 3.208833 -1.2433665 4 0
4.3414698 4.1546059 0.10488883 1 8
3.7640383 3.6007657 -1.2025881 5 1
4.3484521 4.1598291 0.31537658 1 9
4.3277745 4.1371613 0.52380639 1 10
4.3843665 4.1897917 -0.96050745 1 3
4.2832208 4.0917053 0.72731614 2 11
4.3815579 4.1841836 -0.74389017 2 4
4.2715402 4.0791216 0.93547833 1 12
4.392633 4.1932936 -0.53130156 1 5
4.2581038 4.0634499 1.1440904 1 13
4.3932757 4.1909742 -0.3182025 2 6
4.2139287 4.0184851 1.3443075 3 14
4.4008141 4.196702 -0.10614522 1 7
4.1906886 3.9949262 1.5513614 3 15
3.3715718 3.2051001 -1.2464725 4 0
4.3465276 4.1319175 0.1046794 1 8
3.7618308 3.5748408 -1.1980891 5 1
4.3166084 4.1006045 0.31202701 2 9
4.2509356 4.0368114 -1.1395116 3 2
4.32196 4.1028237 0.52136528 1 10
4.4211574 4.1969914 -0.96551341 1 3
4.2737279 4.0556149 0.72341633 2 11
4.424212 4.1969557 -0.74876493 2 4
4.2628179 4.0424385 0.93047237 3 12
4.4130287 4.1834173 -0.53199881 2 5
4.2259622 4.0060844 1.1318792 1 13
4.3839512 4.1544046 -0.31652772 2 6
4.224401 4.0018091 1.3434076 1 14
4.3747816 4.1428132 -0.10516787 1 7
4.1989975 3.9749606 1.549291 3 15
3.3737528 3.1859441 -1.2433665 4 0
4.346384 4.1029921 0.10433035 1 8
3.7912951 3.5777361 -1.2034879 2 1
4.3185616 4.0753026 0.31118968 2 9
4.2585855 4.0173039 -1.137985 3 2
4.3123512 4.066597 0.51857632 1 10
4.4415317 4.1869516 -0.96676493 2 3
4.2705188 4.0243378 0.72049141 2 11
4.4301658 4.1733184 -0.74730313 2 4
4.2762008 4.0282793 0.93047237 3 12
4.4268761 4.1687608 -0.53199881 2 5
4.2256231 3.9778543 1.1280631 2 13
4.4100637 4.1500249 -0.31736511 2 6
3.9530451 3.7186542 1.2529775 5 14
4.382669 4.1228032 -0.10502826 1 7
4.2093387 3.9583704 1.5482557 3 15
3.3792179 3.1688616 -1.2412962 4 0
4.3628821 4.0912929 0.10440016 1 8
1.6790686 1.5739943 -0.53133428 1 1
4.3473339 4.0738611 0.3122364 1 9
4.2668529 3.9970446 -1.1364585 3 2
4.3236117 4.0487947 0.5182277 1 10
4.4842305 4.1992035 -0.9730224 1 3
4.2838421 4.0101528 0.72049141 2 11
4.4352837 4.1504674 -0.74584001 2 4
4.2758112 3.9998324 0.92734367 3 12
4.4530416 4.1641703 -0.53339326 1 5
3.9649055 3.7076995 1.0551735 3 13
4.4092107 4.1217403 -0.31631842 2 6
4.4145679 4.1238623 -0.10544712 1 7
4.2188959 3.9396963 1.5467029 3 15
3.3868818 3.1550035 -1.2402608 4 0
4.3771367 4.0760398 0.10440016 1 8
1.6931099 1.5760916 -0.53403372 23 1
4.3410597 4.0396118 0.31077102 2 9
4.259964 3.9641476 -1.1311159 3 2
4.2990851 3.9991527 0.51369631 1 10
4.4901786 4.175457 -0.97114509 1 3
4.3123546 4.0086894 0.72292882 1 11
4.4584703 4.1430659 -0.74730313 2 4
4.2694826 3.9660633 0.9229635 3 12
4.4171944 4.1032777 -0.52746677 1 5
4.0080352 3.7218895 1.063188 1 13
4.4030795 4.0872993 -0.31485304 2 6
4.0311165 3.7407074 1.2696238 1 14
4.3673639 4.0513077 -0.10398112 1 7
4.2113743 3.9052405 1.5389382 3 15
3.4035461 3.1484103 -1.2423315 4 0
4.3678479 4.039012 0.10384168 1 8
1.7000326 1.5714943 -0.53448367 23 1
4.3345962 4.0054579 0.30930558 2 9
4.2853093 3.9599137 -1.1341689 3 2
4.3130174 3.9841228 0.51369631 1 10
4.4640923 4.1222329 -0.96238476 2 3
4.2883964 3.9586051 0.71659166 1 11
4.4670691 4.1220942 -0.74632823 2 4
4.27459 3.9430988 0.92108631 3 12
4.4080596 4.0662174 -0.52467769 2 5
4.090282 3.7717578 1.0815057 1 13
4.4466887 4.0989795 -0.31694645 2 6
4.0842767 3.7635877 1.282221 1 14
4.3755965 4.0306172 -0.10384149 1 7
4.2093482 3.8761227 1.5332443 1 15
3.4059784 3.1286697 -1.2392256 4 0
4.3671927 4.0102148 0.10349264 1 8
1.702636 1.5629152 -0.53358382 7 1
4.3573804 3.9984069 0.30993363 1 9
4.3019986 3.9475868 -1.134932 3 2
4.3239627 3.9663479 0.51334697 1 10
4.5046601 4.1306567 -0.96801633 1 3
4.2904801 3.9328818 0.71464169 2 11
4.4755778 4.1011105 -0.74535257 2 4
4.2766747 3.9174807 0.91858345 3 12
4.4927468 4.1154051 -0.53304476 1 5
4.1034198 3.7574604 1.0815057 1 13
4.3932018 4.0213976 -0.31213152 2 6
4.1002636 3.7519403 1.2831208 1 14
4.428 4.050415 -0.10474903 1 7
4.218576 3.8574932 1.5316911 3 15
3.4225883 3.1219683 -1.2412961 4 0
4.3752527 3.9895573 0.10335302 1 8
3.8064585 3.4696882 -1.1890911 5 1
4.3181648 3.9347429 0.30616543 7 9
4.309948 3.9272554 -1.1334056 3 2
4.349565 3.9619656 0.51474154 1 10
4.4869189 4.0856471 -0.96113318 1 3
4.2806954 3.8965003 0.71074188 10 11
4.4546275 4.053401 -0.73950291 2 4
4.2903242 3.9025269 0.91858345 3 12
4.4392881 4.0380263 -0.52502638 2 5
4.1571836 3.7800953 1.092191 1 13
4.4042559 4.0033522 -0.31192219 2 6
4.1248751 3.7480881 1.28672 1 14
4.3829036 3.9811506 -0.10335282 1 7
4.223434 3.8349538 1.5285854 3 15
3.4306009 3.1074092 -1.2402608 4 0
4.3891511 3.9742615 0.10335302 1 8
3.8301053 3.4668407 -1.1926903 5 1
4.3155828 3.9049067 0.30501407 13 9
4.3003373 3.8911123 -1.1272998 3 2
4.3131285 3.9013171 0.50881493 10 10
4.4835725 4.0540605 -0.95737886 2 3
4.2942705 3.8815355 0.710742 25 11
4.4746404 4.0431499 -0.74047852 2 4
4.3039212 3.887526 0.91858339 1 12
4.4356141 4.0064778 -0.52293462 2 5
4.1965814 3.7892449 1.0990595 1 13
4.4093084 3.9799235 -0.31129414 2 6
4.1350403 3.7310545 1.2858201 2 14
4.3908339 3.9604712 -0.10321322 1 7
4.2152743 3.8007812 1.5208209 1 15
3.435683 3.0902467 -1.2381904 2 0
4.3732567 3.9321771 0.10265493 1 8
3.8363857 3.44824 -1.1908907 5 1
4.3381019 3.8978269 0.3056421 18 9
4.3168154 3.878701 -1.128063 3 2
4.3118992 3.8729227 0.50707173 29 10
4.5212126 4.0595026 -0.96238476 1 3
4.2959757 3.8559124 0.70879197 32 11
4.4828176 4.022202 -0.73950291 2 4
4.2909946 3.8487382 0.91295177 3 12
4.4525385 3.9936321 -0.52328324 1 5
4.2682524 3.8269963 1.1143242 1 13
4.4023514 3.9458458 -0.30982876 2 6
4.1669059 3.7335041 1.2916689 6 14
4.2184405 3.777025 1.5171974 3 15
1.789502 1.598315 -0.64290655 1 0
4.38099 3.9115591 0.1025153 1 8
3.8542137 3.4400187 -1.1926903 5 1
4.3308167 3.8640456 0.30417666 15 9
4.330328 3.8636098 -1.128063 3 2
4.307548 3.8419352 0.50498009 22 10
4.4940705 4.0068874 -0.95362437 2 3
4.3034806 3.8356111 0.70781708 28 11
4.4612575 3.9748375 -0.73365313 2 4
4.292603 3.823225 0.91044885 3 12
4.4337201 3.9489114 -0.5194484 2 5
4.2112041 3.7494085 1.0960065 1 13
4.4220653 3.9357672 -0.31024745 2 6
4.2002964 3.7370696 1.2979676 3 14
4.3974586 3.9111137 -0.10272455 1 7
4.2171607 3.7494414 1.5120211 3 15
1.7762815 1.5753939 -0.63617718 20 0
4.3766627 3.880322 0.10209644 1 8
3.8545308 3.4162047 -1.1890911 5 1
4.3382993 3.8436053 0.30375797 15 9
4.3467278 3.851073 -1.1288261 3 2
4.3149676 3.8215899 0.50428283 22 10
4.4902806 3.9754639 -0.94986999 2 3
4.3004928 3.8060935 0.705136 30 11
4.5018673 3.9829154 -0.7380411 2 4
4.3207169 3.8213072 0.91357744 1 12
4.45643 3.9413338 -0.52049428 2 5
4.2477984 3.7554924 1.102113 1 13
4.4387708 3.9229519 -0.31045678 2 6
4.2439823 3.7494836 1.3074155 2 14
4.4230742 3.9063299 -0.10300379 1 7
4.2316718 3.7359746 1.5125386 3 15
1.7872939 1.5746034 -0.63824779 32 0
4.3805013 3.8578584 0.10188702 1 8
3.8599877 3.3982518 -1.1872914 5 1
4.3315287 3.8120451 0.30239722 14 9
4.3447361 3.8236682 -1.1250101 3 2
4.3246255 3.8046269 0.5039342 21 10
4.512341 3.9683778 -0.95174724 2 3
4.3041444 3.7839482 0.70367348 30 11
4.5448737 3.9941728 -0.74291521 2 4
4.3096218 3.7860966 0.90857154 3 12
4.4694762 3.9265325 -0.52049428 1 5
4.2690792 3.7491598 1.1044028 2 13
4.4307437 3.8897614 -0.30899137 2 6
4.2622523 3.74053 1.3092151 2 14
4.454041 3.9074669 -0.10342264 1 7
4.230967 3.7104571 1.50788 3 15
1.7884179 1.5645387 -0.63669485 8 0
4.3879194 3.8372793 0.10174739 1 8
3.8688936 3.3821912 -1.1863917 5 1
4.3462305 3.7981427 -1.1219571 3 2
4.321373 3.7750928 0.50201678 22 10
4.5112877 3.9396081 -0.94861859 2 3
4.3038688 3.7571499 0.70147985 28 11
4.4451151 3.8790908 -0.7243911 2 4
4.3019719 3.7528493 0.90419137 3 12
4.4531283 3.8847113 -0.51700807 1 5
4.2762232 3.7290726 1.1028757 2 13
4.4382696 3.869025 -0.30857268 2 6
4.2517776 3.7051432 1.3020166 1 14
4.413373 3.8446085 -0.10216607 1 7
4.2482619 3.6994753 1.509433 1 15
3.4710615 3.0152221 -1.2319788 4 0
4.401288 3.821938 0.10174739 1 8
3.8806732 3.3686683 -1.1863916 5 1
4.3399348 3.7660048 0.3011412 13 9
4.3653932 3.7880962 -1.1234835 3 2
4.3209796 3.748234 0.50044799 24 10
4.5100884 3.9108939 -0.94548982 2 3
4.3049569 3.7317028 0.69952995 25 11
4.4856334 3.8869491 -0.72877836 2 4
4.3120604 3.7352216 0.90356565 1 12
4.4546142 3.8587058 -0.5156135 2 5
4.292181 3.7166946 1.1036389 2 13
4.4336281 3.8378224 -0.30731666 2 6
4.2499499 3.6775265 1.2975177 3 14
4.429791 3.8317971 -0.10223588 1 7
4.2363076 3.6631405 1.500633 3 15
3.472789 2.9955149 -1.2288728 4 0
4.399457 3.7934937 0.10139835 1 8
3.8865051 3.3500113 -1.184592 5 1
4.3348989 3.7351863 0.29988512 10 9
4.3756166 3.7702708 -1.1227204 3 2
4.3279977 3.7279279 0.49975076 24 10
4.5177221 3.8899746 -0.94423842 2 3
4.3209667 3.7192419 0.70001739 28 11
4.5443158 3.9101107 -0.73609054 2 4
4.3145871 3.7111335 0.90137565 3 12
4.4589915 3.8353407 -0.51456767 2 5
4.3259706 3.7196078 1.1089816 1 13
4.4500279 3.8249252 -0.30752596 2 6
4.2598023 3.6601324 1.2966179 3 14
4.4583101 3.8293393 -0.10258493 1 7
4.2490697 3.6483295 1.500633 3 15
3.4832225 2.983377 -1.2288729 4 0
4.4035592 3.7703094 0.10118893 1 8
3.8863318 3.3262858 -1.1809927 5 1
4.3585305 3.7291243 0.30061781 5 9
4.3857632 3.7524245 -1.1219571 3 2
4.3288722 3.7024364 0.49835625 29 10
4.5252681 3.8690448 -0.94298685 2 3
4.4704013 3.8194342 -0.72195369 2 4
4.3034821 3.6755221 0.89636964 3 12
