# .PCD v0.7 - Point Cloud Data file format
VERSION 0.7
FIELDS x y z intensity ring
SIZE 4 4 4 4 2
TYPE F F F F U
COUNT 1 1 1 1 1
WIDTH 572
HEIGHT 1
VIEWPOINT 0 0 0 1 0 0 0
POINTS 572
DATA ascii
2.45064 -0.296994 -0.21597201 1 5
2.3902764 -0.29814833 -0.21074267 1 5
2.3872979 -0.30581993 -0.21056834 7 5
2.4196591 -0.31941348 -0.12790905 1 6
2.3456163 -0.3171398 -0.20708212 55 5
2.3829048 -0.32302839 -0.12602496 8 6
2.3622563 -0.32779014 -0.20865092 59 5
2.3571529 -0.33547243 -0.20830232 57 5
2.3647738 -0.33739933 -0.12518758 40 6
2.3579392 -0.34398606 -0.20847663 55 5
2.3793917 -0.3479639 -0.12602496 37 6
2.3508122 -0.3513312 -0.20795368 57 5
2.3456326 -0.3589322 -0.20760503 57 5
2.3542075 -0.36865908 -0.20847662 52 5
2.3992944 -0.37657756 -0.12728101 2 6
2.3430698 -0.37529889 -0.20760505 27 5
2.386133 -0.38305092 -0.12665299 1 6
2.3470159 -0.38349736 -0.29199883 1 4
2.3847811 -0.39137769 -0.12665297 2 6
2.5040436 -0.41139928 -0.04429407 1 7
2.3516052 -0.39225805 -0.29273006 4 4
2.352252 -0.39320993 -0.20865093 10 5
2.3874102 -0.39994386 -0.12686233 2 6
2.4020855 -0.40283319 -0.042513929 4 7
2.3306527 -0.39712989 -0.29029292 23 4
2.3821335 -0.40718552 -0.12665299 2 6
2.3357809 -0.40681887 -0.20743074 55 5
2.374795 -0.41446805 -0.12633896 3 6
2.4169431 -0.42269355 -0.042828076 47 7
2.3004603 -0.40853176 -0.28688031 54 4
2.3558514 -0.41921687 -0.20934817 59 5
2.3654687 -0.42135406 -0.12592028 22 6
2.4351385 -0.43464136 -0.04317712 73 7
2.3107398 -0.4186829 -0.28834301 70 4
2.3504534 -0.42672601 -0.20899957 57 5
2.3922925 -0.43561596 -0.042444121 65 7
2.3189495 -0.42895466 -0.28956169 59 4
2.3450308 -0.43420246 -0.20865092 57 5
2.3663204 -0.43899876 -0.12612963 47 6
2.3907573 -0.44396383 -0.042444121 57 7
2.3097115 -0.43517208 -0.28858677 62 4
2.3435011 -0.44238549 -0.20865092 59 5
2.3727019 -0.44832668 -0.12654832 55 6
2.3931224 -0.45305037 -0.042513929 57 7
2.310128 -0.44360623 -0.28883052 60 4
2.3420212 -0.45015445 -0.20865092 56 5
2.3613162 -0.45471779 -0.12602496 52 6
2.3934901 -0.46178004 -0.042548835 47 7
2.2988248 -0.44976157 -0.28761154 56 4
2.3404355 -0.45832688 -0.20865092 55 5
2.3636343 -0.46372652 -0.12623429 52 6
2.4036362 -0.47244599 -0.042758264 12 7
2.4872379 -0.49293745 0.044259254 1 8
2.2991874 -0.45817116 -0.2878553 41 4
2.346637 -0.46805254 -0.20934817 55 5
2.3659179 -0.47275704 -0.12644362 40 6
2.4149356 -0.48737505 0.043002676 13 8
2.2956288 -0.4657993 -0.28761154 8 4
2.3371789 -0.47465488 -0.20865093 56 5
2.3642533 -0.48101279 -0.12644362 10 6
2.3846042 -0.48602006 -0.042479027 2 7
2.3332272 -0.48106503 -0.37731987 1 3
2.3355079 -0.48281026 -0.20865093 55 5
2.4221411 -0.50204217 -0.04317712 1 7
2.4252644 -0.50666404 0.043247014 59 8
2.3084195 -0.4839361 -0.3735655 9 3
2.3079467 -0.48467806 -0.28956145 2 4
2.3299088 -0.49013945 -0.20830232 53 5
2.3531067 -0.4954485 -0.12602495 2 6
2.4242871 -0.51131928 -0.043246932 1 7
2.4137008 -0.51304799 0.043072481 46 8
2.2835331 -0.48704642 -0.36981109 25 3
2.3062406 -0.49273127 -0.28956169 2 4
2.3360643 -0.49952954 -0.20899957 54 5
2.3708928 -0.50784254 -0.12707166 2 6
2.426398 -0.5206176 -0.043316744 1 7
2.4138496 -0.52189273 0.043107387 58 8
2.2914712 -0.4971084 -0.37137538 48 3
2.2928679 -0.49824941 -0.28809905 2 4
2.3382001 -0.50852764 -0.20934819 50 5
2.3612998 -0.51441491 -0.12665299 2 6
2.4167511 -0.52737874 -0.043177128 1 7
2.4217787 -0.53246248 0.043281917 61 8
2.320586 -0.51191258 -0.37638131 69 3
2.2949913 -0.50710666 -0.2885865 1 4
2.3286288 -0.51496553 -0.20865092 25 5
2.3750894 -0.52610976 -0.12749034 2 6
2.3992774 -0.53234631 -0.042897884 2 7
2.4160016 -0.54004037 0.043212097 61 8
2.287945 -0.51309359 -0.37137538 63 3
2.3241966 -0.52207553 -0.29248631 2 4
2.332649 -0.5244019 -0.20917387 40 5
2.3693419 -0.53351969 -0.12728101 2 6
2.4052076 -0.54247802 -0.043037504 2 7
2.4141018 -0.54847044 0.043212097 63 8
2.2899921 -0.52195495 -0.37200114 66 3
2.3223598 -0.53018528 -0.29248631 1 4
2.3327465 -0.53298491 -0.20934817 59 5
2.3713586 -0.54267806 -0.12749034 2 6
2.4110959 -0.55265766 -0.04317712 2 7
2.4160702 -0.55779374 0.04328192 61 8
2.2939291 -0.53128242 -0.37293974 66 3
2.2972901 -0.53290576 -0.28956145 2 4
2.3386345 -0.54292667 -0.21004538 57 5
2.3538873 -0.54733366 -0.12665299 2 6
2.3974662 -0.55834895 -0.042967692 6 7
2.4141083 -0.56622392 0.043281917 63 8
2.4441228 -0.5737139 0.13157263 8 9
2.2920606 -0.53928649 -0.37293974 66 3
2.3108735 -0.54456407 -0.29151165 2 4
2.3425431 -0.5524587 -0.21056837 55 5
2.3636253 -0.55830169 -0.12728103 9 6
2.4199986 -0.57607865 0.043421537 64 8
2.2902598 -0.54688418 -0.37293974 68 3
2.3245001 -0.5559181 -0.29346126 2 4
2.3309124 -0.55831182 -0.20969678 57 5
2.3617606 -0.56613672 -0.12728101 30 6
2.3936102 -0.574655 -0.042967692 47 7
2.4101985 -0.58264309 0.04328192 63 8
2.430455 -0.58798891 0.13104929 42 9
2.2883368 -0.55487537 -0.37293974 68 3
2.3206162 -0.56356019 -0.29321751 4 4
2.327112 -0.56556779 -0.20952247 55 5
2.3636508 -0.57532203 -0.12749034 32 6
2.4150062 -0.58826846 -0.043386549 73 7
2.4082532 -0.59063238 0.04328192 58 8
2.4245086 -0.59551638 0.13083994 32 9
2.2826483 -0.56151706 -0.37231404 68 3
2.2994602 -0.566504 -0.29078013 20 4
2.3289926 -0.57464218 -0.20987113 55 5
2.3597913 -0.58267826 -0.12738568 51 6
2.387702 -0.59045434 -0.042932786 65 7
2.4138336 -0.60138881 0.043421537 61 8
2.2801106 -0.56891817 -0.45679682 2 2
2.2863243 -0.57131636 -0.37325266 70 3
2.3366363 -0.58518851 -0.21074268 57 5
2.3518281 -0.58986574 -0.12707168 47 6
2.389401 -0.60017604 -0.043002598 48 7
2.4117193 -0.60981101 0.043421533 59 8
2.4298656 -0.61530185 0.13136329 2 9
2.2900603 -0.58075035 -0.37419125 66 3
2.2876515 -0.58098942 -0.2898052 49 4
2.3365097 -0.59383202 -0.21091694 55 5
2.3497548 -0.59807152 -0.12707168 40 6
2.3756652 -0.6055494 -0.042793173 20 7
2.4134498 -0.6192196 0.043491341 59 8
2.4509161 -0.62974423 0.13261935 1 9
2.2880189 -0.58874053 -0.37419122 66 3
2.3029101 -0.59342939 -0.29199883 61 4
2.3267055 -0.5999943 -0.21021971 55 5
2.3592553 -0.60926634 -0.12769969 9 6
2.411274 -0.62764037 0.043491345 59 8
2.4641645 -0.64232606 0.13345674 1 9
2.2455316 -0.58533567 -0.45107254 60 2
2.2821274 -0.59572589 -0.3735655 66 3
2.295063 -0.59995836 -0.2912679 41 4
2.33038 -0.60962516 -0.21074267 57 5
2.3926566 -0.6277017 -0.043177128 1 7
2.3955343 -0.6324802 0.043247014 55 8
2.4620214 -0.65049404 0.13345675 1 9
2.2472706 -0.59417409 -0.45183572 68 2
2.2838533 -0.60469955 -0.37419125 66 3
2.2852798 -0.60593086 -0.29029268 10 4
2.3301632 -0.61826694 -0.21091697 55 5
2.3665264 -0.62879962 -0.12832773 1 6
2.4021568 -0.63871557 -0.043386552 1 7
2.405014 -0.64352185 0.043456435 22 8
2.4365847 -0.65288097 0.13220067 1 9
2.2527683 -0.60404891 -0.45336232 59 2
2.4554327 -0.65885001 0.22242132 4 10
2.2799273 -0.61175781 -0.37387839 48 3
2.3318393 -0.62743235 -0.21126562 55 5
2.3605711 -0.63560516 -0.1281184 1 6
2.4230819 -0.65334392 -0.043805409 1 7
2.4124029 -0.65453106 0.043630965 41 8
2.4612741 -0.66871339 0.13366607 2 9
2.2393851 -0.60842741 -0.45107254 59 2
2.2983396 -0.62616837 -0.29248631 2 4
2.3278232 -0.63463748 -0.21109128 57 5
2.3776054 -0.64910132 -0.12916511 1 6
2.4092128 -0.65863407 -0.043595981 1 7
2.4062471 -0.66188735 0.043561153 47 8
2.4512234 -0.67517936 0.13324742 2 9
2.2315698 -0.61467671 -0.44992775 56 2
2.4355254 -0.67131275 0.22102684 33 10
2.2808323 -0.62995929 -0.2905364 2 4
2.3217533 -0.6416977 -0.21074268 48 5
2.3483765 -0.64993834 -0.1276997 1 6
2.3991907 -0.66490352 -0.043456357 1 7
2.3981433 -0.66867143 0.043456435 56 8
2.4334617 -0.67943472 0.13241002 4 9
2.2426469 -0.62615824 -0.45259905 59 2
2.4561942 -0.68624383 0.22311859 47 10
2.2981279 -0.64251369 -0.37794569 2 3
2.2939122 -0.64219844 -0.29248631 1 4
2.3156619 -0.64872324 -0.21039404 19 5
2.3614779 -0.66244745 -0.12853707 1 6
2.4122565 -0.67760032 -0.043735594 2 7
2.4015677 -0.67866975 0.043561153 58 8
2.2385583 -0.63344824 -0.45221743 53 2
2.4499497 -0.69372779 0.22276998 48 10
2.2768652 -0.64514655 -0.37481695 2 3
2.3107538 -0.6556201 -0.29492369 2 4
2.3191335 -0.65843487 -0.21091698 37 5
2.3591511 -0.67068648 -0.12853707 2 6
2.4021833 -0.68382663 -0.043595977 2 7
2.4068735 -0.68925071 0.043700766 59 8
2.3979409 -0.68759847 0.13073526 29 9
2.2476568 -0.6445052 -0.45450714 30 2
2.4513433 -0.70337445 0.22311857 49 10
2.2859917 -0.65636128 -0.37669423 2 3
2.2855575 -0.65710014 -0.29199883 1 4
2.3283091 -0.66983128 -0.21196283 49 5
2.3567955 -0.67891735 -0.12853707 2 6
2.3901751 -0.68943679 -0.043421455 16 7
2.4082942 -0.69876254 0.043770585 58 8
2.4242954 -0.70432287 0.13230535 42 9
2.4680047 -0.71748871 0.22486196 46 10
2.2950668 -0.66764724 -0.37857136 2 3
2.3023086 -0.67062581 -0.29443622 2 4
2.3259568 -0.67795461 -0.21196286 52 5
2.3582458 -0.68825912 -0.12874642 2 6
2.4135144 -0.70942056 0.043910202 58 8
2.2528074 -0.66260999 -0.5421319 3 1
2.4199064 -0.71221715 0.13220069 44 9
2.2544029 -0.66350675 -0.45679685 5 2
2.4635744 -0.72553658 0.22468738 22 10
2.3116701 -0.68123847 -0.38170007 2 3
2.2847221 -0.674164 -0.29248631 2 4
2.3197544 -0.68494105 -0.21161422 52 5
2.3577442 -0.69705296 -0.12885109 4 6
2.4025605 -0.71121478 -0.043735594 67 7
2.3995242 -0.71441722 0.04370077 61 8
2.2299373 -0.66434956 -0.53718311 20 1
2.4231472 -0.72237164 0.13251469 39 9
2.2979217 -0.68591362 -0.37982291 2 3
2.5810976 -0.77093035 0.33075339 1 11
2.3070805 -0.68952465 -0.29565492 4 4
2.3173494 -0.69303453 -0.21161422 52 5
2.3457303 -0.70241427 -0.12832773 20 6
2.3809087 -0.71385396 -0.043386549 69 7
2.3951013 -0.72221142 0.043665867 57 8
2.2070823 -0.66593701 -0.53223413 41 1
2.4320831 -0.73428911 0.13314272 9 9
2.4737072 -0.74732715 0.22608188 1 10
2.2917314 -0.69278759 -0.37919715 3 3
2.5023878 -0.75694531 0.32100379 3 11
2.2856598 -0.69182289 -0.29321751 20 4
2.3187296 -0.70227426 -0.21196283 52 5
2.329885 -0.70654094 -0.12759504 27 6
2.3917966 -0.7262274 -0.043630883 57 7
2.3963904 -0.73173535 0.043735672 57 8
2.2215176 -0.67876208 -0.53628325 64 1
2.2492085 -0.68765193 -0.45717841 60 2
2.4939461 -0.76295179 0.22817363 1 10
2.3044097 -0.70540851 -0.38170007 22 3
2.281333 -0.69921541 -0.29297379 34 4
2.3238835 -0.71270061 -0.2126601 52 5
2.3484063 -0.72111833 -0.12874642 32 6
2.3854244 -0.73339677 -0.043561075 50 7
2.4014635 -0.74245864 0.043875296 54 8
2.2340281 -0.69111997 -0.53988248 68 1
2.444201 -0.75613916 0.13408476 1 9
2.2299151 -0.690274 -0.45374388 56 2
2.4798484 -0.76811558 0.22712773 1 10
2.4970427 -0.77439666 0.32100382 51 11
2.2978377 -0.71305782 -0.2954112 36 4
2.3232844 -0.72139901 -0.21283442 48 5
2.3458748 -0.72931141 -0.12874642 33 6
2.3772509 -0.73952091 -0.043456361 40 7
2.4104395 -0.75400007 0.044084724 57 8
2.2205658 -0.69503188 -0.53718311 63 1
2.4529829 -0.76824796 0.13471282 1 9
2.2293653 -0.6986407 -0.45412546 59 2
2.4695475 -0.77438259 0.22643048 1 10
2.3052094 -0.72285068 -0.38263863 69 3
2.5134015 -0.78861582 0.32344121 47 11
2.297354 -0.72126836 -0.29565516 56 4
2.3150496 -0.72771186 -0.21231143 52 5
2.3746548 -0.7478146 -0.043456357 10 7
2.3925416 -0.75758022 0.043805487 57 8
2.2274144 -0.7057218 -0.53943282 59 1
2.4464784 -0.77559865 0.13450347 1 9
2.2326512 -0.70780975 -0.45527038 56 2
2.4631679 -0.78136289 0.22608188 1 10
2.2744303 -0.72192866 -0.37794563 65 3
2.4917135 -0.7913754 0.32100379 48 11
2.2891469 -0.7274797 -0.29492369 48 4
2.3086984 -0.73458028 -0.21196283 52 5
2.3751128 -0.75616854 -0.13063051 1 6
2.3955953 -0.76775807 0.043910202 36 8
2.2119479 -0.70932704 -0.53628325 58 1
2.4513628 -0.7865746 0.13492215 1 9
2.2356496 -0.71778858 -0.45641524 59 2
2.471669 -0.79404199 0.22712773 1 10
2.2755301 -0.73146892 -0.37857136 59 3
2.4851561 -0.79885334 0.32051632 52 11
2.2903733 -0.73668146 -0.2954112 44 4
2.3156028 -0.74568844 -0.21283442 48 5
2.3723252 -0.76486868 -0.13063051 1 6
2.3922136 -0.77174181 -0.043875214 1 7
2.4155898 -0.78394061 0.044329058 4 8
2.2130399 -0.71863335 -0.53718305 58 1
2.4372048 -0.79142565 0.13429412 1 9
2.2387321 -0.72740805 -0.45756009 56 2
2.4764612 -0.80512875 0.22782497 1 10
2.2710845 -0.73879665 -0.37825853 40 3
2.4803245 -0.80734229 0.32027262 48 11
2.272687 -0.73975658 -0.29346126 35 4
2.3129854 -0.75376672 -0.2128344 48 5
2.3658435 -0.77190596 -0.13042116 1 6
2.397109 -0.78256983 -0.044014834 1 7
2.2161989 -0.72779197 -0.53853267 51 1
2.4383619 -0.8007496 0.13450347 2 9
2.228847 -0.73237652 -0.45603359 56 2
2.4699919 -0.81209207 0.22747664 2 10
2.4889467 -0.81928676 0.32173502 45 11
2.3161502 -0.76330364 -0.21335733 46 5
2.3784442 -0.7847535 -0.13125855 1 6
2.4020963 -0.79302239 -0.044154454 1 7
2.3837664 -0.79112548 0.04384039 39 8
2.2119241 -0.73452306 -0.53808284 39 1
2.4470665 -0.81260771 0.13513151 2 9
2.2264061 -0.73976362 -0.45603359 56 2
2.4502702 -0.81462145 0.22590758 4 10
2.4862163 -0.82753605 0.32173502 45 11
2.3098261 -0.76972044 -0.21300873 33 5
2.3947744 -0.79895717 -0.13230525 1 6
2.3880725 -0.79718435 -0.043945018 2 7
2.4019837 -0.80602407 0.044224344 49 8
2.4254239 -0.8143608 0.13408476 4 9
2.2351069 -0.75089401 -0.45832333 56 2
2.2954519 -0.77205896 -0.38357732 2 3
2.4909842 -0.83830893 0.32271001 48 11
2.2915549 -0.7711935 -0.2968736 1 4
2.3845425 -0.80434078 -0.13188659 1 6
2.385416 -0.80509913 -0.043945026 2 7
2.3780444 -0.80816305 0.04384039 47 8
2.2322071 -0.75947064 -0.45832333 53 2
2.4556944 -0.83598655 0.22695342 47 10
2.2962098 -0.78214085 -0.38420302 1 3
2.4839888 -0.84658647 0.3222225 46 11
2.3034713 -0.78551173 -0.29882351 1 4
2.3118014 -0.78880274 -0.21370596 3 5
2.3663161 -0.80832577 -0.1310492 1 6
2.391768 -0.81748635 -0.044119548 6 7
2.3923724 -0.82189202 0.044154532 47 8
2.2332554 -0.76853555 -0.45908654 53 2
2.4584129 -0.84649938 0.22747634 47 10
2.30481 -0.7936098 -0.38608021 1 3
2.479291 -0.85417241 0.32197878 43 11
2.2820871 -0.7866767 -0.29638615 1 4
2.3071504 -0.79621762 -0.21353163 19 5
2.3485196 -0.8109532 -0.13021183 1 6
2.3894887 -0.83023804 0.044154532 47 8
2.4164698 -0.84055823 0.13408476 44 9
2.2232773 -0.77335697 -0.45756009 56 2
2.4537106 -0.85399222 0.22730203 42 10
2.305757 -0.80294949 -0.38670596 2 3
2.4837923 -0.86543417 0.32295373 46 11
2.2943223 -0.79986548 -0.2983363 2 4
2.2988541 -0.80189556 -0.21300873 29 5
2.3683012 -0.82704777 -0.13146788 2 6
2.3841152 -0.83350414 -0.044084646 69 7
2.3941226 -0.84122527 0.044294152 47 8
2.4116368 -0.84832519 0.1339801 42 9
2.2094524 -0.77720404 -0.45527038 41 2
2.2992136 -0.809681 -0.38608021 2 3
2.4882455 -0.87673771 0.32392868 45 11
2.2840276 -0.80522931 -0.29736108 2 4
2.3110716 -0.8152172 -0.21440318 37 5
2.3503335 -0.82998919 -0.13063049 2 6
2.3679934 -0.83715528 -0.043840308 59 7
2.3798659 -0.84556031 0.04408472 45 8
2.4312425 -0.86477041 0.13523616 12 9
2.2233734 -0.79083329 -0.45870492 47 2
2.2926517 -0.81637663 -0.38545451 2 3
2.4907796 -0.88741654 0.32465988 49 11
2.3129902 -0.82452857 -0.30150494 22 4
2.3080683 -0.82368225 -0.21440318 55 5
2.3474224 -0.83818841 -0.13063051 7 6
2.3857701 -0.85282028 -0.044224262 69 7
2.3806636 -0.8552146 0.044154532 48 8
2.2352381 -0.80429447 -0.46175781 47 2
2.4576023 -0.88479114 0.22852224 1 10
2.2859273 -0.82343519 -0.38482878 2 3
2.4820642 -0.89408755 0.32392868 45 11
2.2895553 -0.82519352 -0.29882377 34 4
2.3014307 -0.83038157 -0.21405457 42 5
2.3733754 -0.85774463 -0.04404974 50 7
2.3925488 -0.86939818 0.044433773 47 8
2.4231153 -0.88146287 0.13513149 1 9
2.234262 -0.81276333 -0.46213946 33 2
2.4619875 -0.89609009 0.22921947 1 10
2.2793264 -0.83005762 -0.38420302 2 3
2.4787703 -0.90317863 0.32392865 45 11
2.2902455 -0.83493954 -0.29931128 36 4
2.3022616 -0.83977532 -0.21440318 44 5
2.3526208 -0.85907495 -0.13125853 36 6
2.3777285 -0.86918396 -0.04418936 50 7
2.3932536 -0.87912345 0.044503581 50 8
2.4200237 -0.88991576 0.13513149 1 9
2.4850223 -0.91431022 0.23165983 1 10
2.2912455 -0.84346813 -0.38670599 2 3
2.4793282 -0.91319782 0.32441616 45 11
2.2780044 -0.83949673 -0.29809231 54 4
2.3067937 -0.85056382 -0.21510045 43 5
2.3533552 -0.86866522 -0.13146789 4 6
2.3671768 -0.87470615 -0.04404974 48 7
2.3976686 -0.89025623 0.044643197 50 8
2.4318795 -0.90392476 0.13596888 1 9
2.4594064 -0.91464508 0.22956808 1 10
2.2919896 -0.8528387 -0.38733169 22 3
2.4835665 -0.92461699 0.32539108 44 11
2.2787802 -0.84882927 -0.29857975 52 4
2.2963428 -0.85582757 -0.21440318 44 5
2.3690212 -0.883856 -0.13251461 1 6
2.3584893 -0.88086474 -0.043945026 25 7
2.3908024 -0.89721507 0.044573389 36 8
2.4436667 -0.9180271 0.13680625 1 9
2.4599288 -0.92462647 0.22991672 1 10
2.487756 -0.93607724 0.32636607 45 11
2.2720876 -0.85537952 -0.29809254 41 4
2.2970707 -0.86524278 -0.21475185 46 5
2.3771346 -0.8963483 -0.13314264 1 6
2.4255095 -0.92088008 0.13596886 1 9
2.4492359 -0.93037748 0.22921947 1 10
2.2804403 -0.86671358 -0.3863931 69 3
2.4677742 -0.93840528 0.32417244 27 11
2.2727988 -0.86471725 -0.29857975 41 4
2.2977605 -0.87467337 -0.21510047 44 5
2.3553278 -0.89752847 -0.13209592 1 6
2.3821762 -0.90871191 -0.044503499 1 7
2.4050202 -0.92175621 0.044957343 3 8
2.4260101 -0.93077213 0.13617823 2 9
2.4645741 -0.94606137 0.23096257 2 10
2.2663372 -0.8704192 -0.38451594 63 3
2.2660606 -0.87122083 -0.29809254 41 4
2.3021314 -0.88555002 -0.21579768 47 5
2.3372695 -0.90000302 -0.13125853 1 6
2.3901846 -0.92133713 -0.044712923 1 7
2.4376438 -0.9450103 0.1370156 2 9
2.4575419 -0.95321751 0.23061398 6 10
2.2798588 -0.88475674 -0.38733169 59 3
2.2667067 -0.88056326 -0.29857975 40 4
2.3138828 -0.89935499 -0.2171922 36 5
2.3378365 -0.90960467 -0.13146789 1 6
2.3795006 -0.92677188 -0.044573303 2 7
2.3817666 -0.93196565 0.044643197 43 8
2.423172 -0.94914287 0.13638756 2 9
2.2712393 -0.89054626 -0.3863931 38 3
2.2784019 -0.89427239 -0.30052969 15 4
2.3681054 -0.9309122 -0.13335198 1 6
2.3650863 -0.93067867 -0.044363879 2 7
2.395236 -0.94689053 0.044957343 49 8
2.4545319 -0.97181785 0.23096257 61 10
2.3242152 -0.92209935 -0.21876097 2 5
2.3499916 -0.93327528 -0.13251461 1 6
2.391721 -0.95033103 -0.044922356 7 7
2.3772252 -0.94889772 0.044678111 49 8
2.4511247 -0.98037988 0.23096257 45 10
2.2888482 -0.91640079 -0.30272335 1 4
2.3246813 -0.93168926 -0.21910961 2 5
2.3542991 -0.94403642 -0.1329333 1 6
2.3887353 -0.9631722 0.044957343 52 8
2.411418 -0.97329712 0.13628288 42 9
2.449708 -0.98924893 0.23113692 49 10
2.2819545 -0.92289621 -0.30223614 2 4
2.3178852 -0.9378984 -0.218761 4 5
2.3509893 -0.95224875 -0.1329333 1 6
2.3853583 -0.97150463 0.04495734 50 8
2.4043069 -0.98020059 0.13607354 39 9
2.4499292 -0.99929881 0.23148552 52 10
2.2787192 -0.93085611 -0.30223587 2 4
2.3550453 -0.96347439 -0.13335198 1 6
2.3723855 -0.97153538 -0.044747833 61 7
2.3967474 -0.98591089 0.045236584 50 8
2.4390576 -1.004809 0.23078828 49 10
2.2883012 -0.94410431 -0.30394202 22 4
2.3094392 -0.95329714 -0.21858667 41 5
2.3590515 -0.97474003 -0.13377067 2 6
2.3654552 -0.97786945 -0.044678029 48 7
2.3749971 -0.98618501 0.044887539 54 8
2.4392145 -1.0148475 0.23113692 52 10
2.3116145 -0.96365261 -0.21910961 66 5
2.3668661 -0.9871704 -0.1343987 3 6
2.3694084 -0.98920202 -0.044817641 49 7
2.389981 -1.0022022 0.045236584 51 8
2.4253931 -1.0180473 0.13785295 1 9
2.4431834 -1.0260164 0.23183414 48 10
2.2745025 -0.95657986 -0.30296707 57 4
2.302897 -0.96899474 -0.21858667 55 5
2.3677835 -0.99824339 -0.044852547 54 7
2.3827856 -1.0089793 0.045166772 48 8
2.4255028 -1.0280664 0.13806231 1 9
2.4505928 -1.0392054 0.23288001 46 10
2.2857666 -0.97072124 -0.30491725 21 4
2.2995005 -0.97702742 -0.21858667 51 5
2.3470514 -0.99819845 -0.13366599 4 6
2.3698046 -1.0088524 -0.044957262 50 7
2.3866038 -1.0204353 0.045306396 48 8
2.4145548 -1.0333833 0.13764364 1 9
2.4414554 -1.0454005 0.23235707 34 10
2.2997379 -0.98661929 -0.2189353 51 5
2.3563988 -1.0119017 -0.1343987 1 6
2.3607566 -1.0147493 -0.044852547 46 7
2.3903706 -1.0319302 0.045446008 13 8
2.4402671 -1.0544813 0.13931838 1 9
2.285311 -0.98988956 -0.21788946 51 5
2.3528523 -1.020121 -0.1343987 1 6
2.3425252 -1.0166148 -0.044573307 20 7
2.4404185 -1.0641643 0.13952771 1 9
2.2854922 -0.99945718 -0.21823806 48 5
2.3419585 -1.0251241 -0.13398002 1 6
2.3942742 -1.053007 0.045655437 2 8
2.4330332 -1.0710671 0.13931838 1 9
2.2929256 -1.0122569 -0.21928394 49 5
2.3385463 -1.0328848 -0.13398002 1 6
2.3611565 -1.0438563 -0.045061976 1 7
2.4292796 -1.0795535 0.13931838 2 9
2.2968361 -1.0230978 -0.21998116 49 5
2.3203332 -1.0345349 -0.13314264 1 6
2.3757594 -1.0602413 -0.045411028 2 7
2.4036288 -1.0782173 0.13806231 2 9
2.3041537 -1.0360111 -0.22102703 48 5
2.3312783 -1.0491855 -0.13398002 1 6
2.3683972 -1.066885 -0.045341212 3 7
2.394048 -1.0829669 0.045864873 49 8
2.2950807 -1.0415777 -0.22050411 39 5
2.35306 -1.0688814 -0.13544542 1 6
2.3537364 -1.0701797 -0.045131784 25 7
2.3829765 -1.0879947 0.045725245 54 8
2.3311591 -1.0687647 -0.1343987 1 6
2.3608913 -1.0833936 -0.045341212 45 7
2.3791642 -1.0963062 0.045725245 52 8
2.41397 -1.1133662 0.13931838 40 9
2.3382902 -1.0819278 -0.13502674 1 6
2.3752408 -1.1000317 -0.045690261 47 7
2.382576 -1.1079772 0.045864869 52 8
2.4064474 -1.1201001 0.13910903 45 9
2.3236406 -1.0850129 -0.13439868 2 6
2.358705 -1.1023892 -0.045445926 47 7
2.3823144 -1.1179864 0.045934677 55 8
2.4009116 -1.1272252 0.13900433 44 9
2.3306804 -1.0982257 -0.13502675 2 6
2.3604629 -1.1127629 -0.045550641 48 7
2.3822086 -1.1275914 0.046004485 54 8
2.405987 -1.1398748 0.13952771 42 9
2.3378487 -1.1110924 -0.13565478 10 6
2.3547583 -1.1201366 -0.045515735 50 7
2.3710403 -1.1324525 0.045864869 49 8
2.4073997 -1.1508504 0.13984174 21 9
2.3580453 -1.1318108 -0.045655355 50 7
2.3706758 -1.1424584 0.045934677 49 8
2.3226471 -1.1243123 -0.13523607 45 6
2.35408 -1.1400349 -0.045655355 49 7
2.3772619 -1.1563879 0.046144102 23 8
2.3151193 -1.1306601 -0.13502674 20 6
2.3572733 -1.1517566 -0.045794975 48 7
2.3370957 -1.1520208 -0.045480832 39 7
2.419518 -1.1973772 0.047121435 1 8
2.386698 -1.1915243 0.046562962 2 8
2.3772564 -1.1925178 -0.04642326 2 7
2.3857796 -1.2067125 -0.046667594 3 7
2.3477087 -1.1977662 -0.046004403 22 7
2.3832011 -1.2205955 0.046737485 51 8
2.3488476 -1.2086989 -0.046109118 40 7
2.3860321 -1.232578 0.046877101 58 8
2.3765621 -1.2334719 -0.046737403 52 7
2.3744056 -1.2376179 0.046737485 52 8
2.3720586 -1.246415 0.046772387 48 8
2.3785148 -1.2598904 0.046981819 17 8
