# .PCD v0.7 - Point Cloud Data file format
VERSION 0.7
FIELDS x y z intensity ring
SIZE 4 4 4 4 2
TYPE F F F F U
COUNT 1 1 1 1 1
WIDTH 1299
HEIGHT 1
VIEWPOINT 0 0 0 1 0 0 0
POINTS 1299
DATA ascii
24.336531 2.8459785 1.2841156 20 9
5.1362109 0.60064214 -1.005182 2 2
24.28561 2.8357155 2.1391494 14 10
5.8352451 0.68032169 -0.93047208 2 3
24.148352 2.811157 2.9850676 100 11
6.5898128 0.76596409 -0.81457436 2 4
24.056648 2.7919595 3.8357742 25 12
23.932903 2.7733762 4.6832147 36 13
8.6602592 1.0020263 -0.45689279 7 6
19.863905 2.2948196 4.6164451 30 14
14.126972 1.6270518 3.8103344 14 15
4.1651702 0.47456178 -1.1232746 3 0
9.0323601 1.027512 0.15867709 1 8
4.6238613 0.52518833 -1.074366 4 1
24.361712 2.7670565 1.2849529 20 9
5.1460791 0.58359319 -1.0067084 2 2
24.263681 2.7473438 2.1363602 14 10
5.8297329 0.65906233 -0.92922062 2 3
24.158016 2.7268395 2.9850674 100 11
6.7029119 0.75540417 -0.82822371 2 4
24.063808 2.711941 3.8354604 100 12
7.8522639 0.88354987 -0.69131958 3 5
23.963898 2.6922226 4.6874123 21 13
8.8244743 0.98982137 -0.46537119 7 6
19.879543 2.2263398 4.6182456 65 14
12.164092 1.362275 -0.2136517 1 7
14.12653 1.579555 3.8087816 9 15
4.1783233 0.46129259 -1.1263807 3 0
9.6598291 1.0664585 0.16963717 7 8
4.6294508 0.51027995 -1.0752662 4 1
24.371222 2.6819949 1.2849529 20 9
5.1480851 0.56562763 -1.0067084 2 2
24.312733 2.6669812 2.1398492 14 10
5.8240323 0.63886619 -0.92796922 2 3
24.174822 2.6475718 2.9860425 100 11
6.6974864 0.73231381 -0.82724875 2 4
24.073128 2.6279428 3.8354609 56 12
7.8434167 0.85483766 -0.6902737 3 5
23.953178 2.6106069 4.6835961 14 13
9.4928637 1.0329356 -0.50043625 2 6
19.902315 2.1620824 4.6218443 65 14
12.156845 1.3185091 -0.21344227 1 7
11.898272 1.2883637 3.2067685 1 15
4.1721458 0.44661054 -1.1243099 3 0
9.6615047 1.0325178 0.16960227 22 8
4.6157017 0.49246186 -1.071667 4 1
24.376465 2.5964892 1.2847435 20 9
5.1538367 0.5489673 -1.0074716 2 2
24.297667 2.5838075 2.1377573 14 10
5.834084 0.61936527 -0.92922062 2 3
24.170095 2.5617099 2.9843359 98 11
6.7118459 0.71018231 -0.82871121 2 4
24.10573 2.5463798 3.8392155 32 12
7.8503151 0.82787329 -0.69062233 3 5
23.962143 2.526984 4.6835985 14 13
9.5123024 1.0014637 -0.50127369 2 6
19.911676 2.0928056 4.6222939 70 14
10.701612 1.1228986 -0.18782224 6 7
4.1699114 0.43091765 -1.1232746 3 0
9.6968765 1.0020729 0.17016076 13 8
4.6096396 0.47554818 -1.0698675 4 1
24.381403 2.5109794 1.2845342 20 9
5.1597204 0.53047407 -1.0082349 2 2
24.330759 2.4971814 2.1398492 14 10
5.8205948 0.59636873 -0.92671776 2 3
24.178888 2.4773302 2.9843359 70 11
6.7221837 0.68755537 -0.82968611 2 4
24.124296 2.463228 3.8407795 32 12
7.8729787 0.80248386 -0.69236541 3 5
23.998592 2.4419177 4.6889391 7 13
9.4920635 0.96417242 -0.50001764 2 6
12.10607 1.2275543 -0.21239513 1 7
4.1829247 0.41751149 -1.1263806 3 0
4.6152301 0.45903441 -1.0707668 4 1
24.397972 2.4266415 1.2849529 20 9
5.142004 0.51052153 -1.0044187 2 2
24.359154 2.4141943 2.1415923 14 10
5.838367 0.57760167 -0.92922062 2 3
24.191761 2.3890777 2.9848239 42 11
6.6890993 0.65940887 -0.82529885 2 4
24.128815 2.3786094 3.8401539 16 12
7.8638344 0.77382809 -0.69131953 3 5
24.022598 2.3596723 4.6919918 7 13
9.5351267 0.93492866 -0.50211108 2 6
19.93972 1.951596 4.6254439 20 14
12.138143 1.1880182 -0.2128838 1 7
17.544615 1.714084 4.7234488 31 15
4.1612811 0.40068674 -1.1201688 3 0
16.445421 1.5835178 0.28838316 3 8
4.6283655 0.44484678 -1.0734667 4 1
24.44208 2.3448999 1.2868369 20 9
5.1476641 0.49294242 -1.005182 2 2
24.327766 2.3253641 2.1381032 14 10
5.8323836 0.55748707 -0.9279691 2 3
24.219309 2.3107316 2.9872611 42 11
6.6991544 0.63797432 -0.82627386 2 4
24.133039 2.2939894 3.8395283 16 12
7.8506198 0.74486959 -0.68992507 3 5
24.014656 2.2785192 4.6889391 7 13
9.5262451 0.90217131 -0.50148302 2 6
16.985502 1.6056002 3.9388928 3 14
10.864088 1.0250494 -0.19047497 1 7
17.556257 1.6533701 4.7250009 24 15
4.1741276 0.38795674 -1.1232746 3 0
16.411026 1.5224121 0.28768507 3 8
4.6260095 0.4283275 -1.0725664 4 1
24.441767 2.2630913 1.2864182 10 9
5.14536 0.47550911 -1.0044187 2 2
24.30757 2.2421205 2.135663 14 10
5.8342948 0.53712338 -0.92796916 2 3
24.229202 2.2263515 2.9875045 28 11
6.7092466 0.61531579 -0.82724875 2 4
24.160187 2.2157695 3.8426573 16 12
7.8490787 0.71846646 -0.68957645 3 5
24.038103 2.196101 4.6919918 7 13
9.5173998 0.86783129 -0.50085491 2 6
12.102137 1.1013814 -0.2121159 1 7
4.175456 0.37338483 -1.1232746 3 0
16.37615 1.4644163 0.28698701 3 8
4.611876 0.41159981 -1.0689671 4 1
24.433601 2.1763353 1.2855809 10 9
5.1352544 0.45650354 -1.0021288 2 2
24.323185 2.1579554 2.136363 14 10
5.8281736 0.51707613 -0.9267177 2 3
24.230524 2.1454606 2.9867735 28 11
6.6993856 0.59201336 -0.82578629 2 4
24.144159 2.1293318 3.8389025 8 12
7.8634472 0.6921097 -0.69062233 3 5
24.010054 2.1132708 4.685123 7 13
9.5480814 0.83870989 -0.50232041 2 6
19.956514 1.7494841 4.6249938 30 14
12.113875 1.0598246 -0.21225551 1 7
17.569031 1.5340064 4.7255187 10 15
4.1882205 0.36053151 -1.1263806 3 0
16.401083 1.4089509 0.28733602 3 8
4.6055179 0.39483175 -1.067168 4 1
24.45299 2.0920711 1.2862089 10 9
5.1445656 0.44014239 -1.0036556 2 2
24.34609 2.0786338 2.1377547 14 10
5.8417521 0.49773338 -0.92859483 2 3
24.245775 2.0615566 2.9877484 21 11
6.6658082 0.56560171 -0.82139903 2 4
24.18294 2.0477004 3.8439083 8 12
7.8656993 0.66603136 -0.69062233 3 5
24.068146 2.0337613 4.695045 7 13
9.5191078 0.80268806 -0.50064564 2 6
19.948904 1.6786628 4.6218438 65 14
12.129457 1.018545 -0.21246494 1 7
17.605082 1.4752462 4.7338009 3 15
4.1779017 0.3449547 -1.1232747 3 0
16.385973 1.3500613 0.28698701 3 8
4.622406 0.3800315 -1.0707668 4 1
24.460142 2.0066955 1.2862089 10 9
5.1499834 0.4225015 -1.0044187 2 2
24.369083 1.9949549 2.1391492 14 10
5.8513303 0.4779835 -0.92984647 2 3
24.26865 1.978194 2.9896979 21 11
6.6123424 0.5378226 -0.8145743 6 4
24.193876 1.9635985 3.8445342 8 12
7.8679762 0.63857257 -0.69062233 3 5
24.051613 1.9478273 4.6904678 7 13
9.4899988 0.76687878 -0.49897087 2 6
19.966297 1.6099619 4.6245437 65 14
12.065168 0.97074324 -0.21127819 1 7
4.1752291 0.33006543 -1.1222395 3 0
16.358692 1.2903352 0.28642854 3 8
4.6120481 0.36297542 -1.0680674 4 1
24.47098 1.9216192 1.2864182 10 9
5.1553416 0.40483066 -1.005182 2 2
24.348089 1.9076936 2.1367087 14 10
5.8470554 0.4570922 -0.92890787 2 3
24.263536 1.8925478 2.988236 14 11
6.6438661 0.51705283 -0.81823045 12 4
24.220282 1.880657 3.8476632 8 12
7.8542662 0.60986823 -0.68922782 3 5
24.073927 1.8650776 4.6935182 7 13
9.5085497 0.73498577 -0.49980828 2 6
19.975683 1.5405512 4.6254439 80 14
12.092409 0.93045974 -0.21169704 1 7
12.414254 0.95305091 3.3361781 1 15
4.1647968 0.31461492 -1.1191336 3 0
16.347143 1.2320181 0.28614926 3 8
4.6327195 0.34833845 -1.0725664 4 1
24.465593 1.8352848 1.2857903 10 9
5.1410613 0.38565636 -1.002129 2 2
24.394337 1.8256583 2.1401949 14 10
5.8486142 0.43668345 -0.92890775 2 3
24.305628 1.8104885 2.9926233 14 11
6.6792841 0.49635732 -0.82237399 10 4
24.234571 1.7966901 3.8489139 8 12
7.8801904 0.58421743 -0.69131958 3 5
24.092039 1.7818952 4.6958079 7 13
9.503088 0.70119989 -0.49938953 2 6
19.984823 1.471104 4.6263433 75 14
12.119514 0.89000362 -0.21211588 1 7
17.617638 1.2906703 4.733283 14 15
4.1620159 0.29979637 -1.1180981 3 0
16.32741 1.173232 0.28573042 3 8
4.6222439 0.33132792 -1.0698674 4 1
24.495447 1.7558624 1.2870463 10 9
5.1541257 0.36854717 -1.0044187 2 2
24.384665 1.7393664 2.1388009 14 10
5.8382802 0.41542241 -0.92703056 2 3
24.291998 1.7242229 2.990186 14 11
6.6928568 0.47388193 -0.82383722 6 4
24.232519 1.7157626 3.8476632 8 12
7.8464084 0.55418187 -0.688182 3 5
24.098112 1.697781 4.6958079 7 13
9.525403 0.66942585 -0.50043631 2 6
19.991781 1.4014754 4.6267934 75 14
12.102452 0.84841299 -0.21176687 1 7
17.616039 1.2318317 4.73173 28 15
4.1784558 0.28632584 -1.1222394 3 0
16.35914 1.1209991 0.28621909 3 8
4.6233177 0.31599686 -1.0698675 4 1
24.477516 1.6687099 1.2857902 10 9
5.1671329 0.35135385 -1.0067084 2 2
24.386614 1.6539613 2.1384521 14 10
5.8435678 0.3963255 -0.92765629 2 3
24.305506 1.644199 2.9911611 14 11
6.6943917 0.45168319 -0.82383722 4 4
24.277779 1.6338109 3.8539205 8 12
7.872149 0.52838844 -0.6902737 3 5
24.103607 1.6178641 4.6958108 7 13
9.5076408 0.63649803 -0.49938953 2 6
19.992432 1.3349071 4.6258936 75 14
12.089377 0.80509615 -0.21148762 1 7
17.624086 1.1705924 4.7327652 28 15
4.1832376 0.27271822 -1.1232746 5 0
16.335014 1.0620673 0.28573039 3 8
4.6205029 0.29960534 -1.0689671 4 1
24.527042 1.586098 1.2880931 10 9
5.152597 0.3332046 -1.0036556 2 2
24.39196 1.573088 2.1384521 14 10
5.8291454 0.37491208 -0.92515337 2 3
24.322979 1.5601145 2.9926231 7 11
6.7117753 0.42932776 -0.82578629 4 4
24.25968 1.5475403 3.8501663 8 12
7.8738589 0.50227851 -0.6902737 3 5
24.116943 1.5342207 4.6973372 7 13
9.5058193 0.6030553 -0.49918026 2 6
20.008638 1.2658454 4.628593 75 14
12.128037 0.76516038 -0.2121159 1 7
17.635778 1.1095549 4.7348361 28 15
4.1687388 0.25716165 -1.1191335 3 0
16.326649 1.0043079 0.285521 3 8
4.6409717 0.28466678 -1.0734667 4 1
17.329788 1.0599346 0.90991324 33 9
5.1537285 0.31521532 -1.0036556 2 2
24.417189 1.4891527 2.1401949 14 10
5.834362 0.35480055 -0.9257791 2 3
24.352055 1.4766372 2.995548 7 11
6.7092705 0.40565851 -0.82529885 4 4
24.249161 1.4619027 3.8476632 8 12
7.8477211 0.47311351 -0.68783331 3 5
23.295155 1.4003088 4.5362916 6 13
9.5038786 0.56963325 -0.49897087 2 6
20.016825 1.1962312 4.6294923 75 14
12.106681 0.72139049 -0.21169706 1 7
17.631828 1.0475248 4.7327652 28 15
4.1734686 0.24283379 -1.1201688 5 0
16.338039 0.94777 0.28566062 3 8
4.6263733 0.26756588 -1.0698675 4 1
17.425106 1.0047281 0.91472816 11 9
5.1547971 0.29722458 -1.0036556 2 2
24.442129 1.4050487 2.1419382 14 10
5.8473978 0.33511207 -0.92765641 2 3
24.36499 1.3920819 2.9965231 7 11
6.730464 0.38336334 -0.82773626 4 4
24.277781 1.3785975 3.8514173 8 12
7.8533034 0.44594461 -0.688182 3 5
23.201895 1.3134419 4.517211 6 13
9.5137854 0.53690261 -0.49938953 2 6
20.022823 1.1264659 4.6299424 65 14
12.109125 0.67912847 -0.21169706 1 7
17.641163 0.98629892 4.7343178 28 15
4.1781478 0.22847399 -1.1212039 3 0
16.317289 0.88942343 0.28524175 3 8
4.6194949 0.25099325 -1.0680678 4 1
24.582188 1.3313214 1.2901864 10 9
5.1479607 0.27880311 -1.0021288 2 2
17.300631 0.93393862 1.5158118 5 10
5.8327518 0.31385088 -0.92515337 2 3
24.37763 1.3074424 2.997498 7 11
6.70401 0.35838199 -0.82432383 2 4
24.266661 1.2930081 3.8489141 8 12
7.8747067 0.41959047 -0.68992507 3 5
23.155363 1.2297307 4.5072913 6 13
9.5076237 0.5032652 -0.49897087 2 6
12.087459 0.63559222 -0.21127819 1 7
17.646427 0.92481029 4.7348356 28 15
4.1827788 0.21408857 -1.1222394 5 0
16.320295 0.83246356 0.28524178 3 8
4.6242361 0.23506328 -1.0689671 4 1
24.538813 1.2430855 1.2876742 10 9
5.1567464 0.26123011 -1.0036554 2 2
17.309753 0.87384748 1.5163347 26 10
5.8338118 0.29348731 -0.92515337 2 3
24.397903 1.2231408 2.9994478 7 11
6.7210813 0.33577222 -0.8262738 2 4
24.302595 1.2098587 3.8539205 8 12
7.8602047 0.39130542 -0.68853062 3 5
23.237951 1.152792 4.5225534 6 13
9.5013437 0.46968192 -0.49855217 2 6
12.085608 0.59319597 -0.21120839 1 7
17.664986 0.86396581 4.7389765 28 15
4.1757827 0.19911747 -1.1201688 3 0
16.295135 0.77415699 0.28475308 3 8
4.6289215 0.21910551 -1.0698675 4 1
24.554976 1.1579913 1.2883024 10 9
5.1497822 0.24285923 -1.002129 2 2
17.885876 0.84034532 1.5665363 11 10
5.8426933 0.27349243 -0.92640477 2 3
24.390125 1.1374191 2.9979851 7 11
6.7063484 0.31157047 -0.82432383 2 4
24.334297 1.1262916 3.8583004 8 12
7.8456006 0.36312678 -0.68713611 3 5
23.241833 1.0716742 4.5225534 6 13
9.5029249 0.43651062 -0.49855217 2 6
20.058828 0.91788113 4.6357913 61 14
12.103587 0.55174255 -0.21148762 1 7
17.675617 0.80264413 4.7410483 28 15
4.1803117 0.18470947 -1.121204 3 0
16.285753 0.71675545 0.28454366 3 8
4.6335526 0.20311573 -1.0707669 4 1
24.598587 1.0783 1.2903957 10 9
5.1466761 0.22470902 -1.0013658 2 2
24.50316 1.0655595 2.1457732 14 10
5.855453 0.25360724 -0.92828196 2 3
17.280041 0.74539953 2.1236949 11 11
6.6835461 0.28830442 -0.82139903 2 4
24.30632 1.0442499 3.8532946 8 12
7.8587642 0.33625102 -0.688182 3 5
24.198709 1.0311532 4.7080197 7 13
9.5203552 0.40402058 -0.49938959 2 6
20.061764 0.85137224 4.6357913 76 14
12.089366 0.51092368 -0.21120839 1 7
17.658878 0.74321634 4.7358713 28 15
4.1538782 0.16974066 -1.1139572 3 0
16.276051 0.6622535 0.28433421 3 8
4.6419888 0.18806566 -1.0725664 4 1
24.602028 0.99672717 1.2903957 10 9
5.1591635 0.20811413 -1.0036556 2 2
24.518503 0.98477131 2.1468189 14 10
5.8365245 0.23340036 -0.92515337 2 3
17.292336 0.68848282 2.1249137 20 11
6.7360368 0.2681908 -0.82773626 2 4
24.309649 0.96363485 3.8532946 8 12
7.8677993 0.31050444 -0.68887925 3 5
24.201996 0.95089513 4.7080197 7 13
9.5216417 0.37244508 -0.49938953 2 6
20.081999 0.7855202 4.6398401 66 14
12.106979 0.47145602 -0.21148762 1 7
17.667038 0.68487304 4.7374244 24 15
4.1814446 0.15698043 -1.121204 3 0
16.250181 0.60723442 0.28384557 3 8
4.6386919 0.17252509 -1.0716671 4 1
24.613342 0.91113305 1.2908145 10 9
5.155901 0.19086039 -1.0028923 2 2
24.497738 0.90258425 2.1447272 14 10
5.8451624 0.21433236 -0.92640477 2 3
17.812284 0.65003413 2.1885293 6 11
6.7091589 0.24367198 -0.82432383 2 4
24.344452 0.87990749 3.8583004 8 12
7.8687863 0.28440994 -0.68887931 3 5
24.189318 0.87007356 4.7049694 7 13
9.510849 0.34044132 -0.49876153 2 6
12.080573 0.42819694 -0.21099895 1 7
17.690557 0.62396055 4.7431183 28 15
4.1819673 0.14238438 -1.121204 5 0
16.288179 0.55172122 0.28447387 3 8
4.6236849 0.1558079 -1.0680674 4 1
24.608387 0.82494843 1.2903957 10 9
5.1604605 0.17299442 -1.0036556 2 2
24.516674 0.81759053 2.1461217 14 10
5.8340292 0.19353312 -0.92452765 2 3
24.435097 0.80633157 3.0018852 7 11
6.6940961 0.2197284 -0.82237399 2 4
17.241777 0.56292707 2.7322848 9 12
7.8498173 0.2562888 -0.68713611 3 5
24.231453 0.78691125 4.7126017 7 13
9.5119791 0.30723771 -0.49876153 2 6
17.632849 0.56645346 4.0729637 3 14
12.081995 0.38602787 -0.21099897 1 7
17.70035 0.56244594 4.7451887 28 15
4.1824389 0.12778461 -1.121204 3 0
16.286005 0.49474353 0.28440404 3 8
4.6280961 0.13978592 -1.0689671 4 1
24.631079 0.73963702 1.2914425 10 9
5.1492581 0.15462504 -1.0013658 2 2
24.575136 0.73367608 2.1510024 14 10
5.8346682 0.1731714 -0.92452753 2 3
24.433792 0.7209087 3.0013976 7 11
6.6789474 0.19589607 -0.8204248 2 4
17.308796 0.50465018 2.7426095 12 12
7.8546467 0.22900778 -0.68748474 3 5
23.39806 0.67808884 4.5500331 6 13
9.5129938 0.27403027 -0.49876153 2 6
17.595758 0.50379658 4.0639653 3 14
12.087266 0.34396204 -0.21106875 1 7
17.675167 0.49988738 4.7379413 14 15
4.1751351 0.11297627 -1.1191336 5 0
16.287632 0.43788743 0.28440404 3 8
4.640244 0.12394095 -1.0716671 4 1
24.633511 0.65365916 1.2914424 10 9
5.1419168 0.13644263 -0.99983937 2 2
24.509834 0.64609677 2.145076 14 10
5.8668332 0.15362933 -0.92953354 2 3
24.412346 0.63500011 2.9984727 7 11
6.6914983 0.17288688 -0.82188648 2 4
17.770563 0.45603102 2.8155079 12 12
7.8673482 0.20189314 -0.68853056 3 5
23.366917 0.59556484 4.5435424 33 13
9.5059052 0.24062191 -0.49834284 2 6
12.084395 0.30167022 -0.21099897 1 7
17.703844 0.43886042 4.7451887 24 15
4.1600542 0.098038405 -1.1149926 5 0
16.309055 0.38149363 0.28475311 3 8
4.6328559 0.10756278 -1.0698675 4 1
24.675575 0.56859356 1.2935359 10 9
5.1580625 0.11885604 -1.0028921 2 2
24.595598 0.56244415 2.1523972 14 10
5.8357358 0.1324335 -0.92452765 2 3
24.454109 0.55068028 3.0033479 7 11
6.7158756 0.15005846 -0.82481134 2 4
17.240803 0.38222361 2.7313464 6 12
7.8600378 0.17425478 -0.68783337 3 5
23.36689 0.51395702 4.5431633 39 13
9.5066862 0.20743608 -0.49834278 2 6
14.415352 0.31203312 3.3288257 2 14
12.069381 0.25913939 -0.21071972 1 7
17.707201 0.37709618 4.7457066 28 15
4.1680961 0.083670475 -1.117063 3 0
16.318283 0.32472461 0.28489271 3 8
4.6176162 0.091081776 -1.0662678 4 1
24.681408 0.48252779 1.2937453 10 9
5.1466694 0.1006187 -1.0006025 2 2
24.649202 0.4775947 2.156929 14 10
5.8322129 0.11198478 -0.92390192 2 3
24.475729 0.4656873 3.0057852 7 11
6.7242975 0.12676583 -0.82578629 2 4
17.554089 0.3278634 2.7807796 9 12
7.868566 0.14696375 -0.68853056 3 5
23.378357 0.43256366 4.5450687 39 13
9.5193357 0.17447188 -0.49897087 2 6
12.102201 0.21758544 -0.21127819 1 7
17.708408 0.31528798 4.7457066 24 15
4.1799526 0.069313653 -1.1201688 3 0
16.311321 0.26763347 0.28475311 3 8
4.6295972 0.07515347 -1.0689672 4 1
24.682938 0.39637589 1.2937453 10 9
5.1587667 0.082843073 -1.0028921 2 2
24.622829 0.39111218 2.1544886 14 10
5.8325682 0.091624305 -0.92390186 2 3
24.481174 0.38031498 3.0062726 7 11
6.688972 0.10274234 -0.82139903 2 4
24.408892 0.37065864 3.8664348 8 12
7.8610625 0.11937334 -0.68783331 1 5
23.393465 0.35116655 4.54774 39 13
9.4959221 0.14088407 -0.49771482 2 6
12.09889 0.17528421 -0.21120842 1 7
17.713266 0.25352278 4.7467418 28 15
4.1763058 0.054670792 -1.1191336 3 0
16.32015 0.21080138 0.28489265 3 8
4.622036 0.058892153 -1.067168 4 1
24.716125 0.31060886 1.2954199 10 9
5.1511722 0.064735055 -1.0013657 2 2
24.63998 0.30536279 2.1558831 14 10
5.8368025 0.071313791 -0.92452765 2 3
17.251186 0.20776305 2.1183326 11 11
6.7012 0.0795388 -0.82286149 2 4
24.370531 0.28499663 3.8601775 8 12
7.8853383 0.092213616 -0.68992507 1 5
23.408289 0.269658 4.5504141 46 13
9.496356 0.10773826 -0.49771482 2 6
14.254145 0.15922846 3.2910337 2 14
12.075433 0.13278304 -0.21078953 1 7
17.750746 0.19209129 4.756577 29 15
4.1726069 0.040056214 -1.1180981 3 0
16.332788 0.15394089 0.28510213 3 8
4.6183167 0.042720601 -1.0662678 4 1
24.661139 0.22382922 1.2924893 10 9
5.1395884 0.046647888 -0.99907607 2 2
24.541281 0.21845807 2.1471674 14 10
5.8488679 0.051040985 -0.92640477 2 3
24.457428 0.20917423 3.003104 28 11
6.7054062 0.056178238 -0.82334894 2 4
24.36348 0.19985452 3.8589263 33 12
7.8696852 0.063185558 -0.68853062 1 5
23.446388 0.18825063 4.5576649 13 13
9.5006695 0.074622519 -0.49792418 2 6
14.223434 0.10922799 3.2838352 2 14
12.075821 0.090633668 -0.21078952 1 7
17.714603 0.12986313 4.7467418 10 15
4.1804538 0.024807367 -1.1201688 3 0
16.321228 0.096852332 0.28489271 3 8
4.6379251 0.026714826 -1.0707668 4 1
24.681742 0.13784942 1.2935359 31 9
5.1240187 0.027723758 -0.99602318 2 2
17.273783 0.090454131 1.5112797 5 10
5.8253117 0.029484786 -0.92265046 2 3
24.515575 0.12408546 3.0101724 43 11
6.7095327 0.032789268 -0.82383645 2 4
24.42329 0.11510497 3.8683126 49 12
7.8618879 0.035676587 -0.68783331 1 5
24.167431 0.10545193 4.6977162 21 13
9.5048723 0.039819151 -0.49813345 2 6
14.223741 0.05709891 3.2838354 2 14
12.088063 0.048525579 -0.21099897 1 7
17.718809 0.068036936 4.7477765 21 15
4.1689234 0.010187266 -1.117063 3 0
16.281479 0.036944259 0.28419462 3 8
4.6262989 0.0096879182 -1.0680678 4 1
24.638142 0.047306482 1.2912332 31 9
5.1437173 0.0098761981 -0.99983937 2 2
17.303877 0.030204397 1.5138943 21 10
5.8451328 0.0091799451 -0.9257791 2 3
24.31736 0.033958752 2.9857986 28 11
6.6897559 0.0081746113 -0.82139903 2 4
24.376137 0.025520837 3.8608036 16 12
7.8500118 0.0068523861 -0.68678743 1 5
23.678804 0.020669563 4.6026936 27 13
9.5009613 0.0066353916 -0.49792424 2 6
14.294008 0.0074813757 3.3000321 2 14
12.072161 0.0042173713 -0.2107197 1 7
17.742123 0.0031017559 4.7539883 21 15
4.1766596 -0.0051027555 -1.1191335 3 0
16.281506 -0.019891623 0.28419459 3 8
4.6341 -0.0064704274 -1.0698675 4 1
24.642153 -0.03870783 1.2914425 10 9
5.147644 -0.0089843422 -1.0006025 2 2
24.382816 -0.046811704 2.1332226 14 10
5.8293233 -0.012208923 -0.92327601 2 3
24.404675 -0.051113095 2.9965234 14 11
6.6818032 -0.015160556 -0.82042402 2 4
24.407682 -0.059639338 3.8658092 33 12
7.8659282 -0.020592995 -0.68818206 1 5
23.166311 -0.064692706 4.5030909 13 13
9.4969254 -0.028178029 -0.49771482 2 6
12.100098 -0.038013704 -0.21120839 1 7
17.782597 -0.058969535 4.7648592 7 15
4.1843476 -0.018988097 -1.121204 5 0
16.28134 -0.076724581 0.28419462 3 8
4.6340485 -0.02264641 -1.0698674 4 1
5.143661 -0.026034629 -0.99983937 2 2
23.123358 -0.12107471 2.0230579 12 10
5.8450541 -0.031625099 -0.9257791 2 3
22.756741 -0.12709895 2.7942195 23 11
6.6936269 -0.037384655 -0.82188648 2 4
22.625591 -0.13031548 3.5836017 26 12
7.8498769 -0.04658265 -0.68678743 1 5
22.525959 -0.13760497 4.378686 23 13
9.4847975 -0.059595514 -0.49708682 2 6
12.067911 -0.077932261 -0.21064989 1 7
11.87483 -0.078758024 3.1819217 1 15
4.1726704 -0.032772746 -1.1180981 5 0
16.320988 -0.13103609 0.28489271 3 8
4.6222563 -0.037917431 -1.0671675 4 1
17.311661 -0.14201155 0.90729648 11 9
5.1474714 -0.04312437 -1.0006025 2 2
22.568962 -0.19301704 1.9745992 22 10
5.8449173 -0.051007822 -0.9257791 2 3
22.430655 -0.19966456 2.7542467 28 11
6.6894956 -0.059545979 -0.82139981 2 4
22.299112 -0.20238584 3.5319784 31 12
7.8536634 -0.072650373 -0.68713611 1 5
22.187714 -0.20912044 4.313045 39 13
9.5045176 -0.091239631 -0.49813345 2 6
14.433654 -0.1385574 3.3324249 2 14
12.071587 -0.11798956 -0.21071972 1 7
11.804962 -0.11744408 3.1632867 1 15
4.1725388 -0.046609648 -1.1180981 3 0
16.28047 -0.18470402 0.28419459 3 8
4.6337967 -0.053379864 -1.0698675 4 1
22.547514 -0.26367599 1.1817462 56 9
5.1394486 -0.060101938 -0.99907607 2 2
22.4387 -0.26632041 1.9632716 44 10
5.8368149 -0.070294827 -0.92452765 2 3
22.362381 -0.27322161 2.7459595 39 11
6.6654282 -0.082601123 -0.81847417 2 4
22.294319 -0.28017342 3.5313528 50 12
7.8573637 -0.098743737 -0.68748468 1 5
22.184937 -0.28267142 4.3126659 56 13
9.5001707 -0.12270566 -0.49792424 2 6
15.473621 -0.2025608 3.5726728 2 14
12.0711 -0.16012652 -0.21071972 1 7
11.79289 -0.15849459 3.160181 1 15
4.1839409 -0.061344173 -1.121204 3 0
4.6257882 -0.069437526 -1.0680674 4 1
22.562431 -0.34262252 1.1825837 65 9
5.1509852 -0.078220442 -1.0013657 2 2
22.453569 -0.34488922 1.964666 44 10
5.8483849 -0.090852782 -0.92640477 2 3
22.367245 -0.35137272 2.746691 50 11
6.6889176 -0.10624564 -0.82139903 2 4
22.30703 -0.35821539 3.5335424 56 12
7.8410344 -0.12591453 -0.68609023 1 5
22.189701 -0.36020514 4.3138108 56 13
9.4637365 -0.15527691 -0.49604002 2 6
15.198085 -0.2520169 3.5092366 11 14
12.058472 -0.20206052 -0.21051028 1 7
11.788403 -0.19959313 3.1591458 1 15
4.1721115 -0.075738095 -1.1180981 5 0
16.278788 -0.29835773 0.28419462 3 8
4.6294141 -0.085656196 -1.0689671 4 1
22.551113 -0.42119148 1.1820604 56 9
5.1428299 -0.096053615 -0.99983937 2 2
22.468168 -0.42356515 1.966058 44 10
5.8401322 -0.11111662 -0.92515337 2 3
22.379772 -0.42971361 2.7483969 50 11
6.6845365 -0.12951677 -0.82091153 2 4
22.307617 -0.43611792 3.5338552 50 12
7.848515 -0.15343986 -0.68678743 1 5
22.207937 -0.43804666 4.317627 56 13
9.4751186 -0.18854895 -0.4966681 2 6
15.183475 -0.30479282 3.5060875 8 14
12.033702 -0.24366541 -0.21009143 1 7
11.776045 -0.24050441 3.1560402 1 15
4.1795483 -0.090468258 -1.1201688 3 0
16.277645 -0.35517946 0.28419462 3 8
4.629087 -0.10181535 -1.0689671 4 1
22.557493 -0.50008416 1.182479 64 9
5.1424632 -0.11400487 -0.99983937 2 2
22.486471 -0.5024361 1.9678011 55 10
5.8436584 -0.13159072 -0.9257791 2 3
22.394016 -0.50819135 2.7503471 50 11
6.6999207 -0.15321244 -0.82286149 2 4
22.307936 -0.51402885 3.5341682 50 12
7.8638673 -0.18120253 -0.688182 1 5
22.220013 -0.51588315 4.3202982 56 13
9.4903755 -0.22199576 -0.49750543 2 6
16.34539 -0.38520053 3.7746782 25 14
12.060766 -0.28633389 -0.21058011 1 7
11.78672 -0.28188613 3.1591456 1 15
4.1714811 -0.10486284 -1.1180981 5 0
16.276304 -0.4119969 0.28419459 3 8
4.6131186 -0.11757604 -1.0653679 4 1
22.571581 -0.5792312 1.1833163 65 9
5.1302576 -0.13165252 -0.99754953 2 2
22.484583 -0.58092558 1.9678013 22 10
5.8431635 -0.1519881 -0.9257791 2 3
22.396074 -0.58646178 2.7508345 45 11
6.7152195 -0.17701703 -0.82481134 2 4
22.317852 -0.5922094 3.5360453 56 12
7.8472524 -0.20822865 -0.68678743 1 5
22.225925 -0.59365189 4.3218246 63 13
9.489543 -0.25512207 -0.49750543 2 6
16.343946 -0.44225419 3.7746787 25 14
12.051695 -0.32821426 -0.21044047 1 7
11.797251 -0.32334533 3.1622512 1 15
4.1710896 -0.1194234 -1.1180981 3 0
16.274767 -0.46880931 0.28419459 3 8
4.620472 -0.13390394 -1.0671675 4 1
17.460606 -0.50906837 0.91546077 15 9
5.1376162 -0.1497885 -0.99907601 2 2
17.400024 -0.51034158 1.5229585 22 10
5.8307509 -0.17203408 -0.92390192 2 3
17.348022 -0.51487726 2.131007 43 11
6.706624 -0.20021953 -0.82383722 2 4
22.329468 -0.6705246 3.5382354 50 12
7.8464766 -0.23561937 -0.68678737 1 5
22.22176 -0.6711722 4.3214412 61 13
9.5005732 -0.28860906 -0.49813351 2 6
16.338406 -0.49918354 3.7737784 28 14
12.038484 -0.36991203 -0.21023104 1 7
11.811499 -0.36500084 3.1663928 1 15
4.1706476 -0.13398245 -1.1180981 3 0
16.241055 -0.52458304 0.28363615 3 8
4.6238718 -0.15015808 -1.0680674 4 1
17.448744 -0.5696885 0.9149375 23 9
5.1449108 -0.1679775 -1.0006025 2 2
17.374241 -0.57029164 1.5208668 21 10
5.8301144 -0.19238615 -0.92390186 2 3
17.258823 -0.57253426 2.1202826 13 11
6.721756 -0.22415809 -0.82578629 2 4
22.354635 -0.74939156 3.5426159 12 12
7.8535724 -0.26327428 -0.68748468 1 5
9.4555941 -0.320283 -0.49583074 2 6
16.352146 -0.55674261 3.7773778 31 14
12.045114 -0.41220549 -0.21037066 1 7
17.868723 -0.61462224 4.7907414 3 15
4.1778779 -0.14881504 -1.1201688 3 0
16.231131 -0.58098567 0.2834965 3 8
4.6233196 -0.1662975 -1.0680674 4 1
17.03149 -0.61558694 0.89316571 7 9
5.1325221 -0.18551007 -0.99831283 2 2
16.932117 -0.61495429 1.482344 5 10
5.8373036 -0.21302406 -0.92515337 2 3
16.740942 -0.61386245 2.0569105 5 11
6.7010951 -0.24688916 -0.82334894 2 4
16.672613 -0.6171847 2.6424913 5 12
7.8645525 -0.29112899 -0.68853062 1 5
16.442665 -0.61154622 3.1983411 7 13
9.4663925 -0.3537347 -0.49645874 2 6
16.313105 -0.61242974 3.7688298 28 14
12.067581 -0.45515272 -0.21078952 1 7
17.652187 -0.66887242 4.7332835 14 15
4.1734715 -0.16324663 -1.1191335 5 0
16.189041 -0.63606918 0.28279844 3 8
4.6110272 -0.18197379 -1.0653679 4 1
16.687973 -0.66150653 0.87526679 3 9
5.1357665 -0.20358033 -0.99907607 2 2
16.559574 -0.65931159 1.449922 4 10
5.8444195 -0.23371446 -0.92640477 2 3
16.395552 -0.65851337 2.0147436 2 11
2.6538949 -0.10705537 -0.32612252 1 4
16.48877 -0.66802245 2.6137075 66 12
7.8514872 -0.31946599 -0.68748468 1 5
9.4770756 -0.3872658 -0.49708682 2 6
16.353701 -0.67112726 3.7787273 21 14
12.029955 -0.49579147 -0.21016124 1 7
17.169123 -0.71059406 4.6043916 10 15
4.1651249 -0.17821172 -1.117063 3 0
16.210697 -0.69360131 0.28321728 3 8
4.6181521 -0.19840273 -1.0671675 4 1
16.2785 -0.70219523 0.85391372 3 9
5.1389089 -0.22257239 -0.99983937 2 2
16.143021 -0.70199668 1.4136652 4 10
5.8395767 -0.25496143 -0.9257791 2 3
15.96875 -0.69721067 1.9625837 4 11
2.6178081 -0.11475375 -0.32173494 4 4
16.474499 -0.72505391 2.6118305 38 12
7.8503242 -0.3468709 -0.68748468 1 5
16.402565 -0.72762477 3.1914701 34 13
9.4636202 -0.42146519 -0.49645877 2 6
16.423164 -0.73428267 3.7953739 22 14
12.028151 -0.53778082 -0.21016124 1 7
16.977406 -0.76203203 4.5536628 10 15
4.1683364 -0.19292825 -1.1180981 5 0
4.6212873 -0.21550934 -1.0680674 4 1
15.920824 -0.7424525 0.83528215 26 9
5.1459451 -0.24087633 -1.0013658 2 2
15.833984 -0.74394208 1.3868213 17 10
5.8425975 -0.27552989 -0.92640477 2 3
15.811422 -0.74841362 1.943572 47 11
2.6114426 -0.12360932 -0.321004 22 4
15.747721 -0.74815303 2.4970074 42 12
7.8570271 -0.37465116 -0.688182 1 5
15.65474 -0.74921268 3.0464573 50 13
9.4900208 -0.45583835 -0.49792418 2 6
16.40896 -0.78817886 3.7926748 22 14
12.050167 -0.58091915 -0.21058008 1 7
16.511539 -0.7988832 4.4294295 9 15
4.1676741 -0.2067499 -1.1180981 5 0
4.6049762 -0.23005499 -1.0644686 4 1
15.922266 -0.79544318 0.83549154 61 9
5.1490393 -0.25813615 -1.002129 2 2
15.845361 -0.79714614 1.3880416 42 10
5.8298144 -0.2943055 -0.92452765 2 3
15.816786 -0.80124384 1.9445471 54 11
2.6169662 -0.1325698 -0.32173494 33 4
15.751072 -0.80067098 2.4979463 52 12
7.8637004 -0.4011099 -0.68887925 1 5
15.667858 -0.80192435 3.0495086 55 13
9.4725008 -0.48648638 -0.49708682 2 6
16.375118 -0.84098935 3.7854764 55 14
12.048175 -0.62087572 -0.21058008 1 7
16.256063 -0.84056449 4.361619 12 15
4.1669655 -0.22056928 -1.1180981 5 0
4.6080804 -0.24553177 -1.0653679 4 1
15.917398 -0.85091084 0.83538687 55 9
5.1520762 -0.27541921 -1.0028923 2 2
15.848598 -0.850007 1.3885646 38 10
5.8209162 -0.31321174 -0.92327607 2 3
15.784307 -0.85208452 1.9408908 42 11
2.6204519 -0.1419186 -0.32222271 40 4
15.756071 -0.85607624 2.4991975 52 12
7.8543696 -0.42675227 -0.688182 1 5
15.676874 -0.85451758 3.0517981 55 13
9.4987545 -0.51942235 -0.49855223 2 6
16.375977 -0.89835763 3.7863762 65 14
12.037949 -0.66248846 -0.21044049 1 7
15.923187 -0.87909359 4.2731028 12 15
4.1738863 -0.23554882 -1.1201688 5 0
4.6266513 -0.26272029 -1.0698675 4 1
15.916323 -0.90658122 0.83549148 58 9
5.1118808 -0.29116875 -0.99525982 2 2
15.865427 -0.90646011 1.3903077 43 10
5.8355646 -0.33443284 -0.9257791 2 3
15.807001 -0.90865797 1.9440596 52 11
2.596159 -0.14969356 -0.31929755 34 4
15.754959 -0.91118425 2.4995105 55 12
7.8448744 -0.45370641 -0.68748462 1 5
15.679674 -0.90957588 3.052943 50 13
9.4849215 -0.55188 -0.49792424 2 6
15.615968 -0.91134965 3.6113644 63 14
12.055527 -0.70567322 -0.21078953 1 7
15.628814 -0.91757357 4.1949396 14 15
4.1614671 -0.24942338 -1.1170628 5 0
4.6140347 -0.27816504 -1.0671675 4 1
15.932998 -0.96333939 0.8365382 58 9
5.1265116 -0.30995867 -0.99831283 2 2
15.87012 -0.96231776 1.3910048 48 10
5.8264747 -0.35432103 -0.92452765 2 3
15.801752 -0.96370828 1.9438158 52 11
2.5956206 -0.15875497 -0.31929755 7 4
15.755625 -0.96641552 2.5001361 49 12
7.8432436 -0.48108736 -0.68748468 1 5
15.690121 -0.96514636 3.0556142 50 13
9.4630013 -0.58375537 -0.49687743 2 6
15.614635 -0.96597427 3.611814 77 14
12.017063 -0.74552166 -0.21016124 1 7
15.293878 -0.95149028 4.105906 22 15
4.1567154 -0.26370347 -1.1160277 5 0
4.6130347 -0.29426932 -1.067168 4 1
5.1371531 -0.32860354 -1.0006025 2 2
15.878593 -1.0184739 1.3920507 48 10
5.8252025 -0.37465701 -0.92452765 2 3
15.818101 -1.0201384 1.9462532 49 11
15.765956 -1.0223018 2.5023263 49 12
7.8335638 -0.50794679 -0.68678743 1 5
15.692534 -1.0202916 3.0567594 50 13
9.492794 -0.61886281 -0.49855217 2 6
15.628669 -1.0216177 3.6158628 80 14
12.030352 -0.78851098 -0.21044049 1 7
15.062996 -0.98992115 4.0448246 13 15
4.1654077 -0.27885681 -1.1186159 5 0
4.6158686 -0.31063184 -1.0680678 4 1
15.363935 -1.0366327 0.80702078 9 9
5.1438098 -0.3470622 -1.0021288 2 2
15.878918 -1.0741632 1.3923993 52 10
5.8396258 -0.39605796 -0.92703056 1 3
15.822368 -1.0758864 1.9472283 47 11
2.6300981 -0.17930211 -0.32368487 1 4
15.778056 -1.0784063 2.5048292 49 12
7.8396935 -0.53583133 -0.68748468 1 5
15.696712 -1.0755992 3.0582857 52 13
9.4387684 -0.64843595 -0.49583068 2 6
15.640561 -1.0772369 3.6194623 83 14
12.047475 -0.83187735 -0.21078952 1 7
14.826254 -1.0263517 3.9821904 13 15
4.1644092 -0.29339507 -1.118616 5 0
4.599206 -0.32564116 -1.0644683 7 1
15.328347 -1.087994 0.80534601 21 9
5.1347346 -0.36445937 -1.0006025 2 2
15.89097 -1.1307158 1.3937938 52 10
2.6934967 -0.19212723 -0.42769182 1 3
15.822475 -1.1313933 1.9477158 52 11
2.6175759 -0.18763018 -0.32222271 1 4
15.786016 -1.1343251 2.5067062 49 12
7.8417501 -0.56347936 -0.68783331 1 5
15.710485 -1.1316539 3.0617201 50 13
9.4284801 -0.68080419 -0.49541205 2 6
15.636705 -1.1318262 3.6194623 83 14
12.020565 -0.87218928 -0.21037067 1 7
14.662661 -1.066467 3.9392269 12 15
4.1633596 -0.30792981 -1.118616 5 0
4.6058149 -0.34227112 -1.0662678 4 1
15.318481 -1.1410481 0.80503201 24 9
5.1256003 -0.38179737 -0.99907607 4 2
15.90282 -1.1873654 1.3951881 48 10
2.6652312 -0.19946414 -0.42331159 21 3
15.844161 -1.1885475 1.9508841 45 11
2.6208642 -0.19706377 -0.32270992 1 4
15.785901 -1.1897186 2.5073321 52 12
15.726015 -1.1879655 3.0655363 57 13
9.4579105 -0.71612436 -0.49708676 2 6
15.650148 -1.1877286 3.6235113 83 14
11.981555 -0.91141325 -0.20974235 1 7
14.629953 -1.11544 3.9314618 12 15
4.1468511 -0.32126701 -1.1144749 5 0
15.467079 -1.2009892 0.27079117 15 8
4.6045918 -0.35834631 -1.0662678 4 1
15.3383 -1.1963764 0.80628806 24 9
5.1164069 -0.39907607 -0.99754959 4 2
15.898576 -1.2428694 1.3951899 52 10
15.845854 -1.244313 1.9516153 49 11
2.6082861 -0.20527659 -0.32124776 1 4
15.771805 -1.2440377 2.5057676 42 12
2.5940034 -0.20460805 -0.22765087 4 5
15.710032 -1.2419242 3.0632467 40 13
9.4513721 -0.74881864 -0.49687743 2 6
15.642021 -1.2420421 3.6226115 60 14
11.99026 -0.95418304 -0.20995179 1 7
14.618268 -1.165887 3.9293914 12 15
4.1534061 -0.33636403 -1.1165454 5 0
15.456815 -1.254487 0.27068648 15 8
4.622736 -0.37599701 -1.0707668 7 1
15.345973 -1.2508835 0.80691606 24 9
5.1345501 -0.41852823 -1.0013658 4 2
15.906058 -1.2993317 1.3962342 43 10
2.646055 -0.21661541 -0.42049584 40 3
15.853285 -1.3005918 1.9530779 49 11
2.6312952 -0.21633184 -0.32417235 1 4
15.810679 -1.3026526 2.5126507 55 12
2.5813601 -0.21268001 -0.22660503 27 5
15.729077 -1.2986931 3.0678279 57 13
9.4646254 -0.7831232 -0.49771485 2 6
15.655068 -1.2980847 3.6266606 71 14
11.994831 -0.99669343 -0.21009144 1 7
14.610258 -1.2165866 3.9283562 10 15
4.1522069 -0.35086006 -1.1165454 5 0
15.472267 -1.3101211 0.27103552 12 8
4.5980935 -0.39015391 -1.0653684 4 1
15.369375 -1.3068122 0.8083815 21 9
5.1330581 -0.4364486 -1.0013658 4 2
15.923262 -1.3567067 1.3981515 48 10
2.6610284 -0.22719498 -0.42299879 60 3
15.854581 -1.3564297 1.953809 52 11
2.6265681 -0.2251763 -0.32368484 1 4
15.817843 -1.3588483 2.514528 57 12
15.744009 -1.355274 3.0716422 57 13
9.4379559 -0.81409639 -0.49645883 2 6
15.671801 -1.3545693 3.6316099 74 14
11.995261 -1.0389023 -0.21016124 1 7
14.596299 -1.2667433 3.9257679 10 15
4.1586547 -0.36602929 -1.118616 5 0
15.483538 -1.3655268 0.2713148 15 8
4.6122332 -0.40757415 -1.0689671 4 1
15.374668 -1.3613342 0.80890489 25 9
5.1197691 -0.45332474 -0.99907601 4 2
17.908978 -1.5888823 1.5729859 11 10
2.6700571 -0.23735681 -0.42456311 52 3
18.732601 -1.6685448 2.30918 13 11
2.6336751 -0.23504922 -0.32465982 1 4
17.101734 -1.5292976 2.7194574 51 12
2.573859 -0.23016356 -0.22608209 47 5
17.016069 -1.5246311 3.3208404 51 13
9.4430113 -0.84775025 -0.4968774 2 6
16.938267 -1.52362 3.9262955 84 14
11.979612 -1.0796902 -0.2099518 1 7
14.593712 -1.3178598 3.9262853 10 15
4.1611986 -0.38089573 -1.1196512 5 0
15.518502 -1.4232187 0.27201286 6 8
4.6069016 -0.42331481 -1.0680674 7 1
15.387721 -1.4166412 0.80984688 21 9
5.118156 -0.47119328 -0.99907607 2 2
17.923161 -1.6532164 1.574731 23 10
2.6652787 -0.24631205 -0.42393744 56 3
18.750383 -1.7361199 2.3121049 13 11
2.6249323 -0.24350761 -0.32368487 1 4
17.100227 -1.5893502 2.7200832 54 12
2.5829592 -0.24006854 -0.22695364 50 5
17.02824 -1.5856575 3.3242736 57 13
9.4201097 -0.87885219 -0.49583074 2 6
16.936728 -1.5830992 3.9271953 24 14
11.975771 -1.1215003 -0.2099518 1 7
14.583254 -1.3682519 3.9247329 10 15
4.1598439 -0.39541873 -1.1196512 5 0
16.160414 -1.5389923 0.2833569 3 8
4.6015153 -0.43902311 -1.067168 7 1
18.021317 -1.7193846 0.94874644 16 9
5.1086631 -0.48830885 -0.99754959 4 2
17.909348 -1.7150103 1.5740316 23 10
2.6703012 -0.25618005 -0.42487597 60 3
18.746183 -1.8017499 2.3123486 16 11
2.635922 -0.25381041 -0.3251473 1 4
17.102726 -1.6468052 2.7213345 57 12
2.5682228 -0.2477441 -0.22573344 49 5
17.040188 -1.646787 3.327708 51 13
9.4726477 -0.91711837 -0.49876153 2 6
16.946615 -1.6437153 3.9307947 28 14
11.983928 -1.1623657 -0.21016124 1 7
14.559406 -1.4147357 3.9195561 10 15
4.1526709 -0.40936825 -1.1180983 5 0
16.103479 -1.587473 0.28244936 3 8
4.6077919 -0.45504597 -1.0689671 7 1
16.496716 -1.6320529 0.86877716 3 9
5.1147418 -0.50691301 -0.99907607 4 2
17.915148 -1.7786963 1.5750775 23 10
2.6615741 -0.26425305 -0.42362452 60 3
18.753933 -1.8652799 2.314055 13 11
2.623214 -0.26136917 -0.32368487 1 4
17.075253 -1.7043368 2.7178929 33 12
2.5633774 -0.25631094 -0.22538483 49 5
17.001425 -1.6999649 3.3212204 46 13
16.929436 -1.6987356 3.9280951 56 14
16.916679 -1.70342 4.5557332 64 15
4.1416807 -0.42215729 -1.1155101 5 0
16.089884 -1.6428627 0.2823098 3 8
4.5906668 -0.46954101 -1.0653679 7 1
16.320047 -1.6721197 0.85977536 6 9
5.1169391 -0.52427155 -0.99983943 4 2
17.926992 -1.8399259 1.5766466 29 10
2.6586707 -0.27334002 -0.42331162 56 3
18.761131 -1.9321557 2.3157611 16 11
2.6183367 -0.2701169 -0.32319739 2 4
17.130112 -1.7702249 2.7275922 60 12
2.574358 -0.26648813 -0.22643068 51 5
17.042257 -1.7641523 3.3303797 54 13
3.4467642 -0.35740447 -0.18160573 1 6
16.967987 -1.7624503 3.9384432 77 14
16.924084 -1.7638619 4.5593572 77 15
4.1573963 -0.43916091 -1.1201688 5 0
15.928938 -1.6826317 0.27958721 3 8
4.6006269 -0.48679295 -1.0680678 7 1
18.03013 -1.9109524 0.95021182 37 9
5.1149831 -0.54302263 -0.99983937 4 2
17.935976 -1.9073048 1.578041 29 10
2.665508 -0.2839196 -0.42456311 56 3
18.772038 -1.9995247 2.3179545 16 11
2.6193509 -0.27946553 -0.32344139 22 4
17.129719 -1.8306386 2.7285304 51 12
2.5793552 -0.27610889 -0.22695363 56 5
17.057148 -1.8289052 3.3345768 54 13
3.4414592 -0.36960849 -0.18139638 1 6
16.973038 -1.8258799 3.9411423 59 14
3.4575219 -0.37194401 -0.060699284 1 7
16.923582 -1.823548 4.5609097 84 15
4.155838 -0.45367032 -1.1201688 5 0
15.896821 -1.7381775 0.27913347 12 8
4.6065607 -0.50450045 -1.0698675 7 1
18.028965 -1.9776771 0.950526 41 9
5.1130567 -0.56087387 -0.99983937 2 2
17.941092 -1.971207 1.5790869 29 10
2.6664641 -0.29343832 -0.42487597 60 3
18.79615 -2.0717936 2.3218541 16 11
2.6202824 -0.28928185 -0.32368484 33 4
17.136639 -1.8949298 2.7307208 54 12
2.5723851 -0.28490281 -0.22643068 51 5
17.070173 -1.8905959 3.3383932 60 13
2.6381748 -0.29265547 -0.13910894 1 6
3.432287 -0.38196 -0.060280431 2 7
16.930225 -1.8870616 4.5645332 57 15
4.1407089 -0.46738231 -1.1165453 5 0
15.902579 -1.7950028 0.27934289 12 8
4.5970263 -0.5197016 -1.0680674 7 1
18.041796 -2.0428452 0.95157266 33 9
5.1031628 -0.57872546 -0.99831283 2 2
17.935728 -2.0371761 1.5792613 41 10
2.6692963 -0.30365595 -0.4255017 60 3
18.812473 -2.1400845 2.324779 16 11
2.6034782 -0.29662889 -0.32173494 5 4
17.149546 -1.9569759 2.733849 60 12
2.5733545 -0.29410666 -0.22660501 54 5
17.078733 -1.9549347 3.3414464 57 13
2.5497773 -0.29231375 -0.13450339 3 6
3.438879 -0.39485097 -0.060420044 1 7
16.921618 -1.945927 4.5640159 77 15
4.141139 -0.48061106 -1.1170628 5 0
15.904483 -1.8486508 0.27948245 12 8
4.5952773 -0.53494304 -1.0680674 7 1
18.050793 -2.1045129 0.95241004 37 9
2.6832628 -0.31283727 -0.52510643 1 2
17.945072 -2.0953615 1.5806557 48 10
2.642823 -0.30905759 -0.42143443 27 3
18.817104 -2.2038429 2.3262415 16 11
2.6261392 -0.30803579 -0.32465982 1 4
17.154736 -2.015218 2.7357266 54 12
2.5624709 -0.30147457 -0.22573343 49 5
17.084206 -2.0099556 3.3437359 60 13
15.397343 -1.8169461 3.579421 5 14
3.495141 -0.41305864 -0.061432283 1 7
16.943846 -2.0054364 4.5717802 16 15
4.1451049 -0.49647519 -1.1186159 5 0
15.905874 -1.905108 0.27962208 12 8
4.6011214 -0.55190867 -1.0698675 7 1
17.240221 -2.0710323 0.91001797 15 9
17.951117 -2.1627877 1.5818758 48 10
18.817181 -2.2704647 2.3272166 16 11
2.6408138 -0.31910592 -0.3266097 1 4
17.165245 -2.0772231 2.7385423 57 12
2.569315 -0.31137627 -0.22643068 49 5
17.084518 -2.0735052 3.3452623 60 13
2.5397973 -0.30869865 -0.13408469 36 6
3.5254385 -0.42912242 -0.061990757 1 7
16.959753 -2.067374 4.577991 57 15
4.1529331 -0.51212341 -1.121204 5 0
15.992064 -1.9749122 0.28126264 3 8
4.5835962 -0.56685543 -1.0662678 4 1
17.010885 -2.1037438 0.89829463 7 9
2.6809556 -0.33203015 -0.52510643 36 2
17.973118 -2.2291138 1.5844905 30 10
2.6621072 -0.33063936 -0.42487597 1 3
18.816612 -2.3403976 2.3281915 16 11
2.6238673 -0.32681996 -0.32466009 1 4
17.185331 -2.1405463 2.7429225 57 12
2.5662355 -0.32009637 -0.22625642 32 5
17.108347 -2.137022 3.3513701 57 13
2.5426681 -0.3180581 -0.13429403 59 6
17.008198 -2.1305418 3.957339 80 14
3.5358245 -0.44291714 -0.062200189 1 7
14.853507 -1.8632667 4.011178 10 15
4.1587858 -0.52758926 -1.1232746 5 0
16.104454 -2.0430329 0.2833569 3 8
4.5932899 -0.5835256 -1.0689671 4 1
16.626993 -2.1152205 0.878407 7 9
2.6778331 -0.34113836 -0.52472484 46 2
17.977081 -2.2933509 1.5855361 36 10
2.6649153 -0.33996543 -0.42550173 1 3
18.840252 -2.4068077 2.3320913 16 11
2.6030788 -0.33300036 -0.32222271 1 4
17.177755 -2.200521 2.7429225 57 12
17.101166 -2.1937435 3.3513701 57 13
2.5376372 -0.32597923 -0.13408469 57 6
17.018433 -2.1891692 3.9613881 31 14
3.4707906 -0.44708157 -0.061083235 1 7
4.1340251 -0.5383836 -1.1170628 5 0
16.144815 -2.105442 0.28419462 3 8
4.5912256 -0.59955567 -1.0689672 7 1
16.413546 -2.1463137 0.86752099 3 9
2.6708467 -0.34925273 -0.52357996 45 2
17.971354 -2.3532109 1.5857105 36 10
2.691133 -0.35286093 -0.42988193 1 3
18.837643 -2.4733334 2.3328226 16 11
2.641264 -0.34726003 -0.32709721 1 4
17.179764 -2.2617588 2.744487 57 12
2.5995536 -0.34223768 -0.22939402 1 5
17.122601 -2.257273 3.3570924 54 13
2.5206435 -0.33274418 -0.13324732 15 6
3.4612794 -0.45814466 -0.060943618 1 7
4.1397805 -0.55383545 -1.1191336 5 0
4.5968299 -0.6166147 -1.0707673 4 1
16.124868 -2.1658401 0.85265768 6 9
2.6793404 -0.35988033 -0.52548808 52 2
17.978828 -2.4180529 1.5871052 42 10
2.6663923 -0.35908875 -0.42612746 1 3
18.844631 -2.5411959 2.3347726 13 11
2.6557734 -0.35860261 -0.32904708 1 4
17.191336 -2.3243599 2.7476153 54 12
2.5628035 -0.34650463 -0.22625642 1 5
17.106834 -2.3159752 3.3555677 57 13
15.515841 -2.1060972 3.6149633 2 14
3.4636221 -0.47076255 -0.061013427 1 7
14.419713 -1.9624367 3.899368 2 15
4.1416502 -0.56880838 -1.1201688 5 0
4.5830665 -0.63106191 -1.0680674 4 1
18.089813 -2.494081 0.95701545 21 9
2.6800122 -0.36949894 -0.52586967 46 2
18.001856 -2.4851556 1.5898941 42 10
2.6651227 -0.3683942 -0.42612749 1 3
18.847443 -2.6085932 2.336235 13 11
2.6309094 -0.36460084 -0.32612252 1 4
17.200727 -2.3867981 2.7504311 54 12
2.5813127 -0.35818675 -0.22799951 2 5
17.114202 -2.3778367 3.3586187 57 13
15.462073 -2.1537921 3.6041658 2 14
3.4500744 -0.48119259 -0.060803995 1 7
14.718902 -2.0555098 3.9821904 10 15
4.1472907 -0.58433998 -1.1222394 5 0
4.5924129 -0.6486913 -1.0707673 4 1
18.090887 -2.5586095 0.95753896 34 9
2.6748185 -0.37830186 -0.52510643 48 2
18.012798 -2.5507724 1.5916373 36 10
2.6716435 -0.37880412 -0.42737892 1 3
18.848051 -2.6757631 2.3374536 13 11
2.6532052 -0.37713459 -0.32904708 1 4
17.205986 -2.4487736 2.7526217 51 12
2.5839918 -0.36775637 -0.22834812 10 5
17.125233 -2.4403307 3.3624368 51 13
2.5466795 -0.36335313 -0.13481739 40 6
15.500759 -2.214366 3.6149633 2 14
3.4602511 -0.49493152 -0.061013427 1 7
13.717218 -1.9644637 3.7130184 2 15
4.145225 -0.59881324 -1.1222392 5 0
15.587403 -2.2545111 0.27490994 3 8
4.5862632 -0.66415924 -1.0698674 7 1
18.089752 -2.6228895 0.95795763 38 9
2.6695962 -0.38707304 -0.52434325 46 2
18.011673 -2.614778 1.5923344 6 10
2.6742146 -0.38869578 -0.42800465 2 3
18.868063 -2.745827 2.34111 13 11
2.6125853 -0.38066939 -0.32417232 1 4
17.214924 -2.5113854 2.7554374 51 12
17.13604 -2.5029323 3.3662512 51 13
2.5414431 -0.37166241 -0.13460805 55 6
15.425448 -2.2585788 3.5992167 11 14
2.6077266 -0.38228562 -0.046004403 1 7
14.675522 -2.1540079 3.974426 21 15
4.1278214 -0.61101615 -1.1180981 3 0
15.567572 -2.307148 0.27470055 3 8
4.5800619 -0.67959225 -1.0689671 7 1
18.096292 -2.6883664 0.95879501 34 9
2.6682289 -0.39638931 -0.52434325 46 2
18.946405 -2.8180377 1.6758295 20 10
2.6689341 -0.3974463 -0.42737892 2 3
18.883883 -2.8154764 2.3442781 17 11
2.6112406 -0.38978666 -0.32417232 2 4
17.217773 -2.5732131 2.7573144 51 12
2.5675678 -0.38372552 -0.22712794 47 5
17.148556 -2.5659287 3.3704491 54 13
2.5460556 -0.38141915 -0.13492206 57 6
2.5233202 -0.37891388 -0.044538401 4 7
14.662183 -2.2043607 3.9728732 21 15
3.3922131 -0.51423526 -0.91932529 1 0
15.583145 -2.3650758 0.27511936 3 8
4.5853686 -0.69674647 -1.0707668 7 1
18.112947 -2.7522612 0.96015579 29 9
2.6668289 -0.40570071 -0.52434325 46 2
18.952209 -2.8865561 1.6772239 20 10
2.6519082 -0.40437797 -0.424876 3 3
18.89749 -2.8849716 2.347203 17 11
2.619746 -0.39994159 -0.32539102 9 4
17.22867 -2.6332796 2.7604427 54 12
2.5701518 -0.3932884 -0.22747657 55 5
17.151138 -2.6275561 3.3727388 60 13
2.5407605 -0.38969865 -0.13471271 50 6
17.100937 -2.6229198 3.9942312 7 14
14.668158 -2.2550247 3.9764962 28 15
15.587074 -2.4185786 0.27532881 3 8
4.5753303 -0.71075177 -1.0689671 7 1
2.6771085 -0.41635233 -0.52663296 48 2
18.948441 -2.9503074 1.6777469 20 10
18.889784 -2.9479284 2.3474472 17 11
2.6282117 -0.41015714 -0.3266097 33 4
17.23546 -2.6928375 2.7629461 51 12
2.5688334 -0.40180922 -0.22747657 51 5
17.157846 -2.6868472 3.3757915 57 13
2.5276153 -0.39626589 -0.13408469 45 6
14.69909 -2.3044441 3.4350028 2 14
14.664416 -2.3042531 3.9775317 26 15
15.59872 -2.4733856 0.27567786 3 8
4.576797 -0.72653115 -1.0698674 4 1
19.048487 -3.0272086 1.0108171 18 9
2.6757131 -0.42522752 -0.52663296 46 2
18.861816 -3.0009177 1.670949 6 10
18.901464 -3.0139916 2.3501279 17 11
2.6267638 -0.41932881 -0.32661 40 4
17.255213 -2.7576602 2.7676389 57 12
2.581259 -0.41252661 -0.22869676 54 5
17.170168 -2.7471421 3.3799896 54 13
2.5322034 -0.40559319 -0.1343987 47 6
14.690955 -2.3557396 3.4350026 2 14
2.523304 -0.40507129 -0.044608209 69 7
14.631488 -2.3514431 3.9708025 10 15
4.5819278 -0.74375176 -1.0716671 2 1
19.018091 -3.0904784 1.0097703 18 9
2.666461 -0.43330535 -0.52510643 47 2
18.969215 -3.0859339 1.6814075 20 10
2.6632762 -0.43374211 -0.42737892 37 3
18.918257 -3.0844233 2.3535402 17 11
2.6115706 -0.42625701 -0.32490358 60 4
17.257179 -2.8197863 2.7695162 54 12
2.5778372 -0.42121309 -0.22852246 51 5
17.181784 -2.8105464 3.3841891 60 13
2.5366857 -0.41539818 -0.13471273 50 6
14.644181 -2.4007013 3.4260044 2 14
2.5041153 -0.41096216 -0.044294074 50 7
17.046091 -2.80057 4.6287198 10 15
2.7548876 -0.45705673 -0.64470959 22 1
19.072205 -3.1676435 1.0132245 18 9
2.6610589 -0.44196704 -0.52434325 45 2
18.981915 -3.1560519 1.6834993 20 10
18.917168 -3.1520731 2.3547592 17 11
2.600276 -0.43373746 -0.32368484 34 4
17.258921 -2.8819599 2.7713933 57 12
2.5684896 -0.4288961 -0.22782516 51 5
17.189299 -2.8734179 3.3876219 60 13
2.53916 -0.42490959 -0.13492207 50 6
14.674152 -2.4582441 3.4350028 2 14
2.4908328 -0.41771629 -0.044084646 13 7
17.040022 -2.8606944 4.629756 10 15
19.082689 -3.2378736 1.0143757 19 9
2.6749845 -0.45388055 -0.52739614 47 2
18.992388 -3.2259617 1.6854167 20 10
2.6757631 -0.45497361 -0.42988193 1 3
18.925619 -3.2214184 2.3571966 17 11
17.274073 -2.9465055 2.7754612 53 12
2.5728695 -0.43886429 -0.22834814 54 5
17.194647 -2.9360461 3.3906748 60 13
2.5376611 -0.43377033 -0.13492206 45 6
14.665481 -2.5094512 3.4350026 2 14
4.1233315 -0.71222305 -1.121204 3 0
2.7305074 -0.4726221 -0.63976067 51 1
18.939995 -3.2783136 1.0073628 13 9
2.673384 -0.46321532 -0.5273962 13 2
18.865191 -3.2721486 1.6751322 13 10
2.6585882 -0.46160752 -0.42737892 1 3
18.933817 -3.2908604 2.3596339 14 11
2.6402104 -0.45936608 -0.32904708 1 4
17.285614 -3.0074968 2.7789025 56 12
2.5772107 -0.44886822 -0.22887108 51 5
17.195894 -2.9980719 3.3929663 60 13
2.5223587 -0.44022205 -0.13418935 47 6
14.656632 -2.5606282 3.4350028 2 14
2.5036902 -0.43741417 -0.044363879 1 7
17.071535 -2.9856009 4.6437316 64 15
4.12082 -0.72661179 -1.121204 5 0
2.7270064 -0.48133549 -0.63931078 53 1
18.70422 -3.3047907 0.99543017 13 9
18.665312 -3.304636 1.6583984 13 10
2.6842744 -0.4752425 -0.43175912 1 3
18.942347 -3.3570936 2.3620713 14 11
2.6269453 -0.46603835 -0.32758498 1 4
17.292515 -3.0709248 2.7817183 53 12
2.579551 -0.45855907 -0.22921968 49 5
17.203259 -3.058172 3.3963993 57 13
2.520885 -0.44858411 -0.13418935 41 6
14.717129 -2.6215193 3.4511991 2 14
2.5178974 -0.44895926 -0.044643119 1 7
17.074322 -3.04755 4.6473551 77 15
4.1221914 -0.74095643 -1.1222395 5 0
2.7233915 -0.49050617 -0.63886088 43 1
18.521564 -3.3392303 0.98632371 27 9
2.6972182 -0.48627815 -0.53273875 1 2
18.466022 -3.3325446 1.6416645 26 10
2.6903751 -0.48601416 -0.43301061 1 3
18.948092 -3.426373 2.364265 14 11
2.6448359 -0.47874099 -0.33002236 1 4
17.289463 -3.1326771 2.7829697 53 12
2.579895 -0.46791616 -0.22939399 29 5
17.213728 -3.1220577 3.4005969 54 13
17.108393 -3.1091218 4.0144763 29 14
2.5084453 -0.45631403 -0.044503499 1 7
17.086388 -3.1112845 4.6535668 80 15
4.1194472 -0.75605989 -1.1222392 5 0
2.4978914 -0.4584488 0.044329058 3 8
2.7235794 -0.50036174 -0.63931078 46 1
18.539259 -3.409281 0.9878937 49 9
