# .PCD v0.7 - Point Cloud Data file format
VERSION 0.7
FIELDS x y z intensity ring
SIZE 4 4 4 4 2
TYPE F F F F U
COUNT 1 1 1 1 1
WIDTH 637
HEIGHT 1
VIEWPOINT 0 0 0 1 0 0 0
POINTS 637
DATA ascii
2.2383778 -0.77160937 -0.041327171 65 7
2.2262299 -0.77612662 -0.041152649 20 7
2.2229548 -0.78282595 -0.12351283 8 6
2.2377095 -0.79769266 -0.041466791 2 7
2.2249522 -0.80103207 -0.1239315 58 6
2.216099 -0.79871869 -0.041117743 2 7
2.2090051 -0.80401194 -0.12319881 62 6
2.2358439 -0.8146646 -0.041536603 2 7
2.2099335 -0.81309724 -0.12340814 55 6
2.2292335 -0.82108176 -0.041466791 2 7
2.2391937 -0.82874715 0.041676302 4 8
2.1995943 -0.81802177 -0.12298947 52 6
2.2375982 -0.83304441 -0.04167622 1 7
2.192986 -0.82428932 -0.12278011 52 6
2.2384195 -0.84225851 -0.041746028 1 7
2.2015548 -0.8323372 0.041082911 45 8
2.1938295 -0.83335775 -0.12298945 55 6
2.2243989 -0.84541416 -0.041536599 2 7
2.2174637 -0.84676713 0.04143196 49 8
2.192919 -0.84134358 -0.12309414 50 6
2.2103815 -0.84848601 -0.041327164 1 7
2.2015834 -0.84907901 0.041187625 56 8
2.2127936 -0.8569535 -0.20760505 1 5
2.1901169 -0.84861094 -0.12309414 50 6
2.2111356 -0.85764289 -0.041396983 2 7
2.1930165 -0.85458028 0.041082911 58 8
2.1838131 -0.85450816 -0.20516469 2 5
2.1832726 -0.8551755 -0.1228848 50 6
2.2118518 -0.86681521 -0.041466791 2 7
2.2028933 -0.8677426 0.041327246 59 8
2.1765597 -0.86132157 -0.12267545 50 6
2.2198153 -0.87933511 -0.041676223 2 7
2.203567 -0.8769058 0.041397057 58 8
2.1870456 -0.87342793 -0.20603624 42 5
2.1735399 -0.86891389 -0.12267545 50 6
2.1944532 -0.87816292 -0.041257367 2 7
2.2042034 -0.88608402 0.041466866 61 8
2.1784406 -0.87882066 -0.20551333 68 5
2.1760497 -0.8787393 -0.12298947 55 6
2.1950822 -0.88731635 -0.041327171 2 7
2.1899803 -0.8892588 0.041257437 63 8
2.1624444 -0.88115668 -0.20429315 62 5
2.1766675 -0.88783836 -0.12319881 52 6
2.2067819 -0.90102041 -0.041606404 27 7
2.1868632 -0.89689773 0.041257441 59 8
2.2097523 -0.90718669 0.12518767 8 9
2.1611977 -0.88945776 -0.20446745 57 5
2.1606283 -0.89010561 -0.12246611 50 6
2.1814396 -0.89956993 -0.041187551 19 7
2.1911087 -0.90758699 0.041397057 59 8
2.1599195 -0.89776111 -0.20464176 55 5
2.1575079 -0.89764214 -0.12246611 50 6
2.1879272 -0.91522974 0.041397057 61 8
2.17589 -0.91064078 0.12361758 42 9
2.1604466 -0.9068374 -0.20499039 55 5
2.1598856 -0.9074887 -0.12278013 52 6
2.1900134 -0.9205969 -0.041466791 2 7
2.1922493 -0.92559153 0.041536678 64 8
2.1818967 -0.92211807 0.12414096 44 9
2.1480963 -0.91048574 -0.20411883 48 5
2.1623807 -0.91698533 -0.12309414 50 6
2.1610162 -0.91729695 -0.040978123 2 7
2.1779673 -0.92853272 0.041327242 61 8
2.1878493 -0.93364805 0.12466429 14 9
2.1848247 -0.93416101 -0.29175508 1 4
2.1597192 -0.92387277 -0.2055133 14 5
2.1573303 -0.92374182 -0.12298945 47 6
2.1761808 -0.93271238 -0.041327171 2 7
2.1765499 -0.93692017 0.041362152 58 8
2.1378098 -0.92289889 -0.28590563 1 4
2.1394269 -0.9249261 -0.12215209 47 6
2.1802533 -0.94347984 -0.041466795 2 7
2.1806023 -0.94770044 0.041501772 29 8
2.2014239 -0.95766336 0.12581569 2 9
2.1568694 -0.94052047 -0.20586193 2 5
2.1471679 -0.93718231 -0.12278011 31 6
2.1842759 -0.95428669 -0.041606404 2 7
2.1834385 -0.95891696 0.12497832 2 9
2.1572206 -0.94964916 -0.20621055 2 5
2.1662946 -0.9554497 -0.041327171 2 7
2.1830752 -0.96694994 0.041676302 2 8
2.1764259 -0.96491367 0.12476896 2 9
2.1262145 -0.94442922 -0.28566164 75 4
2.1502512 -0.9555552 -0.20586194 2 5
2.144223 -0.95377284 -0.12298947 2 6
2.1702535 -0.96625912 -0.041466791 2 7
2.1760354 -0.97293186 0.041606486 6 8
2.1803367 -0.97576851 0.12518767 2 9
2.1821246 -0.97702575 0.20917365 1 10
2.1283388 -0.95428175 -0.28639314 59 4
2.1396313 -0.95979351 -0.2051647 2 5
2.1609228 -0.97025067 -0.12414086 5 6
2.1632197 -0.97218943 -0.041396983 2 7
2.177089 -0.98299325 0.12518767 2 9
2.1768856 -0.98381644 0.20899938 8 10
2.1141436 -0.95679444 -0.28493041 56 4
2.1290078 -0.96396917 -0.20446745 2 5
2.1672688 -0.98266065 -0.041536599 2 7
2.1511633 -0.97943479 0.041257441 49 8
2.1572874 -0.98313254 0.12424559 5 9
2.1073472 -0.96215075 -0.28444317 56 4
2.154624 -0.98464495 -0.20725644 2 5
2.1342878 -0.97580189 -0.12298947 37 6
2.1565521 -0.98689145 -0.041396983 2 7
2.1495483 -0.98777288 0.041292347 56 8
2.1719484 -0.99944395 0.20917368 55 10
2.1021736 -0.96867037 -0.28419921 58 4
2.1421275 -0.98798764 -0.20638485 17 5
2.1453767 -0.98994029 -0.12382683 59 6
2.1494629 -0.99273604 -0.041327171 2 7
2.1533434 -0.99863523 0.04143196 68 8
2.1628501 -1.0048794 0.20865074 60 10
2.100579 -0.97683924 -0.28444317 56 4
2.1344924 -0.99442303 -0.12340815 62 6
2.1568596 -1.0053018 -0.041536599 2 7
2.1460464 -1.0048249 0.041362148 61 8
2.1541088 -1.0090584 0.1246643 59 9
2.1503091 -1.0081939 0.20777915 56 10
2.1023757 -0.98706287 -0.28517416 58 4
2.1297677 -1.0003771 -0.20586193 68 5
2.1310084 -1.0018679 -0.12340816 55 6
2.1497185 -1.0111225 -0.041466795 2 7
2.1390867 -1.0102283 0.041292347 63 8
2.152379 -1.0174248 0.12476896 62 9
2.155782 -1.0199543 0.20865074 56 10
2.1588013 -1.0213827 -0.37825853 1 3
2.1008849 -0.99487877 -0.28541791 56 4
2.1136603 -1.001832 -0.20464174 66 5
2.1168461 -1.0037944 -0.12278011 55 6
2.1570151 -1.0237647 -0.04167622 9 7
2.1391575 -1.0194093 0.041362152 64 8
2.1398008 -1.0206326 0.12424559 56 9
2.1613784 -1.0313878 0.20952228 58 10
2.114222 -1.0093383 -0.37106258 9 3
2.0920258 -0.9996385 -0.28468692 58 4
2.1211116 -1.0139915 -0.20568763 64 5
2.1133294 -1.0111775 -0.12278011 55 6
2.1678565 -1.0381975 -0.041955456 37 7
2.1391904 -1.0286032 0.04143196 64 8
2.1326261 -1.0263635 0.12403627 58 9
2.1631503 -1.0415189 0.2100452 41 10
2.0928893 -1.0081394 -0.36793387 46 3
2.0831594 -1.0043488 -0.28395545 56 4
2.1157649 -1.0205237 -0.20551333 54 5
2.1115854 -1.0194166 -0.12288479 49 6
2.1210072 -1.0248783 -0.041117743 2 7
2.1391854 -1.0378101 0.041501775 66 8
2.1398101 -1.0390358 0.12466429 56 9
2.0982406 -1.0197561 -0.36949819 79 3
2.0867815 -1.0150874 -0.28493044 47 4
2.1050236 -1.0244156 -0.20481606 51 5
2.1116054 -1.0285305 -0.12309414 50 6
2.126404 -1.0366572 -0.041292269 2 7
2.1283648 -1.0417541 0.041362148 61 8
2.1361704 -1.0464989 0.1246643 38 9
2.1737173 -1.0653635 0.21178833 2 10
2.1035366 -1.0314226 -0.37106258 69 3
2.2028117 -1.0805769 0.30126098 1 11
2.0867894 -1.0241146 -0.28541791 24 4
2.1014349 -1.0317572 -0.20481606 53 5
2.1080024 -1.035895 -0.12309414 50 6
2.133539 -1.0493687 -0.041501697 1 7
2.1247158 -1.0491772 0.041362152 63 8
2.1452229 -1.0597693 0.125397 8 9
2.1431954 -1.0596986 0.20917365 2 10
2.0822175 -1.0300006 -0.36793387 59 3
2.1581061 -1.0680088 0.29565501 12 11
2.1067474 -1.0435079 -0.20568763 39 5
2.0936372 -1.0379244 -0.12246612 50 6
2.1228814 -1.0528839 -0.041362077 2 7
2.1283855 -1.0597826 0.041501775 59 8
2.153934 -1.0739119 0.21056816 2 10
2.0929313 -1.0439532 -0.37043673 69 3
2.0799513 -1.037932 -0.28541815 2 4
2.0991161 -1.0493265 -0.12298947 43 6
2.1265323 -1.0634958 -0.041501697 2 7
2.1284332 -1.0686291 0.04157158 43 8
2.1415286 -1.0761404 0.12560634 2 9
2.1574814 -1.0846283 0.2112654 2 10
2.0859289 -1.0491129 -0.36981109 74 3
2.163388 -1.088544 0.29736117 47 11
2.0905006 -1.0523267 -0.28736779 2 4
2.1175752 -1.0664189 -0.20743074 2 5
2.0920579 -1.054484 -0.12278013 32 6
2.122807 -1.0709122 -0.041501697 2 7
2.1448853 -1.0872211 0.12602504 2 9
2.1323588 -1.0813392 0.20917368 2 10
2.0804925 -1.0554941 -0.36949819 66 3
2.1613455 -1.0969875 0.29760492 64 11
2.0761943 -1.054225 -0.28590563 2 4
2.1014051 -1.0674876 -0.20621055 2 5
2.1154914 -1.0765018 -0.041431885 2 7
2.1316059 -1.0889207 0.041781012 2 8
2.1232939 -1.0856093 0.12497832 2 9
2.1356659 -1.0924052 0.20987117 2 10
2.0627272 -1.0555507 -0.36699525 58 3
2.166338 -1.1090482 0.2988236 71 11
2.093704 -1.072325 -0.28883052 2 4
2.0692954 -1.0602796 -0.20342156 2 5
2.1024168 -1.0781772 -0.12382683 2 6
2.1117208 -1.0838797 -0.041431885 2 7
2.111793 -1.0881114 0.041466866 7 8
2.1336923 -1.1003377 0.12581569 2 9
2.1460052 -1.1071614 0.2112654 2 10
2.0660515 -1.0663686 -0.3682467 29 3
2.1430511 -1.106585 0.29614243 56 11
2.0758388 -1.0723381 -0.28688031 2 4
2.0903616 -1.0803026 -0.20586193 2 5
2.0809007 -1.0763335 -0.12278011 2 6
2.1079245 -1.0912445 -0.041431885 2 7
2.1227508 -1.1040926 0.125397 3 9
2.0500329 -1.0662704 -0.44916448 2 2
2.1385922 -1.1128064 0.21091676 1 10
2.0745816 -1.0799589 -0.37043679 54 3
2.1391757 -1.114059 0.29614246 55 11
2.0720828 -1.0795776 -0.28688055 2 4
2.0969882 -1.0934842 -0.20690782 2 5
2.0877554 -1.0891334 -0.12340815 16 6
2.1111929 -1.102298 -0.041571505 2 7
2.1006031 -1.1009712 0.041397057 49 8
2.1135778 -1.1087124 0.12508298 4 9
2.1415555 -1.1243418 0.21161403 2 10
2.0706096 -1.0875552 -0.37043679 66 3
2.1440609 -1.1261344 0.29736117 60 11
2.0577583 -1.0812637 -0.28541815 2 4
2.0825777 -1.095233 -0.20586194 3 5
2.1073322 -1.1096605 -0.041571502 2 7
2.1018569 -1.1114674 0.041501772 56 8
2.1129665 -1.1187582 0.20917365 3 10
2.0702922 -1.096626 -0.37106258 74 3
2.1381652 -1.1330558 0.29711744 56 11
2.060797 -1.0925177 -0.28639314 2 4
2.080502 -1.1034294 -0.20603624 17 5
2.099314 -1.1143457 -0.12455954 58 6
2.0963817 -1.1132582 -0.041431885 2 7
2.09816 -1.1184314 0.041501775 72 8
2.036833 -1.0871108 -0.44878286 68 2
2.059674 -1.0997634 -0.36981106 74 3
2.136147 -1.1410753 0.2973612 62 11
2.0641656 -1.1030878 -0.28736803 2 4
2.170589 -1.1604475 0.38983479 1 12
2.086802 -1.1165899 -0.12403619 66 6
2.1242139 -1.1375619 -0.04206017 2 7
2.0977654 -1.1276418 0.04157158 59 8
2.1073263 -1.1332555 0.125397 49 9
2.0228434 -1.0882782 -0.44649315 68 2
2.0523441 -1.1050735 -0.36918533 74 3
2.1321507 -1.148525 0.29736117 58 11
2.0672929 -1.1140536 -0.28834274 4 4
2.1754234 -1.1723244 0.39139912 9 12
2.0782046 -1.1204019 -0.20655918 64 5
2.0653143 -1.1143831 -0.12298945 52 6
2.102833 -1.135101 -0.041711122 2 7
2.0904984 -1.132687 0.041501775 63 8
2.0980904 -1.1377481 0.12508297 65 9
2.0276604 -1.1000135 -0.44840124 65 2
2.1083386 -1.144258 0.20987117 57 10
2.0538769 -1.1147 -0.37012392 76 3
2.1248415 -1.1536949 0.29687369 58 11
2.0690296 -1.1247945 -0.20603625 66 5
2.0686259 -1.1250428 -0.12340815 55 6
2.1093962 -1.1481705 -0.041920554 7 7
2.0935512 -1.1438123 0.041641388 64 8
2.083791 -1.1389521 0.12445496 58 9
2.0188336 -1.1039057 -0.44725639 59 2
2.1132727 -1.1560245 0.21074246 59 10
2.0517058 -1.1228106 -0.37043679 74 3
2.1277661 -1.1649177 0.29784864 58 11
2.1656609 -1.1861559 0.39108628 68 12
2.0652883 -1.1316495 -0.20603625 64 5
2.0699401 -1.1351378 -0.12372218 57 6
2.0897465 -1.1507485 0.041641388 63 8
2.0920467 -1.152967 0.12518767 62 9
2.0132492 -1.1099982 -0.4468748 55 2
2.1039906 -1.1605071 0.21021953 39 10
2.047971 -1.1296084 -0.37043679 70 3
2.1186771 -1.1690902 0.29711741 56 11
2.0472207 -1.1301265 -0.2871241 75 4
2.1511323 -1.1879785 0.38920906 57 12
2.0543499 -1.1349977 -0.205339 58 5
2.0626681 -1.1400634 -0.12351283 50 6
2.0840335 -1.1528223 -0.041571502 4 7
2.0820184 -1.1564579 0.041571576 64 8
2.093044 -1.1635382 0.12550168 60 9
2.0110781 -1.1179729 -0.44725642 59 2
2.0386388 -1.1342258 -0.36949819 76 3
2.1230509 -1.1816747 0.29833612 58 11
2.0413299 -1.1366565 -0.28688031 50 4
2.148489 -1.1968161 0.38952193 9 12
2.055397 -1.1454294 -0.20586194 56 5
2.0619648 -1.1495608 -0.12372217 52 6
2.0902722 -1.1662993 -0.041780934 2 7
2.0744798 -1.1617645 0.041501772 66 8
2.092454 -1.1727901 0.12571101 35 9
2.0155289 -1.1301371 -0.44916442 49 2
2.0361907 -1.1426569 -0.36981109 70 3
2.1119885 -1.1851927 0.2973612 58 11
2.0390813 -1.1447469 -0.2871241 20 4
2.0548604 -1.154549 -0.20621055 56 5
2.0542557 -1.1551529 -0.12351283 49 6
2.079217 -1.169667 -0.041641317 2 7
2.0771725 -1.1732938 0.041641396 66 8
2.0201173 -1.1419966 -0.45107254 16 2
2.1019218 -1.1887261 0.2112654 2 10
2.0390668 -1.1536486 -0.37106255 70 3
2.1059027 -1.1919477 0.29711741 56 11
2.1521142 -1.2185994 0.39171201 2 12
2.0508175 -1.1617148 -0.20621055 56 5
2.050211 -1.1623166 -0.12351283 50 6
2.0681641 -1.1729715 -0.041501701 2 7
2.0802214 -1.1841326 0.041781008 63 8
2.0772738 -1.1834149 0.12529233 2 9
2.1116061 -1.2039503 0.2126599 2 10
2.0352299 -1.1604038 -0.37106255 70 3
2.1053872 -1.2008916 0.29760492 56 11
2.0431085 -1.1658411 -0.28883052 2 4
2.1341231 -1.2182699 0.38920906 2 12
2.0450199 -1.1678784 -0.20603625 29 5
2.0463452 -1.1691087 -0.12351283 47 6
2.0744722 -1.186139 -0.041711122 2 7
2.0812788 -1.1943728 0.041885726 47 8
2.0887179 -1.1996111 0.12623438 2 9
2.0937822 -1.2030057 0.21126543 2 10
2.0345919 -1.1694698 -0.37168828 70 3
2.1046243 -1.2102126 0.2980924 36 11
2.0321436 -1.1690065 -0.2878553 2 4
2.1367059 -1.2296529 0.39046052 2 12
2.0335984 -1.1712607 -0.12298947 23 6
2.0668545 -1.1913759 -0.041641317 2 7
2.0615187 -1.1926181 0.04157158 6 8
2.0845175 -1.206895 0.12623438 2 9
2.0861216 -1.2083098 0.21091676 2 10
2.0270796 -1.174584 -0.37106258 70 3
2.108974 -1.2225294 0.29931107 35 11
2.0314851 -1.1780844 -0.28834301 2 4
2.1426523 -1.2430515 0.39233774 2 12
2.0284064 -1.1767721 -0.2051647 2 5
2.1632476 -1.2555046 0.4861812 1 13
2.0626831 -1.1985832 -0.041641314 2 7
2.0642526 -1.2038366 0.041711204 2 8
2.0940919 -1.2222179 0.12707175 2 9
2.0990968 -1.2256303 0.2126599 2 10
2.0195551 -1.17966 -0.37043679 70 3
2.1012659 -1.2278806 0.2988236 68 11
2.0342155 -1.189176 -0.2893177 2 4
2.1383002 -1.2505231 0.39233774 2 12
2.0447159 -1.1962724 -0.20725644 2 5
2.0495043 -1.1995537 -0.12445488 2 6
2.0550356 -1.2037543 -0.041571505 2 7
2.0531421 -1.2069808 0.041571576 13 8
2.0691557 -1.2173671 0.12581569 2 9
2.0842893 -1.2272502 0.21161403 2 10
2.010112 -1.1840464 -0.36949819 54 3
2.0935459 -1.2331928 0.29833612 58 11
2.0266316 -1.1942538 -0.28883052 2 4
2.1407287 -1.2619923 0.3935892 2 12
2.0508246 -1.2094748 -0.20830232 2 5
2.0416534 -1.2050267 -0.12424552 2 6
2.078372 -1.2271881 -0.042129979 2 7
2.0648935 -1.2245823 0.12581569 3 9
2.0902727 -1.2406197 0.2126599 2 10
2.0195551 -1.1991241 -0.3720012 66 3
2.0924253 -1.2428852 0.29882357 62 11
2.0120015 -1.1955891 -0.28736779 2 4
2.1261218 -1.2634026 0.39171201 4 12
2.0465906 -1.2166262 -0.20830232 2 5
2.1362593 -1.2704359 0.48312825 48 13
2.0340018 -1.2101041 -0.12403619 4 6
2.0672023 -1.230345 -0.041990366 2 7
2.0532501 -1.2264124 0.04174611 49 8
2.0691779 -1.2369064 0.12633905 4 9
2.0790901 -1.2438169 0.21196264 2 10
2.0172627 -1.2068285 -0.37231401 63 3
2.0916989 -1.2518562 0.29931104 60 11
2.0250576 -1.2124521 -0.2898052 2 4
2.0320766 -1.2176185 -0.20725644 3 5
2.1387711 -1.2815496 0.48465478 64 13
2.0423174 -1.2252083 -0.041571502 2 7
2.0472431 -1.2325405 0.0417112 56 8
2.0800731 -1.2537903 0.21248558 4 10
1.997813 -1.2046824 -0.36949819 41 3
2.0873165 -1.2591497 0.29931104 60 11
2.0174136 -1.2174619 -0.2893177 2 4
2.1174793 -1.2788575 0.48083857 69 13
2.0585625 -1.2447463 -0.041990362 2 7
2.0531859 -1.2459038 0.041920632 72 8
2.076124 -1.2623031 0.29833612 58 11
2.0165441 -1.2265599 -0.28980523 2 4
2.1229 -1.2917585 0.3935892 64 12
2.1079712 -1.2831787 0.47969371 63 13
2.0282567 -1.2351396 -0.12445487 66 6
2.0576203 -1.2540059 -0.04206017 2 7
2.0454123 -1.2509763 0.04185082 66 8
2.0441873 -1.2512078 0.12560634 49 9
2.0767829 -1.2726542 0.29906735 56 11
1.991941 -1.2211411 -0.28688055 2 4
2.1200621 -1.3001938 0.39390206 74 12
2.0245261 -1.2416034 -0.20777935 62 5
2.1118462 -1.2956624 0.48160177 70 13
2.0188265 -1.239078 -0.12414087 57 6
2.0498226 -1.2590872 -0.041990362 2 7
2.0444381 -1.2602074 0.041920632 67 8
2.0466068 -1.2625304 0.12602504 62 9
2.0651343 -1.2744571 0.21231125 49 10
2.075706 -1.2819821 0.29955485 65 11
2.0062425 -1.2395645 -0.28956169 9 4
2.1087897 -1.303432 0.39265063 69 12
2.0218744 -1.2497102 -0.20795368 59 5
2.1139901 -1.3071563 0.48312825 70 13
2.0178859 -1.2482187 -0.12435021 55 6
2.0369136 -1.2609721 -0.041815832 16 7
2.0468209 -1.2715569 0.042060245 67 8
2.0458016 -1.2714186 0.12623438 62 9
2.0572894 -1.2795539 0.21196264 56 10
2.0762739 -1.2923667 0.30028605 62 11
2.097748 -1.306241 0.39139915 69 12
2.0073531 -1.2504398 -0.20690779 55 5
2.1094143 -1.3145275 0.48312825 70 13
2.0101266 -1.2531416 -0.12414085 53 6
2.0429018 -1.2740692 -0.042025272 40 7
2.0324223 -1.2719722 0.04185082 64 8
2.0413513 -1.2785519 0.1262344 62 9
2.0528104 -1.2867272 0.21196266 27 10
2.0736587 -1.3002993 0.30052978 65 11
1.9843062 -1.2447528 -0.28761154 49 4
2.0915024 -1.3125055 0.39108628 34 12
2.0063512 -1.2595577 -0.20725644 56 5
2.0983925 -1.31734 0.48160177 70 13
2.0161083 -1.266174 -0.12476888 52 6
2.0418279 -1.2833203 -0.042095073 4 7
2.031353 -1.2811924 0.041920632 66 8
2.0419424 -1.288868 0.12654838 54 9
2.0607164 -1.3022275 0.29931107 62 11
2.0017622 -1.2654613 -0.29078013 66 4
2.0069928 -1.2697492 -0.20777935 58 5
2.0970995 -1.3267561 0.48236501 70 13
2.0015504 -1.2667949 -0.12414086 50 6
2.0322678 -1.28723 -0.041990362 2 7
2.0302436 -1.2904204 0.041990437 64 8
2.0340602 -1.293844 0.12633903 20 9
2.0706694 -1.3181458 0.21475165 2 10
2.0561583 -1.3094127 0.29931107 58 11
1.9939839 -1.2703081 -0.29029292 59 4
2.1089418 -1.3440616 0.39609218 2 12
2.0042286 -1.2778182 -0.20795368 53 5
2.0955331 -1.3365449 0.48312825 68 13
1.996894 -1.2741224 -0.12414086 52 6
2.0446179 -1.305075 -0.042339407 2 7
2.0322349 -1.3021684 0.042130053 66 8
2.0660555 -1.3253659 0.21475165 1 10
2.0546861 -1.3190851 0.29979855 62 11
1.979293 -1.2711713 -0.28883052 54 4
2.087616 -1.3407398 0.39296347 2 12
2.0031087 -1.2869605 -0.20830232 55 5
2.0892031 -1.34279 0.4827469 60 13
1.9957942 -1.2832456 -0.12435021 52 6
2.0366864 -1.3100406 -0.042269599 2 7
2.031266 -1.3110696 0.042199869 63 8
2.043433 -1.3199332 0.12749043 2 9
2.0547233 -1.3282431 0.21405438 2 10
2.0553014 -1.3291255 0.30052978 55 11
1.9733999 -1.2766495 -0.28858677 40 4
2.0796065 -1.3458726 0.39233774 2 12
1.9952592 -1.291779 -0.20795368 42 5
2.0863872 -1.3507775 0.48312825 41 13
1.9948804 -1.2920284 -0.12455954 38 6
2.0119648 -1.3040905 -0.041850749 2 7
2.0149422 -1.3105199 0.041955527 49 8
2.0421607 -1.3292372 0.12769978 2 9
2.0536468 -1.3372236 0.21440299 1 10
2.0506494 -1.3362916 0.30052978 18 11
2.0815141 -1.3574399 0.3935892 2 12
1.9870132 -1.2968005 -0.12435021 7 6
2.0207939 -1.3198533 -0.042129979 2 7
2.0408487 -1.3385482 0.12790914 2 9
2.0587258 -1.3513013 0.21544886 1 10
2.0642252 -1.355427 0.30321091 47 11
2.093272 -1.3755456 0.39671794 2 12
2.0045059 -1.317716 -0.20987111 2 5
2.0362198 -1.3400913 -0.042548843 2 7
2.0305405 -1.3414388 0.042479105 3 8
2.0192685 -1.3350046 0.12686242 2 9
2.0506725 -1.3562814 0.21510027 2 10
2.0443454 -1.3531227 0.30101722 60 11
2.0717473 -1.3722999 0.3935892 2 12
1.9913585 -1.3195515 -0.20899954 2 5
1.9926651 -1.3209177 -0.12529223 2 6
2.0312943 -1.3475455 -0.042548843 2 7
2.0278935 -1.3509034 0.12769978 2 9
2.0523188 -1.3682091 0.21579748 2 10
2.0478673 -1.3657577 0.30223596 68 11
2.081732 -1.3893926 0.39640501 4 12
1.996682 -1.3331323 -0.21004541 2 5
1.9911315 -1.3304318 -0.12550159 2 6
2.0066278 -1.3412925 -0.042129979 1 7
2.0234027 -1.3576205 0.12769978 3 9
2.034776 -1.3657668 0.21440299 2 10
2.0367355 -1.3681134 0.30126098 60 11
1.9792563 -1.3305066 -0.20865093 2 5
1.9919136 -1.3400248 -0.1258156 3 6
2.0021689 -1.3479395 -0.042129979 1 7
2.0017066 -1.3522023 0.042164966 54 8
2.0169971 -1.3635567 0.12759511 13 9
2.0332971 -1.3750936 0.21475165 2 10
2.0434554 -1.3830031 0.30296716 65 11
1.9811984 -1.3418766 -0.20934819 10 5
2.0106909 -1.3639004 -0.042409215 2 7
1.9969742 -1.3591814 0.042164966 65 8
2.0271347 -1.3822993 0.30126098 60 11
2.0689466 -1.4118687 0.39671794 60 12
2.0092196 -1.3731675 -0.042479027 2 7
1.9938669 -1.3672746 0.042199869 67 8
2.0239334 -1.3904908 0.30150473 65 11
2.073772 -1.4257967 0.39859509 70 12
1.9717821 -1.3556749 -0.20934817 58 5
1.981063 -1.3630744 -0.12602496 58 6
1.997826 -1.3756362 -0.042339407 2 7
1.9956626 -1.3787727 0.042339485 66 8
2.0042503 -1.3857396 0.12769979 62 9
2.0171471 -1.3951769 0.2145773 43 10
2.0239642 -1.4009367 0.30223596 62 11
2.0574152 -1.4251533 0.39640501 69 12
1.9801407 -1.3716258 -0.21074268 45 5
1.9746512 -1.3688434 -0.12592027 55 6
1.9946551 -1.3837415 -0.042374313 5 7
1.9941202 -1.3880153 0.042409293 66 8
2.0026786 -1.3950105 0.12790914 62 9
2.0073607 -1.3987923 0.21405438 56 10
2.0255747 -1.412535 0.30321091 62 11
2.0475683 -1.4289348 0.39546642 64 12
1.9649487 -1.3722973 -0.12560627 50 6
1.9827141 -1.3903753 0.042269677 66 8
1.9947714 -1.3993496 0.12769978 64 9
1.9992046 -1.4035013 0.21370575 40 10
2.0206318 -1.419597 0.30321091 62 11
2.0428185 -1.4357169 0.39546642 36 12
1.9666803 -1.3837452 -0.12602496 53 6
2.0113544 -1.4157021 -0.04293279 42 7
1.9780926 -1.3969424 0.042269677 66 8
1.9915057 -1.407457 0.12780446 60 9
2.0110512 -1.42285 0.30247965 65 11
1.9523028 -1.3833308 -0.12539691 53 6
1.9862397 -1.413113 0.042548917 66 8
1.9800726 -1.4097666 0.12738577 33 9
2.0076892 -1.4310136 0.30272344 60 11
1.9507135 -1.3924581 -0.12560627 49 6
1.9802685 -1.4145987 -0.042479027 2 7
1.9812952 -1.4200375 0.042548921 66 8
2.0170224 -1.4472435 0.21719199 1 10
2.0059063 -1.4403285 0.30321088 60 11
1.9458413 -1.399259 -0.12560627 50 6
1.981811 -1.4261744 -0.042618647 2 7
1.9795682 -1.4292858 0.042618722 67 8
1.9831332 -1.4329132 0.12822312 1 9
2.00227 -1.4472724 0.21614613 2 10
2.0073004 -1.4519757 0.30418584 60 11
1.9474149 -1.4107295 -0.12602496 52 6
1.9768208 -1.4330839 -0.042618651 2 7
1.9680984 -1.4314822 0.042479105 64 8
1.9991119 -1.455107 0.12958388 2 9
1.9907632 -1.4495616 0.21544886 1 10
2.0054288 -1.4613117 0.30467337 62 11
1.9521583 -1.4245825 -0.12665297 49 6
1.981496 -1.4470518 -0.042828079 2 7
1.951798 -1.4300702 0.042234771 23 8
1.9907987 -1.4597141 0.12937452 2 9
2.0049698 -1.4706428 0.21754062 1 10
1.9907138 -1.4612551 0.30321091 58 11
1.9343001 -1.4219245 -0.1258156 49 6
1.9893184 -1.463439 -0.043107308 1 7
1.9728391 -1.4571617 0.12853716 2 9
1.9966191 -1.4752644 0.21719199 2 10
1.9887933 -1.4705555 0.30369836 60 11
1.929325 -1.428668 -0.12581562 37 6
1.9874116 -1.4727557 -0.043177128 2 7
1.9677407 -1.4640392 0.12853716 2 9
2.0074401 -1.4941206 0.21893509 2 10
1.9932001 -1.4846035 0.30516082 62 11
1.9307301 -1.4401704 -0.12623429 8 6
1.969439 -1.4701144 -0.042897888 1 7
1.9626182 -1.4708989 0.12853716 2 9
1.9767065 -1.4819967 0.21614613 2 10
1.9911813 -1.4939349 0.3056483 58 11
1.9579018 -1.4721729 -0.042758264 1 7
1.9539906 -1.4740422 0.04272344 54 8
1.9734122 -1.4897745 0.12958388 5 9
1.9683416 -1.486486 0.2157975 2 10
1.9875382 -1.5020729 0.30589202 55 11
1.9591275 -1.4838278 -0.042897888 2 7
1.9504255 -1.4820637 0.042758342 72 8
1.9726552 -1.5005851 0.21684335 9 10
1.9743854 -1.5029896 0.30467334 22 11
1.9507565 -1.4882314 -0.042828076 2 7
1.9420643 -1.4864324 0.04268853 63 8
1.9471077 -1.4913704 0.12853716 57 9
1.9645771 -1.5096532 -0.043246936 2 7
1.9527011 -1.5054116 0.043037582 66 8
1.9450526 -1.5005978 0.12874649 44 9
1.9684404 -1.5191896 0.21754062 61 10
1.9403193 -1.501814 -0.042828076 7 7
1.9442753 -1.5097655 0.04296777 67 8
1.9495295 -1.5143912 0.12937453 55 9
1.9505411 -1.5162691 0.21614613 47 10
1.9305962 -1.5045524 -0.042723361 41 7
1.9329568 -1.5112782 0.042828154 67 8
1.9429238 -1.5196171 0.12926985 56 9
1.956485 -1.531325 0.21736629 56 10
1.9397554 -1.522056 -0.043037504 47 7
1.9342194 -1.5226272 0.04296777 67 8
1.9441503 -1.5309944 0.12968855 56 9
1.9529612 -1.5390376 0.21754062 65 10
1.9299899 -1.5247611 -0.042932786 52 7
1.9354281 -1.5340012 0.043107387 69 8
1.9296726 -1.5299881 0.12906052 33 9
1.9572111 -1.5529358 0.21858647 67 10
1.9297926 -1.5410848 0.043107387 67 8
1.9483938 -1.5576106 0.21823785 67 10
1.9306346 -1.5528247 0.043247011 66 8
1.9460486 -1.5669013 0.21858647 65 10
1.9189869 -1.5545195 0.043107387 64 8
1.9424825 -1.5746759 0.13104929 2 9
1.9359245 -1.5699201 0.21806353 63 10
1.9073513 -1.5561521 0.04296777 33 8
1.9369737 -1.5814468 0.13104928 2 9
1.9366055 -1.5817094 0.21876079 47 10
1.934353 -1.5894611 0.04370077 5 8
1.949954 -1.6034207 0.13230535 2 9
1.932039 -1.6000261 0.13146795 2 9
1.9264423 -1.6067607 0.13146797 2 9
1.899223 -1.5942022 0.043281917 45 8
1.8994116 -1.5954913 0.13000259 12 9
1.9119722 -1.6163138 0.04370077 7 8
1.8961102 -1.6148576 0.13052592 42 9
1.8934938 -1.6240672 0.13073526 47 9
1.8938587 -1.6358889 0.13115394 51 9
1.8941646 -1.6477332 0.13157263 51 9
1.8989174 -1.6635475 0.13230534 42 9
