# .PCD v0.7 - Point Cloud Data file format
VERSION 0.7
FIELDS x y z intensity ring
SIZE 4 4 4 4 2
TYPE F F F F U
COUNT 1 1 1 1 1
WIDTH 468
HEIGHT 1
VIEWPOINT 0 0 0 1 0 0 0
POINTS 468
DATA ascii
2.8212457 -0.60945958 -0.35439593 1 4
2.7512407 -0.60439616 -0.34586504 12 4
2.7510519 -0.61442882 -0.34610879 33 4
2.7960565 -0.62499267 -0.25066003 1 5
2.7489994 -0.62354827 -0.34610879 40 4
2.7433429 -0.62327212 -0.24612789 12 5
2.7293963 -0.62912738 -0.34391546 57 4
2.7373784 -0.63147026 -0.24577929 36 5
2.7291167 -0.63910353 -0.34415889 54 4
2.7467966 -0.64374954 -0.24682517 45 5
2.7249382 -0.64816678 -0.34391516 47 4
2.7348411 -0.65102667 -0.24595359 29 5
2.7303777 -0.65953904 -0.34489015 46 4
2.7049232 -0.66339171 -0.34196526 12 4
2.7282951 -0.66962856 -0.24577932 2 5
2.7257066 -0.67858452 -0.34489015 4 4
2.7336736 -0.68107462 -0.24647652 2 5
2.6926458 -0.67984414 -0.34099028 22 4
2.7274165 -0.68963605 -0.24612789 2 5
2.7443101 -0.70206678 -0.44865403 1 3
2.7153766 -0.69516993 -0.34415889 33 4
2.7251146 -0.69867665 -0.24612789 21 5
2.7359893 -0.71063256 -0.34708375 40 4
2.7091615 -0.70467389 -0.24490772 37 5
2.7213345 -0.7088545 -0.14737801 2 6
2.7431624 -0.72221434 -0.44927976 88 3
2.7045741 -0.71306443 -0.34342766 57 4
2.7277508 -0.72019362 -0.24682516 45 5
2.7481306 -0.73430341 -0.45053127 70 3
2.7057781 -0.72399884 -0.34391519 43 4
2.7232957 -0.72919554 -0.24665083 61 5
2.7239084 -0.73037875 -0.14779668 41 6
2.7247064 -0.7377336 -0.4470897 70 3
2.7014461 -0.73244804 -0.34367141 49 4
2.7130427 -0.73660892 -0.24595362 55 5
2.7079802 -0.73574179 -0.147064 40 6
2.7221146 -0.74724013 -0.44708964 63 3
2.6988728 -0.74187326 -0.34367141 49 4
2.7105851 -0.74560165 -0.24595362 58 5
2.7053955 -0.74519008 -0.147064 9 6
2.7196214 -0.75626278 -0.44708964 60 3
2.7059598 -0.75348157 -0.34489015 46 4
2.702208 -0.75345337 -0.24543066 54 5
2.7112615 -0.764144 -0.44615108 45 3
2.6937602 -0.76022661 -0.34367171 49 4
2.7053139 -0.7645067 -0.24595362 51 5
2.6906507 -0.76087016 -0.14654063 1 6
2.6853647 -0.76798749 -0.34294054 47 4
2.7007129 -0.77339685 -0.24577928 39 5
2.7032032 -0.77513105 -0.14737801 2 6
2.6825318 -0.77782464 -0.34294054 46 4
2.6928093 -0.78233331 -0.14695932 1 6
2.7200317 -0.79797035 -0.44896689 2 3
2.6874192 -0.78942168 -0.34391516 47 4
2.7283819 -0.80300647 -0.14905275 1 6
2.7678745 -0.81567973 -0.050367493 1 7
2.6989529 -0.80100358 -0.54724032 2 2
2.7172303 -0.80746007 -0.44896695 1 3
2.6770363 -0.79653317 -0.34294054 19 4
2.6886468 -0.80049866 -0.24543063 2 5
2.6949379 -0.80339587 -0.14737801 1 6
2.69028 -0.80302984 -0.049006205 12 7
2.7181773 -0.81807876 -0.44959256 1 3
2.6799417 -0.80759114 -0.34367141 25 4
2.6972818 -0.81333005 -0.24647652 2 5
2.676821 -0.80817986 -0.14654063 1 6
2.6893747 -0.81299454 -0.049041111 40 7
2.659488 -0.80953556 -0.54037124 29 2
2.7153056 -0.82756186 -0.44959262 2 3
2.6791475 -0.81705272 -0.34391546 55 4
2.6906152 -0.82157665 -0.24612789 2 5
2.7198236 -0.83153331 -0.14905275 1 6
2.698137 -0.82541823 -0.049250543 52 7
2.6793036 -0.82528538 -0.54495054 47 2
2.7200971 -0.83889025 -0.45084411 2 3
2.6745265 -0.8253473 -0.34367141 48 4
2.6859725 -0.82990646 -0.24595359 12 5
2.6865222 -0.83110374 -0.14737801 1 6
2.682013 -0.83022171 -0.049006205 63 7
2.669055 -0.83182919 -0.54342413 45 2
2.7078717 -0.84496385 -0.44927973 7 3
2.6697345 -0.83408624 -0.34342766 47 4
2.7028124 -0.84597409 -0.14842474 2 6
2.6810071 -0.84017652 -0.049041111 58 7
2.6716046 -0.84337914 -0.54456896 43 2
2.6781633 -0.84699166 -0.34489015 46 4
2.6801131 -0.84863764 -0.24595359 47 5
2.6730392 -0.84742451 -0.14695932 2 6
2.6799645 -0.85013479 -0.049076021 56 7
2.6667743 -0.85210204 -0.54418737 47 2
2.7111635 -0.86732846 -0.45084414 70 3
2.6674788 -0.85438001 -0.34391516 46 4
2.6828265 -0.85981208 -0.24647652 50 5
2.6795733 -0.85980099 -0.14748268 7 6
2.6825418 -0.86178648 -0.049180731 60 7
2.6637838 -0.86140567 -0.54418737 49 2
2.6874466 -0.87009406 -0.44740257 66 3
2.6569266 -0.86123747 -0.34294054 46 4
2.6741235 -0.86732763 -0.24595362 51 5
2.6765559 -0.86914933 -0.14748268 19 6
2.6681075 -0.8674354 -0.048971307 60 7
2.6570289 -0.86947769 -0.54342413 47 2
2.6937792 -0.8825447 -0.44896692 63 3
2.6576765 -0.87174392 -0.34342766 46 4
2.6710794 -0.87665677 -0.24595359 51 5
2.6678138 -0.8766166 -0.14716868 2 6
2.6726611 -0.8792432 -0.049110919 60 7
2.6902621 -0.88971913 0.049460057 2 8
2.6595688 -0.88059831 -0.54456896 9 2
2.677557 -0.88759154 -0.44677684 56 3
2.6583855 -0.88226634 -0.34391516 46 4
2.6680031 -0.88597512 -0.24595359 51 5
2.6912711 -0.89474511 -0.14863408 1 6
2.6676786 -0.8879357 -0.049076021 55 7
2.6763151 -0.89756036 -0.4470897 50 3
2.6552896 -0.89154053 -0.34391516 46 4
2.6686718 -0.89655197 -0.24630223 46 5
2.6767731 -0.90031362 -0.14800604 1 6
2.6664577 -0.8978802 -0.049110919 18 7
2.6800404 -0.9076649 -0.65325779 2 1
2.6849663 -0.9098556 -0.5510565 1 2
2.6769068 -0.90816653 -0.44771543 10 3
2.655921 -0.90208071 -0.34440267 46 4
2.6660507 -0.90707862 -0.14758736 1 6
2.6580951 -0.91006941 0.0490412 53 8
2.6706309 -0.91540283 -0.54876679 1 2
2.6546326 -0.91199076 -0.34464666 49 4
2.6704221 -0.91897881 -0.14800604 1 6
2.697937 -0.92950094 -0.049809013 1 7
2.6586814 -0.92065102 0.049111009 11 8
2.6785491 -0.92857796 -0.5510565 1 2
2.6966281 -0.93590003 -0.4520956 2 3
2.6533084 -0.92190343 -0.34489012 45 4
2.6685462 -0.92771971 -0.24717377 1 5
2.6860611 -0.93485969 -0.14905275 1 6
2.6493559 -0.92312187 -0.048971307 2 7
2.6573389 -0.93058676 0.049145915 38 8
2.6722274 -0.93632442 -0.65370762 63 1
2.671586 -0.9366231 -0.55029327 1 2
2.6672502 -0.9361487 -0.44771546 1 3
2.648201 -0.93050116 -0.34464666 27 4
2.6540139 -0.9330641 -0.24612789 1 5
2.6677098 -0.93892545 -0.1482154 1 6
2.6574335 -0.93635136 -0.049180731 2 7
2.6521895 -0.93918955 0.049111009 55 8
2.6597588 -0.94239247 -0.6514582 63 1
2.6497958 -0.93938303 -0.54647702 1 2
2.6751351 -0.94941741 -0.44959256 2 3
2.6505489 -0.9417333 -0.34537756 55 4
2.6544952 -0.94365734 -0.24647652 2 5
2.6794691 -0.95358914 -0.14905275 1 6
2.6579163 -0.94696409 -0.049250543 2 7
2.6470125 -0.94776756 0.04907611 57 8
2.650949 -0.94969922 -0.6501084 60 1
2.6575897 -0.95260155 -0.54876679 1 2
2.6792426 -0.96141839 -0.45084414 2 3
2.6360364 -0.94695318 -0.34391516 43 4
2.6661849 -0.95830894 -0.24787103 2 5
2.679883 -0.96428871 -0.14926212 1 6
2.6754575 -0.96322381 -0.04963449 25 7
2.6438551 -0.95654023 0.04907611 68 8
2.6551149 -0.96113819 -0.65190804 60 1
2.6579399 -0.96321034 -0.54953003 1 2
2.690896 -0.9756847 -0.45334706 6 3
2.6328819 -0.95568943 -0.34391519 46 4
2.6572053 -0.96556836 -0.24734806 9 5
2.635375 -0.95815647 -0.14695932 2 6
2.6438925 -0.96229815 -0.049110919 40 7
2.6498897 -0.96919757 0.049250629 63 8
2.6608939 -0.97374892 -0.65415758 63 1
2.6575761 -0.97306049 0.14832015 1 9
2.6436694 -0.96796876 -0.54724032 1 2
2.6369841 -0.96760923 -0.34489012 46 4
2.6352859 -0.96750808 -0.24560496 36 5
2.6545107 -0.97561789 -0.1482154 2 6
2.6517775 -0.9756642 -0.049320351 52 7
2.6352367 -0.97428071 0.0490412 63 8
2.6501677 -0.98032683 -0.65235794 47 1
2.6402745 -0.97719115 -0.54724032 2 2
2.6335902 -0.97680825 -0.34489012 47 4
2.6431 -0.98086011 -0.24665083 41 5
2.6623223 -0.98905104 -0.14884342 3 6
2.638984 -0.98142946 -0.049145821 61 7
2.6374395 -0.98557347 0.049145915 65 8
2.6430793 -0.98820686 -0.6514582 48 1
2.6368475 -0.9864015 -0.54724032 2 2
2.6490827 -0.99203271 -0.44802827 66 3
2.6375992 -0.98878235 -0.34586504 45 4
2.641526 -0.99078017 -0.24682517 49 5
2.6326764 -0.9885093 -0.14737801 22 6
2.6411579 -0.99274594 -0.049250543 53 7
2.6377244 -0.99618691 0.049215723 65 8
2.635968 -0.99604917 -0.65055841 48 1
2.6210856 -0.99094838 0.14685474 44 9
2.6499155 -1.0018481 -0.55067486 5 2
2.6566889 -1.005469 -0.44990554 70 3
2.6192815 -0.99235713 -0.34391516 47 4
2.64364 -1.0021133 -0.24734807 47 5
2.6385462 -1.001236 -0.14790137 13 6
2.6432843 -1.0040896 -0.049355246 56 7
2.6342313 -1.0053883 0.049215727 65 8
2.6361156 -1.0066347 -0.65145814 47 1
2.6138792 -0.99866599 0.1466454 21 9
2.6390669 -1.0082893 -0.54914844 16 2
2.6513174 -1.0140307 -0.44959256 60 3
2.6158016 -1.0014939 -0.34391516 46 4
2.6401258 -1.0113353 -0.24734807 51 5
2.6304293 -1.0097272 -0.049180731 60 7
2.6325715 -1.0152969 0.049250629 60 8
2.6362219 -1.0172333 -0.65235794 48 1
2.6336997 -1.0167881 -0.54876679 2 2
2.6385491 -1.0197189 -0.44802827 58 3
2.6196952 -1.0134836 -0.34489012 46 4
2.6254318 -1.0162297 -0.24630223 46 5
2.6706018 -1.0347857 -0.15009949 2 6
2.6250241 -1.0181795 -0.049145825 53 7
2.6234217 -1.0223017 0.049145915 66 8
2.6417332 -1.0299686 -0.65460742 52 1
2.6328936 -1.0270516 0.14811082 2 9
2.6374505 -1.0288292 -0.55029327 1 2
2.6368139 -1.0296415 -0.44834119 52 3
2.6198394 -1.0240673 -0.34537759 46 4
2.6409359 -1.0339082 -0.14863408 1 6
2.6251776 -1.028796 -0.049215633 23 7
2.6179767 -1.0307205 0.049111009 60 8
2.6290562 -1.0356126 -0.65235794 48 1
2.6404412 -1.0406297 0.14873883 2 9
2.637496 -1.0394691 -0.5510565 1 2
2.6295288 -1.0373898 -0.44771546 18 3
2.6236341 -1.0361227 -0.34635258 46 4
2.6293905 -1.0389264 -0.24734806 2 5
2.6373107 -1.0431204 -0.14863408 1 6
2.6255112 -1.044287 0.049320441 15 8
2.6254253 -1.0447835 -0.652358 47 1
2.6145256 -1.0409746 0.14748278 2 9
2.6374993 -1.0501217 -0.55181968 1 2
2.6089389 -1.0408609 -0.34489015 46 4
2.6275985 -1.0488373 -0.24752238 1 5
2.6522002 -1.0597306 -0.14968079 1 6
2.6420684 -1.0567518 -0.049669396 2 7
2.6199541 -1.0532148 -0.65190804 36 1
2.621994 -1.0545665 0.14811082 2 9
2.6228893 -1.0549265 -0.54953003 1 2
2.6856551 -1.0807155 0.25327477 1 10
2.6607032 -1.0712146 -0.45428568 2 3
2.6089714 -1.0514455 -0.34537789 33 4
2.6645739 -1.0743943 -0.25135726 1 5
2.6373727 -1.064497 -0.14905277 2 6
2.6383636 -1.065968 -0.049669396 2 7
2.6108952 -1.0607054 0.14769211 2 9
2.6228285 -1.0655534 -0.55029327 1 2
2.6024995 -1.0578239 0.24577907 7 10
2.6752462 -1.0879369 -0.45741436 2 3
2.6163168 -1.0650367 -0.34684032 21 4
2.6165216 -1.0656525 -0.24717376 1 5
2.6447375 -1.0782206 -0.14968079 1 6
2.6383295 -1.0766822 -0.049739204 2 7
2.6145682 -1.0728456 0.14811082 2 9
2.6372559 -1.0821552 -0.55410939 1 2
2.6348877 -1.0822582 -0.451157 2 3
2.6199274 -1.0771823 -0.34781495 60 4
2.6348972 -1.0838747 -0.24926551 2 5
2.6298766 -1.0828831 -0.14905275 2 6
2.6160669 -1.078265 -0.04939016 17 7
2.6088271 -1.080078 0.049285531 57 8
2.6331384 -1.0906818 0.14936687 2 9
2.63709 -1.0928578 -0.55487269 1 2
2.6420414 -1.0959904 -0.45303422 8 3
2.6106513 -1.0840372 -0.34708375 54 4
2.6310978 -1.0930656 -0.24926551 2 5
2.615016 -1.0874552 -0.14842474 2 6
2.6143231 -1.0877025 -0.049425066 46 7
2.6070764 -1.0894945 0.049320441 65 8
2.6079047 -1.0914451 -0.54953009 1 2
2.6078193 -1.0919441 0.24734783 63 10
2.5942268 -1.0873172 -0.34537756 47 4
2.6070564 -1.0937644 -0.24734807 6 5
2.6187615 -1.0992128 -0.14884341 2 6
2.63079 -1.1053419 -0.049809016 52 7
2.612469 -1.1024758 0.049494959 66 8
2.6259727 -1.1092545 -0.55410939 2 2
2.5986788 -1.0982594 0.24682494 60 10
2.6363397 -1.1147181 -0.45334709 63 3
2.5904155 -1.0963662 -0.34537756 46 4
2.6112311 -1.1067886 -0.14863408 3 6
2.6179047 -1.1101562 -0.049634486 68 7
2.6087987 -1.111133 0.049494959 71 8
2.596046 -1.1067722 0.14790146 44 9
2.6040266 -1.1107115 -0.55029327 2 2
2.5911639 -1.1057596 0.24647628 60 10
2.6326284 -1.1234543 -0.45334706 70 3
2.5977187 -1.1096287 -0.34684002 46 4
2.610543 -1.1161845 -0.24839395 41 5
2.5983646 -1.111514 -0.1481107 19 6
2.5974696 -1.1122038 -0.049320351 58 7
2.6010351 -1.1191063 0.049425155 66 8
2.5956409 -1.1178595 0.14811081 55 9
2.6217713 -1.1291131 -0.55487269 11 2
2.5872884 -1.1147977 0.24647628 63 10
2.6284933 -1.1330959 -0.45334709 70 3
2.5936344 -1.1191424 -0.34684002 45 4
2.6029723 -1.1237109 -0.24804533 61 5
2.59794 -1.1226145 -0.14832005 30 6
2.5988817 -1.1240981 -0.049425066 56 7
2.5934443 -1.1265855 0.049355336 65 8
2.5898919 -1.1261171 0.14800616 26 9
2.5833809 -1.1238222 0.24647661 63 10
2.620899 -1.1406871 -0.45272127 73 3
2.5969913 -1.1313604 -0.34781495 43 4
2.5935545 -1.1304018 -0.24752238 43 5
2.6049895 -1.1364681 -0.1489481 14 6
2.6059372 -1.1379645 -0.04963449 56 7
2.593159 -1.1372377 0.049425155 68 8
2.6102295 -1.1458104 -0.55410939 47 2
2.5867395 -1.1360376 0.24717353 57 10
2.6042418 -1.1442667 -0.45053121 62 3
2.585758 -1.1372221 -0.34684002 46 4
2.5987113 -1.1434605 -0.24839395 43 5
2.6021497 -1.1465998 -0.049634494 55 7
2.6003451 -1.1506857 0.04963458 66 8
2.5839927 -1.1445283 0.14811082 2 9
2.5846748 -1.1453704 -0.54953003 16 2
2.5882225 -1.1474828 0.24769647 65 10
2.6040452 -1.1544976 -0.451157 60 3
2.5783439 -1.1441802 -0.34635258 46 4
2.6172705 -1.163095 -0.15009949 1 6
2.5926499 -1.1532378 -0.049529776 52 7
2.5963125 -1.1597557 0.04963458 66 8
2.5874767 -1.1563505 0.1485295 2 9
2.5753095 -1.1519917 0.24682492 63 10
2.6072114 -1.1668081 -0.45240846 62 3
2.5815804 -1.1564193 -0.3473275 45 4
2.6059053 -1.1689543 -0.14968079 1 6
2.5815139 -1.1585541 -0.04939016 17 7
2.5851603 -1.1650726 0.049494959 18 8
2.5979896 -1.1719456 0.14936689 2 9
2.5749044 -1.1626137 0.24717356 58 10
2.5979269 -1.1730088 -0.45146987 26 3
2.5777316 -1.1649737 -0.3473275 43 4
2.5958755 -1.1742651 -0.24926551 1 5
2.6274889 -1.1891183 -0.1511462 1 6
2.5793407 -1.1743863 0.1485295 2 9
2.5819132 -1.1761014 0.24821973 48 10
2.5808735 -1.1772599 -0.34830278 23 4
2.6171346 -1.1949042 -0.25170588 2 5
2.5797212 -1.1783664 -0.14863408 1 6
2.6133723 -1.1948406 -0.050158057 2 7
2.5915022 -1.1897668 0.049774207 5 8
2.5824852 -1.1867186 0.14894819 2 9
2.5739655 -1.1838917 0.2478708 12 10
2.609206 -1.2006524 -0.45491141 2 3
2.623805 -1.2090354 -0.25275177 1 5
2.6152852 -1.2062165 -0.15093686 1 6
2.612818 -1.2056315 -0.050227877 2 7
2.5783267 -1.1957257 0.14894818 2 9
2.6049991 -1.209753 -0.45491141 2 3
2.5903847 -1.2040657 -0.35074019 22 4
2.6159554 -1.2165062 -0.25240311 1 5
2.6038156 -1.2119669 -0.15051816 1 6
2.5959036 -1.2088354 -0.049983539 25 7
2.5886092 -1.2114913 0.14978556 2 9
2.5827827 -1.2109634 -0.35025233 39 4
2.6153004 -1.2273235 -0.25275177 2 5
2.6033981 -1.2222924 -0.1507275 2 6
2.571667 -1.2134255 0.04963458 57 8
2.5629034 -1.2098376 0.14852948 3 9
2.5911007 -1.2259145 -0.35195854 40 4
2.5860043 -1.2240558 -0.2503114 2 5
2.6027255 -1.2330828 -0.15093686 2 6
2.5948436 -1.2299031 -0.050123163 71 7
2.5676291 -1.2219468 0.04963458 68 8
2.5961859 -1.2377609 -0.45553717 51 3
2.5870214 -1.2345002 -0.35195854 67 4
2.5673327 -1.2262053 -0.24891688 6 5
2.5769973 -1.2313737 -0.14968079 4 6
2.5688863 -1.2285998 -0.049704298 68 7
2.5669532 -1.2326335 0.049704388 66 8
2.5612338 -1.233189 -0.34903368 54 4
2.5456972 -1.227351 -0.14811073 19 6
2.5789895 -1.2445118 -0.049983531 56 7
2.5698338 -1.2450739 0.049844015 70 8
2.5518913 -1.2374811 0.14863418 42 9
2.5515563 -1.2395197 -0.34830278 43 4
2.5858064 -1.2567159 -0.25153157 41 5
2.5611541 -1.2458398 -0.14926213 33 6
2.5638428 -1.2482545 -0.049774114 55 7
2.5654716 -1.2540368 0.049844012 70 8
2.5565262 -1.25077 0.14915754 55 9
2.5561271 -1.2527869 -0.34952116 49 4
2.5760369 -1.2631028 -0.2510086 65 5
2.5854769 -1.2688509 -0.15093686 36 6
2.5558798 -1.2554332 -0.049704298 55 7
2.5574918 -1.2612153 0.049774203 71 8
2.553936 -1.2605702 0.1492622 54 9
2.5535178 -1.2625816 -0.34976488 46 4
2.5519683 -1.2623699 -0.24909121 33 5
2.5774519 -1.2760959 -0.1507275 7 6
2.5622327 -1.2696745 -0.049913734 56 7
2.5566547 -1.2719164 0.049844015 66 8
2.5530958 -1.2712579 0.14947155 51 9
2.5597532 -1.2768037 -0.35122731 47 4
2.5613625 -1.280399 -0.049983539 53 7
2.5539863 -1.2817299 0.049878918 60 8
2.5486429 -1.2801622 0.14947155 21 9
2.5481875 -1.282162 -0.35025233 43 4
2.5947025 -1.3061343 -0.25414625 1 5
2.5970194 -1.3084371 -0.15240227 1 6
2.5604484 -1.2911328 -0.050053351 47 7
2.5401561 -1.2892524 -0.34976488 46 4
2.6007862 -1.320596 -0.2551921 1 5
2.5853143 -1.313875 -0.15198359 1 6
2.5427084 -1.3017297 -0.35074019 46 4
2.5642407 -1.3133179 -0.25205448 1 5
2.5736027 -1.3192471 -0.1515649 1 6
2.5584893 -1.3126277 -0.050192971 2 7
2.5688684 -1.3230541 0.050437391 2 8
2.5434401 -1.3133297 -0.35147136 40 4
2.5915034 -1.3387206 -0.2551921 1 5
2.579627 -1.3337264 -0.15219292 1 6
2.5681 -1.3289028 -0.050472207 3 7
2.5305181 -1.3144988 0.049774207 17 8
2.5529256 -1.3295354 -0.3534213 10 4
2.5797467 -1.3440759 -0.25449485 1 5
2.5572464 -1.3334882 -0.1511462 1 6
2.5820947 -1.3567799 -0.25519213 1 5
2.5561116 -1.3442658 -0.15135556 2 6
2.5676072 -1.3514558 -0.05064673 52 7
2.5548728 -1.3498822 0.050437391 71 8
2.5773427 -1.3657848 -0.2551921 2 5
2.572577 -1.3644097 -0.15261161 2 6
2.5575752 -1.3575974 -0.050542008 71 7
2.5380278 -1.3517669 0.05019306 52 8
2.5549877 -1.3653826 -0.25344902 2 5
2.5416181 -1.3588084 -0.15104154 14 6
2.5371912 -1.3575804 -0.050227873 82 7
2.5315318 -1.3596717 0.05015815 62 8
2.5466981 -1.3724027 -0.2531004 14 5
2.5359561 -1.3683275 -0.050297678 60 7
2.5247736 -1.3679886 0.050123252 65 8
2.5476208 -1.3855489 -0.15198359 59 6
2.5417035 -1.3829056 -0.050507106 60 7
2.5307534 -1.3821043 0.05033268 45 8
2.5510323 -1.397807 -0.25449482 70 5
2.516741 -1.3795888 -0.15041348 49 6
2.5368607 -1.3917695 -0.050507106 60 7
2.5341749 -1.3995167 -0.25327468 55 5
2.5381305 -1.4028578 -0.15198357 30 6
2.5302377 -1.3996485 -0.050472207 63 7
2.5292745 -1.4083543 -0.25327468 42 5
2.5218432 -1.4065239 -0.050402392 56 7
2.5258329 -1.4185908 -0.25344902 11 5
2.5422051 -1.4283698 -0.15282094 1 6
2.5273767 -1.4211991 -0.05061182 63 7
2.5404282 -1.4396471 -0.15303031 1 6
2.5258794 -1.4319851 -0.050681636 63 7
2.5353873 -1.4485061 -0.15303031 1 6
2.5330186 -1.4477394 -0.05092597 67 7
2.5236461 -1.4529196 -0.15261161 1 6
2.5140882 -1.4485856 -0.05064673 60 7
2.5289237 -1.4677354 -0.15323964 1 6
2.5107455 -1.4583571 -0.050681636 63 7
2.5306802 -1.4805883 -0.15365832 2 6
2.5073655 -1.4681226 -0.050716538 60 7
2.4893692 -1.4681066 -0.15146022 6 6
2.5125582 -1.4829648 -0.05092597 52 7
2.5159595 -1.4968387 -0.051100496 22 7
2.5147741 -1.5074465 -0.15365832 36 6
2.5148904 -1.5188752 -0.15397233 13 6
