# .PCD v0.7 - Point Cloud Data file format
VERSION 0.7
FIELDS x y z intensity ring
SIZE 4 4 4 4 2
TYPE F F F F U
COUNT 1 1 1 1 1
WIDTH 1305
HEIGHT 1
VIEWPOINT 0 0 0 1 0 0 0
POINTS 1305
DATA ascii
4.1488061 0.5734809 -1.1222392 3 0
6.8737531 0.94892234 0.12111954 35 8
4.6177044 0.63665336 -1.076166 4 1
24.257519 3.3401248 1.2832781 20 9
5.1306553 0.7064625 -1.0067084 2 2
24.175272 3.3245008 2.1349659 14 10
5.8338361 0.80121201 -0.93266213 2 3
24.080015 3.3028386 2.9843361 14 11
6.6790009 0.91491067 -0.82773626 2 4
23.99658 3.2828608 3.836087 100 12
2.5662651 0.35062137 -0.22660501 56 5
22.291798 3.0456638 4.3733411 41 13
2.6042612 0.35535097 -0.13774821 2 6
14.545428 1.9821348 3.3891129 28 14
2.5818036 0.35136741 -0.045480832 60 7
11.033745 1.4996684 2.9836664 13 15
4.1623683 0.55981499 -1.1253452 3 0
6.8690968 0.92385465 0.12097993 39 8
4.6276245 0.62156713 -1.0779651 4 1
24.280903 3.2570281 1.283906 20 9
5.1371017 0.68817306 -1.0074716 2 2
24.171494 3.233752 2.1335711 14 10
5.824986 0.77825618 -0.930785 2 3
24.099266 3.2198193 2.9853108 21 11
6.3043642 0.8411814 -0.78093839 4 4
24.021599 3.2008972 3.8382769 28 12
2.561548 0.34087458 -0.22608207 48 5
22.304754 2.9642029 4.3737249 58 13
2.6134653 0.34685382 -0.13816687 1 6
14.616343 1.9372628 3.4039595 28 14
2.5869787 0.34288037 -0.045550641 60 7
4.1642966 0.54528505 -1.1253452 3 0
6.9120927 0.90385902 0.12167802 7 8
4.610548 0.60207945 -1.0734667 4 1
24.284201 3.1712108 1.2834872 31 9
5.1472597 0.67125118 -1.008998 2 2
24.245857 3.1575966 2.1391492 14 10
5.8394203 0.75944543 -0.93266213 2 3
24.108944 3.1311965 2.9850676 35 11
6.3428402 0.82266641 -0.78532571 2 4
24.038504 3.117794 3.8392155 39 12
2.56865 0.33269811 -0.22660501 24 5
22.297445 2.8840544 4.3702879 52 13
2.5908909 0.33465934 -0.13691083 1 6
14.905196 1.9226248 3.469645 55 14
2.5921261 0.33435896 -0.045620445 60 7
4.1585088 0.52976799 -1.1232746 5 0
7.335588 0.93450779 0.12907782 3 8
4.6047869 0.58580202 -1.0716671 4 1
24.287201 3.0854225 1.2830688 31 9
5.1417813 0.65229493 -1.0074717 2 2
24.201389 3.0659258 2.1342685 14 10
5.8262291 0.7380892 -0.93015921 2 3
24.107374 3.0497527 2.9836049 49 11
6.3337164 0.80013669 -0.78386331 2 4
24.043362 3.0331168 3.8382769 63 12
23.033436 2.901629 4.5126343 45 13
2.5959496 0.32656485 -0.13712017 1 6
14.925026 1.8748829 3.4727943 76 14
2.5932777 0.32530805 -0.045620449 60 7
14.108171 1.7672746 3.8098173 9 15
4.1755815 0.51787609 -1.1274159 3 0
7.584888 0.93937099 0.13340601 3 8
4.6145396 0.57068467 -1.0734667 4 1
24.303772 3.0013535 1.2833828 31 9
5.1244316 0.63283312 -1.0036556 2 2
24.207468 2.9851716 2.13392 14 10
5.8326907 0.71823442 -0.930785 2 3
24.129694 2.9670308 2.9850674 100 11
6.3167682 0.77560216 -0.78142589 2 4
24.038116 2.9472649 3.8357742 57 12
6.6822453 0.8192966 -0.58899868 5 5
23.125273 2.8312354 4.5286598 100 13
2.5970736 0.31750065 -0.13712016 1 6
14.916002 1.8208945 3.4691951 76 14
2.5844727 0.31504458 -0.045445926 57 7
14.110417 1.7175462 3.8087816 7 15
4.1658549 0.50190973 -1.1243099 3 0
8.1003504 0.97451448 0.14241149 7 8
4.6165028 0.55457217 -1.0734665 4 1
24.320047 2.917206 1.2836967 31 9
5.1422029 0.61681074 -1.0067084 2 2
24.265215 2.9063451 2.1381032 14 10
5.8312397 0.69739944 -0.93015921 2 3
24.145817 2.8834839 2.9857984 100 11
6.339148 0.75589955 -0.78386331 2 4
24.044334 2.8628645 3.8351481 32 12
6.8651009 0.81740063 -0.60486108 19 5
23.918722 2.8436635 4.6820698 57 13
2.5822995 0.3065502 -0.13628279 2 6
2.5855565 0.3060205 -0.045445926 57 7
14.129755 1.6698712 3.8124049 9 15
4.1675811 0.48736799 -1.1243099 3 0
8.8505144 1.0334326 0.15553567 1 8
4.6338964 0.54025841 -1.0770653 4 1
24.337524 2.8374722 1.2841156 20 9
5.1326241 0.59749877 -1.0044186 2 2
24.2673 2.8206995 2.1374061 14 10
5.8257899 0.67612785 -0.92890775 2 3
24.155737 2.7991984 2.9857986 100 11
6.6651459 0.77118397 -0.82383722 2 4
24.073318 2.7853789 3.8382769 26 12
23.9207 2.7592704 4.6805434 28 13
2.6151001 0.30119002 -0.13795753 2 6
19.882524 2.286423 4.6204944 40 14
2.5905302 0.29790217 -0.045515735 49 7
14.116025 1.6207987 3.8072288 14 15
4.1539011 0.47107491 -1.1201688 3 0
4.6085534 0.52182025 -1.0707668 4 1
24.367125 2.7547495 1.2851621 20 9
5.1346788 0.57957757 -1.0044187 2 2
24.292837 2.737752 2.1388006 14 10
5.8044453 0.65414888 -0.92515337 2 3
24.155022 2.7179632 2.9845798 100 11
6.7110658 0.75395423 -0.82919866 2 4
24.067192 2.6995623 3.8357742 97 12
7.8566856 0.87988204 -0.69166821 3 5
23.95508 2.6827655 4.6855073 21 13
2.5922658 0.28985369 -0.13670149 10 6
19.895811 2.2211208 4.6218438 65 14
2.5836048 0.28797218 -0.045376118 23 7
14.127355 1.5721586 3.8087816 7 15
4.178484 0.45983219 -1.1263806 3 0
9.6743021 1.0629296 0.16988152 11 8
4.6142206 0.50615615 -1.0716671 4 1
24.364681 2.6683648 1.2845342 20 9
5.1560879 0.56468308 -1.0082347 2 2
24.289896 2.6558962 2.1377547 14 10
5.8184752 0.63517374 -0.92703062 2 3
24.164362 2.6336236 2.9845798 100 11
6.6820812 0.72708935 -0.82529885 2 4
24.096104 2.6176741 3.8389025 48 12
7.8635221 0.85425168 -0.69201684 3 5
23.977962 2.600606 4.6881757 14 13
19.889881 2.1501961 4.6186953 70 14
11.948882 1.287515 3.2202268 1 15
4.1800637 0.44524461 -1.1263806 3 0
9.683919 1.0297854 0.16998625 30 8
4.6159592 0.49004519 -1.071667 4 1
24.369875 2.5828838 1.2843249 20 9
5.1424103 0.54502732 -1.005182 2 2
24.314873 2.5727632 2.1391494 14 10
5.8245859 0.61527312 -0.92765641 2 3
24.175381 2.5494714 2.9848235 98 11
6.6964231 0.70500529 -0.82676125 2 4
24.109022 2.5339651 3.8395283 40 12
7.8783445 0.82804888 -0.69306272 3 5
23.994707 2.5177159 4.689702 14 13
2.6041582 0.27278957 -0.13722485 40 6
19.897263 2.0807583 4.6186943 75 14
10.704188 1.1175029 -0.18785715 6 7
4.181592 0.43065163 -1.1263806 3 0
9.7033672 0.9976092 0.17026547 7 8
4.6292729 0.4751243 -1.0743665 4 1
24.390226 2.5032849 1.2849529 20 9
5.1286559 0.52547383 -1.0021288 2 2
24.315775 2.4870553 2.1384521 14 10
5.8384886 0.59614289 -0.92953354 2 3
24.188084 2.4654641 2.985311 63 11
6.7027941 0.68202633 -0.82724875 2 4
24.101576 2.4523966 3.8370254 24 12
7.8455071 0.79692072 -0.68992507 3 5
23.987722 2.4323525 4.6866493 7 13
2.6050944 0.26369703 -0.13722485 18 6
12.098538 1.22253 -0.21225551 1 7
17.521841 1.7674453 4.7187891 80 15
4.1638465 0.41413939 -1.1212041 3 0
16.440367 1.6351718 0.28838319 3 8
4.626945 0.45938414 -1.0734667 4 1
24.406765 2.4189129 1.2853715 20 9
5.1421814 0.5087266 -1.0044186 2 2
24.324308 2.4021673 2.1384521 14 10
5.820776 0.5748356 -0.92640483 2 3
24.211931 2.3868029 2.9872611 42 11
6.6892142 0.65824145 -0.82529885 2 4
24.109987 2.3682563 3.8370252 16 12
7.8601389 0.77069432 -0.6909709 3 5
23.995657 2.3527977 4.6866493 7 13
19.947817 1.9488736 4.627243 20 14
12.122637 1.1822288 -0.21260458 1 7
17.547136 1.7081476 4.7239666 28 15
4.1690426 0.40069979 -1.1222394 5 0
4.6168818 0.44211447 -1.0707668 4 1
24.419037 2.3340883 1.2855809 20 9
5.1399322 0.49129924 -1.0036556 2 2
24.336105 2.3218753 2.1388006 14 10
5.8266792 0.55488676 -0.92703056 2 3
24.21221 2.3015149 2.9862859 42 11
6.7230902 0.63788927 -0.82919943 2 4
24.153507 2.2874286 3.8426573 16 12
7.8626513 0.74462283 -0.6909709 3 5
24.01545 2.2701252 4.6889391 7 13
9.5166149 0.89791262 -0.50095958 2 6
17.044266 1.605153 3.9523897 3 14
12.106779 1.1380309 -0.21225551 1 7
17.554913 1.6470702 4.7244835 14 15
4.174263 0.38649979 -1.1232747 3 0
16.443417 1.5196204 0.28824359 3 8
4.6222773 0.42635697 -1.0716671 4 1
24.415104 2.2477305 1.2849529 20 9
5.1572547 0.47479299 -1.0067084 2 2
24.32819 2.2354472 2.1374061 14 10
5.824646 0.53418761 -0.92640477 2 3
24.222073 2.2171705 2.9865298 28 11
6.6817856 0.61044222 -0.82383722 2 4
24.173143 2.2041957 3.8445342 8 12
7.8612337 0.71681601 -0.69062233 3 5
24.042778 2.1880658 4.6927547 7 13
9.5236721 0.86504692 -0.50116903 2 6
12.138558 1.0982885 -0.21274418 1 7
12.787054 1.1547142 3.440223 1 15
4.1832838 0.37261102 -1.1253452 3 0
16.38488 1.4565502 0.2871266 3 8
4.6237369 0.41021842 -1.071667 4 1
24.438721 2.1638951 1.2857903 10 9
5.1197701 0.45332342 -0.99907607 2 2
24.359661 2.1526222 2.1394978 14 10
5.8225398 0.51350391 -0.92577904 2 3
24.243507 2.1338184 2.9882357 28 11
6.6720099 0.58607388 -0.8223747 2 4
24.161013 2.1180708 3.8414054 8 12
7.8636889 0.68936884 -0.69062239 3 5
24.062006 2.1051483 4.695045 7 13
9.5226526 0.83145219 -0.50095963 2 6
19.955482 1.7388659 4.6245432 40 14
12.138336 1.0555608 -0.21267439 1 7
17.589075 1.5264779 4.7306943 14 15
4.1768594 0.35735044 -1.1232746 3 0
16.342049 1.3952605 0.28628892 3 8
4.6329079 0.39473653 -1.0734667 4 1
24.4501 2.0789299 1.2859995 10 9
5.1174083 0.43512022 -0.99831283 2 2
24.36306 2.0672345 2.1391494 14 10
5.8439813 0.49484155 -0.92890787 2 3
24.258717 2.0498645 2.9892106 21 11
6.6779723 0.5631125 -0.82286149 2 4
24.176138 2.0343766 3.8426576 8 12
7.8700185 0.66224724 -0.69097096 3 5
24.057467 2.0201738 4.6927547 7 13
9.5055952 0.79653656 -0.49991295 2 6
19.94978 1.668218 4.6218438 65 14
12.114048 1.0108641 -0.21218573 1 7
4.1665292 0.34181955 -1.1201688 3 0
16.362762 1.339524 0.28656814 3 8
4.6226044 0.37761131 -1.0707668 4 1
24.441284 1.9922657 1.2851622 10 9
5.1502042 0.41980508 -1.0044187 2 2
24.342321 1.9799113 2.1367116 14 10
5.8377972 0.47380129 -0.92765641 2 3
24.27364 1.9658082 2.9901857 21 11
6.6304302 0.5357995 -0.81676871 6 4
24.202776 1.9515661 3.8457854 8 12
7.8484502 0.63285172 -0.68887925 1 5
24.080027 1.9374385 4.6958108 7 13
9.5521154 0.76686478 -0.50221574 2 6
19.971022 1.5998193 4.6254435 65 14
12.119493 0.96872795 -0.21222059 1 7
4.1792517 0.32818177 -1.1232746 3 0
16.359364 1.28177 0.28642848 3 8
4.6161227 0.36086437 -1.0689671 4 1
24.460037 1.9078748 1.2857902 10 9
5.1555529 0.40213144 -1.005182 2 2
24.349085 1.8949455 2.1367087 14 10
5.8394156 0.45341906 -0.92765641 2 3
24.30015 1.8826036 2.9926233 14 11
6.6500735 0.51403314 -0.81896245 14 4
24.201565 1.8664567 3.8445342 8 12
7.8665037 0.60667509 -0.6902737 3 5
24.051409 1.8506544 4.6889415 7 13
9.4949903 0.72893709 -0.4990755 2 6
19.988144 1.5309851 4.6281428 80 14
12.134766 0.92732811 -0.21243005 1 7
12.364669 0.94273269 3.3227193 1 15
4.1765203 0.31330141 -1.1222395 3 0
16.323856 1.2216681 0.28573042 3 8
4.6056943 0.34388152 -1.0662678 4 1
24.494431 1.8245523 1.2872555 10 9
5.1530094 0.38383967 -1.0044187 2 2
24.403238 1.8134768 2.1408923 14 10
5.844902 0.43332624 -0.92828202 2 3
24.298653 1.7971767 2.9916482 14 11
6.6637049 0.49169165 -0.82042402 8 4
24.255213 1.785452 3.8520429 8 12
7.8566508 0.57833642 -0.68922782 3 5
24.085135 1.768706 4.6942844 7 13
9.4974775 0.69578636 -0.4990755 2 6
19.98559 1.4606402 4.6263433 75 14
12.094053 0.88176787 -0.21166216 1 7
17.616383 1.2813058 4.7327652 17 15
4.1891494 0.2995463 -1.1253452 3 0
16.351957 1.1663907 0.28614926 3 8
4.622417 0.32890776 -1.0698674 4 1
24.51659 1.7401644 1.288093 10 9
5.1386514 0.36473659 -1.0013658 2 2
24.385571 1.7265991 2.1388006 14 10
5.8384972 0.41236567 -0.92703062 2 3
24.300821 1.7120624 2.9911611 7 11
6.6891437 0.47009933 -0.82334894 4 4
24.257359 1.7005032 3.8514173 8 12
7.862597 0.55118835 -0.68957651 3 5
24.102917 1.6854377 4.6965718 7 13
9.515789 0.66374367 -0.49991295 2 6
19.992512 1.391008 4.6267934 75 14
12.132965 0.84203517 -0.21229042 1 7
17.618822 1.2196758 4.7322478 28 15
4.1670403 0.28334975 -1.1191335 3 0
16.34396 1.1084883 0.28593987 3 8
4.6235375 0.31276929 -1.0698675 4 1
24.510269 1.6580509 1.287465 10 9
5.1555634 0.34785551 -1.0044187 2 2
24.399399 1.6419957 2.1394975 14 10
5.851727 0.39277521 -0.92890775 2 3
24.32645 1.6285571 2.993598 7 11
6.7104716 0.4492389 -0.82578629 4 4
24.254982 1.6195204 3.8501663 8 12
7.8525448 0.52294284 -0.68853056 3 5
24.120405 1.6020783 4.6988611 7 13
9.5180473 0.6305207 -0.49991292 2 6
20.000902 1.3249549 4.6276932 75 14
12.079822 0.79810733 -0.2113131 1 7
17.618916 1.1609842 4.7312126 28 15
4.1718135 0.26977998 -1.1201688 3 0
16.335569 1.0535147 0.28573042 3 8
4.6284385 0.29768643 -1.0707673 4 1
17.332352 1.1147618 0.91022724 7 9
5.1410146 0.3297528 -1.0013658 2 2
24.420616 1.5620975 2.1408951 14 10
5.8372269 0.37236038 -0.92640483 2 3
24.331718 1.5478836 2.993598 7 11
6.7356973 0.42849734 -0.82871193 4 4
24.260218 1.5390838 3.8501663 8 12
7.8423052 0.49614307 -0.68748468 3 5
24.109909 1.5210992 4.6958079 7 13
9.5200872 0.59895617 -0.49991295 2 6
20.012966 1.2591157 4.6294923 75 14
12.07841 0.75779098 -0.2112433 1 7
17.630381 1.1030372 4.733283 28 15
4.1726851 0.25594312 -1.1201688 5 0
16.338974 0.9993338 0.28573042 3 8
4.6371808 0.28281182 -1.0725664 4 1
17.339939 1.0575262 0.91043657 38 9
5.1499186 0.31317803 -1.0028923 2 2
24.437595 1.4818243 2.1419382 14 10
5.8187113 0.35181314 -0.92327619 2 3
24.364462 1.468854 2.9970107 7 11
6.7489719 0.40687352 -0.83017367 2 4
24.277014 1.4593302 3.8520427 8 12
7.8439074 0.47013962 -0.68748468 3 5
23.197655 1.3863219 4.517211 6 13
9.5220203 0.56738049 -0.49991295 2 6
20.024809 1.1932013 4.6312914 75 14
12.08884 0.71821016 -0.2113829 1 7
17.637798 1.0447903 4.7343183 28 15
4.1696529 0.24188164 -1.1191335 3 0
16.326227 0.94422597 0.2854512 3 8
4.6108556 0.26586103 -1.0662682 4 1
17.935553 1.0341605 0.94152403 8 9
5.1666088 0.297001 -1.0059452 2 2
24.434418 1.400327 2.1412408 14 10
5.8435111 0.33386615 -0.92703056 2 3
24.333523 1.3860234 2.9926233 7 11
6.7344279 0.38358912 -0.82822371 2 4
24.289616 1.3792695 3.8532951 8 12
7.865315 0.44524962 -0.68922782 3 5
23.225641 1.31072 4.5217924 6 13
9.5158739 0.5353545 -0.49949425 2 6
20.024767 1.1265754 4.6303921 75 14
12.091155 0.67812067 -0.2113829 1 7
17.641163 0.98629892 4.7343178 28 15
4.1975579 0.22733122 -1.1263806 3 0
16.333727 0.88174236 0.285521 3 8
4.6235185 0.24878402 -1.0689672 4 1
24.570688 1.3221089 1.2895584 10 9
5.1598692 0.27673864 -1.0044186 2 2
17.313051 0.92551857 1.5168575 10 10
5.8605304 0.3122685 -0.92953348 2 3
24.378309 1.2946788 2.9974978 7 11
6.727984 0.35613108 -0.82724947 2 4
24.294727 1.2859881 3.8532944 8 12
7.8590083 0.41462767 -0.68853056 3 5
23.148163 1.2171948 4.505765 6 13
9.525836 0.49922797 -0.49991292 2 6
12.081688 0.63106596 -0.21117346 1 7
17.660255 0.91935378 4.7384596 28 15
4.1751733 0.21150567 -1.1201688 3 0
16.304605 0.82595766 0.28496253 3 8
4.6282105 0.23364574 -1.0698675 4 1
24.563185 1.2357243 1.2889304 10 9
5.1451173 0.25794035 -1.0013657 2 2
17.302248 0.86438686 1.5156373 26 10
5.8457513 0.29204243 -0.92703062 2 3
24.382471 1.2138351 2.997498 7 11
6.7093019 0.33283609 -0.8248114 2 4
24.287233 1.2005957 3.8514173 8 12
7.8484683 0.38660187 -0.68748468 3 5
23.210899 1.1433284 4.517211 6 13
9.5035028 0.46645892 -0.49865693 2 6
12.099796 0.5896647 -0.21145271 1 7
17.65757 0.85741663 4.736907 28 15
4.1797109 0.19784257 -1.121204 5 0
16.307392 0.76904231 0.28496256 3 8
4.6328912 0.21767056 -1.0707668 4 1
24.579319 1.1505408 1.2895584 10 9
5.1498671 0.2410617 -1.002129 2 2
5.8427882 0.27145028 -0.92640477 2 3
24.422253 1.1303626 3.0018852 7 11
6.6985245 0.30886704 -0.82334894 2 4
24.283381 1.1154412 3.8501658 8 12
7.8457899 0.35901907 -0.68713611 3 5
23.11669 1.0578072 4.4981303 6 13
9.513052 0.43365291 -0.49907553 2 6
20.06304 0.91105634 4.6366906 66 14
12.073815 0.54615664 -0.21096407 1 7
17.662384 0.79587418 4.7374244 28 15
4.1765485 0.18235227 -1.1201688 3 0
16.286005 0.71106315 0.28454369 3 8
4.6258354 0.20116195 -1.0689672 4 1
24.575203 1.0643836 1.2891397 10 9
5.1507158 0.22218354 -1.002129 2 2
24.487785 1.0520461 2.1443815 14 10
5.8437438 0.25003484 -0.92640477 2 3
17.274349 0.73911339 2.1229637 14 11
6.7154288 0.28615725 -0.82529885 2 4
24.322649 1.0321938 3.8557971 8 12
7.8629193 0.3323046 -0.68853056 1 5
24.15217 1.0165021 4.6988611 7 13
9.5145779 0.39877591 -0.49907553 2 6
20.068193 0.83760118 4.6371408 71 14
12.087635 0.5045107 -0.21117347 1 7
17.666985 0.73429161 4.7379417 28 15
4.1694374 0.167463 -1.1180981 3 0
16.284502 0.65121102 0.28447384 3 8
4.6226468 0.18404759 -1.0680674 4 1
24.578938 0.97430944 1.2891397 10 9
5.1475363 0.20404842 -1.0013657 2 2
24.519184 0.96765488 2.1468189 14 10
5.8445811 0.22963329 -0.92640477 2 3
17.304712 0.67688483 2.1263759 17 11
6.7045307 0.26108009 -0.82383722 2 4
24.342064 0.94363427 3.8583004 8 12
7.8560681 0.30454507 -0.68783331 3 5
24.202654 0.9340114 4.7080197 7 13
9.5238972 0.36587468 -0.49949428 2 6
20.072943 0.76761413 4.6375909 66 14
12.105388 0.4608151 -0.21145271 1 7
17.679209 0.66990364 4.74053 28 15
4.1931629 0.15375629 -1.1243098 3 0
16.29467 0.59465092 0.28461349 3 8
4.6271563 0.1680551 -1.0689672 4 1
24.626102 0.89008754 1.2914425 10 9
5.1285982 0.1853684 -0.99754959 2 2
24.534357 0.88248432 2.1478648 14 10
5.8453469 0.20923452 -0.92640477 2 3
6.7014332 0.23753285 -0.82334965 2 4
24.361 0.8592326 3.8608034 8 12
7.8730125 0.27768767 -0.68922782 3 5
24.205767 0.84951627 4.7080197 7 13
9.4931793 0.33151004 -0.49781951 2 6
12.090936 0.41800067 -0.21117347 1 7
17.700748 0.60884696 4.7457066 28 15
4.1627822 0.13809261 -1.1160277 5 0
16.308638 0.5381673 0.28482288 3 8
4.6277142 0.15190105 -1.0689671 4 1
24.616938 0.80803144 1.2908143 10 9
5.1488352 0.16810443 -1.0013657 2 2
24.50543 0.79580849 2.145076 14 10
5.8420935 0.18870008 -0.9257791 2 3
24.4596 0.78576201 3.0048101 7 11
6.6982546 0.21401371 -0.82286155 2 4
17.246115 0.55102491 2.7329104 9 12
7.8500371 0.24944259 -0.68713611 3 5
24.177185 0.76401842 4.7019162 7 13
9.5242205 0.29931366 -0.49938953 2 6
17.629438 0.55095321 4.0720634 3 14
12.108244 0.37840551 -0.21145271 1 7
17.696875 0.54996079 4.744153 31 15
4.1786871 0.12402231 -1.1201688 5 0
16.274355 0.4830184 0.28419462 3 8
4.6320887 0.1366678 -1.0698675 4 1
24.643568 0.72280514 1.2920705 10 9
5.1533155 0.15024856 -1.002129 2 2
24.591702 0.71268129 2.1523969 14 10
5.8347888 0.16909544 -0.92452765 2 3
24.438259 0.70396584 3.0018852 7 11
6.6949573 0.19168806 -0.8223747 2 4
17.559917 0.49969485 2.7823441 59 12
7.8468771 0.2219246 -0.68678743 3 5
23.374975 0.66108871 4.5454531 6 13
9.5012035 0.26705712 -0.49813351 2 6
17.596106 0.49150464 4.0639653 3 14
12.085504 0.33546844 -0.21103384 1 7
17.673586 0.48749518 4.7374244 17 15
4.1790757 0.11016343 -1.1201688 3 0
16.319921 0.42735466 0.28496256 3 8
4.6130567 0.11999221 -1.0653679 4 1
24.657808 0.64138496 1.2926986 10 9
5.1734118 0.13366438 -1.0059452 2 2
24.593929 0.63113332 2.1523969 14 10
5.8274441 0.1485271 -0.92327607 2 3
24.452475 0.61896271 3.0033479 7 11
6.6955862 0.16831535 -0.82237399 2 4
17.766851 0.44662765 2.814882 9 12
7.8754544 0.19659984 -0.68922782 3 5
23.365362 0.57920372 4.5431633 39 13
9.498085 0.23378929 -0.49792418 2 6
12.074555 0.29509315 -0.21082442 1 7
17.7118 0.4297787 4.7472596 24 15
4.1755719 0.095485628 -1.1191336 3 0
16.333241 0.3735033 0.28517196 3 8
4.6134291 0.10469504 -1.0653679 4 1
24.659899 0.55531448 1.2926987 10 9
5.1502938 0.11507734 -1.0013658 2 2
24.595984 0.54528582 2.1523972 14 10
5.8239551 0.1291154 -0.92265046 2 3
24.454393 0.53787678 3.0033479 7 11
6.7080154 0.14636903 -0.82383722 2 4
17.233101 0.37302577 2.7300947 9 12
7.8641415 0.1688495 -0.688182 3 5
23.37697 0.50192249 4.5450687 39 13
9.5067949 0.20245865 -0.49834284 2 6
14.419412 0.30456799 3.3297257 2 14
12.087506 0.2531971 -0.21103384 1 7
17.724779 0.36818632 4.7503657 29 15
4.1797285 0.081714749 -1.1201689 3 0
16.318449 0.31618086 0.28489265 3 8
4.6254568 0.088813759 -1.0680674 4 1
24.661686 0.46922538 1.2926986 10 9
5.134944 0.09769997 -0.99831283 2 2
24.645464 0.46461397 2.1565804 14 10
5.8243704 0.10878364 -0.92265046 2 3
24.444214 0.45228496 3.0018852 7 11
6.7084861 0.12295419 -0.82383645 2 4
17.684612 0.32103902 2.8014293 9 12
7.8527303 0.14118424 -0.68713611 1 5
23.388395 0.42049992 4.546977 33 13
9.4954624 0.16906121 -0.49771482 2 6
12.08032 0.21086518 -0.21089423 1 7
17.696981 0.30581611 4.7426009 24 15
4.1799998 0.066395655 -1.1201688 3 0
16.331453 0.25941089 0.28510213 3 8
4.6179442 0.072543688 -1.0662682 4 1
24.69912 0.38370076 1.2945826 10 9
5.1352677 0.078877494 -0.99831283 2 2
24.559347 0.37294334 2.1489136 14 10
5.8602819 0.08797051 -0.92828196 2 3
24.517099 0.36803377 3.0106599 7 11
6.7088747 0.099534675 -0.82383645 2 4
24.409082 0.35787889 3.8664348 8 12
7.8770819 0.11412024 -0.68922782 3 5
23.393703 0.33482456 4.5477428 39 13
9.5279713 0.1347068 -0.49938959 2 6
12.064988 0.16847494 -0.21061501 1 7
17.726917 0.24443509 4.7503653 29 15
4.1686158 0.051661573 -1.117063 3 0
16.280306 0.19891204 0.28419462 3 8
4.6298709 0.055759422 -1.0689671 4 1
24.68433 0.29728347 1.2937453 10 9
5.1512165 0.061141521 -1.0013658 2 2
24.66011 0.28838307 2.157629 14 10
5.8447523 0.067330182 -0.9257791 2 3
17.281101 0.1960579 2.1219888 11 11
6.717133 0.075034924 -0.82481134 2 4
24.370678 0.27223697 3.8601775 8 12
7.8495402 0.086314589 -0.68678743 1 5
23.394732 0.25316817 4.54774 39 13
9.5164003 0.10132157 -0.49876153 2 6
14.293225 0.14968589 3.3000319 2 14
12.057503 0.12627226 -0.21047537 1 7
17.727663 0.18255885 4.7503653 29 15
4.1687703 0.037108965 -1.117063 3 0
16.280876 0.14492677 0.28419462 3 8
4.6261325 0.04037061 -1.0680678 4 1
24.677229 0.2110541 1.2933266 21 9
5.1513987 0.043158676 -1.0013658 2 2
24.54143 0.20131427 2.1471677 28 10
5.8330922 0.04784907 -0.92390192 2 3
24.463488 0.19641691 3.0038352 35 11
6.7213163 0.052792232 -0.82529891 2 4
24.387283 0.18728065 3.8626807 33 12
7.8617473 0.059005428 -0.68783331 1 5
23.854828 0.17903964 4.6370411 14 13
9.5007067 0.069648273 -0.49792418 2 6
14.227388 0.10180896 3.2847354 2 14
12.085866 0.084375188 -0.21096405 1 7
17.716602 0.12060148 4.7472596 10 15
4.1843252 0.02336978 -1.121204 3 0
16.313276 0.088263787 0.28475308 3 8
4.614553 0.024164103 -1.0653684 4 1
24.687778 0.12927751 1.2938498 31 9
5.1475863 0.026054481 -1.0006025 2 2
17.265844 0.084377624 1.5105826 16 10
5.8490257 0.027565984 -0.92640477 2 3
24.501741 0.11118684 3.008466 43 11
6.6976371 0.029224405 -0.8223747 2 4
24.42135 0.10655987 3.8679993 49 12
7.881824 0.033019643 -0.68957651 3 5
24.15765 0.096976988 4.6958079 14 13
9.5008917 0.03648166 -0.49792418 2 6
14.23545 0.052183826 3.2865348 2 14
12.126073 0.044451345 -0.21166216 1 7
17.726559 0.061879244 4.7498469 21 15
4.195972 0.0087867714 -1.1243098 3 0
16.281483 0.034095004 0.28419459 3 8
4.6224031 0.008875249 -1.0671675 4 1
24.630157 0.042992625 1.2908143 31 9
5.1476455 0.0080845226 -1.0006025 2 2
17.28994 0.024145091 1.5126741 16 10
5.8530359 0.0081736594 -0.92703062 2 3
24.233986 0.029612947 2.9755614 28 11
6.7254887 0.0070413169 -0.82578629 2 4
24.368238 0.021271382 3.8595519 16 12
7.8619671 0.0054907319 -0.68783331 1 5
23.680767 0.01653845 4.6030774 27 13
9.4889774 0.0049664588 -0.49729615 2 6
14.313496 0.0050003743 3.3045309 2 14
12.062165 0.0021087606 -0.21054521 1 7
17.747921 -0 4.7555418 21 15
4.1650667 -0.0065424764 -1.1160277 3 0
4.6224031 -0.0088743875 -1.0671675 4 1
24.698048 -0.051727545 1.2943733 10 9
5.1476407 -0.010781208 -1.0006025 2 2
24.402723 -0.055368118 2.1349657 14 10
5.8490729 -0.014292011 -0.92640477 2 3
24.484045 -0.064099222 3.0062726 14 11
6.7135558 -0.018747833 -0.82432383 2 4
23.273787 -0.069054917 3.6862226 7 12
7.8340411 -0.023244137 -0.68539298 1 5
23.015118 -0.072304368 4.4737067 19 13
9.5208817 -0.031572558 -0.49897087 2 6
12.066083 -0.044224702 -0.21061501 1 7
4.1688824 -0.021100791 -1.117063 3 0
16.281298 -0.085249446 0.28419462 3 8
4.6340365 -0.025072794 -1.0698675 4 1
5.1436467 -0.028727841 -0.99983937 2 2
22.97187 -0.13230993 2.0098102 11 10
5.8292341 -0.034591775 -0.92327607 2 3
22.726898 -0.13883244 2.7905638 29 11
6.6975694 -0.042082615 -0.82237399 2 4
22.629444 -0.14613661 3.5842271 26 12
7.8498511 -0.05069283 -0.68678743 1 5
22.490549 -0.14916517 4.3718143 23 13
9.4927511 -0.064616106 -0.49750543 2 6
12.089849 -0.086514629 -0.21103384 1 7
11.85932 -0.086934917 3.1777809 2 15
4.1842375 -0.035784941 -1.121204 3 0
16.280899 -0.14208125 0.28419459 3 8
4.6144338 -0.041074991 -1.0653679 4 1
5.1435151 -0.046682339 -0.99983937 2 2
22.485146 -0.20799902 1.9672784 22 10
5.8330288 -0.05497662 -0.92390186 2 3
22.390808 -0.21494295 2.749372 28 11
6.7053218 -0.065538853 -0.82334894 2 4
22.296988 -0.21793421 3.5316651 37 12
7.8575959 -0.0781729 -0.68748474 1 5
22.195414 -0.22468984 4.3145714 50 13
9.4964628 -0.097792745 -0.49771476 2 6
14.453013 -0.15135711 3.3369238 2 14
12.045506 -0.12614484 -0.21026595 1 7
11.816468 -0.12580888 3.1663928 1 15
4.1879501 -0.05043697 -1.1222392 3 0
16.28034 -0.1960699 0.28419462 3 8
4.6142726 -0.056376778 -1.0653679 4 1
22.543329 -0.27936754 1.1815369 56 9
5.1393943 -0.06458693 -0.99907607 2 2
22.452406 -0.28607944 1.9644892 44 10
5.8407154 -0.07442002 -0.92515337 2 3
22.356232 -0.28875652 2.7452285 39 11
6.7209473 -0.087982021 -0.82529885 2 4
22.302019 -0.29584253 3.532604 50 12
7.8493056 -0.10549345 -0.68678743 1 5
22.216143 -0.29858148 4.3187695 100 13
9.4801102 -0.12906609 -0.4968774 2 6
15.469578 -0.21330962 3.5717728 2 14
12.048992 -0.16824658 -0.21033578 1 7
11.800502 -0.16683677 3.1622515 1 15
4.1761703 -0.064146414 -1.1191335 3 0
16.331543 -0.25370526 0.28510213 3 8
4.6257381 -0.072666898 -1.0680678 4 1
22.546211 -0.35812023 1.1817462 64 9
5.1430779 -0.081691802 -0.99983937 2 2
22.453323 -0.36056465 1.964666 44 10
5.8325195 -0.094679229 -0.92390186 2 3
22.374933 -0.36711821 2.7476656 45 11
6.6967807 -0.11104699 -0.82237399 2 4
22.2969 -0.37362307 3.5319781 50 12
7.8688335 -0.13185591 -0.68853056 1 5
22.201225 -0.37589586 4.3160982 56 13
9.5035658 -0.16256696 -0.49813351 2 6
15.178421 -0.26229033 3.5047376 13 14
12.036335 -0.21009497 -0.21012634 1 7
11.795985 -0.20795915 3.1612163 1 15
4.1720572 -0.07865075 -1.1180986 3 0
4.6254568 -0.088813305 -1.0680674 4 1
22.564795 -0.43720591 1.1827931 65 9
5.1309843 -0.099415779 -0.99754959 2 2
22.463886 -0.43917298 1.9657096 44 10
5.8598027 -0.11558332 -0.92828202 2 3
22.389393 -0.445535 2.7496157 50 11
6.7201691 -0.13490056 -0.82529885 2 4
22.301384 -0.45157143 3.5329165 50 12
7.8324699 -0.15859643 -0.68539298 1 5
22.211552 -0.45363081 4.3183875 56 13
9.5029402 -0.19573961 -0.49813351 2 6
15.173515 -0.3151904 3.5038378 5 14
12.047522 -0.2523596 -0.21033576 1 7
11.760423 -0.2483992 3.1518989 1 15
4.1640325 -0.093040854 -1.1160277 5 0
16.277395 -0.36654335 0.28419462 3 8
4.6407046 -0.10531231 -1.0716671 4 1
22.575109 -0.5162431 1.183421 65 9
5.1580839 -0.11795403 -1.0028923 2 2
22.478149 -0.51795095 1.967104 55 10
5.8356657 -0.13548693 -0.92452765 2 3
22.401594 -0.52401078 2.751322 50 11
6.7037802 -0.15798336 -0.82334894 2 4
22.305595 -0.52955574 3.5338552 50 12
7.8557706 -0.18650334 -0.68748468 1 5
22.211798 -0.5312078 4.3187695 56 13
9.482233 -0.22842894 -0.49708682 2 6
12.066559 -0.29490036 -0.21068481 1 7
11.786521 -0.2901147 3.1591456 1 15
4.1791325 -0.10797466 -1.1201688 3 0
16.276014 -0.42335978 0.28419459 3 8
4.6208277 -0.12100064 -1.0671675 4 1
22.583151 -0.59530479 1.1839443 56 9
5.1380148 -0.13544102 -0.99907601 2 2
22.492138 -0.59683406 1.9684983 22 10
5.8272576 -0.15564539 -0.92327601 2 3
22.387722 -0.60188371 2.7498593 45 11
6.6952505 -0.18116814 -0.82237399 2 4
22.325331 -0.60800511 3.5372965 56 12
7.8311715 -0.21327309 -0.68539298 1 5
22.217653 -0.60895324 4.3202982 56 13
9.4893618 -0.26174691 -0.49750543 2 6
16.345579 -0.4537183 3.7751279 28 14
12.045466 -0.33646035 -0.21033576 1 7
11.808608 -0.33190694 3.1653571 1 15
4.17873 -0.12256189 -1.1201688 5 0
4.6164818 -0.13701397 -1.0662678 4 1
17.462332 -0.51826996 0.91556537 15 9
5.1571345 -0.15396106 -1.0028923 2 2
17.401651 -0.52254874 1.5231347 27 10
5.8345771 -0.17622393 -0.92452753 2 3
17.331785 -0.52650619 2.1290569 46 11
6.7064824 -0.20490161 -0.82383722 2 4
22.338985 -0.68251783 3.5397995 56 12
7.8542771 -0.24134196 -0.68748468 1 5
22.231092 -0.68698883 4.3233514 57 13
9.4883909 -0.29486942 -0.49750543 2 6
16.345844 -0.51083326 3.775578 28 14
12.072266 -0.37727723 -0.21082442 1 7
11.838337 -0.37203476 3.1736395 1 15
4.182138 -0.1372744 -1.121204 5 0
4.6237926 -0.15257911 -1.0680674 4 1
17.430479 -0.57822865 0.9139955 19 9
5.1447921 -0.17156927 -1.0006025 2 2
17.373837 -0.58242089 1.5208687 21 10
5.8458071 -0.19596824 -0.92640483 2 3
17.230749 -0.58063477 2.1168704 11 11
6.7017984 -0.2270055 -0.82334894 2 4
7.8693166 -0.26930219 -0.68887919 1 5
9.5113153 -0.32715639 -0.49876153 2 6
16.338219 -0.56483322 3.7742281 31 14
12.078872 -0.41969278 -0.21096405 1 7
17.868399 -0.62397814 4.7907414 7 15
4.1700768 -0.15072341 -1.1180983 3 0
16.222832 -0.58919388 0.2833569 3 8
4.6193361 -0.16857608 -1.067168 4 1
16.993242 -0.62311381 0.89117694 7 9
5.1402721 -0.18848519 -0.99983937 2 2
16.820295 -0.61971194 1.4725826 5 10
5.8529835 -0.21666498 -0.92765629 2 3
16.706896 -0.62137365 2.0527668 5 11
6.6890631 -0.24995303 -0.82188648 2 4
16.569639 -0.62206072 2.6262224 5 12
7.8444366 -0.29586849 -0.68678743 1 5
16.408991 -0.61889756 3.1918538 13 13
9.4941492 -0.35975003 -0.49792418 2 6
16.31473 -0.62104547 3.7692797 34 14
12.077334 -0.46185338 -0.21096407 1 7
17.59392 -0.67589015 4.7177548 14 15
4.1617746 -0.16569908 -1.1160277 5 0
16.228668 -0.6461367 0.2834965 3 8
4.6381912 -0.18547823 -1.071667 4 1
16.619774 -0.66751903 0.87170798 3 9
5.1434689 -0.2074822 -1.0006025 2 2
16.487446 -0.66796875 1.4436469 4 10
5.8403072 -0.23763391 -0.9257791 2 3
16.331736 -0.66451544 2.0069439 2 11
6.7238522 -0.27475965 -0.82627386 2 4
16.492367 -0.67681789 2.6143332 68 12
7.8274312 -0.32259256 -0.68539304 1 5
9.4608374 -0.39321837 -0.49624941 2 6
16.349339 -0.68238175 3.7778285 21 14
12.055668 -0.50317436 -0.21061501 1 7
17.120491 -0.71756107 4.5914497 13 15
4.1766114 -0.18089414 -1.1201688 3 0
16.166258 -0.70300716 0.28244936 3 8
4.6219068 -0.20179678 -1.0680674 4 1
16.258175 -0.70984727 0.85286689 3 9
5.1348691 -0.22509116 -0.99907607 2 2
16.126726 -0.70974827 1.4122726 4 10
5.8354955 -0.25784457 -0.92515337 2 3
15.936531 -0.70695126 1.9586841 7 11
6.7148671 -0.29904863 -0.82529885 2 4
16.483982 -0.73411906 2.6133945 33 12
7.8581042 -0.35133728 -0.688182 1 5
16.360994 -0.73436439 3.1834564 21 13
9.4514256 -0.42588085 -0.49583068 2 6
16.457821 -0.74446684 3.8034725 26 14
12.037857 -0.54453051 -0.21033578 1 7
16.961567 -0.77022028 4.5495219 6 15
4.1798143 -0.19565275 -1.1212041 5 0
4.6134257 -0.21675667 -1.0662678 4 1
15.912453 -0.75041229 0.83486342 29 9
5.1497393 -0.24375638 -1.0021288 2 2
15.837572 -0.75242174 1.3871719 21 10
5.8306618 -0.27700692 -0.92452765 2 3
15.809179 -0.75383824 1.9433284 57 11
6.6662498 -0.31903678 -0.81944984 2 4
15.751273 -0.75658786 2.4976332 47 12
7.8409081 -0.37799755 -0.68678743 1 5
15.662325 -0.75505537 3.0479822 50 13
9.4699106 -0.45818579 -0.4968774 2 6
16.38908 -0.79582536 3.7881751 26 14
12.035881 -0.5865472 -0.21033576 1 7
16.478313 -0.805924 4.420629 12 15
4.179142 -0.20951246 -1.121204 5 0
4.6126404 -0.23285918 -1.0662678 4 1
15.909738 -0.80595255 0.83486348 61 9
5.1292958 -0.25983894 -0.99831283 4 2
15.846931 -0.80554366 1.3882159 38 10
5.8375506 -0.29776052 -0.9257791 2 3
15.816364 -0.80952525 1.9445471 59 11
6.692852 -0.34372985 -0.82286155 2 4
15.746563 -0.81146377 2.4973204 52 12
7.8634892 -0.40522727 -0.68887925 1 5
15.669393 -0.81022912 3.0498917 52 13
9.5001678 -0.49289486 -0.49855217 2 6
16.374529 -0.85242128 3.7854769 61 14
12.009797 -0.62730497 -0.2099169 1 7
16.21689 -0.84989125 4.3512664 12 15
4.1629524 -0.2232714 -1.1170628 5 0
4.6156912 -0.24916895 -1.0671675 4 1
15.916799 -0.86202294 0.83538681 58 9
5.1205158 -0.27731723 -0.99678624 2 2
15.842033 -0.8607468 1.3880416 38 10
5.8285861 -0.31770548 -0.92452765 2 3
15.795602 -0.86375421 1.9423532 40 11
6.6916108 -0.36709017 -0.82286149 2 4
15.755469 -0.86707598 2.4991975 52 12
7.8381538 -0.43135971 -0.68678743 1 5
15.680194 -0.86567831 3.0525613 55 13
9.4864244 -0.52539092 -0.49792418 2 6
16.375343 -0.90978992 3.7863758 65 14
12.007534 -0.66922307 -0.2099169 1 7
15.862775 -0.88686681 4.2570562 12 15
4.162148 -0.23780146 -1.117063 5 0
4.6186852 -0.2655029 -1.0680674 4 1
15.92765 -0.91838253 0.83611953 58 9
5.1351976 -0.29609364 -0.99983937 4 2
15.856832 -0.91707605 1.3896103 43 10
5.8313856 -0.33827794 -0.92515337 2 3
15.80438 -0.91957772 1.9438157 49 11
6.702178 -0.39113989 -0.82432461 4 4
15.760234 -0.92252922 2.5004489 52 12
7.8525128 -0.45964882 -0.688182 1 5
15.679036 -0.92052221 3.052943 50 13
9.4845324 -0.5585016 -0.49792418 2 6
15.615328 -0.92225146 3.6113644 66 14
12.017103 -0.71184272 -0.21012634 1 7
15.58574 -0.92596364 4.1835508 14 15
4.1574359 -0.25209481 -1.1160277 5 0
4.6099491 -0.281149 -1.0662678 4 1
15.928335 -0.97421879 0.83632886 55 9
5.1380506 -0.31425667 -1.0006025 2 2
15.867455 -0.97327495 1.3908305 39 10
5.8380566 -0.35911632 -0.92640483 2 3
15.805039 -0.97498423 1.9443034 49 11
6.6888847 -0.41379711 -0.82286149 4 4
15.774664 -0.97863799 2.5032651 49 12
7.8786998 -0.48878345 -0.69062233 1 5
15.685522 -0.97585601 3.0548527 50 13
9.4625902 -0.59036171 -0.4968774 2 6
15.621737 -0.9773618 3.6136134 74 14
12.014545 -0.75378585 -0.21012634 1 7
15.283571 -0.96156067 4.1033182 22 15
4.1719542 -0.26759467 -1.1201688 5 0
4.6128283 -0.29748979 -1.067168 4 1
5.1369228 -0.33218989 -1.0006025 2 2
15.873903 -1.0293013 1.3917021 43 10
5.8446522 -0.38000551 -0.92765641 2 3
15.813424 -1.0309229 1.9457657 49 11
6.7072845 -0.4372673 -0.82529885 4 4
15.769361 -1.0308144 2.5029521 49 12
7.849113 -0.51445806 -0.688182 1 5
15.697696 -1.0316328 3.0579042 47 13
9.4644594 -0.6236515 -0.49708682 2 6
15.618409 -1.02916 3.6136134 77 14
12.047895 -0.79599637 -0.21075462 1 7
15.050911 -0.99704188 4.041719 11 15
4.1748977 -0.28168797 -1.1212039 5 0
4.6079288 -0.31252119 -1.0662678 4 1
15.33966 -1.0403738 0.80576468 12 9
5.1240416 -0.34842357 -0.99831289 2 2
15.890281 -1.0832907 1.3934453 48 10
5.8433595 -0.39938486 -0.92765629 2 3
15.815858 -1.0837635 1.9464967 47 11
6.6978755 -0.45896423 -0.82432383 4 4
15.773736 -1.0836432 2.5042033 47 12
7.8235111 -0.53884095 -0.68609023 1 5
15.709856 -1.0847646 3.060957 50 13
9.4424143 -0.65365392 -0.49604008 2 6
15.62269 -1.0814853 3.6154137 77 14
11.997311 -0.8326214 -0.20991689 1 7
14.802767 -1.029918 3.9759786 13 15
4.1623788 -0.29471219 -1.1180981 5 0
4.6068673 -0.32779989 -1.0662678 4 1
15.331952 -1.0936289 0.80555534 21 9
5.1346064 -0.36625168 -1.0006025 2 2
15.890575 -1.1362628 1.3937938 48 10
5.8262405 -0.41763008 -0.92515337 2 3
15.835938 -1.1379124 1.9494219 47 11
6.7041531 -0.48291191 -0.82529885 4 4
15.779709 -1.1394087 2.5057676 44 12
7.8415532 -0.56621665 -0.68783331 1 5
15.717922 -1.1377048 3.0632467 55 13
9.4561291 -0.68611878 -0.4968774 2 6
15.632422 -1.1370015 3.6185627 71 14
12.022253 -0.87653053 -0.21040556 1 7
14.652651 -1.0708811 3.9366381 12 15
4.1651783 -0.30952621 -1.1191336 5 0
15.462802 -1.1517982 0.27065158 3 8
4.609581 -0.34416899 -1.0671675 4 1
15.322063 -1.1466932 0.80524129 24 9
5.1293821 -0.38387954 -0.99983937 2 2
15.890486 -1.1920226 1.3941424 52 10
5.8247471 -0.43796492 -0.92515337 2 3
15.839787 -1.1937798 1.9503967 47 11
6.7103438 -0.50690889 -0.8262738 4 4
15.801242 -1.1964222 2.509835 52 12
7.8395281 -0.59358531 -0.68783331 3 5
15.721685 -1.1931579 3.0647731 55 13
9.4576607 -0.71942562 -0.49708682 2 6
15.638075 -1.1923028 3.6208122 77 14
12.019121 -0.91849071 -0.21040556 1 7
14.627636 -1.1203991 3.9309442 10 15
4.1621466 -0.32391363 -1.118616 5 0
15.458686 -1.2057666 0.27065158 15 8
4.5966945 -0.35934606 -1.0644686 4 1
15.341864 -1.2020426 0.8064974 24 9
5.1358395 -0.40239552 -1.0013658 2 2
15.910062 -1.249355 1.3962342 56 10
5.8153057 -0.4576745 -0.92390186 2 3
15.841458 -1.2495317 1.9511276 49 11
6.7006183 -0.52970362 -0.82529885 4 4
15.785156 -1.2506353 2.5079579 42 12
7.8016577 -0.61811417 -0.68469572 1 5
15.71155 -1.247563 3.0636299 42 13
9.4550924 -0.75243473 -0.49708682 2 6
15.661013 -1.2490516 3.6271107 71 14
11.987935 -0.95820886 -0.2099169 1 7
14.621711 -1.1712983 3.9304266 12 15
4.1571393 -0.33812696 -1.1175805 5 0
15.460362 -1.2602074 0.2707563 15 8
4.6031818 -0.37602404 -1.0662678 4 1
15.341557 -1.2559141 0.80670679 21 9
5.1304903 -0.42000002 -1.0006025 2 2
15.911561 -1.3053727 1.3967571 39 10
5.8215485 -0.47861841 -0.92515349 2 3
15.852831 -1.3061255 1.9530779 45 11
6.6749878 -0.55112964 -0.82237399 4 4
15.818099 -1.3088231 2.5139024 55 12
7.8272524 -0.64764357 -0.68713611 1 5
15.73645 -1.3048327 3.0693526 57 13
9.4325047 -0.78378052 -0.49604008 2 6
15.648788 -1.3030641 3.6253109 74 14
11.97256 -0.99905133 -0.20970747 1 7
4.1597834 -0.35296276 -1.1186159 5 0
15.479781 -1.3161995 0.27117518 15 8
4.6134911 -0.39308241 -1.0689671 4 1
15.356977 -1.3111577 0.80775344 24 9
5.1289921 -0.43790635 -1.0006025 2 2
15.928743 -1.3627746 1.3986745 43 10
5.8237777 -0.49927387 -0.9257791 2 3
15.862019 -1.3626432 1.954784 47 11
6.6888452 -0.57578838 -0.82432383 4 4
15.807528 -1.3635211 2.5129635 49 12
7.8328838 -0.6756466 -0.68783337 1 5
15.739624 -1.3604316 3.070879 40 13
9.4655275 -0.8198036 -0.49792418 2 6
15.663559 -1.3593656 3.6298099 51 14
11.982945 -1.0420499 -0.2099518 1 7
14.603555 -1.272509 3.9278383 10 15
4.1469798 -0.36646059 -1.1155101 5 0
15.487042 -1.3712842 0.2713846 15 8
4.6082091 -0.40883973 -1.0680674 4 1
15.37817 -1.3670545 0.80911422 25 9
5.1235228 -0.45545954 -0.99983937 2 2
17.906437 -1.5949569 1.5728115 17 10
5.8534799 -0.52240914 -0.93078494 2 3
18.728064 -1.6747295 2.3086925 13 11
6.6947036 -0.59984201 -0.82529885 4 4
17.093328 -1.5345606 2.7182057 54 12
7.8185706 -0.70191538 -0.68678743 3 5
17.027275 -1.5316265 3.3231289 51 13
9.422823 -0.84925365 -0.49583068 2 6
16.941616 -1.5298834 3.9271953 84 14
11.967287 -1.0827907 -0.2097424 1 7
14.599022 -1.3234769 3.9278381 10 15
4.1533699 -0.38164109 -1.1175804 5 0
15.519996 -1.4288189 0.27204779 3 8
4.6106343 -0.42528081 -1.0689671 4 1
15.399158 -1.4231153 0.81047493 21 9
5.1179905 -0.47297978 -0.99907601 4 2
17.906713 -1.6580033 1.5733345 23 10
5.8004813 -0.53809446 -0.92265046 2 3
18.749775 -1.7426648 2.3121049 13 11
6.6886153 -0.62283909 -0.82481134 4 4
17.105572 -1.5958698 2.7210219 54 12
7.8081379 -0.72846282 -0.68609023 3 5
17.019867 -1.5908704 3.3227468 54 13
9.4595737 -0.88586479 -0.49792418 2 6
16.932289 -1.5886467 3.9262953 14 14
11.987324 -1.1268033 -0.21016124 1 7
14.573157 -1.3724365 3.9221444 10 15
4.1443205 -0.39540288 -1.1155101 5 0
16.092194 -1.5381639 0.28217015 3 8
4.6052423 -0.44100085 -1.0680674 7 1
18.020416 -1.7288203 0.94874656 16 9
5.1124001 -0.4904671 -0.99831283 4 2
17.928579 -1.7231677 1.5757768 23 10
5.8221631 -0.56061053 -0.92640483 2 3
18.739626 -1.8077216 2.3116171 13 11
6.698257 -0.64732867 -0.82627386 4 4
17.109724 -1.6565212 2.7225857 51 12
7.8134799 -0.75648183 -0.68678743 1 5
17.022026 -1.6510297 3.3242736 51 13
9.4087133 -0.91424346 -0.49541205 2 6
16.961555 -1.6511407 3.9343936 38 14
11.971376 -1.1674756 -0.2099518 1 7
14.556745 -1.4221714 3.919039 10 15
4.1544504 -0.411008 -1.118616 5 0
16.134483 -1.5990602 0.28300783 3 8
4.5959182 -0.45630336 -1.0662678 4 1
16.311306 -1.6194596 0.85904253 10 9
5.1145644 -0.5086984 -0.99907607 4 2
17.92444 -1.7859375 1.5759492 23 10
5.8162389 -0.58053786 -0.9257791 2 3
18.752954 -1.8750994 2.314055 16 11
6.688056 -0.6699146 -0.82529891 4 4
17.088415 -1.711675 2.7200832 48 12
7.8147564 -0.78414923 -0.68713611 3 5
17.018114 -1.7106335 3.3246548 48 13
9.4253378 -0.94908154 -0.49645877 2 6
16.934361 -1.7081861 3.929445 66 14
11.991314 -1.209576 -0.21037066 1 7
4.1491461 -0.42511335 -1.1175805 5 0
16.105223 -1.6501094 0.28258902 3 8
4.6021338 -0.47233725 -1.0680674 7 1
18.028101 -1.8534833 0.94979328 33 9
5.1127577 -0.52654845 -0.99907607 4 2
17.928007 -1.8495169 1.5768207 29 10
5.8103523 -0.59941655 -0.92515337 2 3
18.768353 -1.9395207 2.3167357 16 11
6.681848 -0.69168049 -0.8248114 4 4
17.121632 -1.775389 2.7263403 54 12
7.8198991 -0.81224626 -0.68783337 1 5
17.063118 -1.7723316 3.3345768 60 13
9.4062452 -0.97867829 -0.49562138 2 6
16.969309 -1.7685754 3.9388933 73 14
11.975085 -1.2501801 -0.21016124 1 7
4.1573195 -0.43988657 -1.1201688 5 0
15.928349 -1.6881918 0.27958721 6 8
4.6082082 -0.48922178 -1.0698675 7 1
18.025827 -1.9136782 0.95000273 41 9
5.1031747 -0.54266953 -0.99754959 4 2
17.923754 -1.9091688 1.5769969 29 10
5.8082242 -0.61969489 -0.92515337 2 3
18.787127 -2.0077646 2.3199041 16 11
6.6793923 -0.71500021 -0.82481134 2 4
17.123508 -1.8329979 2.7275922 51 12
7.7894278 -0.83519983 -0.68539304 3 5
17.066587 -1.8329306 3.3364851 54 13
9.4146881 -1.0127879 -0.49624947 2 6
11.943041 -1.2868851 -0.20967259 1 7
16.932867 -1.8275381 4.563498 77 15
4.1403952 -0.45271575 -1.1160277 5 0
15.880919 -1.7364388 0.27885422 12 8
4.6065607 -0.50450045 -1.0698675 4 1
18.028965 -1.9776771 0.950526 33 9
5.112958 -0.56176621 -0.99983925 4 2
17.944706 -1.9747741 1.5794353 30 10
5.8139911 -0.63981652 -0.92640477 2 3
18.798128 -2.0720117 2.3220983 16 11
6.661201 -0.73540336 -0.82286155 2 4
17.148418 -1.8962325 2.7325978 57 12
7.8023071 -0.86413944 -0.68678743 3 5
17.06822 -1.8903795 3.3380115 54 13
9.4112759 -1.0440028 -0.49624941 2 6
11.938475 -1.3285662 -0.20967257 1 7
16.918707 -1.8857776 4.5614276 74 15
4.1445479 -0.46781564 -1.1175804 5 0
15.88637 -1.7959809 0.27906361 12 8
4.6008077 -0.52094251 -1.0689671 7 1
18.051361 -2.0471191 0.95209599 41 9
5.1109667 -0.57961041 -0.99983937 2 2
17.943647 -2.0380757 1.5799584 48 10
5.7998309 -0.65978181 -0.92452765 2 3
18.780546 -2.1397729 2.3208795 13 11
6.6781831 -0.7620635 -0.82529885 2 4
17.149204 -1.959969 2.733849 57 12
7.822998 -0.89408433 -0.68887931 3 5
17.07093 -1.9540415 3.3399196 60 13
9.3994493 -1.0775797 -0.49583068 2 6
15.406849 -1.7690095 3.5803211 5 14
11.965312 -1.3759693 -0.21023107 1 7
16.934711 -1.9504274 4.5676394 77 15
4.1486473 -0.48295021 -1.1191336 5 0
15.907808 -1.8546658 0.27955228 12 8
4.583477 -0.535191 -1.0653679 4 1
18.050056 -2.1108136 0.95241004 33 9
5.1167116 -0.59835953 -1.0013658 2 2
17.950274 -2.1023207 1.5811784 48 10
5.8328071 -0.68416536 -0.93015921 2 3
18.80253 -2.2087898 2.3245351 16 11
6.6675954 -0.78444231 -0.82432461 2 4
17.167761 -2.0228243 2.7379167 54 12
7.7960835 -0.9185884 -0.68678743 3 5
17.085451 -2.0161493 3.3441193 57 13
9.3837299 -1.108977 -0.49520266 2 6
15.396709 -1.8223208 3.579421 8 14
11.968379 -1.4186689 -0.21037067 1 7
16.939312 -2.0108953 4.5707455 16 15
4.1661167 -0.49972945 -1.1243098 5 0
15.917123 -1.9120913 0.27983153 12 8
4.6009278 -0.55351472 -1.0698674 7 1
17.267258 -2.080395 0.91148335 15 9
5.1145911 -0.61621654 -1.0013657 4 2
17.970518 -2.1683071 1.5836188 42 10
5.799006 -0.70072997 -0.92515337 2 3
18.816385 -2.2770331 2.3272166 16 11
6.6411686 -0.80484581 -0.82139981 2 4
17.170404 -2.0839288 2.7394812 57 12
7.8007421 -0.94675642 -0.68748474 3 5
17.099747 -2.078382 3.3483169 60 13
9.3956623 -1.1436561 -0.49604002 2 6
11.939533 -1.45753 -0.2099518 1 7
16.970537 -2.0747008 4.5810971 40 15
4.1336708 -0.51048052 -1.1160277 5 0
16.031412 -1.982612 0.28196076 3 8
4.583497 -0.5676555 -1.0662678 4 1
16.950687 -2.1023071 0.89515448 3 9
5.0929265 -0.63164967 -0.99754959 4 2
17.964819 -2.2312689 1.5837934 30 10
5.8161268 -0.72340608 -0.92828196 2 3
18.822111 -2.344418 2.3289227 16 11
6.6501384 -0.82949728 -0.82286149 2 4
17.161062 -2.1436069 2.7391679 54 12
7.7934351 -0.97348642 -0.68713611 3 5
17.10018 -2.1390331 3.3498433 57 13
9.4035044 -1.1779356 -0.4966681 2 6
17.01749 -2.1347232 3.9595881 84 14
11.974057 -1.5041829 -0.21064994 1 7
14.845189 -1.8674872 4.0091076 10 15
4.1414461 -0.526124 -1.1186159 5 0
16.11961 -2.0506732 0.28363615 3 8
4.6046848 -0.58660662 -1.0716671 4 1
16.638142 -2.1225412 0.879035 3 9
5.1062694 -0.65141094 -1.0006025 4 2
17.964825 -2.2949734 1.5844904 36 10
5.7900534 -0.74069589 -0.92452765 2 3
18.833506 -2.4126277 2.3313603 13 11
6.6668921 -0.85523123 -0.82529885 2 4
17.182863 -2.2072725 2.7438612 57 12
7.7899899 -1.0006847 -0.68713611 3 5
17.108189 -2.2007151 3.3528948 60 13
9.4032974 -1.2112632 -0.49687743 2 6
17.035061 -2.1973531 3.9654372 21 14
11.976665 -1.5469958 -0.21078953 1 7
4.1395845 -0.54057711 -1.118616 5 0
16.064766 -2.1007056 0.28279844 3 8
4.5910153 -0.6011582 -1.0689671 4 1
18.072294 -2.3696365 0.95523626 12 9
5.1078582 -0.66974163 -1.0013658 4 2
17.982384 -2.3610401 1.5867563 36 10
5.7717648 -0.75884247 -0.92202461 2 3
18.828907 -2.4788725 2.3318479 16 11
6.6717381 -0.87953556 -0.8262738 2 4
17.194635 -2.2698233 2.7469893 54 12
7.7508941 -1.0231773 -0.68399847 3 5
17.100403 -2.2604203 3.3528948 54 13
9.3990126 -1.2440797 -0.49687743 2 6
11.935509 -1.5840569 -0.21016124 1 7
4.1395869 -0.55528057 -1.1191336 5 0
4.5850258 -0.61666065 -1.0680678 4 1
16.124111 -2.1714685 0.85265768 6 9
5.0938153 -0.68599504 -0.99907607 4 2
17.991804 -2.4261923 1.5883253 36 10
5.804318 -0.78374296 -0.92765641 2 3
18.843744 -2.5477743 2.3347728 13 11
6.6214156 -0.89642733 -0.82042402 2 4
17.202271 -2.3319528 2.7494926 54 12
7.7216096 -1.0467473 -0.68173248 9 5
17.117701 -2.3235316 3.357856 57 13
9.3827372 -1.2752665 -0.49624941 2 6
15.515101 -2.1115124 3.6149628 2 14
11.965573 -1.6305701 -0.21078953 1 7
14.706144 -2.0066476 3.9770141 7 15
4.1529336 -0.57183504 -1.1232746 5 0
4.5828462 -0.6326617 -1.0680674 4 1
18.079054 -2.4990284 0.9564923 25 9
5.1069469 -0.70592231 -1.0021288 4 2
18.00296 -2.4917121 1.5900682 36 10
5.7937193 -0.80291432 -0.92640471 2 3
18.854397 -2.6162636 2.3372099 13 11
6.6182451 -0.91953492 -0.8204248 2 4
17.197937 -2.39253 2.7501183 54 12
7.7613225 -1.0797338 -0.68556726 6 5
17.126984 -2.3857064 3.36129 51 13
9.3663597 -1.3063552 -0.49562138 2 6
15.426579 -2.1543376 3.5960677 2 14
11.940003 -1.6695584 -0.21044049 1 7
14.725837 -2.0617192 3.984261 10 15
4.1298699 -0.58335572 -1.1175804 5 0
15.479569 -2.1892886 0.27288547 3 8
4.5921869 -0.65029448 -1.0707668 4 1
18.088015 -2.5646439 0.95743424 38 9
5.088902 -0.72153968 -0.99907607 4 2
17.996126 -2.5548196 1.5902426 36 10
5.8104391 -0.82591325 -0.92953354 2 3
18.860872 -2.6842988 2.33916 16 11
6.6346488 -0.94543171 -0.82286149 2 4
17.207083 -2.4550586 2.7529342 51 12
7.7711201 -1.1101458 -0.68678743 6 5
17.137983 -2.4482522 3.365108 51 13
9.409194 -1.3458291 -0.49813351 2 6
15.538568 -2.2253017 3.6239614 2 14
11.944 -1.7126458 -0.21061499 1 7
13.685937 -1.9648595 3.7047365 2 15
4.1372647 -0.59987479 -1.1201688 5 0
15.49954 -2.2473266 0.27337417 6 8
4.5821743 -0.66520035 -1.0689671 4 1
18.092791 -2.6297784 0.95816702 34 9
5.1134224 -0.7441448 -1.0044187 4 2
5.7917356 -0.84492278 -0.92703062 2 3
18.876925 -2.7538452 2.3423285 17 11
6.6430931 -0.97030658 -0.82432383 2 4
17.212091 -2.5171082 2.7551246 51 12
7.7790265 -1.1389972 -0.68783337 4 5
17.13084 -2.5113347 3.3654881 51 13
9.3962927 -1.3791462 -0.49771476 2 6
15.460897 -2.2720385 3.607765 11 14
11.92608 -1.7525833 -0.21040559 1 7
14.674771 -2.1591306 3.9744263 21 15
4.127502 -0.61317736 -1.1180983 5 0
15.518889 -2.3082385 0.27386284 6 8
4.575851 -0.68141633 -1.0680674 7 1
18.111156 -2.6970367 0.95963246 34 9
5.0952592 -0.75967324 -1.0013658 4 2
18.964632 -2.8308997 1.6775727 20 10
5.7848434 -0.86455059 -0.92640477 2 3
18.878483 -2.8247766 2.343791 17 11
6.6396661 -0.99348938 -0.82432383 2 4
17.222734 -2.580101 2.7582533 51 12
7.7947063 -1.1690993 -0.68957651 3 5
17.143326 -2.5743239 3.3696859 54 13
9.3598223 -1.4071863 -0.49604008 2 6
11.923843 -1.7947977 -0.21047539 1 7
14.665232 -2.2100537 3.9739082 21 15
4.1273561 -0.62715143 -1.118616 5 0
15.566504 -2.3681092 0.27484015 6 8
4.573566 -0.69658661 -1.0680674 4 1
18.113956 -2.7588844 0.96026033 25 9
5.0965929 -0.77715743 -1.0021288 4 2
18.964987 -2.8952758 1.6784441 20 10
5.7702284 -0.88193834 -0.92452765 2 3
18.880785 -2.8891654 2.3452532 17 11
6.6167126 -1.0124991 -0.82188648 2 4
17.237514 -2.6407895 2.7620075 51 12
7.7907872 -1.1949412 -0.68957651 3 5
17.152159 -2.6338413 3.3731203 54 13
9.3708963 -1.4406447 -0.49687743 2 6
11.909921 -1.8331121 -0.21033578 1 7
14.675007 -2.2613215 3.9785669 28 15
4.1462507 -0.64409673 -1.1243098 5 0
15.574373 -2.4221754 0.27511939 6 8
4.5789328 -0.71294838 -1.0698675 7 1
5.0823498 -0.79224002 -0.99983937 4 2
18.949377 -2.9572289 1.6779213 20 10
5.7867899 -0.90411764 -0.92765641 2 3
18.896597 -2.955749 2.3484221 17 11
6.6249051 -1.0374324 -0.82334894 2 4
17.235998 -2.7021668 2.7632587 51 12
7.7907181 -1.2213868 -0.68992513 3 5
17.158848 -2.6931407 3.3761735 57 13
9.3700142 -1.4723318 -0.49708682 2 6
14.697882 -2.3121405 3.4350028 2 14
11.911349 -1.8759187 -0.21047537 1 7
14.663208 -2.3119316 3.9775317 26 15
4.128715 -0.65614033 -1.1201688 5 0
15.60927 -2.4834373 0.27588728 6 8
4.5879636 -0.73076683 -1.0725664 7 1
19.039007 -3.0359235 1.0103981 18 9
5.075676 -0.80935758 -0.99907607 4 2
