# .PCD v0.7 - Point Cloud Data file format
VERSION 0.7
FIELDS x y z intensity ring
SIZE 4 4 4 4 2
TYPE F F F F U
COUNT 1 1 1 1 1
WIDTH 370
HEIGHT 1
VIEWPOINT 0 0 0 1 0 0 0
POINTS 370
DATA ascii
2.9562232 -1.0584812 -0.27471501 1 5
2.9450166 -1.0660812 -0.27401775 23 5
2.9225533 -1.0810853 -0.27262327 55 5
2.9318252 -1.0961647 -0.27384347 10 5
2.9371302 -1.121581 -0.2750636 1 5
2.9969378 -1.1552204 -0.39436907 1 4
2.9257619 -1.1289575 -0.27436638 1 5
2.9486935 -1.1478692 -0.38851932 8 4
2.9108639 -1.1343129 -0.2733205 1 5
2.9293342 -1.1527143 -0.27541223 1 5
2.9276948 -1.1632959 -0.38681319 52 4
2.9289954 -1.1644046 -0.27576086 1 5
2.9023438 -1.1549828 -0.16370684 1 6
2.9125626 -1.1690714 -0.38535106 56 4
2.9138203 -1.1701667 -0.27471501 1 5
2.8890285 -1.1613822 -0.16318347 23 6
2.9121432 -1.1807227 -0.38583854 53 4
2.9244874 -1.1863223 -0.27610946 1 5
2.9006562 -1.1878719 -0.38486323 50 4
2.8982055 -1.187459 -0.27401778 1 5
2.8586755 -1.1724283 -0.16192739 58 6
2.8891542 -1.1949549 -0.38388827 53 4
2.8977249 -1.1990919 -0.27436641 2 5
2.8453393 -1.1785783 -0.16140403 45 6
2.8849657 -1.2050327 -0.38388827 52 4
2.8806529 -1.2038219 -0.27314618 3 5
2.846736 -1.1908152 -0.16171806 45 6
2.8807414 -1.2150956 -0.3838886 52 4
2.8856115 -1.2177433 -0.27401775 23 5
2.8499212 -1.203854 -0.16213675 45 6
2.8837881 -1.2282555 -0.38486323 50 4
2.8978393 -1.234838 -0.27558655 2 5
2.8475387 -1.2145782 -0.16224141 43 6
2.8703651 -1.2343932 -0.38364455 13 4
2.9063225 -1.2504575 -0.27680671 1 5
2.8359444 -1.2213506 -0.16182274 8 6
2.9158714 -1.2648324 -0.50340605 11 3
2.8909755 -1.2558322 -0.27576086 1 5
2.9687634 -1.2914711 -0.05651072 1 7
2.908042 -1.2729107 -0.50278032 56 3
2.8582599 -1.2523092 -0.38315707 1 4
2.8719773 -1.2595142 -0.27436641 1 5
2.8421969 -1.2470455 -0.16266012 1 6
2.8507206 -1.2519722 -0.054346625 1 7
2.9108086 -1.2862475 -0.50403184 59 3
2.8901799 -1.2783381 -0.38803184 1 4
2.9005802 -1.2835436 -0.277504 1 5
2.8560879 -1.2650474 -0.16370682 1 6
2.8115995 -1.2465165 -0.053683437 27 7
2.9135172 -1.2996193 -0.50528336 70 3
2.8893251 -1.2900375 -0.38851932 1 4
2.8524227 -1.2741584 -0.27332053 1 5
2.8443613 -1.2717485 -0.16328813 1 6
2.8855469 -1.2992383 -0.50121605 63 3
2.8739455 -1.2952214 -0.38705721 1 4
2.8770185 -1.2972103 -0.27610949 1 5
2.8399048 -1.2816694 -0.16328813 1 6
2.8174081 -1.2727004 -0.053962678 72 7
2.8809936 -1.3093026 -0.50121599 53 3
2.8513379 -1.2970263 -0.3846195 1 4
2.8434579 -1.2940407 -0.2733205 1 5
2.8281436 -1.2882631 -0.16286945 2 6
2.802031 -1.2775499 -0.053753246 75 7
2.8835878 -1.3226454 -0.50246745 53 3
2.8576176 -1.3119409 -0.38608196 2 4
2.8642712 -1.315601 -0.27576089 1 5
2.8163705 -1.2947901 -0.16245076 2 6
2.795738 -1.2864869 -0.05371834 57 7
2.8789532 -1.3327031 -0.50246745 53 3
2.8440144 -1.317735 -0.38486359 6 4
2.8379695 -1.3155359 -0.27366912 2 5
2.8027749 -1.3004102 -0.16192739 21 6
2.7894166 -1.295396 -0.053683437 59 7
2.8671253 -1.3394002 -0.50121599 53 3
2.8369701 -1.3271227 -0.27401778 2 5
2.7921207 -1.3085191 -0.053823054 59 7
2.8588588 -1.3477155 -0.50059026 53 3
2.861675 -1.3502642 -0.38851932 53 4
2.8215098 -1.3319145 -0.2729719 31 5
2.8008516 -1.3233584 -0.16234608 61 6
2.7893441 -1.3191125 -0.053857964 57 7
2.8630564 -1.3619294 -0.50215459 52 3
2.8300598 -1.3474447 -0.38486323 53 4
2.8294342 -1.3477527 -0.27419207 5 5
2.7835953 -1.3271104 -0.16161339 46 6
2.7867589 -1.329216 -0.053892862 61 7
2.8189349 -1.3500024 0.054556154 1 8
2.8642333 -1.3735399 -0.61745805 6 2
2.8603051 -1.3722706 -0.50246745 55 3
2.8219967 -1.3551036 -0.38437611 12 4
2.8516488 -1.3705674 -0.27680674 1 5
2.789979 -1.341527 -0.16224143 38 6
2.773093 -1.3345994 -0.053718343 57 7
2.7475865 -1.3276436 0.053264678 19 8
2.8519416 -1.3805251 -0.50184172 44 3
2.8327451 -1.373064 -0.27541223 1 5
2.763021 -1.3416508 -0.053613629 59 7
2.8583462 -1.3947263 -0.61822128 56 2
2.8356521 -1.3861046 -0.38754433 1 4
2.8243556 -1.3811933 -0.27506363 1 5
2.8092477 -1.3750206 -0.16391617 1 6
2.7655039 -1.3548062 -0.053753242 45 7
2.7472229 -1.3512056 0.053439204 52 8
2.8534606 -1.4046953 -0.61822134 49 2
2.8450396 -1.4030182 -0.38949463 1 4
2.8195169 -1.3910438 -0.27506363 1 5
2.8008497 -1.3830496 -0.16370684 1 6
2.7406981 -1.3598981 0.053404298 24 8
2.8485396 -1.4146471 -0.61822128 52 2
2.8550179 -1.419107 -0.50497043 1 3
2.8330157 -1.4094039 -0.38851932 1 4
2.8146443 -1.4008771 -0.27506363 1 5
2.7995799 -1.3945991 -0.16391617 1 6
2.7864013 -1.3892484 -0.054346625 2 7
2.7520285 -1.3775125 0.05371844 15 8
2.8348076 -1.4201846 -0.61631316 57 2
2.8606415 -1.4343765 -0.50684762 1 3
2.8103366 -1.4103805 -0.38608193 1 4
2.8168592 -1.4142694 -0.27576086 1 5
2.7982638 -1.4061565 -0.1641255 1 6
2.7672436 -1.3917785 -0.054067396 4 7
2.8228242 -1.4265294 -0.61478668 57 2
2.8556173 -1.4443533 -0.50684762 2 3
2.8124804 -1.423768 -0.38705721 1 4
2.804796 -1.4204929 -0.27506363 1 5
2.78265 -1.4104977 -0.16349748 1 6
2.7280893 -1.3894312 0.053439204 60 8
2.8248236 -1.4399407 -0.61631316 57 2
2.8312025 -1.4444375 -0.50340605 9 3
2.8181012 -1.4389935 -0.38851932 1 4
2.7927232 -1.4266492 -0.27436641 1 5
2.7812657 -1.4220208 -0.16370682 2 6
2.7610199 -1.4128851 -0.0541372 57 7
2.7250013 -1.3998591 0.053474106 75 8
2.8197801 -1.4497923 -0.61631316 56 2
2.8156047 -1.4488883 -0.50152886 52 3
2.8060019 -1.4451858 -0.38754433 2 4
2.7948108 -1.4400393 -0.27506363 1 5
2.7496586 -1.4179891 -0.16213675 21 6
2.7614021 -1.4252659 -0.054241914 78 7
2.7272005 -1.4130425 0.053613726 72 8
2.8216741 -1.4632417 -0.61783969 55 2
2.8280628 -1.4678078 -0.50465757 59 3
2.7991788 -1.454057 -0.38730061 27 4
2.7791593 -1.4442735 -0.27401775 2 5
2.7457676 -1.4293559 -0.054032486 79 7
2.7187064 -1.4207014 0.053543914 72 8
2.691891 -1.4078848 0.15920602 3 9
2.8130693 -1.4712623 -0.6170764 57 2
2.8421731 -1.4877473 -0.50809908 77 3
2.7609165 -1.4482845 -0.16339281 70 6
2.7301381 -1.4333546 -0.053823054 61 7
2.7208073 -1.4339119 0.053683534 75 8
2.8044436 -1.4792411 -0.61631316 59 2
2.8212409 -1.4893599 -0.50528336 66 3
2.7872038 -1.4726357 -0.38705721 49 4
2.7690086 -1.4636405 -0.27401775 28 5
2.7452512 -1.4523091 -0.16276477 55 6
2.7253699 -1.4424001 -0.053823054 60 7
2.7089732 -1.4391739 0.053543914 75 8
2.8027298 -1.4908653 -0.61707646 57 2
2.7988482 -1.4894273 -0.50215465 52 3
2.7630327 -1.4716058 -0.38437614 8 4
2.7439451 -1.4632844 -0.16297412 50 6
2.7309034 -1.4575541 -0.054032486 60 7
2.703933 -1.4486212 0.053543914 78 8
2.6860521 -1.4402485 0.15972941 46 9
2.8046913 -1.503862 -0.61860287 57 2
2.8023345 -1.5038583 -0.50371897 26 3
2.7765326 -1.4918849 -0.27576086 1 5
2.7370613 -1.4719076 -0.16286944 20 6
2.7222776 -1.4651827 -0.053962681 61 7
2.7058976 -1.4618528 0.053683534 77 8
2.682765 -1.4505656 0.15983406 9 9
2.8028786 -1.5155108 -0.61936611 57 2
2.7823656 -1.5069306 -0.38851932 1 4
2.7607975 -1.4958727 -0.27471501 1 5
2.7276914 -1.4803991 -0.054172102 61 7
2.7042902 -1.4732025 0.053753339 71 8
2.7872293 -1.5196465 -0.6170764 55 2
2.8229799 -1.540417 -0.5093506 1 3
2.7910261 -1.5242453 -0.39046922 1 4
2.7975218 -1.5284269 -0.27889848 1 5
2.7477477 -1.5024784 -0.16412552 1 6
2.7119823 -1.4841516 -0.053962678 26 7
2.7061419 -1.4864842 0.053892955 35 8
2.6725729 -1.4692593 0.15983406 2 9
2.7784669 -1.527475 -0.61631316 52 2
2.8141241 -1.5483574 -0.50872487 1 3
2.7856882 -1.5339786 -0.39046958 1 4
2.7607579 -1.5208782 -0.27576086 1 5
2.7459841 -1.5139891 -0.16433485 1 6
2.6918838 -1.4921355 0.16129947 2 9
2.8057432 -1.5552487 -0.62356395 17 2
2.8156123 -1.5620043 -0.50997639 1 3
2.7699037 -1.5379115 -0.38900679 1 4
2.7589154 -1.5324408 -0.27610949 1 5
2.7337003 -1.5196836 -0.16391617 1 6
2.7102919 -1.5079098 -0.054137196 2 7
2.6761982 -1.4956764 0.16067144 2 9
2.7997978 -1.5660369 -0.50809908 2 3
2.7783761 -1.5553281 -0.39095673 1 4
2.750073 -1.5401149 -0.27576086 1 5
2.7388325 -1.5350759 -0.16454419 1 6
2.713732 -1.5222528 -0.054311723 34 7
2.6605206 -1.4991263 0.16004342 2 9
2.7058423 -1.5252858 0.27175146 1 10
2.7736666 -1.5641569 -0.50434464 2 3
2.7452695 -1.5494058 -0.38705724 1 4
2.7585595 -1.5575416 -0.27715534 1 5
2.7195463 -1.5367662 -0.16370682 2 6
2.6764286 -1.5191875 0.05371844 59 8
2.6517985 -1.5064311 0.15983407 5 9
2.6416063 -1.501251 0.26582488 5 10
2.7398441 -1.558979 -0.38705721 2 4
2.766958 -1.5750462 -0.27854985 2 5
2.702018 -1.5393293 -0.16297412 23 6
2.69609 -1.5371989 -0.054172102 72 7
2.6711092 -1.5285207 0.05371844 68 8
2.7849593 -1.5962524 -0.508412 59 3
2.7395515 -1.571497 -0.38778809 4 4
2.7251544 -1.5638701 -0.27488932 3 5
2.6837728 -1.5426147 -0.054032486 75 7
2.6674895 -1.5388345 0.053753339 72 8
2.6481359 -1.5289019 0.16025276 60 9
2.7793701 -1.6059639 -0.508412 66 3
2.7340498 -1.5810499 -0.38778812 34 4
2.7119474 -1.5701644 -0.16423021 67 6
2.6818326 -1.5539783 -0.054102294 61 7
2.6621015 -1.5481361 0.053753339 75 8
2.6430514 -1.537675 0.16025276 45 9
2.6291845 -1.5308363 0.26617348 52 10
2.7566786 -1.6057136 -0.50528336 66 3
2.7648094 -1.6110963 -0.39290661 41 4
2.7279384 -1.5908867 -0.2762838 45 5
2.6926501 -1.5715672 -0.16339281 60 6
2.6870258 -1.5689129 -0.054311723 60 7
2.6604042 -1.5589778 0.053823158 75 8
2.6327682 -1.5434009 0.15993874 57 9
2.6292489 -1.5425712 0.26669642 66 10
2.7513385 -1.6148462 -0.50528336 57 3
2.7183676 -1.5961323 -0.38705721 4 4
2.726084 -1.6019431 -0.27663246 5 5
2.6874242 -1.5804877 -0.16339283 49 6
2.6887026 -1.5818712 -0.054451343 60 7
2.6621075 -1.5718585 0.053962778 72 8
2.6273651 -1.5525815 0.15993875 57 9
2.6206889 -1.5492538 0.26634783 67 10
2.7595704 -1.6320052 -0.50778621 57 3
2.7332795 -1.6177448 -0.38998175 1 4
2.7361858 -1.6201103 -0.27820122 1 5
2.6873226 -1.5924448 -0.16370682 46 6
2.6762846 -1.5871669 -0.054311726 60 7
2.6600409 -1.583187 0.054032587 72 8
2.6322248 -1.5678756 0.16056678 22 9
2.6084187 -1.5543126 0.26565057 67 10
2.7504635 -1.6396053 -0.50716054 49 3
2.7583015 -1.6455828 -0.39436907 1 4
2.7031403 -1.6133142 -0.27541223 1 5
2.6672955 -1.5944471 -0.054241918 60 7
2.6476393 -1.5883474 0.053892963 75 8
2.6029773 -1.5634083 0.26565057 65 10
2.7447231 -1.649196 -0.50716048 8 3
2.7423334 -1.6490632 -0.39290661 1 4
2.7040374 -1.6273201 -0.27610949 1 5
2.6651387 -1.6058117 -0.054311723 53 7
2.6383779 -1.595971 0.053823158 45 8
2.6465669 -1.6021864 0.16213687 2 9
2.6040463 -1.5770668 0.2663478 63 10
2.7362709 -1.6591032 -0.39290661 1 4
2.7116816 -1.6454887 -0.277504 1 5
2.680176 -1.6276511 -0.16433485 1 6
2.6239085 -1.6010119 0.16109014 2 9
2.6050503 -1.5907538 0.26704502 22 10
2.7403333 -1.6753336 -0.39436907 1 4
2.7059212 -1.6549442 -0.277504 1 5
2.6812925 -1.6411676 -0.16475354 1 6
2.6638117 -1.6311071 -0.054521143 2 7
2.6408019 -1.6227266 0.054102395 5 8
2.6080961 -1.6038841 0.16046211 2 9
2.7178605 -1.674001 -0.39193198 1 4
2.7035201 -1.6664708 -0.27785262 1 5
2.6724355 -1.6479536 -0.16454421 2 6
2.6197414 -1.6230426 0.16150883 2 9
2.7086272 -1.6813844 -0.39144453 1 4
2.701364 -1.6775285 -0.27820122 1 5
2.6700597 -1.6593806 -0.16475356 2 6
2.6594408 -1.6534244 -0.054660771 90 7
2.610671 -1.6300616 0.16129947 2 9
2.7131357 -1.6966724 -0.39290661 2 4
2.7056255 -1.6932901 -0.27924711 2 5
2.6468749 -1.6584507 -0.054521147 70 7
2.613508 -1.6439033 0.053892963 56 8
2.7001817 -1.70237 -0.39193198 2 4
2.6912723 -1.6974095 -0.27837554 11 5
2.6584101 -1.6779804 -0.16475356 44 6
2.6509225 -1.6745487 -0.054730583 79 7
2.6161985 -1.6583691 0.054067489 64 8
2.5803885 -1.6369325 0.16014808 37 9
2.6958983 -1.71285 -0.39217576 27 4
2.6542215 -1.6883217 -0.16485822 67 6
2.6416872 -1.681644 -0.054660771 60 7
2.613764 -1.6696441 0.054137293 66 8
2.5884097 -1.6540842 0.16098547 47 9
2.6851878 -1.7185701 -0.39144418 41 4
2.6793566 -1.7161567 -0.27837554 50 5
2.651675 -1.6997321 -0.16506757 60 6
2.6360958 -1.6903948 -0.054660764 61 7
2.6149395 -1.6826308 0.054276913 61 8
2.5829103 -1.6626588 0.16098547 46 9
2.7061684 -1.7446752 -0.39534399 49 4
2.6602576 -1.7163912 -0.27698106 26 5
2.642668 -1.7063494 -0.16485822 49 6
2.6304758 -1.6991271 -0.054660764 61 7
2.605989 -1.6891179 0.054207105 64 8
2.5787666 -1.6727513 0.16109014 51 9
2.6834159 -1.7432964 -0.39290661 19 4
2.640044 -1.717742 -0.16506757 50 6
2.6278808 -1.7104809 -0.054730579 61 7
2.5930848 -1.694283 0.054067492 64 8
2.5876627 -1.6920294 0.16203219 52 9
2.6662376 -1.7473965 -0.27889848 1 5
2.6303902 -1.7252157 -0.16485822 20 6
2.6249373 -1.7222948 -0.054800384 60 7
2.5935376 -1.7081751 0.054207105 64 8
2.6700971 -1.7632806 -0.27994433 1 5
2.6252792 -1.736317 -0.054940008 60 7
2.5975561 -1.7238524 0.054416537 48 8
2.6639259 -1.77259 -0.27994433 1 5
2.643218 -1.7601423 -0.1664283 1 6
2.602562 -1.7343811 -0.054590959 19 7
2.6676517 -1.7885354 -0.28099024 1 5
2.6237898 -1.7604558 -0.16559093 1 6
2.5973723 -1.7493122 0.054660864 2 8
2.6484964 -1.7884519 -0.27959573 1 5
2.6212471 -1.7713838 -0.16580027 2 6
2.655731 -1.8061883 -0.28099024 2 5
2.6137075 -1.7789423 -0.16569561 6 6
2.5622914 -1.7511551 0.054172199 48 8
2.6395485 -1.8086901 -0.27994433 2 5
2.611686 -1.7922786 -0.055289049 70 7
2.5775745 -1.7748318 0.054625966 60 8
2.623065 -1.8115592 -0.27889848 30 5
2.5889661 -1.7900121 -0.054940011 61 7
2.5746493 -1.7860979 0.05469577 59 8
2.6077325 -1.815798 -0.16653296 60 6
2.5876241 -1.8024675 -0.055044722 66 7
2.558253 -1.7886477 0.054486349 61 8
2.6168804 -1.8344021 -0.27959573 21 5
2.596473 -1.8214486 -0.16621895 52 6
2.5859106 -1.8153863 -0.055149432 60 7
2.5536284 -1.7987181 0.054521248 52 8
2.583575 -1.8258901 -0.16580026 52 6
2.582823 -1.8267112 -0.055219244 61 7
2.5755589 -1.8337393 -0.16569561 49 6
2.5816374 -1.8387462 -0.055323955 66 7
2.5792029 -1.8492527 -0.16632365 35 6
2.5703292 -1.8442494 -0.055219244 60 7
2.5641992 -1.8527628 -0.05521924 61 7
2.5972443 -1.8890868 -0.16831239 1 6
2.5641837 -1.8664095 -0.055358868 61 7
2.5874116 -1.8957803 -0.16810302 1 6
2.557653 -1.8753489 -0.055358868 61 7
2.5804465 -1.9052511 -0.16810304 2 6
2.5607424 -1.8913938 -0.055568296 60 7
2.5689723 -1.910671 -0.16778903 30 6
2.5473759 -1.8959903 -0.055428669 60 7
2.543942 -1.9072703 -0.055498481 60 7
2.5619478 -1.9333718 -0.16820772 22 6
2.5404608 -1.9185487 -0.055568293 53 7
