# .PCD v0.7 - Point Cloud Data file format
VERSION 0.7
FIELDS x y z intensity ring
SIZE 4 4 4 4 2
TYPE F F F F U
COUNT 1 1 1 1 1
WIDTH 1306
HEIGHT 1
VIEWPOINT 0 0 0 1 0 0 0
POINTS 1306
DATA ascii
17.18745 -2.1712797 2.7438612 57 12
3.1211076 -0.39484102 -0.27523795 2 5
17.090958 -2.1651516 3.3486967 57 13
3.1365225 -0.39790356 -0.16569559 1 6
17.01412 -2.1614518 3.9595885 84 14
3.1125069 -0.39540887 -0.054765485 15 7
13.221289 -1.6819602 3.5711858 2 15
3.0979984 -0.39851159 0.054521248 60 8
4.648315 -0.59876156 -1.0820144 2 1
3.0881424 -0.3983396 0.1631836 60 9
3.1153264 -0.40239882 -0.61058897 2 2
3.1482048 -0.40720433 -0.50278032 77 3
18.830118 -2.4389217 2.3313601 16 11
17.179764 -2.2312615 2.7438607 57 12
3.121686 -0.40599024 -0.27541226 3 5
17.10899 -2.2251067 3.3536596 54 13
3.1114194 -0.40520731 -0.16443953 2 6
14.77842 -1.932497 3.9935787 2 15
3.1045182 -0.41037139 0.054660868 61 8
4.5998316 -0.6088466 -1.0712168 4 1
3.0946524 -0.41016638 0.16360226 60 9
3.092566 -0.40988988 -0.60639113 7 2
3.0692606 -0.40734613 0.27087992 31 10
3.1252248 -0.41532862 -0.49933881 66 3
18.839201 -2.5069935 2.3335543 16 11
3.1207721 -0.41584554 -0.38656974 71 4
17.185579 -2.293046 2.7460513 57 12
17.11669 -2.2868946 3.3567109 57 13
3.1099865 -0.41606572 -0.16443954 2 6
15.550395 -2.0831535 3.6221616 2 14
3.1017427 -0.41606504 -0.054625869 67 7
14.07465 -1.8904613 3.8051581 2 15
4.1483793 -0.56235743 -1.1217217 1 0
3.0951407 -0.42012987 0.054521248 64 8
4.5938158 -0.62437427 -1.0703169 7 1
3.1011178 -0.42204359 0.16402094 57 9
3.0875616 -0.42074755 0.27262303 38 10
3.1237559 -0.42623523 -0.49933881 61 3
18.853933 -2.575963 2.3364785 13 11
3.1035681 -0.42458409 -0.38461953 57 4
17.195084 -2.3554332 2.7488673 57 12
3.1168761 -0.42695892 -0.27523792 50 5
17.118326 -2.3479629 3.3586187 54 13
15.47353 -2.1278648 3.6059654 2 14
3.1181004 -0.42934445 -0.054940008 85 7
14.712897 -2.0284982 3.9796021 10 15
4.1310825 -0.57470483 -1.1175804 5 0
3.0976169 -0.43148312 0.054591063 59 8
4.5723076 -0.63771385 -1.0658178 4 1
3.0996258 -0.43286595 0.16402094 55 9
3.1012957 -0.43309915 -0.60868084 32 2
17.995518 -2.5162945 1.5897197 30 10
3.1222491 -0.4371365 -0.49933881 61 3
18.854656 -2.6431379 2.3376973 13 11
3.10993 -0.43651858 -0.38559446 56 4
17.208271 -2.4184649 2.7523081 54 12
3.1093714 -0.43754712 -0.27471501 65 5
17.119749 -2.4090712 3.3605273 54 13
3.1248052 -0.44027507 -0.16538158 2 6
15.570208 -2.1965642 3.63026 2 14
3.1185627 -0.44050577 -0.05497491 60 7
4.1365995 -0.59093523 -1.1196513 5 0
3.0960915 -0.44229314 0.05459106 64 8
4.5854864 -0.65587783 -1.0694171 7 1
3.090188 -0.44255051 0.16360228 55 9
3.1055169 -0.44529897 -0.60982561 3 2
18.005894 -2.5850656 1.5914649 24 10
3.120626 -0.44857714 -0.49933881 61 3
18.857105 -2.7106309 2.33916 13 11
3.0965984 -0.44567496 -0.38413203 56 4
17.205593 -2.4793642 2.753247 54 12
3.1176848 -0.44982079 -0.27558655 56 5
17.136063 -2.4754503 3.3654881 57 13
3.1251469 -0.45201096 -0.16548625 1 6
15.48105 -2.2418866 3.6113639 2 14
14.694553 -2.1306093 3.9785669 13 15
4.1459799 -0.60705024 -1.122757 5 0
3.0984063 -0.45421794 0.054660864 64 8
4.5753393 -0.67154795 -1.0676174 7 1
3.0846722 -0.45275447 0.16339293 39 9
5.0754733 -0.74586028 -0.997168 4 2
3.1229494 -0.46004322 -0.49996451 57 3
18.874538 -2.783783 2.3425722 17 11
3.0988717 -0.45760155 -0.3846195 57 4
17.21833 -2.5425813 2.7566886 51 12
17.14868 -2.5384138 3.3696859 54 13
3.1275017 -0.46350256 -0.16569559 1 6
15.457709 -2.2936239 3.607765 5 14
14.673652 -2.1799023 3.9749436 21 15
4.128552 -0.6192264 -1.1186159 5 0
3.1166589 -0.46745628 0.055009913 33 8
4.5769415 -0.6872955 -1.0685172 4 1
5.0922518 -0.76649463 -1.0009841 4 2
6.7241001 -1.0133235 0.59492475 7 10
3.1272669 -0.47127989 -0.50090313 55 3
18.88287 -2.8490236 2.3447659 14 11
3.1051884 -0.46906126 -0.38559446 56 4
17.221067 -2.6044419 2.7585659 51 12
17.151817 -2.5970309 3.3719757 54 13
3.1180489 -0.47267392 -0.16527691 1 6
17.064575 -2.5899141 3.9847829 29 14
3.115756 -0.47343892 -0.055009816 1 7
14.675502 -2.2325623 3.9775317 26 15
4.1283855 -0.63320661 -1.1191336 5 0
4.5860715 -0.70504451 -1.0712167 4 1
3.0853844 -0.47488606 0.16360228 6 9
5.0974441 -0.78457171 -1.0025107 4 2
6.7088881 -1.0337952 0.59387887 18 10
3.1158414 -0.48068726 -0.49933881 57 3
18.898314 -2.9188588 2.3479345 17 11
3.1035323 -0.47989753 -0.38559446 44 4
17.2353 -2.6681654 2.7623208 54 12
3.1404526 -0.48616782 -0.27802691 1 5
17.156227 -2.6589904 3.3746469 54 13
3.120327 -0.48416758 -0.16548625 1 6
3.1180363 -0.48492676 -0.055079628 1 7
14.663801 -2.2831812 3.9764962 31 15
4.1356926 -0.64911127 -1.1217217 5 0
3.0639336 -0.48144284 0.054137297 16 8
4.5604815 -0.71741456 -1.0658178 2 1
5.0830388 -0.80052781 -1.000221 4 2
6.7131104 -1.0584487 0.59457606 28 10
3.1219494 -0.4927927 -0.50059032 57 3
18.89389 -2.9857376 2.3486655 17 11
17.24539 -2.7314017 2.765449 57 12
3.1072509 -0.49214029 -0.27523792 1 5
17.162352 -2.7213204 3.3776999 60 13
3.1028373 -0.49255148 -0.16464888 1 6
14.65574 -2.3291078 3.4260046 2 14
3.1321235 -0.49832129 -0.055358868 2 7
14.653834 -2.3340499 3.9759786 23 15
4.1372151 -0.66415584 -1.1227568 5 0
3.0899675 -0.49714532 0.16402094 47 9
5.0918427 -0.82013905 -1.0025107 4 2
6.7015071 -1.0806066 0.59387887 28 10
3.1143599 -0.50274295 -0.4996517 55 3
18.900991 -3.054522 2.3508594 14 11
3.1139116 -0.50322825 -0.38730061 1 4
17.257689 -2.7920449 2.7688909 54 12
3.1291153 -0.50680614 -0.27732968 1 5
17.170189 -2.7840393 3.3811343 54 13
3.1168709 -0.50593954 -0.16548625 1 6
14.686405 -2.3839402 3.4350026 2 14
3.1265061 -0.50806355 -0.055289052 2 7
17.044748 -2.7728598 4.6271672 37 15
4.1368971 -0.67818433 -1.1232746 5 0
3.1099179 -0.51038325 0.055009916 60 8
3.0823896 -0.50641805 0.16370694 49 9
5.0813456 -0.83574516 -1.0009841 4 2
6.6978865 -1.1028235 0.59387964 28 10
3.1243696 -0.51499528 -0.50152886 53 3
18.914261 -3.1210613 2.3537843 17 11
3.1043911 -0.51225865 -0.38632566 2 4
17.248337 -2.8492582 2.7688892 57 12
3.1352799 -0.51848 -0.27802691 1 5
17.176357 -2.8435278 3.3841891 57 13
3.1112356 -0.51561952 -0.16527693 1 6
14.628435 -2.4243448 3.4233055 2 14
3.1188858 -0.51744682 -0.055184338 6 7
4.1212883 -0.68966711 -1.1196512 5 0
3.1003196 -0.51937187 0.054870304 60 8
3.084542 -0.51783574 0.16391627 48 9
5.078546 -0.85259098 -1.0009841 4 2
6.680439 -1.122717 0.5926587 26 10
3.124593 -0.52568102 -0.50184178 49 3
18.93317 -3.1887109 2.3574402 10 11
3.0947542 -0.52177191 -0.3853507 2 4
17.25971 -2.9130647 2.7723324 57 12
3.1255934 -0.52809346 -0.27732968 1 5
17.199745 -2.9060316 3.3906748 60 13
3.1252627 -0.52859855 -0.16611429 2 6
14.612197 -2.4740913 3.4215057 2 14
4.122541 -0.70541936 -1.1206864 5 0
3.0906034 -0.52884167 0.05473068 64 8
3.082716 -0.52859968 0.16391627 48 9
5.075387 -0.87119895 -1.0009841 4 2
6.6743159 -1.1468571 0.59248519 28 10
3.1090178 -0.53478569 -0.4996517 9 3
6.9176927 -1.1899201 0.86185986 2 11
3.1124771 -0.53594005 -0.38778809 12 4
17.27669 -2.9779918 2.7767122 56 12
3.1198039 -0.53832299 -0.27698106 2 5
17.185108 -2.9683836 3.3899117 60 13
3.1233046 -0.54004973 -0.1661143 2 6
14.660637 -2.5376017 3.4350028 2 14
17.055265 -2.9551532 4.6380377 57 15
4.127665 -0.72113532 -1.1227568 5 0
3.0925837 -0.54085475 0.054800484 64 8
4.5666008 -0.79946363 -1.0703168 2 1
3.1004305 -0.54334253 0.16496299 39 9
5.0877852 -0.89162135 -1.004037 2 2
6.6781211 -1.171525 0.59318161 28 10
5.7589917 -1.0113207 -0.92609191 2 3
6.7842474 -1.1925836 0.8457731 3 11
17.285112 -3.0447206 2.7798412 56 12
3.1139815 -0.54851848 -0.27663246 2 5
17.195908 -3.0321026 3.3941112 57 13
3.0977979 -0.54678279 -0.16485822 15 6
14.701584 -2.5975776 3.4467003 2 14
3.1250155 -0.55271178 -0.055393774 70 7
17.078558 -3.0237062 4.6473546 77 15
4.117516 -0.73418278 -1.1206864 5 0
3.1024885 -0.55375481 0.055009916 61 8
4.5599465 -0.81471372 -1.0694172 4 1
6.6806812 -1.1948231 0.35567528 22 9
5.1001024 -0.91214055 -1.00709 2 2
6.6759524 -1.1951797 0.59335589 26 10
5.7573709 -1.0317657 -0.92640477 2 3
6.766366 -1.213804 0.84406698 5 11
3.0987928 -0.55644423 -0.38656974 56 4
17.293823 -3.1085334 2.78297 53 12
17.21034 -3.0966289 3.3990705 54 13
17.145317 -3.0911083 4.0221243 25 14
3.1230664 -0.56361663 -0.055393767 70 7
17.081209 -3.0857072 4.6509786 84 15
4.1263313 -0.75062549 -1.1237922 5 0
3.096602 -0.56386465 0.054940108 61 8
4.564743 -0.83202362 -1.0712168 4 1
6.6825771 -1.218045 0.35598931 24 9
5.0891628 -0.92852837 -1.0055636 4 2
6.6893802 -1.2216976 0.59492475 24 10
5.7576203 -1.0525666 -0.92703056 2 3
6.750371 -1.2352717 0.84260446 7 11
3.1065948 -0.56904602 -0.38778809 59 4
17.289246 -3.1669323 2.7839081 56 12
3.1296732 -0.57383782 -0.27837554 50 5
17.218733 -3.1602287 3.4028883 57 13
3.1155133 -0.57236582 -0.1660096 49 6
17.113342 -3.1470616 4.0171757 47 14
3.1054471 -0.57107687 -0.055114534 61 7
17.089882 -3.1458302 4.6561551 80 15
4.1084909 -0.7622056 -1.1196512 5 0
3.1065121 -0.5763188 0.055149533 61 8
4.569623 -0.84857941 -1.0730164 7 1
6.6900663 -1.2435539 0.3566173 28 9
5.0743089 -0.94413227 -1.0032737 2 2
6.6870332 -1.2454052 0.59509903 26 10
5.7540989 -1.0716538 -0.92703062 2 3
6.7462373 -1.2576499 0.84260446 6 11
3.1027389 -0.57898039 -0.38754469 57 4
17.287794 -3.2290771 2.7854726 53 12
3.1119835 -0.58182979 -0.27698106 13 5
17.235178 -3.2223625 3.4082296 54 13
15.865451 -2.9720042 3.7265394 9 14
3.0975378 -0.58080769 -0.055009812 56 7
4.1021447 -0.77510828 -1.118616 5 0
3.0926921 -0.58492941 0.054940108 61 8
4.5628028 -0.86380017 -1.0721164 7 1
6.7016058 -1.2687044 0.35745472 27 9
5.0711503 -0.96095407 -1.0032737 4 2
6.6906958 -1.2690585 0.59579629 26 10
5.7347975 -1.0887852 -0.92452765 2 3
6.7457075 -1.2819325 0.84309202 6 11
3.1006989 -0.58980751 -0.38754469 57 4
17.30998 -3.2926629 2.790791 56 12
17.231541 -3.2839751 3.4097559 60 13
3.1056595 -0.59243619 -0.16569561 1 6
15.776496 -3.0123818 3.7080929 12 14
3.0838091 -0.58882588 -0.054800384 11 7
4.1145892 -0.79234493 -1.1227568 5 0
3.0907354 -0.59518182 0.054940108 64 8
4.5637403 -0.879664 -1.0730163 7 1
6.7049804 -1.2936032 0.35787341 29 9
5.0831866 -0.98162794 -1.0063268 2 2
6.6881828 -1.2927837 0.59597063 28 10
5.7621875 -1.1137947 -0.9295336 2 3
6.7297258 -1.3020325 0.84162956 5 11
3.1026244 -0.60084158 -0.38803184 56 4
17.315838 -3.3564491 2.7936075 53 12
3.1275105 -0.60679352 -0.27872419 1 5
17.232121 -3.343343 3.4120457 54 13
3.107599 -0.60349315 -0.16590494 1 6
15.376524 -2.9944639 4.1975279 5 15
4.1078672 -0.80667597 -1.1217217 5 0
3.1002004 -0.60935891 0.055149533 59 8
4.5526814 -0.89567626 -1.0712168 7 1
6.6882062 -1.3170233 0.35724536 29 9
5.0834069 -1.0010107 -1.00709 4 2
6.695127 -1.3196002 0.59701645 24 10
5.7501154 -1.1343824 -0.92828202 2 3
6.755836 -1.334016 0.84552938 5 11
3.0963991 -0.61198038 -0.38754469 53 4
17.331888 -3.4286628 2.7983003 56 12
3.1252651 -0.61825222 -0.27872416 1 5
17.240339 -3.4136786 3.4162431 60 13
3.1013408 -0.61464447 -0.16569559 1 6
3.1264844 -0.62076205 -0.055638101 1 7
15.414178 -3.0632739 4.2109866 2 15
4.1201801 -0.82404113 -1.1258628 5 0
3.0980542 -0.62017703 0.055149533 64 8
4.5571694 -0.91309398 -1.0730163 7 1
6.6972761 -1.3431108 0.35797808 24 9
5.0760326 -1.0179772 -1.0063269 4 2
6.6982942 -1.3445309 0.59771371 28 10
5.74612 -1.154447 -0.92828196 2 3
6.7920074 -1.3658085 0.85064787 2 11
3.0981367 -0.62356859 -0.38803184 44 4
17.319815 -3.4891415 2.7983003 21 12
3.1504323 -0.63466626 -0.28116453 1 5
17.243713 -3.4769425 3.4192963 21 13
3.1187539 -0.6294176 -0.16674231 1 6
15.863875 -3.2044814 3.7364373 6 14
3.1164584 -0.63008642 -0.055498481 2 7
4.0983491 -0.83456337 -1.1206864 5 0
3.1076274 -0.63338363 0.055358969 66 8
4.5424986 -0.92665881 -1.0703169 7 1
6.7160296 -1.3712751 0.35923415 24 9
5.0532117 -1.0317619 -1.0025105 4 2
6.6857514 -1.3663087 0.59701645 24 10
5.7497973 -1.1760811 -0.92953354 2 3
8.7572374 -1.7928247 1.0975552 10 11
8.7408447 -1.7926482 1.4132292 15 12
3.1052587 -0.6368534 -0.27732965 1 5
8.6945868 -1.7847422 1.7252946 16 13
3.1087127 -0.6386925 -0.16632365 1 6
8.6525955 -1.7792706 2.0394065 9 14
3.1201158 -0.64217055 -0.055603195 4 7
8.63943 -1.7797068 2.3635359 17 15
4.1029773 -0.85043252 -1.122757 5 0
3.1053975 -0.64422739 0.055358969 64 8
4.5621328 -0.94726372 -1.0757158 7 1
6.7366223 -1.3999929 0.36059484 18 9
5.0611134 -1.0517915 -1.0048004 4 2
6.6984973 -1.3932896 0.59858525 20 10
5.7417898 -1.1953394 -0.92890787 2 3
8.6770782 -1.8079951 1.0882931 13 11
6.5780144 -1.3718225 -0.82505584 2 4
8.6591206 -1.8074075 1.4010276 12 12
3.1030169 -0.64768887 -0.27732965 1 5
8.5979815 -1.7962116 1.7073587 16 13
3.1299241 -0.65444535 -0.1675797 1 6
8.5424089 -1.790827 2.3386889 30 15
4.1037645 -0.86554682 -1.1237923 5 0
3.1031299 -0.65506339 0.055358969 60 8
4.5511718 -0.9615714 -1.0739162 7 1
6.843328 -1.4458579 0.36656114 10 9
5.065094 -1.0710764 -1.0063268 4 2
6.7130852 -1.4207885 0.60032839 22 10
5.7414465 -1.2161933 -0.92953354 2 3
8.5600252 -1.8148053 1.0744001 15 11
6.62392 -1.4043331 -0.83139229 2 4
8.5622568 -1.8168404 1.3863225 6 12
3.1046348 -0.6593442 -0.27767828 1 5
8.4937201 -1.805396 1.687896 16 13
3.104178 -0.66037959 -0.16632363 2 6
8.4687347 -1.80163 1.9989151 18 14
3.1313195 -0.66672492 -0.055882435 79 7
8.4627371 -1.8034419 2.3185012 25 15
4.1008711 -0.87915057 -1.1237922 5 0
3.106806 -0.66660863 0.055463683 53 8
4.5365262 -0.97420341 -1.0712168 4 1
6.828732 -1.4664466 0.36603779 11 9
5.0576758 -1.0870419 -1.0055636 2 2
6.7356067 -1.4489082 0.60276872 22 10
5.7412438 -1.2360575 -0.93015921 3 3
8.4840975 -1.828128 1.0656253 16 11
6.5726542 -1.4162557 -0.82554263 2 4
8.4924631 -1.8314816 1.3759979 27 12
3.1335917 -0.67636162 -0.28046724 1 5
8.4147644 -1.8177992 1.6733944 17 13
3.1058753 -0.67151397 -0.16653296 12 6
8.3731928 -1.8103482 1.9777697 19 14
3.103683 -0.67160708 -0.055428673 55 7
8.3641949 -1.8114591 2.2931371 23 15
4.1092596 -0.89521217 -1.1268982 5 0
3.0987172 -0.67562956 0.055358972 12 8
4.5370784 -0.99007249 -1.0721165 7 1
6.8118649 -1.4877177 0.36540982 20 9
5.0578794 -1.1046456 -1.0063269 2 2
6.763854 -1.478469 0.60573202 9 10
5.7293954 -1.2534008 -0.92890775 3 3
8.3849106 -1.8358728 1.053926 19 11
6.5986948 -1.4459883 -0.82944316 2 4
8.3702478 -1.8357245 1.3572258 18 12
3.1313322 -0.6867494 -0.2804673 2 5
8.3204803 -1.8263322 1.65584 19 13
8.2887859 -1.8224078 1.9593236 21 14
3.1169438 -0.68587488 -0.055707913 64 7
8.2729197 -1.8219472 2.2698431 26 15
4.0834765 -0.90453708 -1.1206865 5 0
8.4534369 -1.8740819 0.15113765 35 8
4.5450096 -1.0084366 -1.074816 7 1
6.8241773 -1.5153832 0.36635181 13 9
5.0463262 -1.1205919 -1.0048004 2 2
5.7404108 -1.2768236 -0.93141079 3 3
8.3765144 -1.8646992 1.0536824 61 11
6.5742316 -1.4646968 -0.82700503 2 4
8.3387241 -1.8593419 1.3531585 63 12
3.1153033 -0.69464028 -0.27924711 3 5
8.3083067 -1.8540815 1.6546953 63 13
3.1129279 -0.69525135 -0.167161 52 6
8.2386332 -1.8415526 1.9489758 42 14
3.0969672 -0.6928218 -0.055393767 60 7
8.2137251 -1.8389956 2.2553494 56 15
4.0802937 -0.91878557 -1.1206864 5 0
8.4390402 -1.9018199 0.15099804 39 8
4.5452638 -1.025153 -1.0757157 7 1
8.3969221 -1.8954084 0.45113608 35 9
5.0423841 -1.1381999 -1.0048004 4 2
8.3508549 -1.8865415 0.74901694 57 10
5.7243586 -1.2942398 -0.92953354 2 3
8.3486557 -1.8891079 1.0510011 52 11
6.6039271 -1.495528 -0.83139306 2 4
8.3264036 -1.8871282 1.3522197 70 12
8.2520037 -1.8717804 1.6447732 55 13
3.1163254 -0.70743978 -0.16747503 60 6
8.2359552 -1.871163 1.9498757 55 14
3.1120794 -0.70761836 -0.055707909 66 7
8.2110233 -1.868513 2.2563846 75 15
4.0919628 -0.93718463 -1.1248275 5 0
8.4420967 -1.9334981 0.15117256 46 8
4.5302606 -1.0384004 -1.0730163 7 1
8.4058294 -1.9282801 0.4519735 43 9
5.0458326 -1.1584308 -1.0063269 2 2
8.3535929 -1.9193671 0.74988854 40 10
5.7157259 -1.3143266 -0.92890775 2 3
8.3226652 -1.9137903 1.0485638 39 11
6.5986671 -1.5185708 -0.83139229 2 4
8.312067 -1.9144081 1.3509685 52 12
3.1219015 -0.71960002 -0.28029299 46 5
8.254652 -1.9042189 1.6466821 45 13
3.0923045 -0.71391469 -0.16632363 42 6
8.2347393 -1.9026532 1.9512258 49 14
3.1037452 -0.71712661 -0.055603195 60 7
8.2063341 -1.8975989 2.2569025 75 15
4.0961933 -0.95321399 -1.1268982 5 0
8.450532 -1.9680552 0.15145178 48 8
4.5188332 -1.0532284 -1.0712168 7 1
8.3909245 -1.9572612 0.45155481 42 9
5.0570531 -1.1796048 -1.0093797 4 2
8.3255014 -1.9435327 0.74797016 38 10
5.7226453 -1.3369668 -0.930785 2 3
8.3194599 -1.9451851 1.0490513 40 11
6.5775933 -1.5391275 -0.8294431 2 4
8.3030691 -1.9444096 1.3506553 39 12
3.1077313 -0.72776735 -0.27924711 10 5
8.257513 -1.9352616 1.6485893 35 13
8.2280483 -1.9313861 1.9512258 39 14
3.1127763 -0.73124141 -0.055812623 61 7
8.1918011 -1.9258955 2.2548318 34 15
4.0853209 -0.96572882 -1.1248276 5 0
8.4552889 -2.0003037 0.15166123 48 8
4.5189209 -1.0698934 -1.0721164 7 1
8.3957024 -1.9893022 0.45218283 43 9
5.0299807 -1.1918182 -1.0048004 2 2
8.3147898 -1.9716631 0.74762166 38 10
5.7256312 -1.3587587 -0.93203652 2 3
8.331933 -1.9788005 1.0514885 51 11
6.5605946 -1.5593244 -0.82798004 2 4
8.3173714 -1.9784096 1.354097 58 12
7.7222247 -1.836845 -0.69445717 3 5
8.2755356 -1.9699844 1.6535503 52 13
3.1299884 -0.74566841 -0.16862641 1 6
8.2231503 -1.9605476 1.9516754 55 14
3.1102047 -0.74210262 -0.055812623 70 7
8.2226105 -1.9634521 2.2651849 70 15
4.0819249 -0.97998357 -1.1248276 5 0
8.4599209 -2.0326087 0.15187067 48 8
4.5227385 -1.0874833 -1.0739162 7 1
8.4007101 -2.0199337 0.45281082 42 9
5.037241 -1.2121246 -1.00709 4 2
8.3272266 -2.0053396 0.74936473 36 10
5.7170119 -1.3778108 -0.93141067 2 3
8.3365536 -2.0106647 1.052951 49 11
6.5824032 -1.5875874 -0.83139229 2 4
8.3184452 -2.007834 1.3553485 57 12
7.6867161 -1.8567723 -0.6918425 3 5
8.2800598 -2.0016277 1.6558403 56 13
3.1157193 -0.75377172 -0.16799839 1 6
8.2374401 -1.9928464 1.9566246 56 14
3.0999525 -0.75053018 -0.055673003 60 7
8.2029123 -1.9875244 2.2615616 72 15
4.0861611 -0.99534303 -1.1268982 5 0
8.4511909 -2.0601783 0.15183575 46 8
4.5191078 -1.1024753 -1.0739162 4 1
8.4211302 -2.0544074 0.4542762 41 9
5.0293808 -1.2278907 -1.0063269 2 2
8.3495607 -2.0400357 0.75197929 46 10
5.7047362 -1.3948848 -0.93015921 2 3
8.3414097 -2.0411301 1.0544136 49 11
6.5693898 -1.6075193 -0.83041734 2 4
8.319417 -2.0372875 1.3566 58 12
7.6805167 -1.8822521 -0.6918425 3 5
8.2790956 -2.030477 1.656985 55 13
3.1325996 -0.76886046 -0.16904512 1 6
8.2459269 -2.0238678 1.9602238 56 14
3.0974469 -0.7608059 -0.055673007 61 7
8.2094069 -2.0179429 2.2651846 75 15
4.0790858 -1.0079608 -1.1258627 5 0
8.4598408 -2.0920322 0.15211497 43 8
4.5154262 -1.117455 -1.0739161 7 1
8.4177856 -2.0847507 0.4544856 42 9
5.0405254 -1.2483377 -1.0093796 4 2
8.3794947 -2.0768197 0.75529122 65 10
5.7039146 -1.4147458 -0.930785 2 3
8.3423004 -2.0706923 1.0553883 52 11
6.5945635 -1.638098 -0.83431798 2 4
8.3314257 -2.0710807 1.3597288 61 12
7.6971011 -1.9148225 -0.69393426 3 5
8.2913694 -2.0626595 1.6608011 61 13
3.1494131 -0.7840693 -0.17009181 1 6
8.246376 -2.0545237 1.9620235 56 14
3.1083539 -0.77499974 -0.055917334 57 7
8.219182 -2.0507958 2.2698433 72 15
4.0791121 -1.0238453 -1.1268981 5 0
8.4641237 -2.1244705 0.15232439 26 8
4.511498 -1.1332101 -1.0739161 4 1
8.4065828 -2.1131475 0.45427626 28 9
5.0321088 -1.2658458 -1.0086164 4 2
8.3776226 -2.1089776 0.75581419 51 10
5.6910286 -1.433712 -0.92953354 2 3
8.327323 -2.0978603 1.0544134 42 11
6.5580068 -1.6533426 -0.83041811 2 4
8.3145695 -2.0977342 1.3581645 27 12
7.6787801 -1.9387525 -0.69288844 3 5
8.2685261 -2.0891876 1.6577482 29 13
3.1039193 -0.78483588 -0.16778903 2 6
8.2406788 -2.0852122 1.9624732 31 14
3.1095076 -0.78682631 -0.055987153 56 7
8.2175922 -2.0808966 2.2713964 34 15
4.0717688 -1.037124 -1.1258627 5 0
8.4601574 -2.156467 0.15239422 35 8
4.5110912 -1.1507012 -1.074816 4 1
8.4146376 -2.1464286 0.45511362 41 9
5.02005 -1.281461 -1.00709 4 2
8.3837223 -2.14166 0.75703436 68 10
5.7051272 -1.4584613 -0.93266213 2 3
8.3503485 -2.1362388 1.0583134 52 11
6.5480566 -1.6763834 -0.8299306 2 4
8.3320732 -2.1331136 1.3622319 48 12
7.6681046 -1.9645554 -0.69253975 3 5
8.3011189 -2.1282771 1.6657621 52 13
3.0914879 -0.7931841 -0.16726565 13 6
8.2427874 -2.1163881 1.9647226 63 14
3.093184 -0.79419464 -0.055742819 41 7
8.2233763 -2.1129339 2.2750199 63 15
4.0606422 -1.0493975 -1.1237922 5 0
8.4703856 -2.1890132 0.15270837 37 8
4.5110235 -1.16663 -1.0757157 4 1
8.4186964 -2.1787906 0.45574173 28 9
5.0117464 -1.2979922 -1.0063269 4 2
8.3414793 -2.1619139 0.75389671 29 10
5.7040844 -1.4783634 -0.93328798 2 3
8.3470631 -2.1649153 1.0588009 48 11
6.5693617 -1.70507 -0.83334297 2 4
8.347518 -2.168144 1.3659859 58 12
7.6881971 -1.9983274 -0.69498014 1 5
8.3092184 -2.1597435 1.6688153 58 13
3.1159019 -0.81047022 -0.16873108 44 6
8.2583542 -2.1496007 1.9701214 58 14
8.5087395 -2.2163606 -0.15347598 54 7
8.2271662 -2.1445496 2.2781258 60 15
4.0646148 -1.0648154 -1.1258627 5 0
8.4839687 -2.2241449 0.15309231 39 8
4.5106945 -1.1833586 -1.0766157 4 1
8.4249487 -2.2102442 0.45647442 33 9
5.030201 -1.320587 -1.0109062 4 2
8.3439016 -2.1920946 0.75476837 36 10
5.6836061 -1.4942471 -0.93078506 2 3
8.3605709 -2.1995945 1.061482 51 11
6.5556917 -1.7259693 -0.83236724 2 4
8.3421946 -2.1963165 1.366299 55 12
8.3035259 -2.189235 1.6691977 56 13
3.1130538 -0.82134199 -0.16873106 28 6
8.2583361 -2.1804044 1.9719208 54 14
8.5129433 -2.2476275 -0.15368542 54 7
8.227479 -2.1737938 2.280196 60 15
4.0534053 -1.0770129 -1.1237922 5 0
8.4804134 -2.2532942 0.15316214 41 8
4.5029788 -1.1973084 -1.0757158 4 1
8.4306927 -2.2432342 0.45720711 36 9
5.0255604 -1.3381375 -1.0109062 4 2
8.3515987 -2.2253103 0.75616276 36 10
5.682436 -1.5141034 -0.93141067 2 3
8.3551483 -2.2278185 1.0617255 51 11
6.5806198 -1.7558877 -0.83626705 2 4
8.344018 -2.2279706 1.3678631 57 12
8.3038073 -2.218786 1.6707232 56 13
8.2680035 -2.2123122 1.97597 57 14
8.2366371 -2.2070005 2.2848551 56 15
4.0684662 -1.0954713 -1.1289687 5 0
8.4860106 -2.2865241 0.15340647 33 8
4.4874825 -1.2099756 -1.0730164 4 1
5.0097232 -1.3517271 -1.0086166 4 2
8.359561 -2.2571478 0.75755727 36 10
5.6847444 -1.535991 -0.93266213 2 3
8.3377399 -2.2543793 1.0605068 18 11
6.5437913 -1.7705523 -0.83236724 2 4
8.3361912 -2.2570829 1.3678633 30 12
8.2884321 -2.2457049 1.6691968 34 13
8.4219551 -2.2834606 -0.45731148 2 6
8.260231 -2.241159 1.97597 41 14
8.2400675 -2.2387764 2.2879608 53 15
4.0606971 -1.1093576 -1.1279335 5 0
8.5049849 -2.3235097 0.15389512 5 8
4.5020294 -1.2307712 -1.0775154 4 1
6.7349424 -1.8424717 0.36593312 1 9
4.9933734 -1.366969 -1.0063268 4 2
8.4050369 -2.3025117 0.762438 36 10
5.6790767 -1.556816 -0.93266213 2 3
8.3815107 -2.2976394 1.0670879 36 11
6.556716 -1.7986356 -0.83480471 2 4
8.3492155 -2.2919202 1.3713049 42 12
8.3085394 -2.2838738 1.6749219 40 13
8.3865681 -2.3068967 -0.45584604 4 6
8.2575979 -2.2729707 1.9773198 37 14
8.2396526 -2.2695785 2.2900312 36 15
4.0493517 -1.1214626 -1.1258628 5 0
4.4974875 -1.2472637 -1.0775152 4 1
5.0074892 -1.3896406 -1.010143 4 2
5.6774149 -1.577688 -0.93328798 2 3
6.5462542 -1.8215902 -0.83431798 2 4
8.363595 -2.3288648 1.3750594 7 12
17.442625 -4.8602247 3.5196619 21 13
8.4361811 -2.3522501 -0.45898622 2 6
8.2777691 -2.3096373 1.9840684 20 14
8.2405815 -2.3023617 2.2926192 33 15
4.037775 -1.1342068 -1.1237922 3 0
4.5006104 -1.2650646 -1.0793148 4 1
5.0023623 -1.4079846 -1.010143 2 2
17.585991 -4.9531364 1.5984353 18 10
5.6677909 -1.5974146 -0.93266213 2 3
15.812593 -4.4566336 2.0171812 2 11
6.539855 -1.8444299 -0.83431792 2 4
17.471275 -4.9307017 2.8752661 16 12
17.4417 -4.9289274 3.5230968 68 13
15.690943 -4.4400892 3.7647803 65 14
4.0488567 -1.1518193 -1.1279334 3 0
6.8584356 -1.9523823 0.12447041 1 8
4.4849224 -1.2775636 -1.0766162 4 1
4.9938893 -1.4234893 -1.0093797 4 2
15.726303 -4.4856911 1.4307477 37 10
5.6776595 -1.6205382 -0.93516523 2 3
15.699594 -4.4839993 2.0047505 30 11
6.5448303 -1.8705204 -0.83577967 2 4
17.416843 -4.9777546 2.8690088 13 12
17.432806 -4.9888992 3.5246227 62 13
9.2528687 -2.6497221 -0.50441378 2 6
15.704234 -4.5001512 3.7715294 56 14
16.785559 -4.8131814 4.6789312 10 15
4.0522366 -1.1680859 -1.130004 5 0
4.4769163 -1.2913492 -1.0757158 4 1
6.5550475 -1.8920172 0.35755938 1 9
4.9964347 -1.4430912 -1.0109062 4 2
5.6646628 -1.6371632 -0.93391371 2 3
17.48098 -5.0555425 2.2343521 6 11
6.5538454 -1.8966279 -0.83772957 2 4
17.040747 -4.9346724 2.8098762 12 12
17.436907 -5.0526929 3.5288203 53 13
9.2210121 -2.6737168 -0.50315773 2 6
15.711684 -4.5587196 3.7769282 31 14
6.6752834 -1.9380858 -0.12132875 3 7
16.777933 -4.8744392 4.6815195 10 15
4.0483408 -1.181517 -1.130004 5 0
4.483604 -1.3102484 -1.0784152 4 1
12.629064 -3.692996 0.68957883 2 9
4.991622 -1.4596522 -1.0109062 4 2
5.6589136 -1.6569265 -0.93391371 3 3
17.148901 -5.0244384 2.1941352 3 11
6.5395651 -1.9172595 -0.83675534 2 4
16.974134 -4.9796686 2.8017416 15 12
7.018281 -2.0589395 -0.63989764 1 5
17.447422 -5.1218219 3.5345447 56 13
9.2461157 -2.7160201 -0.50504178 2 6
15.718107 -4.6201291 3.7823262 9 14
6.6684771 -1.9613748 -0.12132874 3 7
16.755255 -4.9313397 4.6799664 14 15
4.0330772 -1.192355 -1.1268983 5 0
4.4827399 -1.3269973 -1.0793148 4 1
12.516516 -3.7075608 0.68413591 2 9
4.9902611 -1.4781828 -1.0116695 4 2
5.6720343 -1.6822871 -0.93704247 2 3
12.674315 -3.7615225 1.6232995 1 11
6.5290265 -1.9389449 -0.83626705 2 4
16.973694 -5.0439525 2.8045578 15 12
6.8468051 -2.0346167 -0.6249069 1 5
17.45578 -5.1905279 3.5398893 43 13
9.251893 -2.7528355 -0.50587916 2 6
6.6500921 -1.9812151 -0.12111932 3 7
16.73794 -4.9897966 4.6799664 14 15
4.0325909 -1.2075343 -1.1279334 5 0
4.4668813 -1.3392789 -1.0766162 4 1
12.423149 -3.7271228 0.67973959 2 9
4.9850712 -1.4955928 -1.0116695 4 2
12.689899 -3.8095663 1.1591707 3 10
5.6472082 -1.6963925 -0.93391371 3 3
12.645899 -3.8011703 1.6213496 3 11
6.5374265 -1.966298 -0.83821774 2 4
17.050556 -5.1316357 2.8202007 12 12
17.414995 -5.2446346 3.5353098 9 13
6.8518329 -2.0647762 -0.3750394 5 6
17.383318 -5.2417121 4.1917381 60 14
6.6507931 -2.006726 -0.12125894 3 7
16.707474 -5.0442834 4.6763434 14 15
4.0357466 -1.2238457 -1.130004 5 0
6.6992989 -2.0328484 0.12220159 5 8
4.4696379 -1.3571278 -1.0784152 4 1
12.30687 -3.7391129 0.67408735 2 9
4.9798198 -1.512985 -1.0116695 4 2
17.106638 -5.2006545 1.5642704 5 10
5.6336927 -1.7137951 -0.93266213 2 3
6.5381188 -1.9914197 -0.83919191 2 4
17.147808 -5.2262521 2.8392863 9 12
6.8972321 -2.1021156 -0.63083345 1 5
17.407854 -5.3088284 3.5375979 12 13
9.2362709 -2.8185236 -0.50608855 2 6
17.383551 -5.3080502 4.1962361 32 14
6.6322737 -2.0264239 -0.12104952 3 7
16.684221 -5.1008773 4.6747904 10 15
4.0351429 -1.2390597 -1.1310391 5 0
6.6864281 -2.0544591 0.12209689 5 8
4.4574232 -1.3704309 -1.0766157 4 1
12.179205 -3.7468126 0.66780704 2 9
4.9951491 -1.5367085 -1.0158672 4 2
5.6465549 -1.7392647 -0.93579084 3 3
6.5349216 -2.0153992 -0.83968019 2 4
17.18231 -5.3023863 2.8480463 3 12
6.8631988 -2.1179533 -0.62839305 1 5
17.068443 -5.2705102 3.4723411 9 13
9.1996613 -2.8424935 -0.50462317 2 6
17.381674 -5.373879 4.2002854 28 14
6.6213388 -2.0483804 -0.1209797 5 7
16.655239 -5.1556573 4.6716843 10 15
4.034483 -1.2542844 -1.1320745 5 0
6.6906719 -2.0813503 0.1223063 7 8
4.4563327 -1.38714 -1.0775152 4 1
12.181307 -3.7940545 0.66864443 2 9
4.9710102 -1.5482975 -1.0120511 4 2
5.6442213 -1.7601408 -0.93641669 3 3
12.275676 -3.8304992 1.5789391 1 11
6.5088978 -2.0322819 -0.83724201 2 4
17.052452 -5.3275766 2.829587 9 12
17.287916 -5.4044523 3.5208066 12 13
9.2278061 -2.8865137 -0.50671661 2 6
6.5969744 -2.0661018 -0.12066557 7 7
16.659264 -5.220696 4.6778955 7 15
4.0190239 -1.2648802 -1.1289687 5 0
6.6585708 -2.0968843 0.12185255 7 8
4.4588985 -1.4050298 -1.0793149 7 1
12.274658 -3.8701844 0.67450601 2 9
4.9655757 -1.56564 -1.0120511 4 2
12.209857 -3.8520966 1.1201249 2 10
5.6418099 -1.7810214 -0.93704236 3 3
12.182727 -3.8482127 1.5687021 1 11
6.5206919 -2.0609725 -0.83968019 2 4
17.062002 -5.3960018 2.8342798 9 12
17.049948 -5.3954639 3.4761591 9 13
9.2367163 -2.9247363 -0.50776339 2 6
6.5801907 -2.0860951 -0.12049104 7 7
9.9823542 -3.166589 2.8061163 2 15
4.021946 -1.2812468 -1.131039 5 0
6.5997686 -2.1037166 0.12091012 5 8
4.4502535 -1.4194015 -1.0784152 4 1
12.211605 -3.8972199 0.67178458 2 9
4.9563403 -1.5817698 -1.0112879 4 2
12.124212 -3.8716612 1.1135025 2 10
5.6280317 -1.798299 -0.93579084 3 3
12.116276 -3.8737881 1.5618773 1 11
6.4983339 -2.0788825 -0.83772963 2 4
17.321503 -5.5446568 2.8805847 13 12
7.603457 -2.4338858 -0.69846642 1 5
17.103928 -5.4783025 3.4910421 9 13
9.22645 -2.9569609 -0.50776333 2 6
6.5881009 -2.1139395 -0.12077028 10 7
9.971241 -3.2014148 2.8061166 2 15
4.013773 -1.2940928 -1.130004 5 0
6.5619349 -2.1169178 0.12035163 11 8
4.4601083 -1.4397161 -1.0820144 4 1
4.9545245 -1.600268 -1.0120511 4 2
12.1675 -3.9323406 1.1187304 2 10
5.6292391 -1.820365 -0.93704247 3 3
12.102681 -3.916059 1.5618773 1 11
6.509922 -2.1076677 -0.84016764 2 4
17.292643 -5.6020408 2.87902 13 12
7.6138692 -2.466552 -0.70020956 3 5
17.163143 -5.5633984 3.5070684 12 13
9.2008734 -2.9842198 -0.50692594 2 6
6.5863876 -2.1387763 -0.12087499 15 7
16.555912 -5.3793416 4.6644373 3 15
4.0092311 -1.3080956 -1.130004 5 0
6.5640101 -2.1429136 0.12052616 11 8
4.4439406 -1.4516453 -1.0793148 4 1
4.9601045 -1.6212119 -1.0143406 4 2
17.202274 -5.6258926 1.5834445 12 10
5.6341143 -1.8436894 -0.93891954 3 3
17.159948 -5.6186824 2.2170465 12 11
6.4949803 -2.1279066 -0.83919191 2 4
17.15473 -5.6236043 2.8593099 13 12
7.6279316 -2.5005624 -0.7023012 3 5
17.095119 -5.607367 3.4971468 15 13
9.2093763 -3.0225468 -0.50797266 2 6
6.5997796 -2.1686208 -0.12125894 21 7
16.504 -5.4262385 4.6551199 10 15
4.0211506 -1.3275331 -1.1346626 5 0
6.5754776 -2.1720853 0.1208752 13 8
4.4499488 -1.4708179 -1.0820144 4 1
4.9506869 -1.6372832 -1.0135775 4 2
17.080389 -5.6521058 1.5740316 17 10
5.6201434 -1.8608613 -0.93766809 3 3
17.015865 -5.6373448 2.2009599 12 11
6.4573646 -2.1405716 -0.8352921 2 4
12.630268 -4.1868463 2.1074855 6 12
7.6229386 -2.5284278 -0.70264983 1 5
16.933826 -5.620007 3.4681435 12 13
9.2366781 -3.0672629 -0.51006603 2 6
16.956482 -5.6340976 4.1251521 3 14
6.5716767 -2.1835585 -0.12087498 22 7
16.476748 -5.477891 4.6525316 14 15
4.0073304 -1.3385012 -1.1320745 5 0
4.4376531 -1.4830956 -1.0802147 4 1
12.452199 -4.164031 0.68811339 2 9
4.944942 -1.6545544 -1.0135775 4 2
16.977427 -5.6838627 1.566362 5 10
5.6214342 -1.8819964 -0.93891954 3 3
16.884144 -5.6559091 2.186336 12 11
5.9570985 -1.9966865 -0.77143329 2 4
12.624941 -4.2340484 2.10905 30 12
7.629178 -2.5600927 -0.7040444 1 5
12.59326 -4.2258697 2.5820267 7 13
9.324913 -3.1309342 -0.51550901 2 6
12.528251 -4.208921 3.0512362 9 14
6.5753884 -2.2103078 -0.12108443 26 7
12.469488 -4.1940241 3.525116 7 15
3.9973788 -1.3499283 -1.1305215 5 0
4.4435258 -1.5023218 -1.0829141 4 1
12.430754 -4.2027426 0.68769473 2 9
4.946867 -1.6734595 -1.0151039 4 2
5.6297984 -1.9066768 -0.94142252 3 3
16.745852 -5.6746731 2.1709802 12 11
5.9124942 -2.0047197 -0.76655787 2 4
12.629537 -4.2822337 2.1121786 12 12
7.6357398 -2.5904987 -0.70543885 1 5
16.647924 -5.6512084 3.417388 15 13
5.909852 -2.0072749 -0.32709962 4 6
16.102205 -5.4722304 3.9262955 17 14
6.5755959 -2.234674 -0.12122404 26 7
16.325682 -5.5513573 4.6204381 57 15
3.9999552 -1.3663715 -1.1325921 5 0
6.7026491 -2.2896028 0.12363269 5 8
4.4274554 -1.5132673 -1.0802147 4 1
4.9372807 -1.6894462 -1.0143408 4 2
12.527514 -4.2891273 1.1584735 9 10
5.6159697 -1.9227762 -0.94017106 3 3
16.593607 -5.6844974 2.1536748 14 11
5.9208364 -2.0294642 -0.76850778 2 4
16.573948 -5.6842279 2.7751479 12 12
16.500959 -5.6624141 3.391058 18 13
5.7860446 -1.9866487 -0.32060996 2 6
15.989976 -5.4933062 3.9033504 10 14
6.5658636 -2.2569635 -0.12118913 8 7
16.351875 -5.6240182 4.633379 40 15
4.0045323 -1.3827809 -1.1351804 5 0
6.6832752 -2.3090675 0.12342326 7 8
4.4221458 -1.5287127 -1.0802147 4 1
4.9390726 -1.7083766 -1.0158672 4 2
12.528284 -4.3358583 1.1598679 9 10
5.6054902 -1.9410751 -0.93954527 3 3
16.44799 -5.698842 2.1373444 14 11
5.8912101 -2.0423176 -0.76558292 2 4
16.46629 -5.7116213 2.760443 9 12
5.8180375 -2.0192261 -0.53879702 1 5
16.366106 -5.6800709 3.3673966 17 13
5.794168 -2.0120752 -0.32144734 4 6
15.792148 -5.4870491 3.8597102 3 14
16.268282 -5.6588492 4.615262 43 15
4.0012608 -1.3980864 -1.135698 5 0
6.5921121 -2.3033593 0.12188746 3 8
4.4314995 -1.5492847 -1.0838139 4 1
16.516634 -5.7775707 0.91703087 31 9
4.9327779 -1.7264677 -1.0158672 4 2
16.449907 -5.7606754 1.524876 22 10
5.6057954 -1.9642202 -0.94079685 2 3
16.416758 -5.752284 2.1358819 69 11
5.8615646 -2.0549879 -0.762658 2 4
12.667884 -4.4436769 2.1262577 10 12
5.8071928 -2.0382025 -0.53844833 1 5
16.267376 -5.7126961 3.3513684 23 13
5.766027 -2.0260148 -0.32029596 9 6
12.584084 -4.4241505 3.0795796 6 14
15.922223 -5.6008525 4.5226049 13 15
3.9908919 -1.4101143 -1.134145 5 0
6.293282 -2.2248604 0.11651211 5 8
4.4294662 -1.5668163 -1.0847138 4 1
16.524609 -5.8451805 0.91860104 42 9
4.9230194 -1.7423658 -1.0151039 4 2
16.454113 -5.8267074 1.5271418 44 10
5.6063528 -1.9864149 -0.94204831 2 3
16.380592 -5.8071079 2.1339316 34 11
5.895153 -2.0910575 -0.76802027 2 4
16.349682 -5.7993617 2.7476153 57 12
5.7925324 -2.0557957 -0.53775108 1 5
16.252886 -5.7714148 3.3525131 51 13
15.473381 -5.5006957 3.7913249 3 14
15.935337 -5.6680512 4.5319219 16 15
3.9823067 -1.4227364 -1.1331097 5 0
6.1992464 -2.2147701 0.1149065 5 8
4.4205756 -1.5801843 -1.0838139 4 1
16.552999 -5.9203143 0.92132241 7 9
4.9390893 -1.7674773 -1.0196834 4 2
16.45056 -5.890152 1.528711 44 10
5.5922956 -2.0023313 -0.94079685 3 3
16.40423 -5.8767953 2.1395378 43 11
5.9068727 -2.1172931 -0.77045763 2 4
16.334919 -5.8583984 2.7485542 39 12
5.7928228 -2.0786943 -0.53844839 1 5
16.253984 -5.8325729 3.3567128 51 13
15.524748 -5.5770125 3.8084211 3 14
5.607852 -2.0156348 -0.10401603 1 7
16.022709 -5.7622128 4.5624628 13 15
3.9775667 -1.4359345 -1.1331097 5 0
6.0899167 -2.1997116 0.11302165 5 8
4.4150329 -1.5956054 -1.083814 4 1
16.54538 -5.9828124 0.92205507 15 9
4.9258165 -1.7811759 -1.018157 4 2
16.47028 -5.9589062 1.5323715 44 10
5.5927024 -2.0245299 -0.94204837 3 3
16.404148 -5.9414573 2.1422188 48 11
5.8770499 -2.1297832 -0.76753277 2 4
16.351511 -5.9288497 2.7548115 18 12
5.7671671 -2.0911014 -0.53670526 1 5
16.261209 -5.8993182 3.3624351 48 13
5.6265826 -2.0423496 -0.31370163 2 6
15.560134 -5.6511259 3.8219182 6 14
15.991606 -5.8141475 4.5593572 13 15
3.9834189 -1.4537836 -1.1362156 5 0
6.0164576 -2.196949 0.11179998 13 8
4.4057755 -1.6096696 -1.0829141 4 1
16.575047 -6.0590458 0.9248814 3 9
4.9121933 -1.7956632 -1.0166305 4 2
16.492413 -6.0321021 1.5363804 45 10
5.6004415 -2.0494704 -0.94455123 3 3
16.411268 -6.0089188 2.145875 43 11
16.373375 -6.0015259 2.7620077 24 12
5.7822804 -2.1194477 -0.53879696 1 5
16.271851 -5.967536 3.3689244 31 13
12.595064 -4.6241007 3.0975759 4 14
9.1300278 -3.35377 -0.16977648 1 7
15.963959 -5.8672676 4.5572863 6 15
3.9891953 -1.4716918 -1.1393216 5 0
5.911201 -2.1819296 0.10998493 9 8
4.4037857 -1.6263889 -1.0838139 4 1
12.447195 -4.5994191 0.69544047 2 9
4.9095783 -1.8141603 -1.0173938 4 2
5.5858426 -2.0662658 -0.94329983 3 3
16.40881 -6.0730591 2.1483126 11 11
16.36529 -6.063448 2.7641976 24 12
5.7561641 -2.1326971 -0.53705382 1 5
16.296944 -6.0413594 3.378463 60 13
15.88181 -5.9000821 4.5396867 26 15
3.9767923 -1.4829075 -1.1372508 5 0
5.8042507 -2.1655028 0.10813498 5 8
4.3980823 -1.6417513 -1.083814 4 1
4.9032159 -1.8312868 -1.0173938 4 2
26.057806 -9.7374315 2.4337356 19 10
5.5970993 -2.0926697 -0.94642848 3 3
25.906921 -9.6913548 3.3962543 9 11
5.9102001 -2.212085 -0.77484494 2 4
5.7374892 -2.1485841 -0.536008 1 5
16.297815 -6.1064749 3.383044 54 13
15.804812 -5.9280491 3.8970513 43 14
8.8330498 -3.3148475 -0.16468039 1 7
15.779733 -5.9249253 4.5163932 45 15
3.9679766 -1.4954175 -1.1362156 5 0
5.7667184 -2.1744618 0.10757649 3 8
4.4032645 -1.6612207 -1.0865134 7 1
7.1234603 -2.6874697 0.3990095 2 9
4.9078135 -1.8525506 -1.0196834 4 2
26.046022 -9.8367758 2.435827 19 10
5.5823689 -2.1094015 -0.94517702 3 3
25.936066 -9.8055954 3.4045415 19 11
5.8615947 -2.2172503 -0.76948273 2 4
22.217516 -8.4041643 3.7622497 7 12
5.7411351 -2.1728303 -0.53705382 1 5
16.302107 -6.1730609 3.3883851 57 13
15.88607 -6.0218649 3.9222467 70 14
15.642589 -5.9326916 4.4827461 29 15
3.9663427 -1.5106344 -1.1372508 5 0
5.7445259 -2.1878793 0.10729726 3 8
4.3795214 -1.6688739 -1.0820144 7 1
7.1140347 -2.7123182 0.39900944 1 9
4.9049859 -1.8710704 -1.0204467 4 2
5.56427 -2.1236751 -0.94329983 3 3
25.921951 -9.8986311 3.4069791 19 11
22.092096 -8.4449883 3.7459805 7 12
5.7595677 -2.202821 -0.53949416 1 5
16.296215 -6.2326984 3.391438 51 13
15.889672 -6.08357 3.9280951 70 14
15.518961 -5.9478493 4.4532409 29 15
3.9649177 -1.525166 -1.1382861 5 0
5.725657 -2.2036083 0.10708784 3 8
4.3845801 -1.6883526 -1.0847137 4 1
13.185862 -5.0800705 0.74055403 19 9
4.9057517 -1.891005 -1.021973 4 2
26.008209 -10.025304 2.4386163 19 10
5.5678811 -2.1473503 -0.94517702 3 3
25.890944 -9.9904823 3.4074662 19 11
21.985094 -8.4921589 3.7328401 7 12
5.7481265 -2.2214763 -0.53914559 1 5
16.309887 -6.3065467 3.3990705 51 13
15.890148 -6.1474338 3.9334936 49 14
8.7275829 -3.3781984 -0.16335402 1 7
15.399023 -5.963614 4.4247708 31 15
3.9665031 -1.5424887 -1.1403567 5 0
5.7566772 -2.2398059 0.10782082 7 8
4.3783627 -1.7044116 -1.0847137 7 1
13.183905 -5.1348891 0.74149615 30 9
4.8914714 -1.9061213 -1.0204467 4 2
25.926739 -10.103198 2.4344327 19 10
5.5673351 -2.1706133 -0.94642848 3 3
25.828262 -10.075212 3.4040539 19 11
21.861816 -8.5367546 3.7171965 7 12
5.7547922 -2.2483294 -0.5405401 1 5
16.326889 -6.3820076 3.4074659 54 13
8.6257582 -3.3751884 -0.16167861 1 7
15.288915 -5.9855046 4.3994064 31 15
3.9572282 -1.555603 -1.1393216 5 0
5.7633162 -2.2667453 0.10810006 9 8
4.3757133 -1.721875 -1.0856141 7 1
13.180769 -5.1867285 0.74233353 38 9
4.8847876 -1.9231842 -1.0204465 4 2
25.919193 -10.20984 2.4372218 19 10
5.5593419 -2.191004 -0.94642848 2 3
25.74684 -10.152333 3.3982043 19 11
21.776756 -8.5912657 3.7078102 7 12
5.7394962 -2.2654777 -0.53984284 1 5
16.344685 -6.4548249 3.4158616 54 13
8.475852 -3.3489838 -0.4776178 2 6
8.6957474 -3.437624 -0.1632144 3 7
15.156549 -5.9947829 4.3673129 31 15
3.9592288 -1.5715675 -1.1413919 5 0
5.7427592 -2.2806783 0.10785574 13 8
4.3772235 -1.7392545 -1.0874133 7 1
13.174632 -5.2348332 0.74296147 44 9
4.8856807 -1.9422733 -1.021973 4 2
25.892597 -10.298681 2.4379189 19 10
5.5373616 -2.2035837 -0.94392538 2 3
25.69459 -10.230313 3.395767 19 11
21.685755 -8.6385784 3.6971731 7 12
5.8022833 -2.3125286 -0.54646665 1 5
16.337778 -6.5148077 3.4189143 54 13
8.6545849 -3.4545803 -0.16265593 1 7
15.03791 -6.0056047 4.3388424 33 15
3.9611692 -1.5875633 -1.1434625 5 0
5.7091789 -2.28929 0.10736706 13 8
4.3569622 -1.7479552 -1.0838139 7 1
13.16184 -5.2830219 0.74327552 52 9
4.8865013 -1.9613894 -1.0234996 4 2
5.5410213 -2.2263532 -0.94580257 2 3
25.634737 -10.305099 3.3923545 19 11
21.541847 -8.6685028 3.6777749 7 12
16.350685 -6.582881 3.426167 57 13
8.605381 -3.4698129 -0.16195783 1 7
14.934445 -6.0248141 4.3150315 36 15
3.9448588 -1.597031 -1.1403567 5 0
5.6399899 -2.2844312 0.1062152 9 8
4.3580589 -1.7660811 -1.0856141 7 1
4.8759866 -1.9769593 -1.0227364 4 2
19.625822 -7.9612422 1.8529298 9 10
5.5478601 -2.2516246 -0.94830567 2 3
25.583895 -10.388543 3.3904047 19 11
21.4529 -8.7198429 3.6677632 7 12
16.353067 -6.6502681 3.4315095 54 13
14.823873 -6.0404577 4.2891493 33 15
3.9499896 -1.6151783 -1.1434625 5 0
5.55795 -2.2738173 0.10481901 3 8
4.3699026 -1.7886646 -1.0901126 7 1
4.8654222 -1.9924796 -1.0219731 4 2
16.651775 -6.8226008 1.5743804 5 10
5.543622 -2.2724748 -0.94893134 3 3
16.573719 -6.7973776 2.1994977 3 11
21.396748 -8.784173 3.6633835 7 12
16.362448 -6.7207398 3.4383774 51 13
14.733026 -6.0634918 4.2689614 12 15
3.9369011 -1.6266941 -1.141392 5 0
5.5037751 -2.2741132 0.1039464 9 8
4.3564291 -1.8009298 -1.088313 7 1
4.8580866 -2.0102987 -1.0219731 4 2
5.5425553 -2.2958019 -0.9501828 3 3
16.549891 -6.8551898 2.1994977 6 11
16.523079 -6.8508401 2.833029 3 12
16.372156 -6.7949629 3.4456279 51 13
12.415575 -5.157938 3.1038747 2 14
14.585114 -6.0622387 4.2322092 23 15
3.9347646 -1.6419146 -1.1424273 5 0
4.3605881 -1.8213913 -1.0910125 7 1
19.201706 -8.0204363 1.0905771 24 9
4.8691535 -2.0348144 -1.0257893 4 2
19.168642 -8.0144854 1.8177192 25 10
5.5308638 -2.3136101 -0.94955719 3 3
22.714075 -9.5061617 3.0233343 21 11
21.174559 -8.8661947 3.6358509 13 12
7.4921103 -3.1386275 -0.71066821 6 5
16.373686 -6.8626971 3.4509704 51 13
12.462185 -5.2283854 3.1200709 2 14
8.1836109 -3.433352 -0.15490708 1 7
14.485487 -6.0802145 4.2094336 37 15
3.9201081 -1.6518885 -1.1398391 5 0
5.5835891 -2.3528605 0.10576145 7 8
4.3401585 -1.829785 -1.0874138 7 1
19.059496 -8.0392876 1.0840874 23 9
4.8584037 -2.0502722 -1.0250261 4 2
19.019403 -8.0301991 1.8062145 25 10
5.5304408 -2.335012 -0.95080864 3 3
22.69157 -9.5852947 3.0245531 43 11
6.3906188 -2.7008178 -0.85186636 2 4
21.087078 -8.9162054 3.6261518 20 12
7.4957876 -3.1709709 -0.71206272 6 5
16.376152 -6.9276643 3.4563131 57 13
7.9586639 -3.3684206 -0.45291525 2 6
12.444779 -5.2696834 3.1200712 2 14
8.2083998 -3.4774983 -0.15560515 1 7
14.389471 -6.0990791 4.1876926 40 15
3.923497 -1.6686591 -1.1424271 5 0
5.5275002 -2.3519795 0.10485392 3 8
4.3301592 -1.8433971 -1.0865134 7 1
18.922905 -8.0595951 1.0779119 22 9
4.8660278 -2.072526 -1.0280789 4 2
18.895525 -8.0518303 1.796976 24 10
5.5295243 -2.3574016 -0.9520601 3 3
22.70545 -9.6846952 3.0308905 44 11
6.3482881 -2.709084 -0.84747905 2 4
21.019489 -8.9742451 3.6198943 20 12
7.486506 -3.1978989 -0.712237 4 5
16.397003 -7.0040636 3.4658554 54 13
14.273964 -6.1089835 4.1602578 37 15
3.9209051 -1.6845537 -1.1434625 5 0
5.6111221 -2.4107285 0.10659916 3 8
4.3308592 -1.8615795 -1.088313 7 1
18.769888 -8.0719423 1.070794 22 9
4.8475785 -2.0856912 -1.0257893 4 2
18.756083 -8.0737648 1.7865196 24 10
5.5353613 -2.3839033 -0.95456308 3 3
22.720728 -9.7850914 3.0374711 44 11
6.3716078 -2.7453661 -0.85186714 2 4
20.926357 -9.0209742 3.6092563 19 12
7.4844451 -3.227958 -0.7131086 4 5
16.400066 -7.0765615 3.4719596 56 13
14.176299 -6.1258221 4.138 40 15
3.904367 -1.6936172 -1.1403567 5 0
5.4481597 -2.3644054 0.10366715 5 8
4.3275824 -1.8789926 -1.0892129 7 1
18.67931 -8.1103678 1.0672352 11 9
4.8492727 -2.1065111 -1.0276974 4 2
18.596222 -8.0820084 1.7739668 23 10
5.5161366 -2.3984847 -0.95268583 3 3
22.739321 -9.8920584 3.0447831 44 11
6.3615031 -2.7687006 -0.85186636 2 4
20.873011 -9.084506 3.6055026 19 12
7.4731317 -3.2540638 -0.7131086 3 5
16.40766 -7.1478777 3.4788303 50 13
16.328539 -7.1201921 4.1125546 31 14
14.060982 -6.1343265 4.1105647 44 15
3.8984318 -1.7072358 -1.1403568 5 0
5.3157301 -2.3279119 0.10129364 1 8
4.3356066 -1.8995893 -1.0928119 7 1
13.893043 -6.0899448 0.79498345 15 9
4.838294 -2.1218483 -1.0269341 4 2
18.465727 -8.1020422 1.7642055 23 10
5.5190067 -2.4215255 -0.95456308 3 3
21.873899 -9.6019688 2.933151 40 11
6.345016 -2.786588 -0.85089219 2 4
20.817659 -9.1469822 3.6014349 13 12
7.4580789 -3.2785263 -0.71275991 3 5
16.412624 -7.2148905 3.4849343 53 13
16.31554 -7.1790109 4.1152539 50 14
8.6312418 -3.7996352 -0.16461059 1 7
13.954621 -6.1459956 4.0857182 41 15
3.9033511 -1.724839 -1.1434625 5 0
5.3386636 -2.3601983 0.10188702 7 8
4.3325138 -1.9162883 -1.0937117 7 1
13.796058 -6.1020513 0.79058725 21 9
4.8420033 -2.1426477 -1.0292239 4 2
17.653549 -7.8156042 1.6890773 6 10
5.5069075 -2.4391756 -0.95393729 3 3
6.3425097 -2.8119378 -0.85186636 2 4
20.787216 -9.2159662 3.6014354 6 12
7.4544501 -3.3064713 -0.71345711 1 5
16.417849 -7.285676 3.4914219 53 13
16.350935 -7.2628136 4.1305509 15 14
13.849426 -6.1545796 4.0608716 38 15
3.9114206 -1.7447495 -1.1476036 5 0
5.643096 -2.51719 0.10785574 5 8
4.3083401 -1.9227033 -1.0892129 7 1
13.707194 -6.1200433 0.78671438 15 9
4.8309093 -2.1579349 -1.0284606 4 2
17.447899 -7.7975135 1.6719948 6 10
5.5023961 -2.4590364 -0.95456308 3 3
17.422506 -7.7898145 2.3433032 3 11
6.3548946 -2.8426819 -0.85479116 2 4
17.433697 -7.8021212 3.0251303 3 12
7.4355898 -3.3292155 -0.71275991 3 5
16.441975 -7.3617396 3.5017254 56 13
7.5698361 -3.3909087 -0.43470237 2 6
7.8552351 -3.5220463 -0.15026475 7 7
13.746777 -6.1665149 4.0370603 39 15
3.8985667 -1.7545395 -1.1455331 5 0
5.771028 -2.5984471 0.11047359 9 8
4.312263 -1.9425327 -1.0919122 7 1
13.660254 -6.156364 0.78524894 12 9
4.8165669 -2.1707165 -1.0269341 4 2
17.254845 -7.7799859 1.6559581 6 10
5.4937792 -2.4782279 -0.95456308 3 3
17.217892 -7.7705579 2.319417 6 11
17.237137 -7.7864866 2.9957209 3 12
7.438448 -3.3617144 -0.71415436 3 5
16.443016 -7.4312167 3.5074503 53 13
7.5324755 -3.4057918 -0.43323696 2 6
13.663572 -6.1865735 4.0189428 42 15
3.8921094 -1.7688164 -1.145533 5 0
5.8056149 -2.6384323 0.11131129 7 8
4.3090038 -1.9591863 -1.0928119 7 1
14.300437 -6.5050316 0.8233496 6 9
4.8121529 -2.1899822 -1.0276974 4 2
17.048513 -7.7622685 1.6388757 6 10
5.4918499 -2.5016224 -0.95581454 3 3
17.049755 -7.766427 2.3004055 3 11
17.051682 -7.7744942 2.9681883 3 12
7.4520464 -3.399235 -0.71659482 3 5
16.456743 -7.5101786 3.5162289 53 13
7.469069 -3.4101498 -0.43030611 2 6
16.341345 -7.4644079 4.1476479 31 14
13.550527 -6.1924763 3.9920256 39 15
3.8823993 -1.7807808 -1.1444978 5 0
5.8431602 -2.6813779 0.11221883 5 8
4.3230462 -1.984724 -1.0982109 7 1
7.9719577 -3.65995 0.45971927 5 9
4.8080468 -2.2084053 -1.0284606 4 2
16.861998 -7.7485232 1.6235361 6 10
5.4794936 -2.5191271 -0.95518875 3 3
16.862469 -7.7558684 2.2789564 6 11
16.859344 -7.7579975 2.9394042 3 12
7.4292765 -3.420228 -0.71554893 3 5
16.453613 -7.5782566 3.5211883 53 13
7.4498649 -3.4328582 -0.42988744 2 6
16.377125 -7.5499587 4.1633935 7 14
8.0194998 -3.6970403 -0.15413918 1 7
13.446379 -6.2017117 3.9676967 42 15
3.8831723 -1.7975686 -1.1465683 5 0
5.8977504 -2.7301416 0.11344049 3 8
4.305831 -1.9941349 -1.0955113 7 1
13.085814 -6.0631318 0.75583619 11 9
4.8074346 -2.2284777 -1.0299872 4 2
16.889071 -7.83248 1.6287655 12 10
5.4782786 -2.5406077 -0.95644027 3 3
16.775431 -7.7833371 2.270669 13 11
16.687042 -7.7494078 2.914062 10 12
7.4389753 -3.456214 -0.7176407 3 5
16.455097 -7.645185 3.5269122 56 13
7.4311938 -3.4541759 -0.42946869 2 6
13.356343 -6.2168164 3.9475088 40 15
3.884192 -1.813705 -1.148639 5 0
5.8700671 -2.7422481 0.11309145 3 8
4.2988439 -2.0091529 -1.0955113 7 1
12.996878 -6.0743575 0.75185859 13 9
4.8249154 -2.2560492 -1.0353298 4 2
5.4765334 -2.5630648 -0.95769179 3 3
16.730183 -7.8334298 2.2682319 3 11
16.784683 -7.8625202 2.9356501 3 12
7.4202561 -3.4774811 -0.71694338 3 5
16.478085 -7.725914 3.5375979 56 13
7.3503814 -3.4478643 -0.42549124 2 6
16.399452 -7.6960306 4.1822896 68 14
13.265705 -6.2282329 3.9268031 42 15
3.8848274 -1.8305459 -1.1507095 5 0
5.8573241 -2.7599943 0.11302165 3 8
4.2956829 -2.025059 -1.0964118 7 1
12.930435 -6.0983896 0.74924183 8 9
4.7850513 -2.2577975 -1.0284606 4 2
16.70384 -7.8851719 1.6160407 25 10
5.4751487 -2.5845842 -0.95894319 3 3
16.637699 -7.8574996 2.2592134 13 11
7.4152775 -3.5067692 -0.7176407 3 5
16.491421 -7.7989802 3.5459936 56 13
16.41259 -7.768713 4.1921878 72 14
13.172304 -6.2405896 3.9055798 42 15
3.8644564 -1.8374591 -1.1465683 5 0
5.921206 -2.8166628 0.11445273 7 8
4.2952704 -2.0441399 -1.0982114 4 1
13.891949 -6.6112442 0.80628806 15 9
4.7984123 -2.2846146 -1.03304 4 2
16.703196 -7.9562826 1.6186554 12 10
5.4763384 -2.6097338 -0.9608205 3 3
16.63567 -7.9312429 2.2628701 9 11
16.568918 -7.9029684 2.9074919 9 12
7.4065871 -3.5343478 -0.71798927 3 5
16.498156 -7.8762865 3.5536275 52 13
7.2936893 -3.4836004 -0.42360708 2 6
16.408625 -7.8405766 4.1984863 68 14
5.4417515 -2.6002471 -0.10527258 1 7
13.078981 -6.2523694 3.884357 42 15
3.8580189 -1.8509375 -1.1465683 5 0
5.9244528 -2.8423374 0.11469705 9 8
4.295496 -2.0617452 -1.1000105 7 1
13.893991 -6.6717997 0.80775344 18 9
4.7904081 -2.3013501 -1.03304 4 2
7.9821024 -3.8363805 0.77481407 8 10
5.4676538 -2.6278794 -0.96082038 3 3
7.9808254 -3.8374813 1.0873182 6 11
7.9742517 -3.8377483 1.4016533 21 12
7.3654823 -3.5463502 -0.71520025 3 5
16.49848 -7.943728 3.5593498 55 13
7.1957283 -3.4661644 -0.41858289 2 6
16.431686 -7.9186358 4.2110829 68 14
8.5524483 -4.1233716 -0.16572754 1 7
12.983995 -6.2627354 3.8626161 42 15
3.8657718 -1.8704522 -1.1507095 5 0
