# .PCD v0.7 - Point Cloud Data file format
VERSION 0.7
FIELDS x y z intensity ring
SIZE 4 4 4 4 2
TYPE F F F F U
COUNT 1 1 1 1 1
WIDTH 1256
HEIGHT 1
VIEWPOINT 0 0 0 1 0 0 0
POINTS 1256
DATA ascii
-4.4229531 -0.047863491 0.85978508 42 13
-0.87674701 -0.0093345791 -0.045950957 7 6
-4.4350896 -0.046445549 1.0239772 40 14
-4.3231039 -0.045272801 -0.075463958 22 7
-4.3947296 -0.045256875 1.1776268 40 15
-4.3391671 -0.038624845 0.075743347 48 8
-4.3318958 -0.037047978 0.22703342 53 9
-4.3532243 -0.035710808 0.38087034 50 10
-4.3869119 -0.035221495 0.53866237 38 11
-4.4148364 -0.033903573 0.69926214 48 12
-4.4329038 -0.033269688 0.8616932 40 13
-4.4430137 -0.031793613 1.0257767 40 14
-4.3252358 -0.030196954 -0.075498879 27 7
-4.3774743 -0.029796613 1.172968 43 15
-4.3312764 -0.023434687 0.075603724 48 8
-4.3399844 -0.022724357 0.22745216 53 9
-4.3612881 -0.02131358 0.38156757 47 10
-4.3810534 -0.019880956 0.5379312 37 11
-4.4208512 -0.019288948 0.70020086 48 12
-4.4192495 -0.017740471 0.85902178 40 13
-4.3759623 -0.016801942 -0.22933608 4 6
-4.4469953 -0.016299628 1.0266765 40 14
-4.3293114 -0.01586828 -0.075568683 29 7
-4.3717537 -0.015259824 1.1714151 48 15
-4.3373299 -0.0090849614 0.075708434 48 8
-4.3480263 -0.0075886673 0.22787084 53 9
-4.3573518 -0.0060840286 0.381219 47 10
-4.3791099 -0.0053501548 0.53768742 37 11
-4.430769 -0.0038667303 0.70176524 48 12
-4.4192843 -0.0030854433 0.85902178 40 13
-4.3120818 -0.0022570137 -0.22598659 10 6
-4.456768 -0.0015560015 1.028926 40 14
-4.3253412 -0.00075524708 -0.075498879 29 7
-4.3814387 6.6157884e-07 1.1740031 51 15
-4.339335 0.0060591483 0.075743347 48 8
-4.3460293 0.0075844224 0.22776617 53 9
-4.3653173 0.0083809718 0.3819162 48 10
-4.3870425 0.0099529168 0.53866243 40 11
-4.4347053 0.011610027 0.70239085 48 12
-4.425158 0.012356272 0.86016667 39 13
-4.3140607 0.012799993 -0.22609127 36 6
-4.4411573 0.013952182 1.025327 40 14
-4.3433146 0.014403852 -0.07581301 47 7
-4.3833447 0.015300561 1.174521 54 15
-4.3372884 0.021196567 0.075708441 48 8
-4.3479729 0.022766462 0.22787081 52 9
-4.3732266 0.024424147 0.38261345 48 10
-4.3849964 0.02525623 0.53841871 37 11
-4.4306874 0.027065959 0.70176512 46 12
-4.4427514 0.028690435 0.86360168 40 13
-4.3339567 0.028744265 -0.22713798 57 6
-4.4566655 0.030335935 1.0289261 40 14
-4.3312392 0.029482175 -0.075603582 50 7
-4.3851962 0.030614803 1.1750386 51 15
-4.353178 0.037229229 0.075987689 47 8
-4.3518615 0.037978563 0.22808017 52 9
-4.3691306 0.039653368 0.38226485 43 10
-4.3928137 0.04140278 0.5393936 37 11
-4.4266152 0.04249398 0.70113939 49 12
-32.125755 0.31400335 -2.8107741 10 5
-4.4386983 0.044159424 0.86283797 42 13
-4.3118606 0.043650143 -0.22598656 48 6
-4.4604301 0.04593268 1.029826 40 14
-4.3291116 0.044580381 -0.075568691 45 7
-4.3773355 0.045841008 1.1729679 57 15
-4.341033 0.051522452 0.075778246 48 8
-4.3517027 0.053169288 0.22808017 52 9
-4.3550196 0.054730143 0.38104469 45 10
-4.3986077 0.0560457 0.54012489 40 11
-4.4303908 0.057997335 0.70176524 48 12
-32.06469 0.42534924 -2.8055446 10 5
-4.4287124 0.058748402 0.86092997 39 13
-4.3236752 0.058108732 -0.22661462 55 6
-4.4680467 0.060830023 1.0316255 41 14
-4.3369269 0.059801929 -0.0757083 50 7
-4.3520374 0.060769964 1.1662388 41 15
-4.3408265 0.06667529 0.075778246 48 8
-4.363472 0.068546541 0.22870818 52 9
-4.362783 0.069297314 0.38174191 48 10
-4.3884611 0.071237333 0.53890616 38 11
-4.4400363 0.073625803 0.70332944 48 12
-32.039196 0.53128207 -2.8034527 10 5
-4.4265175 0.074173309 0.86054838 42 13
-4.3174548 0.073100537 -0.2263006 48 6
-4.4697561 0.076459497 1.0320754 40 14
-4.3426905 0.075043 -0.07581301 50 7
-4.3575935 0.076062299 1.1677917 45 15
-4.3485656 0.081979133 0.075917877 48 8
-4.3552189 0.083624251 0.22828951 52 9
-4.3764591 0.084797181 0.38296214 48 10
-4.3921542 0.086633898 0.5393936 37 11
-31.963585 0.63606006 -3.92541 13 4
-4.4456773 0.089241974 0.70426804 49 12
-32.033161 0.64302975 -2.8031039 10 5
-4.4399719 0.089902632 0.86321974 40 13
-4.3091855 0.0880078 -0.22588189 53 6
-4.4636164 0.091940053 1.0307256 41 14
-4.3444014 0.090244047 -0.075847924 47 7
-4.35537 0.091232352 1.1672741 41 15
-4.3482528 0.097157039 0.075917877 47 8
-4.3549008 0.098827451 0.22828951 52 9
-4.3721523 0.099981345 0.38261348 50 10
-4.4017482 0.10219641 0.54061234 41 11
-32.012768 0.7488302 -3.9317472 13 4
-4.439414 0.10462025 0.70332944 48 12
-32.054493 0.7610085 -2.8051958 10 5
-4.4494433 0.10563461 0.86512816 40 13
-4.3168392 0.10323925 -0.2263006 55 6
-4.4574246 0.10737977 1.029376 40 14
-4.3420606 0.1053599 -0.07581301 48 7
-4.3530936 0.10638675 1.1667564 44 15
-4.3598809 0.11264469 0.076127298 48 8
-4.362515 0.11423649 0.22870818 53 9
-4.3717561 0.11600547 0.38261345 48 10
-4.4033504 0.11761285 0.54085612 38 11
-31.958366 0.85918486 -3.92541 13 4
-4.4350729 0.12001039 0.70270383 48 12
-31.991892 0.87126094 -2.7999663 10 5
-4.4509888 0.12199473 0.86550975 40 13
-4.3244181 0.11928194 -0.22671928 55 6
-4.4745321 0.12420304 1.0334251 42 14
-4.3376684 0.120404 -0.075743206 50 7
-4.348834 0.12147349 1.1657212 45 15
-4.3554411 0.12850583 0.076057494 48 8
-4.3620901 0.12946394 0.22870819 53 9
-4.371325 0.13126518 0.38261348 48 10
-4.4128089 0.13405256 0.54207468 40 11
-4.3830237 0.1339134 -0.53841853 2 4
-4.4464741 0.13585196 0.70458096 48 12
-31.988651 0.98292899 -2.7999661 10 5
-4.4446492 0.13734907 0.8643645 40 13
-4.3299642 0.13456145 -0.2270333 55 6
-4.4721241 0.13976058 1.0329752 39 14
-4.3452163 0.13579452 -0.07588283 48 7
-4.3599682 0.13701823 1.1688269 46 15
-4.3509936 0.14281619 0.075987682 48 8
-4.369596 0.14495468 0.22912689 46 9
-4.3827877 0.14692378 0.38365936 48 10
-4.410357 0.14861858 0.54183102 38 11
-8.2790432 0.28043064 -1.0171213 22 4
-4.4518952 0.151574 0.70551962 49 12
-31.969103 1.0940403 -2.7985721 10 5
-4.4441695 0.15208748 0.8643645 40 13
-4.3235059 0.14871357 -0.22671928 53 6
-4.4774785 0.15479206 1.0343249 41 14
-4.356708 0.15137811 -0.076092266 48 7
-4.3498106 0.15189853 1.1662388 48 15
-4.3664556 0.15858491 0.076266915 48 8
-4.3590841 0.1598397 0.22860354 55 9
-4.3822765 0.16145699 0.38365936 48 10
-4.3408799 0.16069043 -0.68799865 1 3
-4.4078269 0.16393794 0.54158717 40 11
-4.4533129 0.16718732 0.70583242 48 12
-31.961315 1.1998993 -2.7982233 10 5
-4.4534206 0.16796863 0.86627257 42 13
-4.3189692 0.16365342 -0.22650996 48 6
-4.4730167 0.17027231 1.0334252 38 14
-4.3641443 0.16689067 -0.076231867 50 7
-4.3511839 0.16715555 1.1667564 46 15
-4.3698711 0.17398494 0.076336719 48 8
-4.3584995 0.17505594 0.22860354 53 9
-4.3896489 0.17707436 0.38435659 52 10
-4.4389806 0.17983927 -0.70364219 1 3
-4.4191284 0.17980854 0.54304969 41 11
-4.4507284 0.18264934 0.70551962 49 12
-31.964895 1.3117778 -2.7989204 10 5
-4.4586921 0.18375666 0.86741745 42 13
-4.326354 0.17905894 -0.22692867 53 6
-4.4762893 0.18604593 1.034325 40 14
-4.3515482 0.18162318 -0.076022446 50 7
-4.358295 0.18266672 1.1688271 46 15
-4.3752313 0.18949626 0.076441444 52 8
-4.373858 0.19020157 0.2294409 49 9
-4.3850236 0.1922206 0.38400799 47 10
-4.4383264 0.19533323 -0.70364225 1 3
-4.4184742 0.19523321 0.54304969 41 11
-4.3807607 0.19433181 -0.53841853 2 4
-4.4540453 0.19758274 0.70614535 49 12
-31.916332 1.4214064 -2.7950857 21 5
-4.4560623 0.19923173 0.86703587 42 13
-4.3376737 0.19469604 -0.22755668 48 6
-4.4795065 0.20184661 1.0352249 41 14
-4.3529196 0.19614261 -0.076057352 52 7
-4.3538055 0.19694389 1.1677917 44 15
-4.370584 0.20381789 0.07637164 48 8
-4.3771582 0.20565668 0.22965027 49 9
-4.3883052 0.2077145 0.38435656 47 10
-4.3902979 0.20780879 -0.69613326 1 3
-4.4217687 0.21007292 0.5435372 40 11
-4.4118171 0.21037081 -0.54231828 2 4
-4.4572744 0.21331802 0.70677108 46 12
-31.91914 1.5331899 -2.7957833 10 5
-4.4514551 0.21381924 0.86627257 40 13
-4.3409948 0.20927177 -0.22776605 51 6
-4.4924374 0.21735841 1.0383741 40 14
-4.3582006 0.21162704 -0.07616207 48 7
-4.3492317 0.2119513 1.1667563 44 15
-4.3698454 0.21907292 0.076371625 50 8
-4.3884201 0.22077194 0.23027828 51 9
-4.391572 0.22246727 0.38470519 52 10
-4.4368935 0.22553948 -0.70364219 1 3
-4.4130783 0.22510107 0.54256225 40 11
-4.4150219 0.22597274 -0.54280585 2 4
-4.4585156 0.22819886 0.707084 48 12
-31.886021 1.6375996 -2.7933426 10 5
-4.4546032 0.22955757 0.86703587 42 13
-4.3362479 0.22421721 -0.22755668 46 6
-4.4916515 0.23303981 1.0383741 39 14
-4.3594718 0.22618197 -0.076196969 50 7
-4.3523641 0.22657378 1.1677917 44 15
-4.3690953 0.23356284 0.07637164 50 8
-4.3736625 0.235338 0.22954561 49 9
-4.3947477 0.23801099 0.38505384 50 10
-4.4637361 0.24174726 -0.7080223 1 3
-4.4162717 0.23994967 0.54304969 37 11
-4.4261403 0.24126062 -0.54426873 2 4
-4.4636092 0.2440843 0.70802253 49 12
-31.888065 1.7493224 -2.7940397 10 5
-4.465579 0.2449737 0.86932558 42 13
-4.3354807 0.23859565 -0.22755668 51 6
-4.4850163 0.2476102 1.0370244 40 14
-4.3706355 0.24206053 -0.076406389 52 7
-4.3515463 0.2417651 1.1677917 44 15
-4.3842249 0.24972226 0.076650873 50 8
-4.37884 0.25018117 0.22985961 49 9
-4.4018908 0.2530407 0.38575107 48 10
-4.4115906 0.25437078 -0.69988781 1 3
-4.4312615 0.25628093 0.54499966 40 11
-4.4371619 0.25739917 -0.54573071 2 4
-4.4588308 0.25865617 0.70739675 46 12
-31.88209 1.8550587 -2.7940397 10 5
-4.4705763 0.26090321 0.87047035 40 13
-4.3425965 0.25419483 -0.22797535 48 6
-4.4841251 0.26326555 1.0370245 40 14
-4.359828 0.25596797 -0.076231882 50 7
-4.354578 0.25642133 1.1688271 46 15
-4.3913569 0.26474103 0.076790489 48 8
-4.3819265 0.26570755 0.23006894 51 9
-4.3930264 0.26791859 0.38505384 47 10
-4.532969 0.27645332 -0.71928561 1 3
-4.4224615 0.27048951 0.54402465 40 11
-4.4481721 0.27284127 -0.54719305 2 4
-4.4618444 0.27446046 0.70802259 46 12
-31.867468 1.9658469 -2.7933426 10 5
-4.4696865 0.27572694 0.87047035 40 13
-4.3497033 0.26908743 -0.22839403 48 6
-4.4910069 0.27861679 1.038824 41 14
-4.3609023 0.27130824 -0.076266766 52 7
-4.3478713 0.27125928 1.167274 48 15
-4.3803301 0.28096065 0.076615959 53 8
-4.3888464 0.28304514 0.23048761 49 9
-4.3959908 0.28427628 0.38540244 48 10
-4.405715 0.28567615 -0.69926202 1 3
-4.4412003 0.28875652 0.54646206 41 11
-4.4550157 0.29043561 -0.54816806 2 4
-4.4686418 0.29210606 0.70927399 49 12
-31.828236 2.0805473 -2.7905536 10 5
-4.4725137 0.29314411 0.8712337 40 13
-4.3486381 0.28578711 -0.22839403 48 6
-4.4996266 0.29649746 1.0410733 41 14
-4.375792 0.28910556 -0.076546021 50 7
-4.3410158 0.28756884 1.1657212 46 15
-4.3813181 0.2963832 0.076650873 48 8
-4.3878312 0.29836342 0.2304876 49 9
-4.4029226 0.30016053 0.38609967 45 10
-4.4322815 0.30293918 -0.70364219 1 3
-4.4243217 0.30317193 0.54451221 40 11
-4.4539747 0.30598378 -0.54816806 2 4
-4.4715366 0.30797544 0.70989972 46 12
-31.82873 2.1921918 -2.7912507 10 5
-4.4655867 0.30834866 0.87008876 42 13
-4.3436298 0.30068821 -0.2281847 48 6
-4.5005083 0.31233844 1.0415233 38 14
-4.3747563 0.3043783 -0.076546021 50 7
-4.3438396 0.30298904 1.1667564 44 15
-4.3842459 0.311959 0.076720677 52 8
-4.3867636 0.3136771 0.23048761 51 9
-4.4058232 0.31581286 0.38644829 45 10
-4.4036126 0.31642792 -0.69926196 1 3
-4.4351153 0.31946856 0.54597455 40 11
-4.4330797 0.32009962 -0.54573071 2 4
-4.4802852 0.32429525 0.71146405 48 12
-31.808964 2.3024194 -2.790205 10 5
-4.4723148 0.32450297 0.87161565 40 13
-4.3465366 0.3161383 -0.22839402 53 6
-4.4993906 0.32804635 1.0415233 40 14
-4.3736668 0.31964734 -0.076546021 50 7
-4.3543158 0.31899703 1.1698624 45 15
-4.3990831 0.32845223 0.07699991 52 8
-4.3896255 0.32928681 0.23069698 49 9
-4.4166145 0.33208761 0.38749418 45 10
-4.430059 0.33387497 -0.70364225 1 3
-4.4379325 0.33524731 0.54646206 40 11
-4.4161 0.33437422 -0.54378074 2 4
-4.4653378 0.33888614 0.70927399 46 12
-31.800732 2.4134405 -2.790205 10 5
-4.4829016 0.34100494 0.873905 40 13
-4.3493905 0.33161348 -0.22860339 51 6
-4.4982181 0.34375027 1.0415233 41 14
-4.3844876 0.33582771 -0.076755449 50 7
-4.3493233 0.33389884 1.1688271 42 15
-4.3979101 0.34380603 0.076999918 52 8
-4.3885093 0.3438417 0.23069698 49 9
-4.403511 0.34656358 0.38644829 48 10
-4.5273294 0.35710335 -0.71928561 1 3
-4.4406929 0.35104948 0.54694951 40 11
-4.4386525 0.35166878 -0.54670566 2 4
-4.4700971 0.35416007 0.71021253 48 12
-31.772255 2.5228474 -2.7884622 10 5
-4.4914684 0.35743091 0.87581348 36 13
-4.3561707 0.34742898 -0.2290221 48 6
-4.5028181 0.35991475 1.042873 41 14
-4.3773699 0.34988755 -0.076650731 50 7
-4.3385634 0.34754875 1.1662388 40 15
-4.3847876 0.35741249 0.076790489 50 8
-4.3992257 0.36013621 0.23132499 51 9
-4.4022746 0.36193272 0.38644829 47 10
-4.4276834 0.36402172 -0.70364219 1 3
-4.4493966 0.36658865 0.54816824 38 11
-4.4018517 0.36344585 -0.54231828 2 4
-4.4806461 0.37073794 0.7120899 48 12
-31.727509 2.6307747 -2.7853241 10 5
-4.4726496 0.37086222 0.87237895 42 13
-4.3589745 0.36220357 -0.22923142 51 6
-4.5054841 0.37516823 1.0437728 40 14
-4.386086 0.36599687 -0.076825261 50 7
-4.3392491 0.36285216 1.1667564 44 15
-4.3874979 0.37305608 0.076860301 48 8
-4.3979416 0.37548923 0.23132499 49 9
-4.412961 0.3775484 0.38749418 50 10
-4.3791499 0.37542558 -0.69613326 1 3
-4.4362226 0.38109732 0.54670578 38 11
-4.4282455 0.38119161 -0.54573077 2 4
-4.4832611 0.38671571 0.71271563 48 12
-31.742432 2.7380285 -2.7874157 10 5
-4.4771962 0.38698083 0.87352335 40 13
-4.3497243 0.37672672 -0.22881272 53 6
-4.5157957 0.39190409 1.0464722 41 14
-4.3788047 0.3807863 -0.076720536 50 7
-4.3437295 0.37849891 1.1683093 41 15
-4.3961282 0.38925096 0.077034824 53 8
-4.3926258 0.39048615 0.23111565 49 9
-4.4155846 0.39330378 0.38784328 45 10
-4.4250345 0.39492288 -0.70364225 1 3
-4.4407973 0.39711192 0.54743701 40 11
-4.4031615 0.39452103 -0.54280579 2 4
-4.4917207 0.4032461 0.71427989 46 12
-31.712835 2.847033 -2.7856727 10 5
-4.4816847 0.40313354 0.87466818 37 13
-4.3563395 0.39262503 -0.2292314 51 6
-4.5027547 0.40661326 1.0437727 41 14
-4.3933821 0.39750955 -0.076999776 50 7
-4.34623 0.39400804 1.1693447 41 15
-4.4046993 0.40550971 0.077209346 53 8
-4.3952847 0.40541649 0.23132502 51 9
-4.422121 0.40944856 0.38854006 48 10
-4.4532199 0.41389689 0.5491432 38 11
-4.4136162 0.41099292 -0.54426873 2 4
-4.4864244 0.4177728 0.7136541 46 12
-31.678904 2.9554944 -2.7835813 10 5
-4.4841585 0.41914058 0.87543136 37 13
-4.3589201 0.40820169 -0.22944075 48 6
-4.5090694 0.42305669 1.0455725 41 14
-4.3781018 0.41076887 -0.076755442 50 7
-4.3506699 0.40896109 1.1708975 44 15
-4.4073114 0.42049393 0.077279143 48 8
-4.399807 0.42132875 0.23163903 49 9
-4.4166989 0.42450106 0.38819146 47 10
-4.4222436 0.42503402 -0.70364219 1 3
-4.4478703 0.42828155 0.54865563 38 11
-4.4438443 0.42867666 -0.54816806 2 4
-4.4829731 0.43323985 0.7133413 45 12
-4.4964237 0.43533286 0.87810278 36 13
-4.3615179 0.42303997 -0.22965011 53 6
-4.5115209 0.43838406 1.0464722 41 14
-4.3846035 0.42682394 -0.076895066 52 7
-4.3299885 0.42227027 1.1657212 45 15
-4.3938775 0.43469468 0.077069722 52 8
-4.4042716 0.43727645 0.23195302 49 9
-4.4113007 0.43875077 0.38784277 45 10
-4.4639773 0.44477785 -0.71052527 1 3
-4.4562254 0.4447909 0.54987442 41 11
-4.4423208 0.44418505 -0.54816806 2 4
-4.4833989 0.44908378 0.7136541 48 12
-4.4947972 0.45180911 0.87810326 36 13
-4.3639131 0.4394232 -0.22985946 53 6
-4.5215969 0.45530114 1.0491717 41 14
-4.385076 0.44232726 -0.076929964 50 7
-4.3342538 0.43796387 1.167274 41 15
-4.4002118 0.45161393 0.077209346 50 8
-4.4185338 0.45505193 0.23279041 49 9
-4.4255185 0.45655289 0.38923734 48 10
-4.4465981 0.45951077 -0.70802236 1 3
-4.4486418 0.46050662 0.5491432 38 11
-4.4248667 0.45882714 -0.54621816 2 4
-4.5053005 0.46796119 0.7174086 46 12
-4.491159 0.46807799 0.87772107 37 13
-4.3662457 0.45582855 -0.23006879 44 6
-4.5237741 0.47227427 1.0500715 41 14
-4.3913808 0.45922846 -0.077069581 50 7
-4.3326201 0.45384791 1.1672741 40 15
-4.4064813 0.46858335 0.077348962 50 8
-4.4009485 0.46954855 0.23195304 51 9
-4.4277778 0.4731926 0.38958594 48 10
-4.515594 0.48337564 -0.71928567 1 3
-4.450871 0.47723192 0.54963064 38 11
-4.427103 0.475465 -0.54670566 2 4
-4.5015912 0.48426074 0.71709573 45 12
-4.5012097 0.48501325 0.88001084 37 13
-4.3606577 0.47063839 -0.22985949 53 6
-4.5200748 0.4886432 1.0496216 39 14
-4.3976207 0.4761807 -0.077209212 48 7
-4.3347678 0.47014129 1.1683092 37 15
-4.4087934 0.48439884 0.077418767 50 8
-4.4052382 0.48556441 0.23226704 48 9
-4.43402 0.48952124 0.39028317 43 10
-4.5138788 0.49913406 -0.71928561 1 3
-4.459043 0.49385816 0.55084932 40 11
-4.4293618 0.4913545 -0.54719305 2 4
-4.4861302 0.49844334 0.71490568 48 12
-30.940689 3.437747 -2.7236178 9 5
-4.5072937 0.50159109 0.88153738 37 13
-4.3708963 0.48718557 -0.23048747 46 6
-4.5241518 0.50506586 1.0509712 40 14
-4.3899698 0.49086186 -0.077104494 47 7
-4.3522987 0.48741981 1.1734855 48 15
-4.4229722 0.50158828 0.077698022 50 8
-4.4094691 0.501616 0.23258105 49 9
-4.4283257 0.5045439 0.38993457 48 10
-4.467154 0.5105474 0.55206805 38 11
-4.4078979 0.50455439 -0.54475623 2 4
-4.4961381 0.51544988 0.71678281 48 12
-30.532618 3.5003448 -2.6887555 9 5
-4.5191684 0.51889026 0.88420856 36 13
-4.3790908 0.50357985 -0.23101082 61 6
-4.5301051 0.52174711 1.0527709 40 14
-4.3882294 0.50618392 -0.077104494 50 7
-4.3390574 0.50127816 1.1703799 45 15
-4.4053044 0.51516628 0.077418782 50 8
-4.4116592 0.51747036 0.23279041 49 9
-4.426537 0.51999867 0.38993457 50 10
-4.4121919 0.51909417 -0.70364225 1 3
-4.4673152 0.52636987 0.55231172 41 11
-4.4337096 0.52319473 -0.54816854 2 4
-4.4982352 0.53160501 0.71740866 46 12
-30.179893 3.5666838 -2.6587741 9 5
-4.5075812 0.53350723 0.88230056 39 13
-4.3812733 0.51933306 -0.2312202 59 6
-4.5321269 0.5380165 1.0536706 39 14
-4.3963642 0.52267802 -0.077279016 48 7
-4.3334441 0.51596451 1.1693447 48 15
-4.4114203 0.53149736 0.077558391 50 8
-4.4198327 0.53329247 0.23331375 49 9
-4.4385405 0.53712261 0.39115471 48 10
-4.5084047 0.54637432 -0.71928561 1 3
-4.4634809 0.54172158 0.55206805 38 11
-4.420126 0.53645968 -0.54670614 2 4
-4.5023308 0.547234 0.71834725 45 12
-29.755877 3.6219361 -2.6225171 8 5
-4.5037422 0.54900092 0.88191938 36 13
-4.3655548 0.53292924 -0.23048745 55 6
-4.5380554 0.55398738 1.0554702 38 14
-4.4005613 0.53798211 -0.077383719 47 7
-4.3393798 0.5312711 1.1714151 48 15
-4.4175725 0.54710662 0.077698022 52 8
-4.4140763 0.54745471 0.23310441 49 9
-4.4426665 0.5525763 0.39167765 48 10
-4.4085565 0.54911399 -0.70364225 1 3
-4.4616599 0.55652022 0.55206805 38 11
-4.4183226 0.55111456 -0.54670614 2 4
-4.5083313 0.56314075 0.71959865 43 12
-29.51042 3.6914034 -2.6019485 8 5
-4.507741 0.56466508 0.88306373 40 13
-4.3776364 0.54914343 -0.2312202 59 6
-4.5323257 0.56854808 1.0545704 39 14
-4.4007373 0.55282032 -0.077418633 48 7
-4.3375936 0.54565823 1.171415 48 15
-4.4177175 0.56200528 0.077732913 48 8
-4.4180818 0.56361777 0.23341845 49 9
-4.4427857 0.56755829 0.39185193 45 10
-4.5046816 0.57626331 -0.71928561 1 3
-4.4735727 0.57307833 0.55377424 37 11
-4.4439383 0.57007039 -0.55011851 2 4
-4.5063381 0.5788734 0.71959865 43 12
-29.150215 3.7445667 -2.5712698 8 5
-4.5194755 0.58136386 0.88573521 33 13
-4.3797536 0.56416768 -0.23142952 57 6
-4.530314 0.58436447 1.0545706 39 14
-4.3928318 0.56741118 -0.077313922 47 7
-4.3394947 0.56129175 1.1724504 48 15
-4.4296079 0.57923663 0.077977248 48 8
-4.4200492 0.57955688 0.23362783 49 9
-4.4407773 0.58306211 0.39185244 47 10
-4.5026426 0.59198421 -0.71928561 1 3
-4.4735126 0.58894968 0.55401796 38 11
-4.4261765 0.58350265 -0.54816806 2 4
-4.5082073 0.59511721 0.7202245 45 12
-28.809072 3.8030136 -2.5423338 7 5
-4.5174179 0.59713632 0.88573509 28 13
-4.389637 0.58102393 -0.23205756 59 6
-4.547565 0.60273635 1.0590695 38 14
-4.4027176 0.58432013 -0.077523343 47 7
-4.3298483 0.57541698 1.1703796 48 15
-4.4235964 0.59416312 0.07790745 48 8
-4.4239359 0.59578085 0.23394176 48 9
-4.4387155 0.59855992 0.39185193 48 10
-4.4792981 0.6056245 0.55499291 38 11
-4.4359155 0.60054725 -0.549631 2 4
-4.5100164 0.61138189 0.72085011 45 12
-28.530386 3.8726687 -2.518976 7 5
-4.5211425 0.61369264 0.88687998 30 13
-4.3875823 0.59634322 -0.23205756 59 6
-4.5454335 0.61860675 1.0590695 38 14
-4.404614 0.60022396 -0.077593148 45 7
-4.3278141 0.59052771 1.1703799 45 15
-4.4234753 0.60987383 0.077942334 47 8
-4.4297442 0.61231381 0.2343605 49 9
-4.4443865 0.61591882 0.39254928 47 10
-4.498291 0.62418926 -0.71928561 1 3
-4.4712577 0.6204381 0.55426162 40 11
-4.4613199 0.6198526 -0.55304283 2 4
-4.5098119 0.62739241 0.72116303 42 12
-28.204906 3.9288051 -2.4914348 7 5
-4.5188627 0.63026047 0.88687998 31 13
-4.3754759 0.61104035 -0.23153417 55 6
-4.5527849 0.63661075 1.061319 38 14
-4.412395 0.6169802 -0.077767685 42 7
-4.3295517 0.60616773 1.171415 45 15
-4.4291306 0.6272043 0.078081973 47 8
-4.4195595 0.62742257 0.23394176 48 9
-4.4461541 0.63198966 0.39289787 47 10
-4.4960852 0.63988751 -0.71928561 1 3
-4.4728851 0.63738215 0.55474919 40 11
-4.4079218 0.62890983 -0.54670614 2 4
-4.5192156 0.6455937 0.72304022 43 12
-4.5263519 0.64742035 0.88878846 28 13
-4.3752947 0.62659222 -0.23163888 55 6
-4.5466776 0.65194607 1.0604193 38 14
-4.4101033 0.63314927 -0.077767678 43 7
-4.3273015 0.62203139 1.171415 48 15
-4.4328513 0.64352298 0.078186683 48 8
-4.4351311 0.64543468 0.23488384 49 9
-4.4595799 0.65058237 0.39429232 43 10
-4.4937096 0.6563623 -0.71928561 1 3
-4.4765253 0.65385234 0.55548036 37 11
-4.4410563 0.64946318 -0.55109292 2 4
-4.5169344 0.66136599 0.72304022 43 12
-4.5375457 0.6660006 0.89145982 30 13
-4.3887763 0.64494848 -0.23247625 55 6
-4.5442572 0.66860616 1.0604193 38 14
-4.4078665 0.64853865 -0.077767678 42 7
-4.3327489 0.63825899 1.1734856 45 15
-4.4367409 0.65832663 0.078291394 48 8
-4.4429588 0.66083318 0.23540719 49 9
-4.4497471 0.66263765 0.39359504 43 10
-4.4917421 0.6696927 -0.71928561 1 3
-4.4823027 0.66908389 0.55645525 37 11
-4.4547009 0.66575956 -0.55304289 2 4
-4.5148344 0.67555225 0.72304022 43 12
-4.5472002 0.68120533 0.89374906 31 13
-4.3927693 0.65885532 -0.23279026 55 6
-4.5538163 0.68382281 1.0631187 37 14
-4.4137173 0.66357362 -0.077907301 45 7
-4.3154397 0.64956737 1.1693447 45 15
-4.4344163 0.67380983 0.078291394 48 8
-4.4425993 0.67663878 0.23551188 49 9
-4.4474072 0.67816633 0.3935951 47 10
-4.4893775 0.68536675 -0.71928561 1 3
-4.4877892 0.68592691 0.55743027 37 11
-4.4366508 0.67890316 -0.55109292 2 4
-4.522212 0.69280255 0.72460455 40 12
-4.5350914 0.6955868 0.89184093 27 13
-4.4003129 0.67570072 -0.23331361 55 6
-4.5552535 0.70030677 1.0640185 38 14
-4.4153266 0.67958379 -0.077977106 43 7
-4.3131461 0.66462725 1.1693447 45 15
-4.4340134 0.68959117 0.078326292 50 8
-4.4461308 0.6930663 0.2358259 49 9
-4.4528875 0.69491458 0.39429238 45 10
-4.4869576 0.70103359 -0.71928561 1 3
-4.4794836 0.70066792 0.55669904 38 11
-4.4342542 0.69438493 -0.55109292 2 4
-4.5334263 0.71072555 0.72679466 43 12
-4.5287561 0.71080428 0.89107823 28 13
-4.3920088 0.69012666 -0.23299961 53 6
-4.572032 0.71923178 1.0685174 36 14
-4.4247804 0.69685882 -0.078186542 42 7
-4.3146167 0.68028086 1.1703799 40 15
-4.4414535 0.70663571 0.07850083 47 8
-4.437768 0.70763761 0.23551191 49 9
-4.4581804 0.71248937 0.39498958 47 10
-4.4843578 0.71747452 -0.71928561 1 3
-4.4809308 0.71692616 0.55718648 37 11
-4.4239635 0.70860356 -0.55011803 2 4
-4.5367689 0.7274853 0.72773325 43 12
-4.5435667 0.73020095 0.89451236 31 13
-4.3914213 0.70653683 -0.23310426 55 6
-4.5578213 0.73412502 1.0658181 36 14
-4.4282432 0.71325392 -0.078291252 45 7
-4.3179369 0.69625908 1.1719327 43 15
-4.4487023 0.72451699 0.078675352 48 8
-4.4372416 0.72344542 0.23561655 48 9
-4.4674635 0.72997481 0.39603543 45 10
-4.5325122 0.74141467 -0.72742021 1 3
-4.4880681 0.73494995 0.55840522 36 11
-4.4017458 0.72160292 -0.54768103 2 4
-4.530304 0.74267823 0.72710752 40 12
-4.5468016 0.74701262 0.89565718 28 13
-4.4027233 0.72413051 -0.23383695 48 6
-4.5590773 0.75066257 1.0667179 36 14
-4.4316459 0.72968072 -0.078395963 45 7
-4.3250103 0.71289933 1.1745209 45 15
-4.4541655 0.7405774 0.078814961 50 8
-4.4524202 0.74188441 0.2365586 49 9
-4.4570274 0.74425113 0.39533818 45 10
-4.4793701 0.74798197 -0.71928561 1 3
-4.489522 0.75048256 0.55889273 36 11
-4.4424024 0.74340397 -0.55304283 2 4
-4.5335288 0.75946558 0.72804618 42 12
-4.5442991 0.76208526 0.89565766 27 13
-4.4042377 0.73938811 -0.23404633 53 6
-4.5680933 0.76771492 1.0694174 37 14
-4.4211841 0.74381977 -0.078256346 43 7
-4.3034458 0.72478384 1.1693447 45 15
-4.4436669 0.75478148 0.078675345 48 8
-4.4498038 0.75742084 0.2365586 51 9
-4.4564996 0.75936198 0.39551252 43 10
-4.4767323 0.76361346 -0.71928561 1 3
-4.4947014 0.76748699 0.55986762 36 11
-4.4162998 0.75489175 -0.55011851 2 4
-4.5308495 0.7752859 0.72804612 42 12
-4.5454812 0.77860725 0.89642084 27 13
-4.4213152 0.7581318 -0.23509304 53 6
-4.5730686 0.78497481 1.0712169 36 14
-4.4303846 0.76128 -0.078465767 43 7
-4.3066015 0.74078292 1.1708975 43 15
-4.4488864 0.77165538 0.078814961 48 8
-4.4569716 0.77466017 0.23708197 48 9
-4.4695249 0.77764571 0.39690703 42 10
-4.4740396 0.77923471 -0.71928567 1 3
-4.4919958 0.78317088 0.55986768 35 11
-4.4253712 0.77235079 -0.55158043 2 4
-4.5417376 0.79347682 0.73023629 40 12
-4.5524058 0.79615945 0.89832848 30 13
-4.3989692 0.77011645 -0.23404633 55 6
-4.5779786 0.80227977 1.0730165 37 14
-4.4316401 0.77743047 -0.078535587 43 7
-4.3077946 0.75647956 1.1719327 43 15
-4.4481354 0.78752786 0.078849867 48 8
-4.4583106 0.790133 0.23729128 48 9
-4.4746294 0.79463601 0.39760423 43 10
-4.471292 0.79484838 -0.71928561 1 3
-4.4950972 0.79988945 0.56059885 33 11
-4.4226484 0.7877937 -0.55158049 2 4
-4.5507493 0.81061196 0.73211348 40 12
-4.5553975 0.81308055 0.89947337 28 13
-4.4041185 0.78687221 -0.23446502 55 6
-4.5713134 0.81756788 1.0721167 36 14
-4.4428172 0.79458666 -0.078779921 47 7
-4.3147707 0.77246296 1.174521 45 15
-4.4573073 0.80440521 0.07905931 45 8
-4.4594564 0.80640149 0.23750065 46 9
-4.4816308 0.81202573 0.3984758 43 10
-4.4686322 0.80967051 -0.71928567 1 3
-4.5021868 0.81656295 0.56181759 35 11
-4.4317307 0.80458319 -0.55304283 2 4
-4.5401177 0.82507944 0.73086196 40 12
-4.5700593 0.8313446 0.90290833 31 13
-4.4172044 0.80433506 -0.23530237 48 6
-4.5685768 0.83272243 1.0721166 37 14
-4.4341145 0.80901337 -0.078675203 45 7
-4.3120475 0.78751963 1.1745209 48 15
-4.4544716 0.81995922 0.079059303 45 8
-4.4566145 0.82196313 0.23750065 49 9
-4.4730363 0.82579798 0.39795288 43 10
-4.5162826 0.83459824 -0.72742021 1 3
-4.509069 0.83407903 0.56303626 33 11
-4.4484143 0.82366109 -0.55548078 2 4
-4.5391526 0.84128249 0.73117483 43 12
-4.5671291 0.84729218 0.90290833 30 13
-4.4182968 0.82047743 -0.23551174 51 6
-4.5771379 0.85080159 1.0748161 37 14
-4.4312639 0.82448661 -0.07867521 45 7
-4.2978778 0.80044466 1.1714151 48 15
-4.4574785 0.83660996 0.079164013 45 8
-4.4615698 0.83899015 0.23791933 49 9
-4.4720836 0.84177536 0.39812717 45 10
-4.4628701 0.84084868 -0.71928561 1 3
-4.511982 0.85091621 0.56376749 31 11
-4.4260054 0.83550286 -0.55304283 2 4
-4.5478344 0.85932267 0.73305207 42 12
-4.5622158 0.86286354 0.90252626 28 13
-4.4271808 0.83812547 -0.23613977 51 6
-4.5798841 0.86786228 1.0761658 34 14
-4.4401464 0.84218448 -0.078884631 45 7
-4.2893629 0.81436121 1.1698622 43 15
-4.4584584 0.85291702 0.079233818 45 8
-4.4743061 0.85756654 0.2387567 45 9
-4.4808583 0.85963434 0.39917308 43 10
-4.5297456 0.86983162 -0.73054886 1 3
-4.5109339 0.86703563 0.56401122 32 11
-4.4230618 0.85094756 -0.55304283 2 4
-4.5486865 0.87593848 0.73367774 43 12
-4.564959 0.87989819 0.90367162 30 13
-4.4242282 0.85357422 -0.23613977 48 6
-4.5902205 0.88642925 1.0793151 36 14
-4.4391432 0.85805911 -0.078919537 40 7
-4.297874 0.83153075 1.1729679 43 15
-4.4652686 0.87038684 0.079408348 42 8
-4.4673653 0.87241524 0.23854737 48 9
-4.485652 0.87679803 0.39987028 45 10
-4.4568911 0.87198383 -0.71928561 1 3
-4.5059314 0.8823961 0.56376749 31 11
-4.4200649 0.86638081 -0.55304283 2 4
-4.5552931 0.89371258 0.73524207 40 12
-4.563786 0.89620709 0.90405273 27 13
-4.4251409 0.86978185 -0.23634909 46 6
-4.5832744 0.9016946 1.0784154 36 14
-4.4537787 0.87702662 -0.079233676 43 7
-4.2949462 0.84652728 1.172968 43 15
-4.462203 0.88596839 0.079408348 42 8
-4.4682102 0.8887822 0.2387567 46 9
-4.4903803 0.89400685 0.40056753 43 10
-4.5235624 0.90143406 -0.73054886 1 3
-4.5086637 0.89928317 0.56449866 33 11
-4.4793072 0.89424062 -0.56084299 2 4
-4.5521455 0.90960932 0.73524207 45 12
-4.5683308 0.91367143 0.90557915 28 13
-4.4259949 0.88600743 -0.23655845 44 6
-4.5877419 0.91922027 1.080215 38 14
-4.4467688 0.8917805 -0.079163864 45 7
-4.295752 0.86227465 1.1740031 43 15
-4.4669237 0.90312421 0.079547971 43 8
-4.468996 0.90516692 0.23896606 46 9
-4.4851208 0.91006279 0.40039322 40 10
-4.5249519 0.91896701 0.56693608 33 11
-4.4333615 0.90117174 -0.55548078 2 4
-4.547008 0.92509907 0.73492932 42 12
-4.5803404 0.93354565 0.90863264 27 13
-4.426631 0.90302193 -0.23676778 46 6
-4.595798 0.93836713 1.0829144 37 14
-4.4397106 0.90649724 -0.079094052 42 7
-4.2908239 0.8768788 1.1734856 45 15
-4.4694586 0.92070061 0.079652682 39 8
-4.4736338 0.92237455 0.23938477 43 9
-4.491673 0.92772841 0.40126479 45 10
-4.5169964 0.93378085 -0.73054886 1 3
-4.521553 0.93554568 0.56693608 33 11
-4.4416919 0.91983014 -0.55694264 2 4
-4.5534225 0.94296837 0.73649359 40 12
-21.711819 4.5002532 -1.939913 3 5
-4.5732093 0.94873095 0.90786892 27 13
-4.4312739 0.92009258 -0.23718646 53 6
-4.592495 0.95440394 1.0829145 37 14
-4.4521823 0.92524439 -0.0793733 43 7
-4.2801719 0.8902778 1.1714151 40 15
-4.4605093 0.93428713 0.079547964 42 8
-4.4801602 0.94003451 0.23990811 45 9
-4.494257 0.94463128 0.40178776 43 10
-4.513875 0.94875473 -0.73054886 1 3
-4.5164838 0.95012498 0.56669235 33 11
-4.4580426 0.93864447 -0.55938005 2 4
-4.5636334 0.96170849 0.7386837 42 12
-21.403553 4.5143332 -1.9137665 3 5
-4.5700383 0.96389014 0.90786892 28 13
-4.4281988 0.93478239 -0.23718649 48 6
-4.6007442 0.97204506 1.0856137 38 14
-4.4528379 0.94160837 -0.079443105 43 7
-4.2845979 0.90681201 1.1734856 45 15
-4.4689555 0.95235234 0.079757392 42 8
-4.4729447 0.95483476 0.23969875 45 9
-4.5066862 0.96285993 0.40318224 40 10
-4.5228443 0.96796298 0.56791103 31 11
-4.4508557 0.9533686 -0.55889302 2 4
-4.5660429 0.97887385 0.73962224 40 12
-4.5820026 0.98313296 0.91092187 27 13
-4.436626 0.95275027 -0.23781452 44 6
-4.5973239 0.98809791 1.0856138 37 14
-4.4651642 0.96050942 -0.079722345 42 7
-4.2814064 0.9217627 1.1734856 48 15
-4.471468 0.96921617 0.079862118 40 8
-4.4715362 0.97086626 0.23980342 43 9
-4.511086 0.9802767 0.40387943 40 10
-4.5341649 0.98612052 -0.73492903 1 3
-4.5291362 0.98585588 0.56912971 32 11
-4.4319849 0.965518 -0.55694264 2 4
-4.5683885 0.99607009 0.74056089 42 12
-5.417542 1.1812156 -0.48510903 1 5
-4.586216 1.0007956 0.91244847 27 13
-4.4430294 0.97036093 -0.23833786 55 6
-4.6014614 1.0058051 1.0874133 36 14
-4.4539704 0.97438061 -0.079582728 42 7
-4.283824 0.9379406 1.1750386 43 15
-4.4817266 0.98783159 0.080106445 43 8
-4.4877954 0.98999161 0.24085014 46 9
-4.4998546 0.99429792 0.40318218 40 10
-4.530695 1.001943 -0.73492903 1 3
-4.527606 1.0020876 0.56937349 31 11
-4.5101619 0.99822664 -0.56718016 2 4
-4.5650606 1.0112131 0.74056089 42 12
-5.4600692 1.2104688 -0.48929247 1 5
-4.5903597 1.0184982 0.9139753 26 13
-4.4376655 0.98543131 -0.23823321 48 6
-4.6019053 1.0219026 1.0883131 37 14
-4.4546185 0.99001288 -0.079652533 42 7
-4.2674899 0.94920629 1.1714151 40 15
-4.4686689 1.0005037 0.079931915 40 8
-4.490335 1.0061775 0.24116416 45 9
-4.5081968 1.0118327 0.40422806 42 10
-4.5300679 1.0184025 0.57010466 30 11
-4.4642191 1.0035989 -0.56181741 2 4
-4.5751724 1.0293813 0.742751 40 12
-5.4482503 1.2268178 -0.48859522 1 5
-4.5888729 1.0341467 0.91435641 26 13
-4.4421663 1.0018996 -0.23865189 44 6
-4.6060953 1.0388727 1.0901128 38 14
-4.4591131 1.0065408 -0.079792142 42 7
-4.2643189 0.96335268 1.1714151 40 15
-4.4789762 1.0184207 0.080176249 43 8
-4.4947639 1.0228354 0.24158287 43 9
-4.5125871 1.0285481 0.40492532 39 10
-4.5305371 1.0343031 0.57059222 32 11
-4.5111837 1.0298847 -0.56815517 2 4
-4.5794358 1.0463073 0.7440024 39 12
-5.350924 1.2235593 -0.4802283 5 5
-4.5873322 1.0497965 0.91473806 27 13
-4.4388199 1.0166252 -0.23865192 46 6
-4.6140223 1.0567518 1.0928122 36 14
-4.4635482 1.0231086 -0.079931781 43 7
-4.2799301 0.98180801 1.1765915 45 15
-4.4872651 1.035967 0.080385678 40 8
-4.4894009 1.0372854 0.24147817 43 9
-4.5169163 1.0453038 0.40562257 40 10
-4.5270829 1.0493215 0.57059228 28 11
-4.4845376 1.0394601 -0.56523031 2 4
-4.5836382 1.0632733 0.74525392 40 12
-5.3410149 1.2399454 -0.47970536 5 5
-4.6010365 1.0690029 0.91817254 26 13
-4.4393144 1.0322438 -0.23886123 44 6
-4.6066971 1.0711643 1.0919125 37 14
-4.4698691 1.0401709 -0.080106296 40 7
-4.269125 0.99424273 1.174521 40 15
-4.4912252 1.0542337 0.080525301 42 8
-4.4873295 1.054973 0.24158287 45 9
-4.5246906 1.0645889 0.40666842 43 10
-4.5444598 1.0709155 0.5732733 31 11
-4.5075636 1.06305 -0.56864208 2 4
-4.5718317 1.0790504 0.74400246 39 12
-5.3034697 1.2517326 -0.47674212 5 5
-4.5989985 1.0863097 0.91855425 26 13
-4.4432755 1.0503469 -0.2392799 48 6
-4.6101346 1.0906392 1.093712 38 14
-4.4638958 1.0568655 -0.080071375 42 7
-4.2671552 1.011073 1.1750386 37 15
-4.4914088 1.0708323 0.080595113 43 8
-4.4991608 1.0743403 0.24242023 45 9
-4.5093203 1.0775993 0.40562257 42 10
-4.542624 1.0872331 0.57351702 32 11
-4.5308518 1.0852526 -0.57205445 2 4
-4.5757208 1.0968444 0.74525392 40 12
-5.2874422 1.2674508 -0.47569615 5 5
-4.6104507 1.1060193 0.92160714 24 13
-4.4512343 1.0686469 -0.23990794 48 6
-4.6176686 1.1094565 1.0964113 37 14
-4.467957 1.0743111 -0.080211014 42 7
-4.2579656 1.0246053 1.1734856 45 15
-4.4876428 1.0865049 0.080595113 42 8
-4.5031471 1.0919214 0.2428389 43 9
-4.5094037 1.0942731 0.40597123 40 10
-4.5523047 1.1063651 0.57522327 31 11
-4.5193205 1.0991853 -0.57107955 2 4
-4.5872197 1.1165465 0.7477569 40 12
-5.2771783 1.284485 -0.47517321 4 5
-4.6046548 1.1216426 0.92122555 24 13
-4.4532995 1.0855975 -0.24022199 38 6
-4.6251273 1.1283399 1.0991108 36 14
-4.4700079 1.0913237 -0.080315739 39 7
-4.2562394 1.0399207 1.1740032 43 15
-4.4896488 1.1035942 0.080699831 42 8
-4.505126 1.1090673 0.24315293 43 9
-4.5287709 1.1157253 0.40806293 40 10
-4.5541964 1.1236767 0.5759545 32 11
-4.5347276 1.1197126 -0.57351685 2 4
-4.5967183 1.1358694 0.74994695 37 12
-5.2475185 1.296685 -0.47290725 2 5
-4.6045232 1.1386518 0.92198884 24 13
-4.4572377 1.103055 -0.24064066 38 6
-4.6249437 1.1454136 1.1000106 36 14
-4.4875212 1.1122119 -0.080699675 39 7
-4.2525835 1.0547715 1.1740032 43 15
-4.4974108 1.122164 0.08090926 40 8
-4.5051026 1.1257536 0.24336226 46 9
-4.5287147 1.1324937 0.40841153 37 10
-4.5463943 1.1386023 0.57546693 32 11
-4.515388 1.1316735 -0.571567 2 4
-4.5965571 1.1528703 0.75057268 37 12
-5.2429595 1.3149955 -0.47290722 1 5
-4.6100411 1.1571075 0.92389685 23 13
-4.4572344 1.1195792 -0.24085002 46 6
-4.617137 1.1606019 1.0991108 36 14
-4.4913688 1.1298211 -0.080839291 39 7
-4.2544966 1.0710233 1.1755563 40 15
-4.5050974 1.1408014 0.081118681 45 8
-4.5030813 1.1419636 0.24346693 43 9
-4.5324583 1.1502554 0.40910932 39 10
-4.5520124 1.1569092 0.57668561 31 11
-4.5267997 1.1513425 -0.57351738 4 4
-4.59059 1.1684211 0.75025982 34 12
-4.6097798 1.1741607 0.92466015 23 13
-4.4707174 1.1395721 -0.24179204 51 6
-4.6376057 1.1829734 1.1049596 14 14
-4.4854608 1.1449965 -0.0808044 37 7
-4.2563472 1.0873034 1.1771091 43 15
-4.5088344 1.1585097 0.081258297 45 8
-4.5126071 1.1611594 0.24419962 46 9
-4.5284157 1.1660709 0.40910882 43 10
-4.5652466 1.1772531 0.5788793 28 11
-4.6075234 1.1898704 0.75370145 22 12
-4.5449629 1.1737144 -0.410678 4 5
-4.6227593 1.1946658 0.92809463 12 13
-4.466712 1.155171 -0.24179204 48 6
-4.6296749 1.1981769 1.1040597 23 14
-4.4833722 1.1611481 -0.080839291 39 7
-4.2431755 1.099731 1.174521 40 15
-4.5105681 1.1757557 0.081363015 35 8
-4.5336494 1.1834613 0.24556036 31 9
-4.5493779 1.1884164 0.41137487 14 10
-4.578393 1.1977031 0.58107299 18 11
-4.5512986 1.1914641 -0.57766098 70 4
-4.5956979 1.2039442 0.75244987 24 12
-4.5862765 1.2023326 0.92160714 16 13
-4.4781075 1.1748093 -0.24262941 46 6
-4.5858822 1.2039388 1.0946118 15 14
-4.5044336 1.1833977 -0.081293054 27 7
-4.2374415 1.1140434 1.1740031 43 15
-4.5219021 1.1955827 0.081642248 22 8
-4.5161848 1.1949133 0.24482769 24 9
-4.5297942 1.2002071 0.40998033 19 10
-4.5319729 1.2024776 0.57571071 22 11
-4.5087395 1.1971552 -0.57278562 12 4
-4.5611324 1.2110665 0.74744397 21 12
-4.5231786 1.2018342 -0.4094578 1 5
-4.5365167 1.2062258 0.91244835 20 13
-4.4681892 1.1888932 -0.24231541 21 6
-4.3933387 1.169798 1.0496217 6 14
-4.4888911 1.1952404 -0.081083633 19 7
-4.2430582 1.1305764 1.1765914 48 15
-4.4812131 1.2007378 0.080979057 24 8
-4.4753346 1.2008361 0.2428389 22 9
-4.5005631 1.2092907 0.40771428 13 10
-4.4723678 1.2025515 0.56864226 3 11
-4.4319019 1.1925004 -0.56352407 8 4
-4.4496994 1.1989549 -0.40318257 4 5
-4.3675704 1.1768246 0.87924761 18 13
-4.4468665 1.1990242 -0.24137336 27 6
-4.321703 1.166085 1.0334252 14 14
-4.4634552 1.2051684 -0.080699675 17 7
-4.2297606 1.142861 1.1740031 37 15
-4.4596267 1.2116543 0.08066491 3 8
-4.4009018 1.200649 -0.56011182 8 4
-4.414947 1.2053076 -0.40039358 4 5
-4.3141956 1.1786122 0.86932564 9 13
-4.4156823 1.2071657 -0.23990795 8 6
-4.283772 1.1719075 1.0253268 12 14
-4.2406521 1.1617023 1.1781445 43 15
-4.3551197 1.1995995 0.078849867 1 8
-4.3328204 1.1958982 0.3932465 1 10
-4.46769 1.234803 0.56912977 1 11
-4.2892423 1.1879003 0.86512768 7 13
-4.2477312 1.1780005 1.0176785 10 14
-4.227263 1.173912 1.1755561 40 15
-4.2768145 1.196522 0.38854009 8 10
-4.3677778 1.2236147 0.55694282 1 11
-0.99584293 0.2791687 -0.12698781 2 4
-4.2453761 1.1917218 0.85711378 12 13
-4.289854 1.2050161 -0.23352297 2 6
-4.2041965 1.1817467 1.0082306 9 14
-4.3004403 1.2096083 -0.077977099 1 7
-4.2175608 1.1870917 1.1740031 37 15
-4.2302318 1.200225 0.38470525 13 10
-4.3061914 1.2225887 0.5496307 8 11
-4.2830625 1.216831 -0.54670614 2 4
-4.4803996 1.273739 0.73774505 1 12
-4.2051029 1.1970621 0.84986299 12 13
-4.2662001 1.2152585 -0.23247625 2 6
-4.1717262 1.189134 1.0014821 9 14
-4.3077312 1.2279017 -0.078186542 1 7
-4.2245388 1.2049863 1.1771091 37 15
-4.1915488 1.2050745 0.38156757 13 10
-4.2692518 1.2290277 0.54548711 8 11
-0.99381965 0.28628761 -0.12698793 2 4
-4.4835191 1.2915581 0.73899662 7 12
-4.1858087 1.2073797 0.8468101 6 13
-4.215878 1.2168502 -0.22996412 2 6
-4.1301055 1.1928751 0.99248403 10 14
-4.2649951 1.2318345 -0.077488445 1 7
-4.2203069 1.2197244 1.1771091 43 15
-4.1452341 1.2074406 0.37773275 14 10
-4.238471 1.2354015 0.54207468 5 11
-0.99286491 0.28958172 -0.12698781 2 4
-4.3329701 1.2645866 0.71490568 28 12
-4.1780119 1.220153 0.84604728 9 13
-4.1428046 1.2106558 -0.22619593 2 6
-4.0924592 1.1967195 0.98438573 10 14
-4.2030926 1.2298663 -0.076441303 1 7
-4.2234397 1.2366202 1.1791798 37 15
-4.0857873 1.2048377 0.37267774 24 10
-4.1789217 1.2338872 0.53500628 5 11
-4.4376154 1.3111123 -0.56815463 2 4
-4.2357082 1.2522618 0.69957507 15 12
-4.4059324 1.3025876 -0.40196243 11 5
-4.1643147 1.231945 0.84413868 13 13
-4.1232328 1.2205743 -0.22535858 2 6
-4.0677037 1.2049086 0.97943687 10 14
-4.1930218 1.2428254 -0.076336578 32 7
-4.211689 1.249158 1.1771091 43 15
-4.0758295 1.2173808 0.37215477 43 10
-4.1479635 1.2405043 0.53159398 6 11
-1.0288544 0.30788809 -0.13186258 2 4
-4.1953559 1.2562732 0.69363052 10 12
-4.4109015 1.3208169 -0.40283397 44 5
-4.1393018 1.2402753 0.83994091 22 13
-4.0921626 1.2269292 -0.22389315 2 6
-4.0298753 1.2090204 0.97133857 10 14
-4.2193022 1.266654 -0.076895066 50 7
-4.2073021 1.263853 1.177109 48 15
-4.4489441 1.3432159 0.081118688 64 8
-4.0906253 1.2373704 0.37389788 58 10
-4.1360087 1.2526733 0.53061903 7 11
-1.0277733 0.31147787 -0.13186258 2 4
-4.1550283 1.2600183 0.68768609 31 12
-4.4043574 1.3356278 -0.40265968 38 5
-4.1124034 1.2478749 0.83536148 12 13
-4.0534558 1.2307613 -0.22200906 2 6
-4.0013905 1.2157154 0.96548975 11 14
-4.1899834 1.2738119 -0.076441303 13 7
-4.210258 1.2807796 1.1791797 48 15
-4.0881858 1.2522254 0.37407219 76 10
-4.135406 1.2682681 0.53110647 13 11
-0.98872483 0.3034161 -0.12698793 2 4
-4.1883717 1.2861104 0.69394338 63 12
-4.414906 1.3556716 -0.40405414 48 5
-4.0071349 1.2319903 -0.21970628 4 6
-3.9617341 1.2187877 0.95694178 18 14
-4.2020693 1.2943312 1.1781445 45 15
-3.9122248 1.2110355 0.071484968 11 8
-4.0761786 1.2641268 0.37337494 40 10
-4.0987258 1.2726887 0.526963 13 11
-1.0141996 0.31511131 -0.13040015 2 4
-4.1480169 1.2895806 0.68799895 43 12
-4.4158545 1.3728489 -0.40457708 49 5
-3.9875546 1.2412207 -0.21886891 6 6
-3.9258251 1.2227587 0.94929338 16 14
-4.0855312 1.2732838 -0.074696064 1 7
-3.9467072 1.2307742 1.1077456 20 15
-3.9136975 1.2264783 0.071589671 14 8
-4.0337229 1.2664117 0.36988872 11 10
-4.0507021 1.2732958 0.52135694 12 11
-0.97522086 0.30673748 -0.12552539 2 4
-4.1566796 1.3082042 0.69018894 48 12
-4.4034328 1.3858633 -0.40387982 48 5
-3.9641488 1.2491301 -0.21782222 4 6
-3.9048061 1.231181 0.94524431 18 14
-4.0429211 1.2755044 -0.073997967 1 7
-3.8760667 1.2236061 1.0891107 18 15
-3.9132049 1.2413416 0.071659483 13 8
-3.9932005 1.2690192 0.36657685 14 10
-4.0159659 1.2777975 0.51745707 10 11
-0.96657801 0.30773094 -0.12455054 2 4
-4.1539702 1.3233056 0.69050193 48 12
-4.4061627 1.403645 -0.40457714 49 5
-3.9293187 1.2532504 -0.21614744 2 6
-3.8819199 1.2388791 0.94074529 12 14
-3.9431989 1.2591929 -0.072252743 1 7
-3.8423281 1.2277217 1.0808284 20 15
-3.9069438 1.2543825 0.071624584 8 8
-4.1375246 1.3300071 0.22776617 1 9
-3.9659863 1.2756298 0.36448509 14 10
-3.9755807 1.2802472 0.51282614 10 11
-1.0146229 0.32693243 -0.13088776 4 4
-4.1606064 1.3414338 0.69237918 48 12
-4.4126139 1.4226841 -0.40562296 48 5
-3.8945088 1.2571422 -0.21447268 2 6
-3.8553188 1.2452337 0.93534642 12 14
-3.9216542 1.2674153 -0.071938597 4 7
-3.8122849 1.2328048 1.0735815 16 15
-3.9065666 1.2685659 0.071694389 11 8
-4.1900725 1.3622458 0.23090631 1 9
-3.9314198 1.2789122 0.36169609 14 10
-3.9373379 1.2823583 0.50843883 10 11
-0.94747424 0.30876768 -0.12235677 7 4
-4.1767936 1.3619597 0.69582063 48 12
-4.4135542 1.4391623 -0.4061459 48 5
-3.9206972 1.2799677 -0.21614747 2 6
-3.8178248 1.2471199 0.92724824 10 14
-3.9003224 1.2748216 -0.07162445 1 7
-3.7916515 1.2400359 1.0689229 19 15
-3.9135134 1.2859412 0.071903825 11 8
-4.4698777 1.4704834 0.24660711 18 9
-3.9117911 1.2876449 0.36030158 13 10
-3.9158695 1.2905015 0.50624514 11 11
-0.95958745 0.31642452 -0.12406295 2 4
-4.2057805 1.3876723 0.70145231 49 12
-4.4179635 1.4576809 -0.40701744 46 5
-3.8934476 1.2861271 -0.21489137 2 6
-3.8004963 1.256158 0.92409885 12 14
-3.8768635 1.282151 -0.071275413 3 7
-3.770793 1.2478005 1.0642641 20 15
-3.9127958 1.3008559 0.071973629 6 8
-4.4552422 1.4829247 0.24608375 7 9
-3.8562343 1.284294 0.3555952 13 10
-3.8925092 1.2978846 0.50380778 11 11
-0.98860586 0.32982391 -0.12796287 2 4
-4.3864107 1.4642683 0.73242629 52 12
-4.4109592 1.4724631 -0.40684319 46 5
-3.8472602 1.2857822 -0.21258858 4 6
-3.7628217 1.2582923 0.91600066 13 14
-3.8325408 1.2823501 -0.07054241 32 7
-3.7316079 1.2493026 1.0544288 19 15
-3.8248353 1.2864558 0.070437819 11 8
-4.3951459 1.4799845 0.24304824 1 9
-3.838511 1.2932929 0.354375 14 10
-3.852217 1.2994093 0.49917677 11 11
-0.96864015 0.32692483 -0.12552539 2 4
-4.4114552 1.4897624 -0.40736604 46 5
-3.9393611 1.3311019 0.80826664 1 13
-3.7399468 1.2651747 0.91150165 14 14
-3.8128877 1.2905914 -0.07026317 11 7
-3.7034373 1.2542648 1.0476996 29 15
-3.7711008 1.2830527 0.069530301 16 8
-4.3748283 1.4901646 0.24221085 4 9
-3.805685 1.297043 0.35176033 16 10
-3.8175974 1.3025913 0.4952769 11 11
-0.97876483 0.33415195 -0.12698793 2 4
-3.8638868 1.3198916 0.64670014 9 12
-4.4118843 1.5070857 -0.40788901 46 5
-3.9681299 1.356274 0.81513578 1 13
-3.8117337 1.3035612 -0.2111232 6 6
-3.7189133 1.2725438 0.90745246 9 14
-3.7856569 1.2961202 -0.069844306 9 7
-3.6880713 1.2634274 1.0445937 56 15
-3.7401268 1.2870986 0.069041632 15 8
-3.7728882 1.2998449 0.20913458 9 9
-3.7860658 1.3051251 0.35036591 17 10
-3.7754982 1.3029569 0.49040219 13 11
-0.96633416 0.33367923 -0.12552539 2 4
-3.806978 1.315309 0.63793987 13 12
-4.4197783 1.5270313 -0.40910915 46 5
-4.0932579 1.4150172 0.84184909 1 13
-3.7769594 1.3064135 -0.20944846 4 6
-3.6997163 1.2804189 0.9038533 10 14
-3.7659934 1.3040915 -0.06956508 13 7
-3.6927655 1.2794569 1.047182 51 15
-3.7148366 1.2929169 0.068657681 13 8
-3.7287202 1.2992073 0.20693645 16 9
-3.7513852 1.3078399 0.34757689 16 10
-3.757807 1.3115488 0.48869598 16 11
-0.97640806 0.34097713 -0.12698793 2 4
-3.7632022 1.3149055 0.63136959 18 12
-4.0679078 1.4221698 0.83765119 6 13
-3.7610641 1.3156327 -0.2088204 4 6
-3.6915455 1.292037 0.90295339 10 14
-3.7236712 1.3040116 -0.068866983 12 7
-3.680984 1.289784 1.0451114 37 15
-3.6857796 1.2972448 0.068203919 18 8
-3.6940227 1.3015945 0.20526169 17 9
-3.6772733 1.2964152 0.34112737 16 10
-3.7326148 1.3173918 0.4860149 16 11
-0.97521204 0.34438318 -0.12698781 2 4
-3.7455521 1.3234272 0.6291796 16 12
-4.0758748 1.4409424 0.84032249 7 13
-3.6961954 1.3074392 -0.2054709 4 6
-3.6796651 1.3023146 0.90115386 18 14
-3.687052 1.3056542 -0.068273604 12 7
-3.6782806 1.3032695 1.045629 35 15
-3.6510856 1.2993753 0.067645445 42 8
-3.6687608 1.3071085 0.20411029 43 9
-3.6389444 1.2972013 0.33798975 22 10
-3.6999497 1.3204041 0.48235881 18 11
-0.97400397 0.34778523 -0.12698781 2 4
-3.7037048 1.3232018 0.62292218 6 12
-4.4072981 1.5745707 -0.4094578 4 5
-4.0615773 1.4518563 0.83841455 7 13
-3.6333106 1.2994826 -0.20222607 6 6
-3.6549141 1.3079298 0.89620507 19 14
-3.654232 1.3084041 -0.067750029 9 7
-3.6755273 1.3167527 1.0461466 34 15
-3.6540542 1.3148204 0.067785069 57 8
-3.6604176 1.3185533 0.20390095 43 9
-3.6156507 1.3031403 0.33624667 24 10
-3.6579728 1.3198369 0.47748405 18 11
-1.0400013 0.37544903 -0.13576239 2 4
-3.6897743 1.3327669 0.62135786 9 12
-4.0620232 1.4680266 0.83955979 7 13
-3.6005788 1.3019698 -0.200656 12 6
-3.6338339 1.314712 0.89215589 17 14
-3.5763116 1.2946066 -0.066388756 6 7
-3.6836233 1.33418 1.0497701 32 15
-3.617496 1.3159453 0.067191683 31 8
-3.6557925 1.3313226 0.20390093 34 9
-3.5961044 1.3102961 0.33485219 10 10
-3.6272345 1.323074 0.47407165 16 11
-4.454967 1.6258798 -0.58229142 4 4
-3.6609774 1.3368303 0.61729056 5 12
-4.4523439 1.625803 -0.41468716 45 5
-4.0624065 1.4842182 0.84070462 7 13
-3.5716264 1.3056161 -0.19929528 16 6
-3.5323348 1.2926509 -0.065655753 9 7
-3.6862004 1.3496871 1.0518408 32 15
-3.4890099 1.2830148 0.064887971 27 8
-3.6586208 1.3468348 0.20431964 32 9
-3.5802903 1.3187099 0.33380628 3 10
-3.6039691 1.3288591 0.47163427 15 11
-4.4399529 1.6379853 -0.58107334 14 4
-3.622932 1.3372887 0.61165893 11 12
-4.4447727 1.6406449 -0.41451287 50 5
-4.0572009 1.4983888 0.84070462 9 13
-3.5445652 1.3097682 -0.19803919 26 6
-3.7342362 1.3805951 0.91915005 1 14
-3.4602833 1.2799977 -0.064399183 16 7
-3.6814663 1.3625463 1.0518408 33 15
-3.4713891 1.290309 0.064643629 36 8
-3.6597505 1.3610486 0.20463367 52 9
-3.5825675 1.335193 0.46944067 15 11
-4.4323483 1.6527804 -0.58082908 31 4
-3.596267 1.3410136 0.60790449 12 12
-4.4315524 1.6533632 -0.41381559 48 5
-4.0537853 1.5132297 0.84108579 9 13
-3.5212617 1.3151453 -0.19699249 31 6
-3.4447811 1.2872649 -0.064189754 30 7
-3.6769276 1.3747472 1.0518408 31 15
-3.4596028 1.2990019 0.064504012 27 8
-3.6605854 1.3759233 0.20494767 55 9
-3.5595422 1.340071 0.46700326 11 11
-4.4305582 1.668869 -0.58131707 21 4
-3.5767763 1.3479848 0.60540152 6 12
-4.4350748 1.6723369 -0.41468713 49 5
-4.0413966 1.5238924 0.83955979 9 13
-3.492588 1.31765 -0.19563176 26 6
-3.4346538 1.2971628 -0.064085037 36 7
-3.6702991 1.3868906 1.0513231 29 15
-3.44383 1.3068129 0.064294584 28 8
-3.6669629 1.3929492 0.20557572 55 9
-3.5214469 1.3397831 0.46261603 13 11
-3.5425129 1.3492126 0.60039562 6 12
-4.4406767 1.6912901 -0.41573304 48 5
-4.0140371 1.5296023 0.83498031 7 13
-3.4506433 1.3156022 -0.19353832 26 6
-3.4263685 1.3077182 -0.064015232 43 7
-3.6943119 1.4107199 1.0596052 30 15
-3.4373803 1.3181102 0.064259686 33 8
-3.6620786 1.40574 0.20557572 55 9
-3.5000732 1.3456551 0.46042237 13 11
-3.5248761 1.3566043 0.59820551 11 12
-4.4496212 1.712507 -0.41712752 49 5
-3.8877544 1.4970418 0.80979311 12 13
