# .PCD v0.7 - Point Cloud Data file format
VERSION 0.7
FIELDS x y z intensity ring
SIZE 4 4 4 4 2
TYPE F F F F U
COUNT 1 1 1 1 1
WIDTH 1244
HEIGHT 1
VIEWPOINT 0 0 0 1 0 0 0
POINTS 1244
DATA ascii
-3.3126948 -3.7853937 0.6176337 35 11
-3.3270662 -3.8004768 0.80000603 49 12
-3.3066728 -3.7745225 0.97541529 37 13
-3.3409221 -3.8122754 -0.26565725 42 6
-3.3169351 -3.7835717 1.1616472 43 14
-3.3403904 -3.8103268 -0.088448517 35 7
-3.2646422 -3.7226112 1.3267065 36 15
-3.3516538 -3.8110821 0.088588305 43 8
-3.3423011 -3.7977734 0.26513404 46 9
-3.3367918 -3.7888441 0.44170499 45 10
-3.338351 -3.7892828 0.62007111 36 11
-3.3586009 -3.8095844 0.8043862 52 12
-3.342546 -3.79004 0.98228496 41 13
-3.3694017 -3.8191476 -0.26691329 51 6
-3.3372009 -3.7813179 1.1643466 42 14
-3.3695526 -3.8166327 -0.088867374 37 7
-3.2788961 -3.7126415 1.3272243 40 15
-3.3834991 -3.8203166 0.089076966 45 8
-3.3634865 -3.7950506 0.26576209 46 9
-3.3704863 -3.8016117 0.44449404 47 10
-3.3647327 -3.7924545 0.62250841 37 11
-3.379746 -3.8067009 0.80626333 52 12
-3.368793 -3.7930286 0.98610061 38 13
-3.4012842 -3.8282657 -0.2683787 51 6
-3.3646193 -3.7856688 1.1692955 49 14
-3.3948131 -3.8182971 -0.08918152 40 7
-3.2931194 -3.7026165 1.3277419 36 15
-3.4154475 -3.829376 0.089565635 43 8
-3.3953326 -3.8041477 0.26722747 45 9
-3.3890426 -3.7957685 0.44519123 43 10
-3.3951447 -3.7999306 0.62567711 33 11
-3.4048643 -3.8081331 0.80907923 51 12
-3.4016447 -3.803196 0.99182487 37 13
-3.4292753 -3.8327434 -0.26953009 67 6
-3.3908105 -3.7884207 1.1737945 48 14
-3.420126 -3.8198318 -0.089495666 37 7
-3.2957118 -3.6795871 1.3236006 36 15
-3.4314663 -3.8204062 0.089635447 43 8
-3.4219413 -3.8071275 0.26827419 45 9
-3.4155934 -3.7987311 0.44693437 40 10
-3.4203379 -3.8013382 0.62787074 36 11
-3.4326766 -3.8123727 0.81252086 49 12
-3.4188406 -3.7956758 0.99296969 38 13
-3.4666991 -3.8474572 -0.27141419 90 6
-3.4196711 -3.7939317 1.1791934 48 14
-3.4562023 -3.8331182 -0.090089045 63 7
-3.3059492 -3.6651907 1.3225656 36 15
-3.4608781 -3.8262007 0.090054296 47 8
-3.4512939 -3.8129284 0.26953027 45 9
-3.4475558 -3.807461 0.44937474 40 10
-3.4455824 -3.8026147 0.63006443 33 11
-3.4579043 -3.8135378 0.81533664 48 12
-3.4452593 -3.7982602 0.99678653 37 13
-3.4653451 -3.8190625 -0.27026281 67 6
-3.4512291 -3.8021739 1.185492 46 14
-3.4883814 -3.8417561 -0.090577707 61 7
-3.318723 -3.6536283 1.3225656 36 15
-3.4849861 -3.8259234 0.090333536 73 8
-3.4726555 -3.8097143 0.27015832 49 9
-3.479619 -3.8160157 0.4518151 40 10
-3.4748917 -3.8081608 0.63298929 33 11
-3.4911752 -3.8233249 0.82002962 48 12
-3.4796829 -3.8094022 1.0028924 35 13
-3.4678762 -3.7951484 -0.26942542 65 6
-3.4710546 -3.7972958 1.1877415 43 14
-3.4855781 -3.8118463 -0.09015885 52 7
-3.3262398 -3.6363204 1.320495 37 15
-3.5050786 -3.8211031 0.090508059 61 8
-3.506192 -3.8196394 0.27172837 81 9
-3.5117838 -3.8243916 0.45425543 59 10
-3.5069675 -3.8164713 0.63640165 33 11
-3.5138593 -3.8212934 0.82221967 51 12
-3.5089078 -3.8145723 1.0074718 37 13
-3.4702833 -3.7712622 -0.26858804 63 6
-3.5001259 -3.8023612 1.1931403 42 14
-3.4853168 -3.7849457 -0.089809798 50 7
-3.3389127 -3.6246874 1.320495 37 15
-3.5143251 -3.8044381 0.090403341 54 8
-3.5161273 -3.8050587 0.27151904 56 9
-3.5237596 -3.810647 0.45408112 64 10
-3.5472331 -3.8333464 0.64127642 52 11
-3.5466409 -3.8313649 0.82691276 52 12
-3.5342097 -3.8152633 1.0109057 37 13
-3.4779963 -3.7532656 -0.26816937 63 6
-3.5345745 -3.8129869 1.2003387 43 14
-3.4869745 -3.7616355 -0.089530572 48 7
-3.3443465 -3.6065123 1.3179067 35 15
-3.506496 -3.7707977 0.089879781 50 8
-3.5239463 -3.786912 0.27110034 47 9
-3.5356815 -3.7968662 0.45390683 57 10
-3.5653379 -3.8273723 0.64225137 50 11
-3.5788496 -3.839191 0.83129293 81 12
-3.5575533 -3.8150089 1.0139593 37 13
-3.4795241 -3.7300277 -0.26733196 58 6
-3.5631549 -3.8183408 1.2057376 42 14
-3.5000827 -3.7494411 -0.089530565 48 7
-3.3529599 -3.5905805 1.3163538 36 15
-3.5032337 -3.7410195 0.089460917 50 8
-3.5193901 -3.7556424 0.2697396 50 9
-3.5428019 -3.7793055 0.45321012 50 10
-3.5637372 -3.7989781 0.63957024 42 11
-3.5922301 -3.8266742 0.83129293 82 12
-3.5963838 -3.8297594 1.0212101 61 13
-3.4815831 -3.7062144 -0.2664946 63 6
-3.5911403 -3.8215017 1.2106866 45 14
-3.5063007 -3.7299151 -0.089356028 47 7
-3.3615022 -3.5746338 1.314801 35 15
-3.5162709 -3.7287679 0.089460917 50 8
-3.5187695 -3.7288091 0.26869288 49 9
-3.5511596 -3.7605004 0.45251229 49 10
-3.5578911 -3.7663138 0.63615793 40 11
-3.6042089 -3.8126762 0.83098012 72 12
-3.6009524 -3.8065686 1.0185381 47 13
-3.4814155 -3.6789217 -0.26544788 63 6
-3.6198592 -3.8238807 1.2156354 86 14
-3.5000534 -3.6973226 -0.088867374 45 7
-3.3739603 -3.5628769 1.3148009 35 15
-3.5216506 -3.7071564 0.089251488 52 8
-3.5214047 -3.7043056 0.2678555 50 9
-3.5519071 -3.7350883 0.45094353 50 10
-3.5675669 -3.7489326 0.6354267 41 11
-3.599086 -3.7794135 0.82659984 61 12
-3.6074474 -3.7868683 1.0166301 40 13
-3.48597 -3.6580708 -0.26481986 65 6
-3.6251168 -3.8027599 1.212936 67 14
-3.5066812 -3.6772337 -0.088692859 43 7
-3.3843296 -3.5476913 1.3137658 35 15
-3.5248935 -3.6847262 0.089007162 54 8
-3.5287886 -3.6862214 0.26743683 50 9
-3.5456309 -3.7025211 0.44850314 49 10
-3.5765102 -3.7321577 0.63469547 40 11
-3.6054218 -3.7596984 0.82503551 60 12
-3.6206439 -3.7742529 1.0166301 42 13
-3.4959509 -3.6429985 -0.2646105 65 6
-3.6302722 -3.7816463 1.2102365 59 14
-3.5042596 -3.6491041 -0.088308893 45 7
-3.3873234 -3.5261047 1.3101423 34 15
-3.5266352 -3.6608779 0.088727921 56 8
-3.538862 -3.6710045 0.26722744 50 9
-3.5502353 -3.6815166 0.44745728 50 10
-3.5798671 -3.7096515 0.63298929 41 11
-3.6116626 -3.7399848 0.82347113 57 12
-3.6201553 -3.747472 1.0128138 40 13
-3.4975436 -3.6192825 -0.26377311 58 6
-3.6393874 -3.7647481 1.208887 56 14
-3.510025 -3.6296637 -0.088134378 48 7
-3.3982687 -3.5128696 1.3096246 35 15
-3.5310383 -3.6399348 0.0885185 52 8
-3.5419168 -3.6485982 0.26649478 52 9
-3.5602899 -3.6662421 0.44710869 49 10
-3.5761929 -3.6800492 0.63006443 41 11
-3.6123004 -3.7146103 0.82065529 51 12
-3.615418 -3.7165182 1.0078528 28 13
-3.4962273 -3.5927382 -0.26272643 60 6
-3.6443503 -3.7436442 1.2061876 54 14
-3.5087228 -3.6030629 -0.087785333 45 7
-3.406466 -3.4968343 1.3080716 33 15
-3.5381336 -3.6218641 0.088378869 54 8
-3.5400374 -3.6225476 0.26544803 52 9
-3.5619211 -3.6423972 0.44571421 50 10
-3.5751321 -3.6533568 0.62762702 41 11
-3.4919713 -3.563395 -0.26147035 60 6
-3.6382968 -3.7114172 1.1998889 54 14
-3.5220504 -3.5928364 -0.087820232 47 7
-3.4180436 -3.4855185 1.3080716 34 15
-3.5417123 -3.6015563 0.088169441 52 8
-3.5414531 -3.5987811 0.26461071 56 9
-3.5690215 -3.6242628 0.44501692 50 10
-3.5788689 -3.6329956 0.62616462 42 11
-1.4796853 -1.5010149 0.33383125 2 12
-1.4694865 -1.4901489 0.40680468 4 13
-3.4981585 -3.5461082 -0.26105165 63 6
-3.6396341 -3.688235 1.1962897 52 14
-3.5149035 -3.560596 -0.087331571 47 7
-3.4329038 -3.4763165 1.3091069 33 15
-3.5486341 -3.5834877 0.088029824 52 8
-3.5477452 -3.5813413 0.26419199 52 9
-3.5655911 -3.5968428 0.4430995 54 10
-3.5859373 -3.6148429 0.62518966 40 11
-3.5048852 -3.5282078 -0.26063299 60 6
-3.6497393 -3.6727438 1.19539 52 14
-3.5196438 -3.5418282 -0.087157041 48 7
-3.4362407 -3.4566925 1.3060009 33 15
-3.5336747 -3.5447922 0.087366641 52 8
-3.5531723 -3.5618658 0.26366866 50 9
-3.566864 -3.5730939 0.44170499 52 10
-3.5894883 -3.5945046 0.6237272 41 11
-3.5151536 -3.5151529 -0.2605283 51 6
-3.6591418 -3.6578646 1.1944901 12 14
-3.5291569 -3.5266938 -0.087087236 50 7
-3.4455528 -3.4419463 1.3049657 31 15
-3.5403597 -3.5267904 0.087227017 52 8
-3.557091 -3.5409865 0.26304057 50 9
-3.5702198 -3.5528135 0.44065973 52 10
-3.5893455 -3.5693538 0.62153351 38 11
-1.4684403 -1.4592431 0.32788673 55 12
-1.4736105 -1.4638691 0.40375173 57 13
-3.5344887 -3.5098982 -0.26105165 40 6
-3.5329299 -3.5059021 -0.086877815 37 7
-3.5483835 -3.5101926 0.087122299 47 8
-3.5523858 -3.5116978 0.26178449 48 9
-3.5775471 -3.5341043 0.43996188 52 10
-3.589072 -3.54425 0.61933994 40 11
-1.4805554 -1.461046 0.32945105 55 12
-1.4817613 -1.4612156 0.40451497 65 13
-3.5672419 -3.5165496 -0.26251706 42 6
-3.5693593 -3.5174091 -0.087471187 30 7
-1.5138624 -1.4913088 0.56940198 4 15
-3.5769205 -3.5125749 0.08750625 36 8
-3.5609558 -3.4944582 0.26147053 44 9
-3.5784843 -3.510432 0.4385674 52 10
-3.592114 -3.5213447 0.6176337 38 11
-1.4675559 -1.437639 0.32538375 49 12
-1.4798396 -1.4491663 0.40260687 56 13
-3.5966222 -3.5208421 -0.26377314 40 6
-1.4694014 -1.4379399 0.47464675 21 14
-3.5936623 -3.5154905 -0.08775042 29 7
-1.4999819 -1.4668404 0.56215507 20 15
-3.6077702 -3.5182178 0.087960012 35 8
-3.5874357 -3.4959455 0.26251721 39 9
-3.5864341 -3.4937496 0.43804452 42 10
-1.6473008 -1.6041692 -0.36417943 1 3
-3.5986953 -3.5032449 0.61665881 37 11
-1.4753972 -1.4352623 0.32600951 53 12
-1.4877045 -1.4467288 0.40337011 50 13
-3.626075 -3.5249732 -0.26502922 38 6
-1.4939774 -1.4518155 0.48094544 30 14
-3.6173873 -3.514071 -0.088029668 29 7
-1.5147941 -1.4710169 0.56577861 24 15
-3.6329582 -3.5181229 0.088274159 38 8
-3.6225815 -3.5056248 0.26419199 42 9
-3.6157918 -3.4978328 0.44013622 36 10
-1.6017699 -1.5489738 -0.35291612 1 3
-3.6180372 -3.497561 0.61787748 30 11
-1.4832397 -1.4328482 0.32663524 53 12
-1.4856838 -1.4347082 0.40146202 58 13
-3.6584747 -3.5317142 -0.2664946 38 6
-3.6697648 -3.5413744 1.1773939 21 14
-3.6540971 -3.5250256 -0.088623047 29 7
-1.5101855 -1.4563332 0.56215507 14 15
-3.6567478 -3.5165088 0.088553399 38 8
-3.6607184 -3.5178685 0.26607609 44 9
-3.6495321 -3.5058939 0.4427509 38 10
-1.6071674 -1.5433732 -0.35291615 1 3
-3.6388168 -3.4931588 0.61933994 28 11
-1.4853811 -1.4249271 0.32600951 51 12
-1.4935167 -1.4322311 0.40222546 42 13
-3.6851978 -3.5327432 -0.26754129 67 6
-3.6792889 -3.5258467 1.176494 39 14
-3.6938162 -3.5385318 -0.089286238 35 7
-3.5216532 -3.3724277 1.3065187 36 15
-3.6979237 -3.5313447 0.089251496 36 8
-3.6773105 -3.5092053 0.26639009 41 9
-3.6776052 -3.5082617 0.44466832 36 10
-1.5725173 -1.4995825 -0.34415582 1 3
-3.6667931 -3.4955022 0.62202102 27 11
-1.4989278 -1.4279085 0.32788673 53 12
-1.5084594 -1.4364865 0.40489662 60 13
-3.7047408 -3.5267439 -0.26806471 69 6
-3.6774571 -3.499548 1.1719949 41 14
-3.7322249 -3.5504253 -0.089914516 55 7
-3.5096061 -3.3374822 1.2977188 31 15
-3.7232876 -3.5307977 0.089565635 47 8
-3.7040341 -3.5100865 0.26743683 41 9
-3.7187581 -3.5228064 0.44815454 36 10
-3.706362 -3.5086112 0.62665212 28 11
-1.4981629 -1.4172374 0.32663524 48 12
-1.4991997 -1.4177233 0.40108043 39 13
-3.7315426 -3.5275106 -0.26911142 36 6
-3.7080636 -3.5040901 1.1778437 39 14
-3.7300582 -3.5236444 -0.089565471 47 7
-3.5212336 -3.3252113 1.2977186 33 15
-3.7501481 -3.5314891 0.089914687 56 8
-3.742445 -3.5217731 0.26932091 55 9
-3.7382884 -3.5166292 0.44902608 40 10
-3.747515 -3.5228443 0.63152689 28 11
-1.5002213 -1.4092948 0.32600954 39 12
-3.7438908 -3.5157471 0.99831235 23 13
-3.7598512 -3.5295002 -0.27026281 42 6
-3.7401662 -3.509795 1.1841422 40 14
-3.7496288 -3.5174427 -0.089740008 26 7
-3.5257738 -3.3062925 1.2951307 34 15
-3.7726755 -3.5279384 0.090159021 35 8
-3.7590942 -3.5127778 0.2696349 56 9
-3.7680113 -3.5198805 0.45111784 52 10
-3.7815554 -3.5300601 0.63518292 37 11
-3.7830508 -3.5289876 0.81940395 37 12
-3.7762423 -3.5214019 1.0036551 27 13
-3.7984447 -3.540869 -0.27214688 36 6
-3.7723551 -3.5153165 1.1904409 38 14
-3.7940741 -3.5343187 -0.090507895 34 7
-3.52881 -3.286067 1.2920249 35 15
-3.7937593 -3.522912 0.090368442 33 8
-3.7932928 -3.5200138 0.27120501 36 9
-3.7817359 -3.5080612 0.45129213 50 10
-3.7953093 -3.5181885 0.63542664 43 11
-3.8257794 -3.5439501 0.82597417 52 12
-3.7520282 -3.475632 -0.4474577 4 5
-3.800034 -3.5188711 1.0067079 31 13
-3.7829337 -3.5018096 -0.27015814 36 6
-3.8031969 -3.5193329 1.1962897 36 14
-3.8240037 -3.5373478 -0.090926751 27 7
-3.5459323 -3.278975 1.2940953 35 15
-3.8207345 -3.5232038 0.090717487 33 8
-3.8084948 -3.5094583 0.27141434 37 9
-3.8144741 -3.5137372 0.45373249 36 10
-3.8104885 -3.5076082 0.63591415 33 11
-3.8512104 -3.5426104 0.82878989 66 12
-3.7744021 -3.471957 -0.4486779 26 5
-3.8440874 -3.5348198 1.0151042 41 13
-3.780431 -3.4750659 -0.26911142 36 6
-3.8341129 -3.5231771 1.2021383 39 14
-3.8083465 -3.4982765 -0.090263568 27 7
-3.5545111 -3.263963 1.2930599 35 15
-3.8359592 -3.5125463 0.090787299 29 8
-3.851665 -3.5244567 0.27361247 36 9
-3.8517084 -3.5232618 0.45669582 42 10
-3.8417561 -3.5116961 0.63908267 22 11
-3.8475099 -3.5144908 0.82534838 30 12
-3.7835565 -3.456073 -0.44832927 35 5
-3.8578527 -3.5227039 1.0154858 41 13
-3.7836878 -3.4537697 -0.26848337 36 6
-3.8766167 -3.5373573 1.2115864 66 14
-3.8028064 -3.4687901 -0.089844719 27 7
-3.5630286 -3.2489328 1.2920249 35 15
-3.8378406 -3.4897175 0.090542972 28 8
-3.8432486 -3.492187 0.27214703 35 9
-3.8713577 -3.5164933 0.45756733 36 10
-3.8863297 -3.5276165 0.644445 31 11
-3.7675583 -3.4174118 -0.44501734 30 5
-3.8759444 -3.5144904 1.0170116 23 13
-3.7898006 -3.4351764 -0.26806471 36 6
-3.8773882 -3.5133359 1.2079872 49 14
-3.803035 -3.4447536 -0.089565471 27 7
-3.5600266 -3.2235096 1.2868483 35 15
-3.8277359 -3.4561977 0.09001939 26 8
-3.8405876 -3.4653697 0.27110034 31 9
-3.8614173 -3.4829416 0.45495275 29 10
-3.9030426 -3.5180173 0.64517623 25 11
-1.683521 -1.5163819 0.35886079 2 12
-3.7676206 -3.393573 -0.44362286 34 5
-3.9027774 -3.5140767 1.0208278 3 13
-3.7987993 -3.4192538 -0.26785535 33 6
-3.9128077 -3.5206339 1.2151855 37 14
-3.8105752 -3.4274464 -0.089460753 26 7
-3.5741298 -3.2136459 1.2878835 35 15
-3.8278656 -3.432137 0.089740165 26 8
-3.8526609 -3.4519422 0.27110034 31 9
-3.8690982 -3.4654541 0.45442975 28 10
-3.8931117 -3.4845126 0.64152014 22 11
-1.6843871 -1.5065447 0.35792214 8 12
-3.773504 -3.3750868 -0.44292563 30 5
-3.7928421 -3.3900011 -0.26659927 33 6
-3.9425108 -3.522536 1.2205844 38 14
-3.8180418 -3.4101279 -0.089356042 26 7
-3.583885 -3.1998637 1.2873659 33 15
-3.8413155 -3.4200835 0.089775063 28 8
-3.8467805 -3.4225428 0.26984429 31 9
-3.8707495 -3.4426582 0.45321012 28 10
-3.8918965 -3.4590342 0.63932645 20 11
-1.6822511 -1.4940972 0.35635781 11 12
-3.7807937 -3.3579254 -0.44240272 31 5
-1.6971443 -1.506795 0.44115028 13 13
-3.7941957 -3.36746 -0.26586655 36 6
-3.9679027 -3.5203924 1.2246336 11 14
-3.8224418 -3.3901448 -0.089181513 26 7
-3.5863602 -3.1796448 1.2842603 29 15
-3.8442428 -3.398706 0.089565635 28 8
-3.8467298 -3.398515 0.26900691 33 9
-3.8752778 -3.4225307 0.45233801 28 10
-3.9009707 -3.4428008 0.63883901 20 11
-1.6696777 -1.4725366 0.35260338 20 12
-3.7924912 -3.3447082 -0.44240272 31 5
-3.7984359 -3.3475928 -0.26534322 36 6
-3.9611578 -3.489773 1.2187848 3 14
-3.8192449 -3.3635659 -0.088832475 26 7
-3.8530769 -3.3826287 0.08949583 28 8
-3.851974 -3.3804703 0.26858822 33 9
-3.8722217 -3.3958461 0.45059493 24 10
-3.8980355 -3.4160779 0.63640159 20 11
-1.6775235 -1.469595 0.35322911 26 12
-3.7891543 -3.3183231 -0.44065958 33 5
-1.703191 -1.4910307 0.44000545 11 13
-3.8010798 -3.3264215 -0.26471516 36 6
-1.6940491 -1.481984 0.51963693 5 14
-3.8258629 -3.3469324 -0.088727757 24 7
-1.7116171 -1.496825 0.60926014 8 15
-3.8461881 -3.3540604 0.089076966 29 8
-3.8547161 -3.3591304 0.26796019 35 9
-3.8765378 -3.375767 0.44972333 26 10
-3.9063475 -3.4005275 0.63591415 20 11
-1.6841331 -1.4650272 0.353542 26 12
-3.7856805 -3.2920024 -0.4389165 33 5
-3.9555035 -3.4396794 1.0189197 15 13
-3.8090751 -3.3111775 -0.26450583 36 6
-3.9818773 -3.4601738 1.217885 10 14
-3.8284657 -3.3256884 -0.088518336 27 7
-1.7212077 -1.4946412 0.61081302 11 15
-3.8503134 -3.3340697 0.088902444 31 8
-3.8664172 -3.3456554 0.26796019 34 9
-3.8816838 -3.3576794 0.44902608 26 10
-3.9046781 -3.375186 0.6337204 21 11
-1.7056806 -1.4733435 0.35698351 26 12
-3.795068 -3.2781274 -0.43874213 35 5
-3.960057 -3.4194348 1.0170116 18 13
-3.8100257 -3.2887261 -0.26377311 38 6
-3.988029 -3.4411621 1.2160853 23 14
-3.8324802 -3.3057733 -0.088343807 26 7
-3.6269329 -3.1273725 1.2832251 20 15
-3.8528304 -3.3127871 0.088693015 31 8
-3.859895 -3.3165185 0.26670414 35 9
-3.8873353 -3.3389168 0.44832885 28 10
-3.9073977 -3.3537796 0.63225806 21 11
-1.709314 -1.4660946 0.35667068 25 12
-3.8034635 -3.2622662 -0.43839353 35 5
-3.9660065 -3.4004796 1.0154858 18 13
-3.8108673 -3.2663085 -0.26304042 36 6
-3.9807806 -3.4107354 1.2102367 23 14
-3.8364019 -3.285872 -0.088169284 27 7
-3.6378274 -3.1146929 1.2832251 30 15
-3.8598075 -3.295423 0.08858829 29 8
-3.8653703 -3.2978392 0.26628542 35 9
-3.8944185 -3.3214478 0.44780591 28 10
-3.9085054 -3.3311064 0.63055193 20 11
-3.9491837 -3.3633966 0.82159394 16 12
-3.8087604 -3.2438023 -0.43769628 35 5
-3.962904 -3.3738883 1.011669 17 13
-3.8115993 -3.2439253 -0.26230773 36 6
-3.9807866 -3.3867173 1.2066373 23 14
-3.8326151 -3.259505 -0.087820232 27 7
-3.6545649 -3.1069808 1.2852955 37 15
-3.8667116 -3.2780507 0.088483587 31 8
-3.8677158 -3.2765808 0.26565742 35 9
-3.8907843 -3.2949588 0.44606283 29 10
-3.9201093 -3.3174429 0.63055193 15 11
-3.945817 -3.3368351 0.81846523 28 12
-3.8048465 -3.2176216 -0.43595308 35 5
-3.9716582 -3.3574996 1.0109057 17 13
-3.8259499 -3.2331784 -0.26251706 38 6
-3.9896078 -3.3702862 1.2057376 23 14
-3.8378582 -3.2409461 -0.087680615 27 7
-3.6447215 -3.0767586 1.2780486 33 15
-3.862833 -3.2516541 0.088134542 29 8
-3.8791289 -3.263061 0.26565742 35 9
-3.8961635 -3.2762275 0.44536561 29 10
-3.9513903 -3.3179605 0.81721383 27 12
-3.7992713 -3.1902273 -0.43403572 37 5
-3.9668121 -3.3297317 1.0067079 16 13
-3.8310928 -3.2146683 -0.26209837 38 6
-3.9953761 -3.35133 1.203938 23 14
-3.8445511 -3.223675 -0.087575905 27 7
-3.6376727 -3.0491252 1.2718369 30 15
-3.8618853 -3.2278912 0.087855302 31 8
-3.8843637 -3.2443781 0.2652387 35 9
-3.8953404 -3.2523913 0.44397104 29 10
-1.8321201 -1.5286328 0.29297388 4 11
-3.8964899 -3.2498903 -0.62299639 2 4
-3.9568782 -3.2990882 0.81596237 25 12
-3.8134441 -3.1794984 -0.43438435 37 5
-3.9678552 -3.307065 1.0040367 15 13
-3.8208086 -3.1833773 -0.26063299 38 6
-3.9980648 -3.329881 1.2012386 23 14
-3.8450234 -3.2012792 -0.087331571 27 7
-3.6898696 -3.0710118 1.2863307 57 15
-3.8700511 -3.2118378 0.08778549 33 8
-3.8741426 -3.2129488 0.26377329 33 9
-3.9097369 -3.2413182 0.4443197 29 10
-1.8252159 -1.5120969 0.29102397 12 11
-3.8833473 -3.216011 -0.61909652 2 4
-3.9653263 -3.2827361 0.81533653 21 12
-3.8137763 -3.1572738 -0.43316415 35 5
-3.9793746 -3.2931941 1.0040365 17 13
-3.8257413 -3.1649294 -0.2602143 36 6
-3.994647 -3.3034847 1.1967396 23 14
-3.8561745 -3.1878378 -0.087331571 27 7
-3.6975884 -3.0556526 1.2852955 78 15
-3.8719795 -3.1906786 0.087576061 31 8
-3.8791661 -3.1943281 0.2633546 35 9
-3.9087212 -3.217521 0.44292521 29 10
-1.8350818 -1.5095001 0.29175517 20 11
-3.9037497 -3.210001 -0.62055844 2 4
-3.8186185 -3.1388805 -0.43246689 35 5
-3.9802272 -3.2705598 1.0013653 13 13
-3.8305924 -3.1464846 -0.25979561 34 6
-3.9880812 -3.2746804 1.1913407 23 14
-3.8564582 -3.1654773 -0.087087236 29 7
-3.7097256 -3.0439522 1.2858131 72 15
-3.8769026 -3.1720779 0.087436438 31 8
-3.8835537 -3.1763887 0.26293591 35 9
-3.8983314 -3.1862051 0.44048482 29 10
-1.8664767 -1.5244324 0.29589874 41 11
-3.8436501 -3.1392758 -0.60934645 2 4
-1.8774985 -1.5328876 0.38389027 3 12
-3.817203 -3.1154547 -0.43107244 35 5
-3.8415532 -3.1330934 -0.25979561 34 6
-4.0140204 -3.2737541 1.1958398 7 14
-3.8467863 -3.136245 -0.086633481 29 7
-3.6793671 -2.9986808 1.2718369 35 15
-3.8718822 -3.1465926 0.0870874 29 8
-3.8847654 -3.1559372 0.26230794 34 9
-3.9073291 -3.1720045 0.44031054 31 10
-1.8468558 -1.4982246 0.29199892 28 11
-3.8602059 -3.1315145 -0.6103214 2 4
-1.8963799 -1.5378516 0.38670611 21 12
-3.8120358 -3.0902324 -0.42932931 35 5
-3.999346 -3.2409189 1.0006026 5 13
-3.8364015 -3.1077657 -0.25874889 36 6
-3.8633807 -3.1285045 -0.08677309 27 7
-3.8729591 -3.1261997 0.086877964 31 8
-3.8895397 -3.1373417 0.26188922 33 9
-3.9147243 -3.1565285 0.43996188 28 10
-1.8533598 -1.4933375 0.29224268 20 11
-3.9174926 -3.1553771 -0.61763412 2 4
-1.9032753 -1.5324615 0.38701901 18 12
-3.8165917 -3.0719101 -0.42863211 34 5
-1.9025667 -1.5313437 0.47473267 5 13
-3.8373501 -3.0875149 -0.25812089 36 6
-1.9026983 -1.5303556 0.56372738 5 14
-3.8696029 -3.1112409 -0.08666838 29 7
-1.9153477 -1.5394289 0.6584357 3 15
-3.8776057 -3.1076601 0.086738341 31 8
-3.8848777 -3.1112602 0.2608425 31 9
-3.9231565 -3.1396694 0.43961328 29 10
-1.8663117 -1.4930594 0.29346135 14 11
-3.8416643 -3.0722542 -0.60398471 2 4
-3.9792337 -3.1811311 0.80688912 12 12
-3.8210657 -3.0535934 -0.42793486 34 5
-4.0019331 -3.1969905 0.99564153 20 13
-3.8345942 -3.0622122 -0.25717881 34 6
-4.0069618 -3.1987154 1.1836926 14 14
-3.871063 -3.090229 -0.086458951 29 7
-1.9312801 -1.5411681 0.66205919 5 15
-3.8795812 -3.0859573 0.08652892 29 8
-3.8915648 -3.0932724 0.26052848 31 9
-3.9216127 -3.11604 0.4382188 29 10
-1.8873178 -1.4985528 0.29589874 9 11
-3.865339 -3.0680256 -0.60593414 2 4
-3.9893184 -3.1652985 0.80657631 27 12
-3.827018 -3.0365224 -0.42741185 33 5
-3.99615 -3.1695809 0.99144328 13 13
-3.840565 -3.0450854 -0.25686479 34 6
-4.0058842 -3.1750259 1.1800933 20 14
-3.8635542 -3.0611176 -0.086040094 27 7
-3.8887589 -3.0711575 0.086494006 29 8
-3.8976352 -3.0759573 0.26021448 31 9
-3.9121301 -3.0862904 0.43595272 29 10
-3.9549971 -3.1178675 0.61836493 21 11
-3.8604329 -3.0422285 -0.60349673 2 4
-3.9786201 -3.1342392 0.8021962 27 12
-3.820379 -3.0095816 -0.42549446 27 5
-4.0056472 -3.1543977 0.99106169 17 13
-3.8433232 -3.0254846 -0.25634143 34 6
-4.0184751 -3.1622274 1.1805431 22 14
-3.8742163 -3.0476124 -0.086040094 27 7
-3.7448082 -2.9447572 1.2764957 41 15
-3.8868666 -3.0476944 0.086214781 29 8
-3.9004869 -3.056175 0.25969109 28 9
-3.9103312 -3.0627871 0.43455824 29 10
-3.9517868 -3.0930321 0.6161713 21 11
-3.8616483 -3.021395 -0.60203487 2 4
-3.9817564 -3.1142471 0.80063182 28 12
-3.824584 -2.991318 -0.42479721 30 5
-4.0073528 -3.133141 0.98877245 20 13
-3.8585813 -3.0157397 -0.25665542 36 6
-4.0141325 -3.136183 1.176044 24 14
-3.8706477 -3.0229931 -0.085725963 29 7
-3.7337461 -2.9150233 1.2692487 30 15
-3.886436 -3.0255082 0.085970432 29 8
-3.9048257 -3.0376356 0.25927243 30 9
-3.9178529 -3.0466723 0.43420961 29 10
-3.9453168 -3.0658202 0.6134901 20 11
-3.8815784 -3.0152023 -0.60349673 2 4
-3.9832397 -3.0930612 0.79875451 28 12
-3.8334286 -2.9767287 -0.42462295 31 5
-4.0043077 -3.1082995 0.98533738 19 13
-3.8485732 -2.9863346 -0.25529474 34 6
-4.0281353 -3.1245408 1.1769438 24 14
-3.878015 -3.0070138 -0.085656151 27 7
-3.7469521 -2.9043391 1.2702839 35 15
-3.8938091 -3.0094776 0.085900627 31 8
-3.9011788 -3.0129988 0.25833035 31 9
-3.9253101 -3.0305431 0.43386102 28 10
-3.949708 -3.0471795 0.61251515 20 11
-3.8606415 -2.9773889 -0.59862196 2 4
-4.0002708 -3.0839617 0.80000597 27 12
-3.846951 -2.9657614 -0.42497152 28 5
-4.0089135 -3.089509 0.9838109 19 13
-3.8542273 -2.9692254 -0.25498071 34 6
-4.0204892 -3.0961938 1.171545 23 14
-3.8837345 -2.9897976 -0.085551426 27 7
-3.743289 -2.8806388 1.2656252 31 15
-3.8979449 -2.990998 0.085761011 31 8
-3.8989928 -2.9896405 0.25749299 34 9
-3.9327021 -3.0143981 0.43351236 28 10
-3.9429865 -3.0200953 0.60983413 21 11
-3.8615534 -2.9566545 -0.5971601 2 4
-3.9874818 -3.0519712 0.79531306 25 12
-3.8525336 -2.9486821 -0.42444858 31 5
-4.0134368 -3.0707233 0.98228496 19 13
-3.8582215 -2.9509006 -0.25456202 34 6
-4.0219831 -3.0750387 1.1688455 22 14
-3.8703158 -2.9580085 -0.085027859 27 7
-3.756391 -2.8699014 1.2666606 32 15
-3.90518 -2.9749496 0.085691199 31 8
-3.909405 -2.976012 0.25749299 31 9
-3.9273453 -2.9885869 0.43176925 26 10
-3.9582446 -3.0099189 0.61056536 20 11
-3.8813326 -2.9503648 -0.59862196 2 4
-3.9902475 -3.0320559 0.79374862 25 12
-3.8453536 -2.9219558 -0.42253113 34 5
-4.0241303 -3.0566959 0.98228496 19 13
-3.868499 -2.9374149 -0.25456202 36 6
-4.0295892 -3.0586233 1.1679457 23 14
-3.8694651 -2.9360199 -0.084783524 26 7
-3.7571509 -2.8497665 1.2635547 31 15
-3.9027808 -2.9516511 0.085411966 33 8
-3.9213624 -2.9635515 0.25759763 31 9
-3.9250355 -2.9652526 0.4303748 26 10
-3.963974 -2.9924955 0.60983413 21 11
-3.8852684 -2.9320159 -0.59764695 2 4
-3.9960754 -3.0145407 0.79280996 27 12
-3.8491673 -2.9037168 -0.42183393 34 5
-4.0128307 -3.0260816 0.97694176 19 13
-3.8691602 -2.9166801 -0.253934 36 6
-4.0355711 -3.0410213 1.1665961 22 14
-3.8876765 -2.9285109 -0.084958047 27 7
-3.765533 -2.8354712 1.2630371 30 15
-3.9050646 -2.9320059 0.085237436 33 8
-3.915195 -2.9385424 0.25655094 28 9
-3.9353621 -2.9515333 0.4303748 26 10
-3.9553335 -2.9643538 0.60690922 22 11
-3.8891256 -2.9136741 -0.59667259 2 4
-3.9997268 -2.9965351 0.7915585 25 12
-3.8592801 -2.8902626 -0.42183393 35 5
-4.015512 -3.0061729 0.9750337 17 13
-3.8697231 -2.8959761 -0.25330597 38 6
-4.0352392 -3.0187447 1.1634468 22 14
-3.8877597 -2.9084158 -0.084748626 27 7
-3.7733672 -2.8218122 1.2625194 31 15
-3.9131632 -2.917845 0.085202537 33 8
-3.9190218 -2.9200857 0.25613225 31 9
-3.936053 -2.9306381 0.42932892 27 10
-3.961957 -2.9488504 0.60642171 22 11
-3.8860242 -2.8912821 -0.59472269 2 4
-4.0038223 -2.9778395 0.79030704 25 12
-3.8629496 -2.8720183 -0.42113668 34 5
-4.017581 -2.9869833 0.97312558 19 13
-3.8664804 -2.8735974 -0.25246856 38 6
-4.0374064 -2.9995356 1.1611973 21 14
-3.8914669 -2.890058 -0.084609002 27 7
-3.7831945 -2.8086238 1.2625195 31 15
-3.9217174 -2.9029779 0.085167632 33 8
-3.9179509 -2.8980734 0.25539955 33 9
-3.9489534 -2.9199383 0.42967752 26 10
-3.969033 -2.9326446 0.60593432 22 11
-3.880127 -2.8659055 -0.59228474 2 4
-3.9919446 -2.9474187 0.785927 24 12
-3.8692465 -2.8568256 -0.42078805 35 5
-4.0200834 -2.9671135 0.97121805 20 13
-3.8732741 -2.8577108 -0.25225922 36 6
-4.0353055 -2.9761703 1.157598 21 14
-3.8902636 -2.8681507 -0.084364668 29 7
-3.7976406 -2.7988389 1.2640723 32 15
-3.9253819 -2.8845334 0.085028015 33 8
-3.9232137 -2.8808329 0.25508553 31 9
-3.9430614 -2.8943467 0.42793444 27 10
-3.9680407 -2.9105535 0.60422808 22 11
-3.9189222 -2.8734717 -0.59667253 2 4
-3.9974282 -2.9299634 0.78498828 25 12
-3.8631256 -2.8315246 -0.41904497 34 5
-4.0335851 -2.9553814 0.97198069 20 13
-3.8800027 -2.8418124 -0.25204986 36 6
-4.0456691 -2.9620674 1.157598 21 14
-3.9002526 -2.8545525 -0.084364668 29 7
-3.7964737 -2.7775807 1.2604488 31 15
-3.919271 -2.8590293 0.08467897 35 8
-3.9300187 -2.8647668 0.2548762 30 9
-3.9466987 -2.8758726 0.42723715 26 10
-3.9797823 -2.8978524 0.60447186 23 11
-3.9096694 -2.8457577 -0.5937472 2 4
-4.0076318 -2.915992 0.78498834 25 12
-3.8633192 -2.8109889 -0.41799906 35 5
-4.020061 -2.9239616 0.9662565 16 13
-3.8898983 -2.8282523 -0.25204986 36 6
-4.0496788 -2.9433444 1.1557984 22 14
-3.9004858 -2.833868 -0.084155232 29 7
-3.8030198 -2.7620423 1.2594136 31 15
-3.9162703 -2.8359485 0.084399723 35 8
-3.9367583 -2.8486905 0.25466686 30 9
-3.953485 -2.8597431 0.42688856 27 10
-3.9753931 -2.8734775 0.60227817 22 11
-3.9002707 -2.8181417 -0.59082234 2 4
-4.017787 -2.9019842 0.78498834 25 12
-3.8682637 -2.7939858 -0.41747615 37 5
-4.0254669 -2.9064639 0.96511215 17 13
-3.8867919 -2.805306 -0.25121254 36 6
-4.0536079 -2.9246287 1.1539989 22 14
-3.9071102 -2.8178973 -0.084085435 27 7
-3.8157718 -2.7510095 1.2604488 31 15
-3.9261451 -2.8222616 0.084399723 33 8
-3.9337001 -2.825609 0.25382945 28 9
-3.9602065 -2.8436012 0.42653993 27 10
-3.9773347 -2.8537979 0.60105956 23 11
-3.8681448 -2.7744288 -0.58448517 2 4
-4.0230751 -2.8844895 0.78404975 25 12
-3.8844686 -2.7851102 -0.41817334 37 5
-4.0323968 -2.8901074 0.96434838 17 13
-3.8868189 -2.7847416 -0.25058445 36 6
-4.0463634 -2.8979802 1.1490499 23 14
-3.9185491 -2.8054056 -0.084120341 29 7
-3.8222103 -2.7354238 1.2594136 31 15
-3.9359727 -2.8085396 0.084399723 33 8
-3.9337826 -2.8049037 0.25320143 31 9
-3.9603736 -2.8228216 0.4254941 27 10
-3.9743376 -2.8306828 0.59910959 22 11
-3.8972101 -2.7747245 -0.58741051 2 4
-4.012197 -2.8555379 0.77998233 27 12
-3.8828039 -2.7634468 -0.41695318 35 5
-4.0296636 -2.8669093 0.96129543 17 13
-3.8900056 -2.7665269 -0.25016579 36 6
-4.0469251 -2.877063 1.1463505 23 14
-3.9087579 -2.7778099 -0.083701484 29 7
-3.8317349 -2.7220662 1.2594136 31 15
-3.9375942 -2.7890031 0.084225208 33 8
-3.9402885 -2.7888482 0.25299209 30 9
-3.9555652 -2.7986233 0.42392528 29 10
-3.9922981 -2.8225234 0.60032833 22 11
-3.8971457 -2.7542303 -0.58594811 2 4
-4.0173006 -2.8380959 0.77904379 25 12
-3.8696456 -2.7337821 -0.41451287 34 5
-4.0396466 -2.8528259 0.96129555 17 13
-3.8963752 -2.7506275 -0.24995643 34 6
-4.0473905 -2.8561778 1.1436511 23 14
-3.9118943 -2.7595377 -0.08356186 29 7
-3.8317394 -2.7019947 1.2563077 32 15
-3.9309468 -2.7637413 0.08387617 31 8
-3.9434631 -2.7704837 0.25257343 28 9
-3.9620492 -2.7825086 0.42357668 27 10
-4.0005026 -2.8074293 0.6000846 23 11
-3.9132366 -2.7451696 -0.58692306 2 4
-4.0271826 -2.8240566 0.77904379 27 12
-3.875901 -2.7179706 -0.41416419 35 5
-4.035111 -2.8285642 0.95786136 16 13
-3.8994107 -2.7324257 -0.24953777 36 6
-4.0637193 -2.8465054 1.1454507 23 14
-3.918227 -2.7435718 -0.083492056 30 7
-3.8348184 -2.6841714 1.2542373 32 15
-3.9290905 -2.7419915 0.083631821 33 8
-3.9428 -2.750536 0.25194538 31 9
-3.9717374 -2.7686622 0.42357668 27 10
-3.990731 -2.7798321 0.59715968 23 11
-3.8967292 -2.7133443 -0.58302265 2 4
-4.0267982 -2.8039131 0.77716655 27 12
-3.8820953 -2.7021472 -0.41381559 34 5
-4.0352917 -2.8077347 0.95557123 16 13
-3.895807 -2.7096746 -0.24870038 34 6
-4.0608315 -2.8234024 1.1418515 24 14
-3.9240201 -2.7282803 -0.083422251 29 7
-3.8452845 -2.6725421 1.2547549 32 15
-3.9332314 -2.7255304 0.083527118 33 8
-3.9392414 -2.727659 0.25110799 28 9
-3.9715469 -2.7479792 0.42253077 27 10
-3.986867 -2.7575493 0.59520984 23 11
-3.941628 -2.725244 -0.58838493 2 4
-4.0398121 -2.7920861 0.77779233 25 12
-3.8833079 -2.6829169 -0.41294402 33 5
-4.0429649 -2.7932215 0.95518953 17 13
-3.8916235 -2.6876605 -0.24786299 36 6
-4.0589457 -2.8021715 1.1387023 24 14
-3.9269359 -2.7100227 -0.08328262 30 7
-3.8561795 -2.6602008 1.2552725 32 15
-3.9427209 -2.7117836 0.083527111 33 8
-3.9454458 -2.7116299 0.25089863 28 9
-3.9773536 -2.7325377 0.42218217 27 10
-3.9931939 -2.7413692 0.59472233 23 11
-3.9052877 -2.6800182 -0.58156079 2 4
-4.0267291 -2.7623227 0.77341217 25 12
-3.8926487 -2.6693463 -0.41294402 33 5
-4.0478315 -2.7757616 0.95404518 19 13
-3.9075713 -2.6785767 -0.24828167 36 6
-4.0590577 -2.7813756 1.1360028 24 14
-3.9231727 -2.6872587 -0.083003379 30 7
-3.863848 -2.6456327 1.2547549 32 15
-3.9455566 -2.6934946 0.083387487 31 8
-3.9515879 -2.6955903 0.2506893 30 9
-3.964294 -2.7022309 0.41974181 29 10
-4.0060201 -2.7296491 0.59520978 21 11
-3.901494 -2.6574295 -0.57961035 2 4
-4.028182 -2.7426918 0.77184784 25 12
-3.8838248 -2.6434104 -0.4110266 34 5
-4.0514865 -2.7564886 0.95251822 19 13
-3.9173627 -2.6642368 -0.2482817 36 6
-4.0611663 -2.7610023 1.1337533 24 14
-3.925915 -2.6690512 -0.08286377 30 7
-3.8602779 -2.6234412 1.2506138 33 15
-3.942157 -2.6700442 0.083108254 29 8
-3.9609725 -2.6817811 0.2506893 26 9
-3.975352 -2.6894922 0.41991606 30 10
-4.009419 -2.7105005 0.59423476 22 11
-3.8914707 -2.6297743 -0.57668543 2 4
-4.0426412 -2.7319322 0.77278638 27 12
-3.8814716 -2.6220303 -0.40980643 33 5
-4.0529475 -2.7368367 0.9506101 17 13
-3.915051 -2.6427243 -0.247549 34 6
-4.0691638 -2.7457192 1.1333034 25 14
-3.9401805 -2.6586862 -0.082968481 32 7
-3.8678098 -2.6088698 1.250096 34 15
-3.9426925 -2.651377 0.082933724 33 8
-3.9587049 -2.6601405 0.24995659 26 9
-3.9863706 -2.6767104 0.42009047 29 10
-4.0019031 -2.6861279 0.59179741 21 11
-3.9133577 -2.6257033 -0.57863539 2 4
-4.0390286 -2.7090013 0.77028346 27 12
-3.8906014 -2.6084645 -0.40980643 33 5
-4.0538487 -2.7179143 0.94870204 19 13
-3.9038837 -2.6163836 -0.24629293 34 6
-4.0814838 -2.7343802 1.1342031 25 14
-3.9328225 -2.6337881 -0.082619436 27 7
-3.8752875 -2.5942791 1.2495785 33 15
-3.9502606 -2.6364884 0.082898818 31 8
-3.9663062 -2.6451967 0.24985194 27 9
-3.9902515 -2.6601603 0.41956747 30 10
-4.0013428 -2.6655374 0.59033495 23 11
-3.9026716 -2.5988233 -0.57571101 2 4
-4.0533929 -2.6981704 0.77122211 27 12
-3.8975699 -2.5944457 -0.40963209 34 5
-4.0682144 -2.707011 0.94984692 20 13
-3.912993 -2.6027405 -0.24629293 34 6
-4.0699077 -2.7060897 1.1283544 24 14
-3.9453218 -2.6222582 -0.082689233 34 7
-3.8875377 -2.5828743 1.2506138 33 15
-3.9527709 -2.6182671 0.082759202 29 8
-3.9588606 -2.6203117 0.24880522 33 9
-3.9878812 -2.638521 0.4183473 29 10
-4.0056553 -2.6482699 0.58960378 22 11
-3.9084067 -2.5829968 -0.57522303 2 4
-4.0479541 -2.6742048 0.76840633 27 12
-3.9066033 -2.5808241 -0.40963209 34 5
-4.0645323 -2.6841381 0.94679391 20 13
-3.9153862 -2.5846648 -0.24587423 34 6
-4.0711975 -2.6864994 1.1261051 25 14
-3.93609 -2.5963588 -0.08230529 29 7
-3.899756 -2.5714152 1.2516491 33 15
-3.9618862 -2.6044533 0.082759202 31 8
-3.9713211 -2.6086709 0.24901456 30 9
-3.9804127 -2.6136487 0.41660422 29 10
-4.0015974 -2.6255605 0.58765388 22 11
-3.9074402 -2.5628059 -0.57376063 2 4
-4.0457001 -2.6524768 0.76621616 25 12
-3.9010379 -2.5566599 -0.40806332 31 5
-4.064024 -2.6634777 0.9445042 20 13
-3.9210446 -2.5687926 -0.24566491 34 6
-4.0772891 -2.6701357 1.125205 25 14
-3.9384372 -2.5782225 -0.082165681 29 7
-3.8909266 -2.5461509 1.2459551 33 15
-3.9575546 -2.5818665 0.082479961 33 8
-3.9737103 -2.5904295 0.24859588 31 9
-3.9832871 -2.5946918 0.41590691 27 10
-4.015728 -2.6148257 0.58838511 22 11
-3.9263451 -2.5556471 -0.57522303 4 4
-4.0532784 -2.6372607 0.76590335 25 12
-3.8999181 -2.5365095 -0.40701747 33 5
-4.0605922 -2.6400027 0.94145131 20 13
-3.9220603 -2.5489619 -0.24514155 36 6
-4.0837798 -2.6530521 1.1243054 25 14
-3.9373505 -2.5579233 -0.081956245 30 7
-3.8997912 -2.5325537 1.2459552 33 15
-3.9552398 -2.5597389 0.082235634 33 8
-3.9793744 -2.5743728 0.24838652 31 9
-3.9923203 -2.5807717 0.41590691 27 10
-4.0152807 -2.5936258 0.58692259 23 11
-3.9223437 -2.5326259 -0.57327312 4 4
-4.0591402 -2.620954 0.76527756 25 12
-3.9087489 -2.5228801 -0.40701747 33 5
-4.0582352 -2.6183615 0.93878001 19 13
-3.9242191 -2.5309262 -0.24472284 36 6
-4.0897408 -2.6366677 1.1234055 27 14
-3.9479368 -2.5452464 -0.081991151 27 7
-3.9102309 -2.5199714 1.2464726 35 15
-3.9653888 -2.5476894 0.08227054 33 8
-3.9715295 -2.5496767 0.2473398 33 9
-3.9929199 -2.5614412 0.41503537 27 10
-4.0121627 -2.5727959 0.58521652 22 11
-3.9206929 -2.5131769 -0.5718112 4 4
-4.0666008 -2.6057031 0.7649647 25 12
-3.9158535 -2.5081458 -0.40684313 34 5
-4.0751615 -2.6101842 0.94068801 23 13
-3.9258623 -2.5135913 -0.24430415 36 6
-4.0820475 -2.612587 1.1189065 25 14
-3.9466901 -2.5249836 -0.081781715 29 7
-3.92063 -2.5073481 1.2469901 34 15
-3.9725716 -2.532757 0.082235634 33 8
-3.9736676 -2.5315051 0.24692112 33 9
-3.9980314 -2.546046 0.41468677 27 10
-4.024467 -2.5609083 0.58570403 22 11
-3.9193923 -2.4930832 -0.57034826 4 4
-4.0573363 -2.5798321 0.76152319 24 12
-3.9258313 -2.4962153 -0.40701747 33 5
-4.0709925 -2.5875194 0.93763512 20 13
-3.9346128 -2.4998722 -0.24430415 36 6
-4.0812736 -2.5920525 1.1162071 25 14
-3.9537914 -2.5101209 -0.081746817 29 7
-3.9277279 -2.4926124 1.2464726 35 15
-3.9712484 -2.5124607 0.082026199 35 8
-3.9791038 -2.5154846 0.24671179 33 9
-3.9934189 -2.5235603 0.4132928 27 10
-4.0199542 -2.5383644 0.583754 22 11
-3.9347861 -2.4836252 -0.57132381 4 4
-4.0546217 -2.5582757 0.75933301 25 12
-3.9193544 -2.4729285 -0.40544862 35 5
-4.0783396 -2.5722458 0.93725353 19 13
-3.9433155 -2.4861214 -0.24430415 36 6
-4.0902958 -2.5777915 1.1162071 27 14
-3.9489946 -2.4877775 -0.081467591 29 7
-3.9216928 -2.4696207 1.2418139 36 15
-3.9681392 -2.4911404 0.081781872 38 8
-3.9878595 -2.5015805 0.24671179 33 9
-3.9937642 -2.5043118 0.41242069 29 10
-4.0372014 -2.5295866 0.58497274 23 11
-3.9198785 -2.4551232 -0.56791091 4 4
-4.0618525 -2.5430584 0.75902021 24 12
-3.9279628 -2.4592323 -0.40544862 35 5
-4.0756435 -2.5507026 0.93458271 20 13
-3.9418099 -2.465987 -0.24367614 36 6
-4.0959644 -2.5614312 1.1153073 25 14
-3.9508712 -2.4697373 -0.08132796 30 7
-3.9286504 -2.4548934 1.2412962 35 15
-3.980206 -2.4793875 0.081851676 40 8
-3.9863939 -2.4813125 0.24608375 34 9
-4.0024819 -2.4903562 0.41242072 27 10
-4.0257764 -2.5029023 0.58204788 26 11
-3.9351683 -2.445616 -0.56888634 4 4
-4.0606375 -2.5226102 0.75714302 24 12
-3.926369 -2.4391978 -0.40440273 34 5
-4.0695124 -2.5271394 0.93114763 19 13
-3.9436066 -2.4479988 -0.24325746 40 6
-4.096601 -2.5419803 1.1130576 24 14
-3.9645662 -2.4590931 -0.08143267 27 7
-3.9421215 -2.4442189 1.2428492 36 15
-3.9820328 -2.4612732 0.08171206 38 8
-3.9831362 -2.4600341 0.24535103 34 9
-4.0111504 -2.4763694 0.41242072 29 10
-4.0294204 -2.4857066 0.58131665 25 11
-3.9234059 -2.4193621 -0.56596154 4 4
-4.0727811 -2.5104945 0.75776875 24 12
-3.9348588 -2.4254782 -0.40440273 35 5
-4.0816517 -2.5149782 0.93191081 23 13
-3.9419239 -2.4279337 -0.24262941 40 6
-4.0905142 -2.518471 1.1090087 25 14
-3.9680171 -2.4420948 -0.08132796 29 7
-3.9407573 -2.4243698 1.2397434 36 15
-3.9837806 -2.4431775 0.081572443 42 8
-3.9814818 -2.4398541 0.24472299 36 9
-4.0129738 -2.4581907 0.41172346 29 10
-4.0363798 -2.4705899 0.58107299 26 11
-3.9318271 -2.4056532 -0.56596106 4 4
-4.0714097 -2.4900777 0.75589156 24 12
-3.9433022 -2.4117272 -0.40440273 34 5
-4.0786805 -2.493547 0.92923951 17 13
-3.9503744 -2.4141595 -0.24262941 38 6
-4.0942922 -2.5011282 1.107659 23 14
-3.9645708 -2.4209337 -0.081083626 32 7
-3.9524934 -2.4126134 1.2407787 36 15
-3.9957013 -2.4313352 0.081642248 40 8
-3.9933867 -2.4280174 0.24493235 36 9
-4.0164218 -2.4410641 0.41120052 35 10
-4.0364952 -2.451334 0.57985425 27 11
-3.9368057 -2.389853 -0.56547403 4 4
-4.0699434 -2.4697015 0.75401425 27 12
-3.9397731 -2.3907123 -0.40318257 38 5
-4.0957522 -2.4843862 0.93114811 22 13
-3.9519465 -2.3962123 -0.24221072 36 6
-4.0963316 -2.4827807 1.1058593 24 14
-3.9695764 -2.4050088 -0.081013821 32 7
-3.9575868 -2.3967993 1.2397434 36 15
-3.9870443 -2.4070389 0.08129321 40 8
-3.9949973 -2.4099362 0.24451366 36 9
-4.0146828 -2.4208548 0.41015467 32 10
-4.0433273 -2.4362047 0.57961053 23 11
-3.9417241 -2.3740473 -0.56498605 4 4
-4.0802312 -2.4564993 0.75432712 25 12
-3.9412668 -2.3728359 -0.40248537 37 5
-4.085896 -2.4589384 0.9269498 22 13
-3.9619987 -2.3834326 -0.24231541 38 6
-4.103302 -2.4674642 1.1054094 24 14
-3.9728055 -2.3880465 -0.080909103 30 7
-3.9559927 -2.3769996 1.2366374 36 15
-3.9851298 -2.3869407 0.081083782 40 8
-4.0016713 -2.3949509 0.24440899 34 9
-4.0196881 -2.4047811 0.40980604 35 10
-4.0415826 -2.4159641 0.57814801 26 11
-3.9499867 -2.3602748 -0.56498611 4 4
-4.07691 -2.4351509 0.75213706 27 12
-3.9461045 -2.3570204 -0.40213674 38 5
-4.0860271 -2.4396281 0.92504174 20 13
-3.9565737 -2.3614004 -0.24147804 38 6
-4.1018496 -2.4471347 1.1027101 25 14
-3.9793999 -2.3731394 -0.080874197 32 7
-3.960947 -2.3611987 1.2356021 36 15
-3.9865611 -2.3689289 0.080944158 40 8
-3.9911165 -2.3697512 0.24325761 37 9
-4.0177779 -2.3846335 0.40876016 34 10
-4.0346251 -2.3927286 0.57595444 23 11
-3.9445405 -2.3383737 -0.56303608 4 4
-4.0819864 -2.418891 0.75151128 27 12
-3.9440236 -2.3371372 -0.40109086 37 5
-4.0911393 -2.4233499 0.92427844 20 13
-3.9596357 -2.3445215 -0.24116398 40 6
-4.096951 -2.424861 1.099111 25 14
-3.9876592 -2.3592348 -0.080874197 32 7
-3.975816 -2.3512914 1.2376727 36 15
-3.9913604 -2.3529675 0.080874339 34 8
-3.99248 -2.3517501 0.2428389 34 9
-4.0243607 -2.3695834 0.40858588 37 10
-4.0532184 -2.3846703 0.57741684 27 11
-3.9253008 -2.3084891 -0.55913627 4 4
-4.0835934 -2.4006226 0.75025982 25 12
-3.9487226 -2.321336 -0.40074223 33 5
-4.1029592 -2.4110436 0.92504174 20 13
-3.9643519 -2.3286624 -0.24095465 38 6
-4.1053896 -2.4105456 1.0991108 27 14
-3.983798 -2.3382154 -0.080629863 35 7
-3.9756687 -2.3325109 1.2350845 40 15
-4.0012755 -2.3400314 0.080909252 42 8
-4.0041137 -2.3398149 0.24304824 37 9
-4.0257254 -2.3515024 0.40788862 35 10
-4.0358014 -2.3554976 0.57376081 25 11
-3.9470518 -2.3027768 -0.56108677 4 4
-4.0834169 -2.3813782 0.74869561 27 12
-3.9481959 -2.3025196 -0.39987063 39 5
-4.0994773 -2.3897855 0.92237043 22 13
-3.9793587 -2.3188322 -0.24137333 40 6
-4.1070442 -2.3922763 1.0973114 28 14
-3.9884799 -2.3222828 -0.080560058 35 7
-3.9787781 -2.3157029 1.2335316 37 15
-3.9921227 -2.316015 0.080560207 40 8
-4.0053449 -2.3218179 0.24262956 36 9
-4.0270143 -2.3334391 0.4071914 35 10
-4.0422802 -2.3404016 0.57351696 23 11
-3.9585018 -2.290972 -0.56157416 4 4
-4.088285 -2.3651311 0.74806976 28 12
-3.9510353 -2.2857304 -0.39934769 37 5
-4.0907984 -2.365634 0.91855425 22 13
-3.9770544 -2.2989306 -0.24074535 40 6
-4.1086202 -2.3740253 1.0955116 27 14
-3.9879031 -2.3033462 -0.080385529 34 7
-3.9868369 -2.3018012 1.2335318 37 15
-3.9984496 -2.3010671 0.080525294 37 8
-4.0134254 -2.3078225 0.24262959 39 9
-4.0264983 -2.3144033 0.40631983 35 10
-4.0504251 -2.326277 0.57351696 27 11
-3.9664748 -2.2771404 -0.56157416 4 4
-4.0965152 -2.350847 0.74806976 28 12
-3.9555335 -2.2699423 -0.39899909 33 5
-4.0905166 -2.3464544 0.91664612 20 13
-3.9711938 -2.2770858 -0.23990795 40 6
-4.1202631 -2.361608 1.0964113 28 14
-3.9976547 -2.2904048 -0.080420442 35 7
-3.993171 -2.2869103 1.2330141 40 15
-4.002984 -2.2851143 0.080455489 40 8
-4.0075774 -2.285882 0.24179217 39 9
-4.0328212 -2.2993484 0.40614551 37 10
-4.0447235 -2.3042626 0.57156712 28 11
-3.9536994 -2.2514942 -0.55864882 6 4
-4.0978298 -2.3326242 0.74681836 27 12
-3.9617016 -2.2551355 -0.39882481 41 5
-4.1055083 -2.3360453 0.91817266 23 13
-3.9687009 -2.2572861 -0.2392799 42 6
-4.1200109 -2.3423953 1.0941619 30 14
-4.0021486 -2.2744603 -0.08035063 37 7
-3.9994495 -2.2720032 1.2324965 37 15
-4.0074558 -2.2691565 0.080385678 39 8
-4.0120559 -2.2699122 0.24158287 39 9
-4.0408225 -2.2852566 0.40614548 37 10
-4.0561981 -2.292084 0.57205462 27 11
-3.9546218 -2.2337747 -0.55767393 6 4
-4.0956268 -2.3124774 0.74494106 30 12
-3.9678152 -2.2403123 -0.3986505 34 5
-4.1033783 -2.3159111 0.91588295 23 13
-3.9713383 -2.2404749 -0.23896593 38 6
-4.1179786 -2.3222549 1.0914624 30 14
-4.0048375 -2.2575305 -0.080245912 39 7
-4.0073552 -2.2580295 1.2324965 37 15
-4.0153522 -2.2551539 0.080385678 39 8
-4.0129876 -2.2519836 0.24116416 39 9
-4.0313983 -2.2613902 0.40440238 35 10
-4.0589795 -2.2749994 0.57132339 27 11
-3.958931 -2.2180157 -0.55718637 6 4
-4.0967798 -2.294306 0.7436896 28 12
-3.9651806 -2.220607 -0.39760458 38 5
-4.1080108 -2.2996552 0.91512012 23 13
-3.9843628 -2.2295241 -0.2392799 42 6
-4.1277604 -2.3088179 1.0919125 30 14
-3.9987295 -2.2357309 -0.079966672 40 7
-4.0017228 -2.2364867 1.2283553 36 15
-4.0127177 -2.235286 0.080176249 37 8
-4.020824 -2.2379618 0.24116413 36 9
-4.0357857 -2.2453671 0.40405378 37 10
-4.0564852 -2.2550297 0.56986099 27 11
-3.9649143 -2.2032177 -0.55694264 6 4
-4.1030359 -2.2790329 0.74337667 28 12
-3.9659412 -2.2028837 -0.39690739 34 5
-4.1039991 -2.278631 0.91244847 24 13
-3.9921217 -2.2156014 -0.2392799 42 6
-4.1221614 -2.286833 1.0883132 31 14
-4.0170016 -2.2275774 -0.080176093 39 7
-4.0095057 -2.2225046 1.2283554 37 15
-4.013495 -2.2173963 0.080036633 35 8
-4.0251141 -2.2219834 0.2409548 39 9
-4.0331326 -2.2254901 0.40300792 40 10
-4.0556402 -2.2360651 0.56864232 30 11
-3.9691036 -2.1874487 -0.55645519 6 4
-4.1005859 -2.2589784 0.7414996 28 12
-3.9683709 -2.1861422 -0.39638442 35 5
-4.1050491 -2.2605021 0.91092187 24 13
-3.9823339 -2.1920228 -0.23823321 42 6
-4.1301184 -2.2724299 1.0883131 30 14
-4.008985 -2.2048686 -0.079861976 37 7
-4.0223165 -2.2112875 1.2299081 40 15
-4.0212111 -2.2033732 0.08003664 37 8
-4.0258389 -2.204082 0.24053612 39 9
-4.0478673 -2.2152243 0.40370518 37 10
-4.0581961 -2.2190361 0.56791109 26 11
-3.9697473 -2.1697724 -0.55548078 6 4
-4.1136456 -2.2474928 0.74243814 30 12
-3.9689834 -2.1684563 -0.39568719 39 5
-4.1198068 -2.2499242 0.91244847 24 13
-3.9917142 -2.1790652 -0.23833786 44 6
-4.124341 -2.2505317 1.0847139 30 14
-4.0149007 -2.189904 -0.079827063 39 7
-4.0283151 -2.1963089 1.2293905 37 15
-4.025363 -2.1874142 0.079966813 34 8
-4.0225949 -2.1850007 0.23990811 40 9
-4.0520725 -2.1991808 0.40335652 39 10
-4.0659165 -2.2048576 0.56791103 26 11
-3.9772971 -2.1559019 -0.55548078 6 4
-4.1054468 -2.2253656 0.73962229 33 12
-3.9817843 -2.1574354 -0.3962101 35 5
-4.1138244 -2.2280493 0.90939534 24 13
-3.9870012 -2.158462 -0.23760514 40 6
-4.1287436 -2.2342663 1.0838141 29 14
-4.0203815 -2.175626 -0.079792142 42 7
-4.0389752 -2.1847768 1.230426 43 15
-4.0220337 -2.1683598 0.079757392 39 8
-4.0301986 -2.1709449 0.23990813 39 9
-4.0456891 -2.177469 0.40196201 40 10
-4.064466 -2.1866591 0.56669235 30 11
-3.968689 -2.1342387 -0.55328703 6 4
-4.1062293 -2.2072811 0.73837078 33 12
-3.9717398 -2.1340935 -0.394467 34 5
-4.1211901 -2.2143948 0.90939534 24 13
-4.0011754 -2.1490088 -0.23802385 46 6
-4.1292624 -2.2168763 1.0820146 30 14
-4.0068069 -2.1502318 -0.079373293 39 7
-4.0295525 -2.1615324 1.2252494 37 15
-4.0295782 -2.1543067 0.079757392 37 8
-4.0342274 -2.1549823 0.23969874 39 9
-4.0458574 -2.1602871 0.40126479 37 10
-4.0755768 -2.1743267 0.5671798 27 11
-3.9831212 -2.1241097 -0.55426151 6 4
-4.115653 -2.1938624 0.7386837 33 12
-3.9770372 -2.1199729 -0.39429271 34 5
-4.1202312 -2.1953795 0.90748781 24 13
-3.9980748 -2.1293964 -0.23739579 46 6
-4.1369762 -2.2024479 1.0820146 32 14
-4.0231152 -2.1409297 -0.079547822 39 7
-4.0268397 -2.1420112 1.2221437 36 15
-4.0247064 -2.1336713 0.079513066 40 8
-4.0346656 -2.1371474 0.23928005 40 9
-4.04633 -2.142422 0.40056804 43 10
-4.0726137 -2.1545184 0.56571746 27 11
-3.9799829 -2.1046255 -0.55279911 4 4
-4.1250324 -2.1804059 0.73899662 31 12
-3.98089 -2.1042151 -0.39394405 34 5
-4.1139827 -2.1736479 0.90443438 24 13
-3.996654 -2.1107631 -0.23687243 44 6
-4.1377454 -2.1843543 1.080215 30 14
-4.0287952 -2.125941 -0.079512917 42 7
-4.0428357 -2.1324468 1.2247317 40 15
-4.0338998 -2.1205409 0.079547971 39 8
-4.0311222 -2.1181817 0.23865201 37 9
-4.057313 -2.1301358 0.40091613 40 10
-4.0695615 -2.1347561 0.564255 28 11
-3.9732404 -2.0833437 -0.55084968 4 4
-4.1252427 -2.1630452 0.73774505 33 12
-3.9811521 -2.0866077 -0.39324683 35 5
-4.1250234 -2.1610961 0.90519756 24 13
-3.9916127 -2.0903134 -0.23613977 46 6
-4.134985 -2.1644762 1.0775155 31 14
-4.0216494 -2.10515 -0.079233676 39 7
-4.048173 -2.1181338 1.2242141 37 15
-4.0338168 -2.1034539 0.079408348 37 8
-4.027864 -2.0985606 0.238024 40 9
-4.064723 -2.1159611 0.40091613 40 10
-4.0801401 -2.1230817 0.56474245 27 11
-3.9871716 -2.0738215 -0.55182415 4 4
-4.1117349 -2.1376984 0.73399061 33 12
-3.9848754 -2.0708604 -0.3928982 35 5
-4.1251979 -2.1437845 0.90367162 24 13
-4.0020666 -2.0789061 -0.23634908 42 6
-4.1455994 -2.1525481 1.0784154 30 14
-4.021874 -2.0874143 -0.07909406 39 7
-4.0658321 -2.1093271 1.2273201 37 15
-4.0446882 -2.0911961 0.07947816 37 8
-4.0422616 -2.0881562 0.23844269 40 9
-4.0575562 -2.0951576 0.39952171 40 10
-4.0822339 -2.1060958 0.56401122 31 11
-3.9943867 -2.0598912 -0.55182415 4 4
-4.1174169 -2.1224279 0.73367786 33 12
-3.9920805 -2.0569379 -0.39289823 34 5
-4.1378922 -2.1320684 0.90481645 24 13
-4.0021963 -2.0612667 -0.23593041 42 6
-4.1461577 -2.134496 1.0766158 29 14
-4.0184674 -2.0678725 -0.078884631 42 7
-4.0559907 -2.0862865 1.2221438 43 15
-4.039506 -2.0706789 0.079233818 40 8
-4.0388613 -2.0685699 0.23781468 39 9
-4.0545659 -2.0748258 0.39847583 39 10
-4.0860262 -2.0900252 0.56352377 31 11
-3.9909472 -2.040513 -0.55036223 4 4
-4.1248007 -2.1080422 0.73367786 33 12
-3.9956872 -2.0411789 -0.39254963 34 5
-4.1212006 -2.1043887 0.89947337 24 13
-4.0026083 -2.0429521 -0.23551171 40 6
-4.1539531 -2.1192853 1.0766158 29 14
-4.0256615 -2.0538328 -0.078884639 39 7
-4.0563641 -2.0686047 1.2200732 37 15
-4.0363708 -2.0504265 0.079024389 42 8
-4.0531812 -2.058075 0.23823336 40 9
-4.0617828 -2.0606606 0.3984758 43 10
-4.0883474 -2.0723426 0.56279254 32 11
-4.0086703 -2.031955 -0.55182415 4 4
-4.1356568 -2.0954187 0.73430353 37 12
-3.985014 -2.0182159 -0.39080647 38 5
-4.128521 -2.0899899 0.89947337 26 13
-4.0008054 -2.0244589 -0.23498836 44 6
-4.1574807 -2.1037388 1.075716 28 14
-4.0399437 -2.0433781 -0.079024248 42 7
-4.0652847 -2.0553045 1.2205908 40 15
-4.0449343 -2.0379298 0.079059303 45 8
-4.0385776 -2.0338435 0.23697731 39 9
-4.068594 -2.0471802 0.39847583 39 10
-4.0863285 -2.0543151 0.56157374 31 11
-4.0011973 -2.011517 -0.54987478 4 4
