# .PCD v0.7 - Point Cloud Data file format
VERSION 0.7
FIELDS x y z intensity ring
SIZE 4 4 4 4 2
TYPE F F F F U
COUNT 1 1 1 1 1
WIDTH 1216
HEIGHT 1
VIEWPOINT 0 0 0 1 0 0 0
POINTS 1216
DATA ascii
-4.1330404 -1.2778094 -0.22671928 57 6
-4.2562819 -1.3150972 1.0284761 36 14
-4.1538143 -1.2826427 -0.07588283 50 7
-4.2881508 -1.3233056 1.2024734 44 15
-4.167294 -1.2796388 0.076092392 48 8
-4.1664801 -1.2777978 0.22839415 52 9
-4.1755943 -1.2797956 0.38209051 48 10
-4.2044039 -1.2870204 0.53988117 38 11
-4.1154099 -1.2589928 -0.52842522 2 4
-4.2428341 -1.2971638 0.70270383 48 12
-4.1269484 -1.2617339 -0.37755877 44 5
-4.2414303 -1.2959265 0.86207491 39 13
-4.1451159 -1.2657076 -0.22713797 57 6
-4.2683024 -1.3025072 1.0302758 37 14
-4.1525278 -1.2663864 -0.075778112 50 7
-4.2853527 -1.3060751 1.200403 45 15
-4.1621666 -1.2621837 0.07591787 48 8
-4.1747389 -1.2644043 0.22860354 52 9
-4.1876645 -1.2675202 0.38278779 50 10
-4.2088699 -1.2723362 0.53988111 38 11
-4.0703726 -1.2296923 -0.52208805 2 4
-4.2435536 -1.2812046 0.70207798 46 12
-4.0664768 -1.227742 -0.37163219 34 5
-4.2459278 -1.2811129 0.86207479 37 13
-4.134212 -1.2466168 -0.2263006 38 6
-4.2616277 -1.2842273 1.0275763 37 14
-4.1530943 -1.2507304 -0.075708307 45 7
-4.2861853 -1.2899947 1.1993675 46 15
-4.1454754 -1.2413363 0.075533919 43 8
-4.1772137 -1.2492527 0.22849888 48 9
-4.1920633 -1.2528956 0.38278779 48 10
-4.1602702 -1.2426026 -0.68768591 1 3
-4.1999707 -1.2536622 0.53817493 40 11
-0.92069376 -0.27464572 -0.11796948 2 4
-4.2536793 -1.268077 0.70301658 45 12
-4.0249138 -1.1998791 -0.36744875 13 5
-4.2428479 -1.2640407 0.86054838 39 13
-4.0466552 -1.2048225 -0.22127634 55 6
-4.2735562 -1.2715665 1.029376 36 14
-4.0692639 -1.2100067 -0.074102685 43 7
-4.2980695 -1.2772274 1.2014382 45 15
-4.0865006 -1.2081492 0.074382059 55 8
-4.0896044 -1.2075148 0.22347461 48 9
-4.1562815 -1.2264136 0.37912726 37 10
-4.2005124 -1.2378714 0.53768742 30 11
-0.92164689 -0.27143022 -0.11796948 2 4
-4.2523947 -1.2515478 0.70207798 43 12
-4.2547684 -1.2514396 0.86207491 39 13
-4.0489202 -1.1901265 -0.22117168 85 6
-4.2704892 -1.254444 1.0275762 36 14
-4.0734625 -1.1957959 -0.074102685 69 7
-4.2913795 -1.2589536 1.1983323 46 15
-4.094532 -1.1949986 0.074451864 78 8
-4.0899596 -1.1921141 0.22326526 63 9
-4.1088886 -1.1968536 0.37442082 58 10
-4.1323771 -1.2021307 0.5284254 53 11
-0.89590228 -0.26045319 -0.11455714 3 4
-4.1656842 -1.210243 0.6870603 49 12
-4.1855798 -1.2152311 0.84719169 36 13
-4.0511317 -1.1754291 -0.22106698 65 6
-4.2112064 -1.2210778 1.0122797 29 14
-4.0699291 -1.1793433 -0.073963076 66 7
-4.2753358 -1.2380551 1.1926383 30 15
-4.0948353 -1.1795917 0.074382059 74 8
-4.0902572 -1.1767257 0.22305593 74 9
-4.1034665 -1.1797516 0.37354973 66 10
-4.130825 -1.1860553 0.52769423 65 11
-0.89680588 -0.25732452 -0.11455714 3 4
-4.1584907 -1.1924278 0.68518317 61 12
-4.1728106 -1.1957459 0.84375709 55 13
-4.0552096 -1.1612818 -0.22106698 12 6
-4.1798463 -1.1961833 1.0037316 49 14
-4.0663304 -1.1629297 -0.073823437 68 7
-4.2053323 -1.201889 1.1719327 65 15
-4.0833373 -1.1616286 0.074102819 78 8
-4.0922155 -1.1626096 0.22295123 76 9
-4.1016073 -1.1645052 0.37302634 74 10
-4.1347351 -1.1723502 0.52769417 63 11
-0.89765435 -0.25434917 -0.11455715 3 4
-4.1719251 -1.1813217 0.68674737 66 12
-4.1635289 -1.1781595 0.84108621 58 13
-4.1837897 -1.1823156 1.0037315 50 14
-4.0778623 -1.1516126 -0.073963068 68 7
-4.2074356 -1.1874132 1.1714151 82 15
-4.0796666 -1.1452062 0.07396321 79 8
-4.1039414 -1.1504753 0.22336994 76 9
-4.1094842 -1.1512556 0.37337494 74 10
-4.1139488 -1.1509579 0.52452552 57 11
-0.89853668 -0.25121418 -0.11455714 3 4
-4.1722183 -1.1656886 0.6861217 69 12
-4.1732893 -1.1652039 0.84223068 60 13
-4.1935225 -1.1692743 1.0050812 61 14
-4.0780048 -1.1362988 -0.073893264 68 7
-4.2152772 -1.1737547 1.1724504 92 15
-4.0874929 -1.1320269 0.074033014 78 8
-4.0925322 -1.1318835 0.22253256 79 9
-4.1134782 -1.1369027 0.37337494 69 10
-4.1275105 -1.1392316 0.52574426 63 11
-0.8879264 -0.24490902 -0.11309471 4 4
-4.1781659 -1.1516436 0.68643457 72 12
-4.1754384 -1.1501079 0.84184909 61 13
-4.1881838 -1.1520458 1.0028318 59 14
-4.0896592 -1.1241769 -0.074032888 68 7
-4.2100339 -1.1564746 1.1698622 88 15
-4.0952778 -1.1188048 0.074102819 71 8
-4.0964584 -1.1175909 0.22253256 76 9
-4.1212659 -1.1235861 0.3737236 74 10
-4.1295457 -1.124295 0.52550048 60 11
-0.88877589 -0.24180828 -0.11309471 4 4
-4.170723 -1.1339424 0.68455732 58 12
-4.1870065 -1.1375836 0.8433755 45 13
-4.1865377 -1.1358883 1.0014821 61 14
-4.0781183 -1.105707 -0.073753648 66 7
-4.2103157 -1.1407621 1.1688269 84 15
-4.0952969 -1.1034621 0.074033014 78 8
-4.100142 -1.1040002 0.22253256 82 9
-4.1136184 -1.1060891 0.37267774 74 10
-4.1353626 -1.110388 0.5257442 61 11
-0.87423533 -0.23474133 -0.1111448 4 4
-4.1902814 -1.121999 1.0014821 56 14
-4.0798306 -1.0916613 -0.073718734 50 7
-4.2066107 -1.1247978 1.1667564 82 15
-4.1008658 -1.0903893 0.074067913 43 8
-4.1076407 -1.0914232 0.22274189 60 9
-4.1211157 -1.0934635 0.37302634 76 10
-4.1428604 -1.0976855 0.52623171 63 11
-0.87500894 -0.23184092 -0.1111449 4 4
-1.6380023 -0.4330847 0.32933643 3 13
-4.2047138 -1.1093634 1.1652035 21 15
-4.1771159 -1.094288 0.22630075 9 9
-4.1555576 -1.0878644 0.37581533 19 10
-4.134954 -1.0809298 0.52476937 28 11
-0.87197161 -0.2277817 -0.11065742 4 4
-1.6532999 -0.43157682 0.2706317 13 12
-4.1723161 -1.0860292 -0.075254537 40 7
-4.1354833 -1.0687392 0.074556582 19 8
-4.1810985 -1.0789697 0.22630075 32 9
-4.2251124 -1.0895425 0.38174191 13 10
-0.86895561 -0.22359507 -0.11016984 4 4
-1.6535389 -0.42424896 0.39411426 7 14
-4.1898279 -1.0742061 -0.075498879 52 7
-1.6786549 -0.43006897 0.46432143 6 15
-4.1529379 -1.0570263 0.074800909 32 8
-4.1830893 -1.0631469 0.22619608 47 9
-4.2232842 -1.072577 0.381219 40 10
-4.39291 -1.1140256 0.55645531 1 11
-0.88131505 -0.22333425 -0.11163228 4 4
-1.6525892 -0.41847652 0.27000597 56 12
-1.6653595 -0.42140061 0.33391565 67 13
-4.1724095 -1.0534575 -0.075114928 52 7
-1.668981 -0.42107749 0.46121559 23 15
-4.1895766 -1.0507945 0.07539431 55 8
-4.1848378 -1.0480525 0.22609141 43 9
-4.1999435 -1.0510577 0.37877864 27 10
-2.0067616 -0.50145781 0.25397569 5 11
-0.8743853 -0.21833307 -0.11065742 9 4
-1.6578733 -0.41366181 0.27063173 79 12
-1.6458658 -0.41036028 0.32971805 72 13
-1.6451863 -0.40958136 0.39141485 30 14
-4.1585965 -1.0345417 -0.074800782 47 7
-1.6798151 -0.41757938 0.46380386 44 15
-4.1757469 -1.0318462 0.075080156 39 8
-4.1865311 -1.0329607 0.2259867 48 9
-4.1958485 -1.0344828 0.37808135 27 10
-2.0219927 -0.49777192 0.25568184 9 11
-0.88285267 -0.21717629 -0.11163228 8 4
-1.6593071 -0.40787175 0.2706317 86 12
-1.6472883 -0.40461299 0.32971787 88 13
-1.6636401 -0.40801331 0.395464 26 14
-4.1680093 -1.0214471 -0.0749055 39 7
-1.6662509 -0.40803751 0.45966271 30 15
-4.1851521 -1.0186825 0.075184867 52 8
-4.18817 -1.0178688 0.22588204 52 9
-4.2052422 -1.0212406 0.37860429 26 10
-2.0044258 -0.48603281 0.25324443 16 11
-0.88746393 -0.21502811 -0.11211976 8 4
-1.6684003 -0.40393645 0.27188316 79 12
-1.6296085 -0.39424393 0.32590187 86 13
-1.687785 -0.40769434 0.40086278 5 14
-4.1754365 -1.0078309 -0.074975297 39 7
-1.6770552 -0.40448305 0.46225092 13 15
-4.1886826 -1.0040683 0.075184867 50 8
-4.1878138 -1.0023134 0.22567271 50 9
-4.2107196 -1.0070188 0.37877864 27 10
-2.0061107 -0.47903314 0.25324449 28 11
-0.86890024 -0.2073216 -0.10968237 10 4
-1.6717217 -0.39856869 0.27219605 90 12
-1.6386141 -0.39037302 0.32742834 88 13
-1.8086363 -0.43021098 0.42920664 7 14
-4.1808743 -0.99371207 -0.075010203 34 7
-1.8325818 -0.43523049 0.50469726 10 15
-4.192162 -0.98943979 0.075184867 48 8
-4.1873984 -0.98677373 0.22546338 52 9
-4.2161484 -0.99277103 0.37895292 40 10
-2.0019729 -0.47066504 0.25251326 28 11
-0.86575365 -0.20337954 -0.10919489 10 4
-1.642333 -0.38550815 0.26719013 82 12
-1.6437895 -0.38554698 0.3281914 88 13
-4.2881408 -1.0041955 1.0167786 23 14
-4.1687412 -0.97546613 -0.07473097 34 7
-4.3679552 -1.0212783 1.2019558 41 15
-4.1955905 -0.97480041 0.075184874 52 8
-4.1945391 -0.97378564 0.22567274 52 9
-4.2060018 -0.97489858 0.37773275 47 10
-1.9939338 -0.46143562 0.25129455 36 11
-0.88579893 -0.20482847 -0.11163228 8 4
-1.6416779 -0.3796148 0.26687726 74 12
-1.6412994 -0.3789238 0.32742834 67 13
-4.2992158 -0.99097174 1.0185783 22 14
-4.168056 -0.96073925 -0.074661158 40 7
-4.3299012 -0.99724889 1.1905677 41 15
-4.1988001 -0.96088177 0.075184874 50 8
-4.1979127 -0.95913786 0.22567271 52 9
-4.2016087 -0.95843929 0.3770355 48 10
-1.9935179 -0.4543798 0.25105083 36 11
-0.90195751 -0.20541637 -0.11358219 7 4
-1.6545495 -0.37651175 0.26875445 47 12
-1.6348894 -0.37173775 0.32590187 48 13
-4.1713843 -0.94618404 -0.074661158 42 7
-4.190423 -0.94358444 0.074975438 52 8
-4.204967 -0.94608843 0.22588207 50 9
-4.2086525 -0.94537431 0.37738416 48 10
-1.9931544 -0.44698381 0.25080705 36 11
-0.88717258 -0.19879428 -0.11163228 8 4
-2.0123909 -0.4509289 0.32663524 25 12
-1.6591678 -0.37117186 0.33048129 62 13
-2.0730522 -0.46300206 0.49039334 4 14
-4.1842575 -0.93452537 -0.074835688 47 7
-4.332818 -0.96691155 1.1895325 3 15
-4.1974339 -0.93054885 0.07504525 52 8
-4.2004433 -0.92967796 0.22546336 52 9
-4.219708 -0.93239683 0.37808135 47 10
-1.9907489 -0.4395158 0.25031957 33 11
-0.88394994 -0.19499592 -0.1111448 9 4
-2.0409596 -0.44985476 0.33101541 33 12
-1.7025703 -0.37495723 0.33887687 11 13
-2.0460267 -0.44984847 0.48364475 6 14
-4.1894464 -0.92034262 -0.074870579 45 7
-2.0661891 -0.45352492 0.56681371 7 15
-4.2006564 -0.91589129 0.07504525 53 8
-4.1997604 -0.91415942 0.22525403 52 9
-4.2266707 -0.91924542 0.37842998 47 10
-1.9961507 -0.43340644 0.25080705 28 11
-0.88074523 -0.19106764 -0.11065732 9 4
-2.032865 -0.44063544 0.32945105 26 12
-4.2999659 -0.93125618 0.85520566 39 13
-4.1789517 -0.90275741 -0.07462626 47 7
-4.33002 -0.93460208 1.1869441 21 15
-4.2077379 -0.90206081 0.075115055 52 8
-4.2029257 -0.89949483 0.22525403 52 9
-4.2144246 -0.90041649 0.37703556 48 10
-2.0054171 -0.42809415 0.25178206 15 11
-0.88917255 -0.1896484 -0.11163228 8 4
-4.2832327 -0.91277266 0.69363052 31 12
-4.3014297 -0.91508222 0.85482407 36 13
-4.3042588 -0.9141137 1.0158789 37 14
-4.1840334 -0.88858092 -0.074661158 50 7
-4.3427057 -0.92148691 1.1895325 41 15
-4.2031884 -0.88498449 0.074975431 50 8
-4.209949 -0.88564062 0.22546338 50 9
-4.2175412 -0.88570064 0.3770355 47 10
-4.2490306 -0.89076412 0.53305638 28 11
-0.8898617 -0.18638815 -0.11163228 8 4
-4.2883258 -0.89822173 0.69394344 40 12
-4.2911463 -0.89724803 0.85215271 37 13
-4.3207769 -0.90187061 1.0190283 38 14
-4.1831946 -0.87315327 -0.074591354 50 7
-4.3572426 -0.90868753 1.1926383 48 15
-4.2021847 -0.87023032 0.074905634 53 8
-4.2130146 -0.87094063 0.22546338 52 9
-4.2245102 -0.87177861 0.3773841 48 10
-4.2500172 -0.87626898 0.53281271 41 11
-0.90214044 -0.18583928 -0.11309481 4 4
-4.2933702 -0.88364536 0.69425631 43 12
-4.2998672 -0.88420033 0.85329759 36 13
-4.3256521 -0.88792908 1.0194781 36 14
-4.1881766 -0.85894656 -0.074626267 47 7
-4.3414626 -0.88959533 1.1874619 53 15
-4.2051969 -0.85555649 0.074905634 53 8
-4.2119651 -0.85616809 0.22525403 52 9
-4.2273779 -0.85776466 0.3773841 48 10
-4.2530503 -0.8614282 0.53281271 40 11
-0.8988924 -0.18190163 -0.11260724 4 4
-4.2982125 -0.86979473 0.69456917 48 12
-4.304852 -0.86957425 0.8536793 37 13
-4.321085 -0.87128359 1.0176786 36 14
-4.194922 -0.84584463 -0.074696071 50 7
-4.35007 -0.87633795 1.1890147 51 15
-4.2119317 -0.84239095 0.074975431 52 8
-4.2110105 -0.84067923 0.22504467 52 9
-4.2303462 -0.84300297 0.3773841 48 10
-4.2558832 -0.84732074 0.53281271 41 11
-0.89949065 -0.17891975 -0.11260723 4 4
-4.2915354 -0.85286057 0.69300485 43 12
-4.3038597 -0.8545301 0.85291588 39 13
-4.3163033 -0.85543382 1.0158788 38 14
-4.1860795 -0.82886589 -0.074486643 50 7
-4.3512073 -0.86077303 1.1884972 54 15
-4.2190609 -0.82698148 0.07504525 53 8
-4.2142076 -0.8245039 0.22504467 52 9
-4.2255855 -0.82596338 0.37668687 48 10
-4.2571568 -0.83059293 0.53256893 42 11
-0.9196552 -0.17926258 -0.11504462 3 4
-4.2947783 -0.83637601 0.69300485 43 12
-4.3071094 -0.83799821 0.85291588 40 13
-4.2152114 -0.81935394 -0.22504453 4 6
-4.3233829 -0.83959728 1.0167787 38 14
-4.1911936 -0.81316823 -0.074521542 48 7
-4.3506866 -0.84332395 1.1874617 54 15
-4.2121024 -0.81036001 0.074870713 53 8
-4.220983 -0.81054175 0.22525403 52 9
-4.232357 -0.81195897 0.3770355 48 10
-4.271729 -0.81796652 0.53403145 41 11
-0.92027533 -0.17605126 -0.11504462 6 4
-4.2976718 -0.8213802 0.69300485 43 12
-4.3042231 -0.82185268 0.85177159 40 13
-4.2003894 -0.80126673 -0.22410248 10 6
-4.3262868 -0.82450163 1.0167787 37 14
-4.195971 -0.79890609 -0.074556433 47 7
-4.3498092 -0.8274101 1.1864266 54 15
-4.2168708 -0.79602396 0.074905634 53 8
-4.2237873 -0.79580182 0.22525404 52 9
-4.2332067 -0.79681259 0.37686118 48 10
-4.256999 -0.79975146 0.5318377 42 11
-0.91308016 -0.17137329 -0.11406966 11 4
-4.3082795 -0.80782974 0.69425637 43 12
-4.303206 -0.80609995 0.8510083 42 13
-4.1894183 -0.78402895 -0.22336981 29 6
-4.3291383 -0.80939382 1.0167786 38 14
-4.2046313 -0.78535604 -0.074661158 48 7
-4.3602667 -0.81363976 1.1884972 54 15
-4.2196236 -0.78129929 0.074905626 53 8
-4.2206464 -0.77996516 0.22494 53 9
-4.2438002 -0.78347796 0.37755844 48 10
-4.2597642 -0.78488779 0.5318377 42 11
-0.89414996 -0.16459128 -0.11163228 4 4
-4.313015 -0.79314214 0.69456917 43 12
-4.3098559 -0.79178458 0.85177112 42 13
-4.1764135 -0.76651579 -0.22253239 34 6
-4.328104 -0.79357439 1.0158789 37 14
-4.2093139 -0.77103549 -0.074696064 50 7
-4.3649812 -0.79876226 1.1890148 53 15
-4.230196 -0.76799411 0.07504525 52 8
-4.2192802 -0.76525182 0.22473069 53 9
-4.2445483 -0.76830453 0.3773841 48 10
-4.264432 -0.77036655 0.53208148 40 11
-0.90641165 -0.1637426 -0.11309471 4 4
-4.305902 -0.77708203 0.69300485 43 12
-4.3222542 -0.77847546 0.85367918 42 13
-4.1849623 -0.75299281 -0.22284645 36 6
-4.3307123 -0.77921742 1.0158789 38 14
-4.1980705 -0.75459617 -0.07445173 48 7
-4.3657041 -0.78394151 1.1884972 60 15
-4.2327194 -0.75396192 0.07504525 53 8
-4.2276936 -0.75230545 0.2250447 52 9
-4.2372646 -0.75248289 0.37651262 48 10
-4.2747817 -0.75760639 0.53305644 41 11
-0.9460423 -0.16766416 -0.11796948 2 4
-4.300674 -0.76142108 0.69175321 45 12
-4.3248119 -0.76413786 0.85367918 43 13
-4.1854692 -0.73876446 -0.22274177 36 6
-4.333272 -0.76485276 1.0158789 38 14
-4.2044888 -0.74136508 -0.074521549 48 7
-4.3587666 -0.767784 1.1859088 62 15
-4.2233768 -0.73785645 0.074835815 53 8
-4.2283258 -0.73720026 0.22494 55 9
-4.2475877 -0.73979467 0.37720981 48 10
-4.2792263 -0.74376631 0.53330016 42 11
-0.91924024 -0.15960658 -0.11455715 3 4
-4.307199 -0.74707943 0.69237918 43 12
-4.3195848 -0.74845117 0.85215271 39 13
-4.1997032 -0.72692454 -0.22336981 34 6
-4.339756 -0.75038505 1.0167786 38 14
-4.2090216 -0.72702438 -0.07455644 47 7
-4.35571 -0.75157905 1.1843562 60 15
-4.2259269 -0.72311056 0.074835822 53 8
-4.2426863 -0.72445315 0.22556804 55 9
-4.2481799 -0.72462928 0.3770355 48 10
-4.264184 -0.72582644 0.53110647 43 11
-0.93936181 -0.15972465 -0.11699454 2 4
-4.3175702 -0.73336297 0.69363052 43 12
-4.3144288 -0.73205471 0.85062635 39 13
-4.1825233 -0.70892364 -0.22232306 36 6
-4.3500347 -0.73653418 1.0185783 37 14
-4.2115335 -0.7123276 -0.07455644 47 7
-4.3640203 -0.73733437 1.1859088 56 15
-4.2323694 -0.70901555 0.074905634 53 8
-4.2254891 -0.70634681 0.22452129 55 9
-4.2526488 -0.71012396 0.37720981 48 10
-4.2745233 -0.71224314 0.53208143 41 11
-0.93208098 -0.15514073 -0.11601957 3 4
-4.3123093 -0.71699125 0.69237906 43 12
-4.3494482 -0.72316629 -0.38575143 1 5
-4.3130846 -0.71634775 0.84986311 39 13
-4.1967955 -0.69627994 -0.22295114 38 6
-4.3371992 -0.71879619 1.0149791 38 14
-4.219913 -0.69860297 -0.074661158 50 7
-4.368474 -0.72241277 1.1864265 58 15
-4.2367926 -0.69455993 0.07494054 53 8
-4.2318721 -0.69223768 0.22473069 55 9
-4.2570686 -0.69559532 0.37738416 48 10
-4.2769842 -0.6973179 0.53208148 42 11
-0.95612818 -0.15571526 -0.11894444 2 4
-4.3167353 -0.70225221 0.69269192 46 12
-4.2968831 -0.69902259 -0.3808707 2 5
-4.3233089 -0.70254713 0.85138988 40 13
-4.1991992 -0.6816259 -0.2229511 38 6
-4.3396816 -0.7036531 1.0149791 38 14
-4.2144299 -0.68258846 -0.074521542 48 7
-4.3747826 -0.70777637 1.1874617 60 15
-4.2470884 -0.68103385 0.075080156 53 8
-4.2421508 -0.67872238 0.22514933 56 9
-4.243731 -0.67821652 0.37598965 48 10
-4.2793922 -0.68238306 0.53208148 42 11
-4.3089166 -0.68632084 -0.5357374 2 4
-4.3133078 -0.68624848 0.69175333 45 12
-4.2797394 -0.68014091 -0.37912759 2 5
-4.3296132 -0.68806684 0.85215318 39 13
-4.2054992 -0.66759002 -0.22316048 40 6
-4.3478856 -0.68941599 1.0163289 38 14
-4.2148123 -0.66756022 -0.074486643 50 7
-4.3657784 -0.69069004 1.184356 60 15
-4.2375865 -0.6643461 0.074870721 55 8
-4.2366018 -0.66267669 0.22473069 56 9
-4.2481565 -0.66296506 0.37616393 50 10
-4.2895937 -0.66866487 0.53305644 42 11
-4.2955942 -0.66883242 -0.53378797 2 4
-4.3195815 -0.67179412 0.69237918 45 12
-4.2820883 -0.66519761 -0.37912762 2 5
-4.3185263 -0.67008734 0.8494814 40 13
-4.2118645 -0.65278327 -0.22336981 40 6
-4.3503833 -0.67347443 1.0163289 38 14
-4.2171164 -0.65284365 -0.074486643 47 7
-4.3643451 -0.67485702 1.1833209 60 15
-4.2320862 -0.64760011 0.074731104 53 8
-4.2507348 -0.64969462 0.22535871 55 9
-4.2583237 -0.64933348 0.37686121 48 10
-4.2841654 -0.65174389 0.53208143 41 11
-0.96950716 -0.14731638 -0.12040686 2 4
-4.3238521 -0.65700835 0.69269186 46 12
-4.2962027 -0.65204102 -0.3801735 4 5
-4.3247209 -0.65559709 0.85024458 42 13
-4.2062182 -0.63688099 -0.2229511 42 6
-4.3546338 -0.65857685 1.0167786 38 14
-4.2213464 -0.63841903 -0.074521542 48 7
-4.3819547 -0.66192544 1.1874617 60 15
-4.2381654 -0.63415509 0.074800909 55 8
-4.2450747 -0.63367319 0.22494 55 9
-4.2566228 -0.63387817 0.37651259 48 10
-4.2745223 -0.63578117 0.53061903 42 11
-0.94642782 -0.14060013 -0.117482 2 4
-4.3300281 -0.64249223 0.69331771 48 12
-4.3023944 -0.63762444 -0.3805221 4 5
-4.3326964 -0.64211535 0.85138988 40 13
-4.2023797 -0.6220516 -0.22263707 44 6
-4.3471551 -0.64270759 1.0145292 38 14
-4.2314625 -0.62484837 -0.074661158 50 7
-4.3804164 -0.64606172 1.1864265 60 15
-4.2363963 -0.61877817 0.074731104 53 8
-4.2433085 -0.6182763 0.22473069 55 9
-4.2626448 -0.6203329 0.37686121 48 10
-4.2806439 -0.6214276 0.53110647 43 11
-4.2984338 -0.62324321 -0.53329998 8 4
-4.3302889 -0.62709033 0.69300479 45 12
-4.2986784 -0.62174779 -0.37999919 4 5
-4.3387985 -0.62755066 0.85215271 40 13
-4.2124324 -0.60852194 -0.22305578 44 6
-4.3570876 -0.62864232 1.0163289 38 14
-4.2217426 -0.60836154 -0.07445173 50 7
-4.3902936 -0.63186908 1.1884972 60 15
-4.2543683 -0.60624337 0.075010352 55 8
-4.2493954 -0.60402149 0.22494 55 9
-4.2609444 -0.60414684 0.37651259 50 10
-4.2906499 -0.60759383 0.53208148 41 11
-4.3246274 -0.61086571 0.69175321 43 12
-4.2968764 -0.60618091 -0.3796505 4 5
-4.3410687 -0.61164272 0.85215318 39 13
-4.212657 -0.59280008 -0.2229511 46 6
-4.3555026 -0.61212599 1.0154291 39 14
-4.2198796 -0.59306544 -0.074381925 50 7
-4.3809938 -0.61492884 1.1853912 58 15
-4.2446771 -0.58899814 0.074800916 52 8
-4.2514782 -0.58918452 0.22494 55 9
-4.2590799 -0.58872396 0.37616393 50 10
-4.3046465 -0.59349042 0.53354388 43 11
-4.328691 -0.5960356 0.69206625 48 12
-4.2969928 -0.59090686 -0.37947625 4 5
-4.3334537 -0.59515029 0.8502447 40 13
-4.2147007 -0.5780915 -0.22295111 46 6
-4.361474 -0.59744757 1.0163288 38 14
-4.2219243 -0.57833165 -0.074381925 50 7
-4.3812003 -0.59937072 1.1848737 65 15
-4.2386804 -0.57384574 0.074661292 55 8
-4.2574673 -0.57487494 0.22514933 56 9
-4.2729564 -0.5754478 0.37720981 48 10
-4.2829828 -0.57603705 0.53061903 41 11
-4.3307452 -0.58092189 0.69206625 46 12
-4.3148265 -0.57802004 -0.3808707 4 5
-4.333457 -0.5805158 0.84986299 40 13
-4.2126355 -0.56358308 -0.22274177 48 6
-4.3672943 -0.58349705 1.0172286 38 14
-4.2298636 -0.56438416 -0.074486643 50 7
-4.387095 -0.584584 1.1859089 62 15
-4.2485876 -0.56009173 0.074800909 53 8
-4.2475667 -0.55844897 0.22452132 56 9
-4.2728662 -0.56101656 0.37703556 48 10
-4.2967768 -0.56263041 0.53208148 43 11
-4.346458 -0.56759167 0.69425631 48 12
-4.344378 -0.56732005 -0.383311 1 5
-4.3529773 -0.56767142 0.85329801 42 13
-4.2165575 -0.54913157 -0.22284643 55 6
-4.3499799 -0.56573546 1.0127295 39 14
-4.2397399 -0.55064678 -0.07462626 50 7
-4.3910251 -0.56951505 1.1864266 60 15
-4.2544837 -0.54576576 0.074870713 56 8
-4.2534523 -0.5441255 0.22473066 55 9
-4.2688694 -0.54533947 0.37651259 48 10
-4.2987142 -0.54762828 0.53208143 41 11
-4.3327351 -0.55042559 0.69175333 45 12
-4.3432465 -0.55099064 0.8510083 40 13
-4.2243934 -0.53516269 -0.22316048 57 6
-4.3596616 -0.55152702 1.0145292 39 14
-4.2337008 -0.53484035 -0.074486643 47 7
-4.3949022 -0.55442566 1.1869441 62 15
-4.2603321 -0.53140748 0.07494054 55 8
-4.2553263 -0.52927381 0.22473069 55 9
-4.2667928 -0.52994478 0.37616399 48 10
-0.58810717 -0.072939955 -0.093860678 18 3
-4.3084803 -0.53359449 0.53305644 43 11
-4.3287482 -0.53457165 0.69081461 46 12
-4.3548861 -0.53702682 0.85291588 40 13
-4.2222705 -0.51992619 -0.22295111 57 6
-4.3615608 -0.53630549 1.0145293 38 14
-4.2295876 -0.51932752 -0.074381925 50 7
-4.3910589 -0.53837681 1.1853913 60 15
-4.2542195 -0.5155704 0.074800909 55 8
-4.2611132 -0.51489669 0.22494 55 9
-4.2686162 -0.51504749 0.37616393 50 10
-4.3122873 -0.51878983 0.53330016 42 11
-4.3384337 -0.5203982 0.69206625 48 12
-4.3469868 -0.52065563 0.8510083 40 13
-4.2379417 -0.50684464 -0.22368382 21 6
-4.3730807 -0.5222317 1.0167787 38 14
-4.243288 -0.5059818 -0.074591346 43 7
-4.3909931 -0.52281737 1.1848737 62 15
-4.2520218 -0.50024986 0.074731104 53 8
-4.2668519 -0.50048476 0.22514933 55 9
-4.2783036 -0.5010711 0.37686121 53 10
-4.3002706 -0.50212228 0.53159398 43 11
-4.3461099 -0.50593716 0.69300479 45 12
-4.3448782 -0.50502527 0.85024458 40 13
-4.3768125 -0.5071888 1.0172286 38 14
-4.2410555 -0.49070713 -0.074521542 26 7
-4.4062252 -0.50903761 1.1884973 58 15
-4.2616887 -0.48631224 0.074870713 55 8
-4.2606354 -0.48468456 0.22473069 55 9
-4.2800264 -0.48613486 0.37686121 53 10
-0.58883876 -0.066777371 -0.093860678 18 3
-4.2901611 -0.48576823 0.53013152 41 11
-4.3517756 -0.49120635 0.69363052 48 12
-4.3544183 -0.49073499 0.85177159 42 13
-4.3688741 -0.49081993 1.0149791 38 14
-4.2665906 -0.4785749 -0.074940406 13 7
-4.4002953 -0.49279469 1.1864265 60 15
-4.2593861 -0.47099257 0.074800916 55 8
-4.262301 -0.46981007 0.22473066 55 9
-4.289619 -0.47206244 0.37755841 52 10
-0.58906817 -0.06472151 -0.093860671 18 3
-4.3076172 -0.47252241 0.53208143 41 11
-4.3456092 -0.47515383 0.69237906 45 12
-4.3541522 -0.4753201 0.85138988 39 13
-4.372498 -0.47577742 1.0154291 39 14
-4.2344379 -0.46000719 -0.074347019 11 7
-4.4077506 -0.47805664 1.1879796 62 15
-4.2689576 -0.45697293 0.07494054 53 8
-4.2639151 -0.45492786 0.22473066 55 9
-4.2872782 -0.45666382 0.37720981 52 10
-0.64036238 -0.068095982 -0.10199527 16 3
-4.3171368 -0.45832026 0.53305644 41 11
-4.3413482 -0.45935935 0.69144052 46 12
-4.363595 -0.46094221 0.85291588 37 13
-4.3780079 -0.4609206 1.0163288 39 14
-4.2519283 -0.44689554 -0.074626267 9 7
-4.4036288 -0.4620629 1.1864266 60 15
-4.2625699 -0.44124594 0.074800909 53 8
-4.2773204 -0.44201839 0.22535871 55 9
-4.2848821 -0.44128826 0.37686118 52 10
-0.53448516 -0.054950893 -0.085100345 21 3
-4.3226595 -0.44365311 0.53354388 41 11
-0.63192135 -0.064745508 -0.077996351 14 4
-4.3487425 -0.44556424 0.69237918 45 12
-4.3573647 -0.44490975 0.85138988 40 13
-0.95771664 -0.097619228 -0.050451849 3 6
-4.3757124 -0.44523999 1.015429 38 14
-4.2593546 -0.43340027 -0.07473097 9 7
-4.4032145 -0.44726196 1.1859089 65 15
-4.2679892 -0.42750674 0.074870713 55 8
-4.2828116 -0.42748061 0.22556803 55 9
-4.2982926 -0.42751163 0.37790704 52 10
-0.53466445 -0.053178154 -0.085100345 21 3
-4.3201566 -0.42892379 0.53305644 43 11
-0.56891936 -0.056384649 -0.070196718 16 4
-4.3581343 -0.43115935 0.69363052 45 12
-4.3588161 -0.43045759 0.85138988 42 13
-0.92225784 -0.090915844 -0.048567757 5 6
-4.3926802 -0.43225476 1.0190283 38 14
-4.2568617 -0.41813865 -0.074661158 9 7
-4.4124403 -0.43264422 1.1879797 62 15
-4.2774172 -0.41337538 0.075010344 52 8
-4.268374 -0.41099775 0.22473069 53 9
-4.2957196 -0.41287425 0.37755841 52 10
-0.55451024 -0.053197943 -0.08822903 20 3
-4.3097715 -0.41270661 0.53159404 41 11
-0.57701701 -0.055153914 -0.071171731 16 4
-4.3596129 -0.41594282 0.69363052 45 12
-4.3563843 -0.41486862 0.85062629 40 13
-0.89274508 -0.084860981 -0.046997674 19 6
-4.3805819 -0.41562915 1.0158789 38 14
-4.2742219 -0.40478608 -0.074940398 8 7
-4.4216161 -0.41796637 1.1900501 62 15
-4.2828164 -0.39881262 0.075080156 53 8
-4.2777371 -0.39683366 0.22514936 55 9
-4.3050704 -0.39861149 0.37825617 50 10
-0.53108871 -0.049080644 -0.084474616 21 3
-4.3250217 -0.3989363 0.53330016 42 11
-0.5692991 -0.052411459 -0.070196718 16 4
-4.3590717 -0.40054265 0.69331777 46 12
-4.3773565 -0.40145236 0.85444248 40 13
-0.87911326 -0.080469765 -0.046264973 36 6
-4.3761845 -0.39980459 1.0145292 38 14
-4.267643 -0.3891373 -0.074800782 6 7
-4.4249721 -0.40270337 1.1905677 58 15
-4.2801986 -0.38350436 0.075010344 53 8
-4.2830749 -0.38225412 0.22535871 53 9
-4.3024669 -0.38322791 0.37790704 53 10
-0.57847965 -0.051424395 -0.091983467 19 3
-4.3263884 -0.3838366 0.53330016 42 11
-0.53388619 -0.04727241 -0.065809429 18 4
-4.3545399 -0.3848024 0.69237918 45 12
-4.3728642 -0.38565254 0.85329759 36 13
-0.90127414 -0.079326622 -0.047416367 31 6
-4.3853183 -0.38520837 1.0163288 39 14
-4.2829194 -0.37546039 -0.075045109 6 7
-4.416729 -0.38641295 1.1879797 62 15
-4.2854958 -0.36890319 0.075080149 52 8
-4.2863731 -0.36747256 0.22546338 53 9
-4.2958374 -0.36752769 0.37720981 48 10
-0.53929126 -0.046043918 -0.085726082 21 3
-4.3375921 -0.36957598 0.53451896 43 11
-0.56965119 -0.048435733 -0.070196718 16 4
-4.3676662 -0.37060183 0.69425631 45 12
-4.3741837 -0.37038487 0.85329759 40 13
-0.89557499 -0.075675793 -0.047102347 32 6
-4.3905196 -0.37022576 1.0172286 39 14
-4.2901821 -0.36100984 -0.075149834 6 7
-4.4141994 -0.37067088 1.1869441 62 15
-4.2827716 -0.35361257 0.075010344 53 8
-4.2975821 -0.35332516 0.2259867 55 9
-4.3090086 -0.35350755 0.3782557 52 10
-0.53551102 -0.043838926 -0.085100338 21 3
-4.3269839 -0.35346177 0.53305644 42 11
-0.56585974 -0.046124425 -0.069709241 17 4
-4.3728709 -0.35567477 0.69488209 43 12
-4.3676219 -0.35447949 0.85177159 40 13
-0.88189858 -0.071420625 -0.046369649 57 6
-4.3956704 -0.35521263 1.0181285 39 14
-4.3033743 -0.34699729 -0.07535924 6 7
-4.430872 -0.35649955 1.1910853 62 15
-4.2879667 -0.3389768 0.075080149 53 8
-4.2908249 -0.33769473 0.22556803 55 9
-4.3141894 -0.33877701 0.37860432 52 10
-0.53172225 -0.041660774 -0.084474623 21 3
-4.3242335 -0.33804607 0.53256893 41 11
-0.534352 -0.041679166 -0.065809436 18 4
-4.3780246 -0.3407138 0.69550776 43 12
-4.3786201 -0.3399913 0.85367918 40 13
-0.87815982 -0.068033427 -0.046160299 88 6
-4.3910542 -0.33941492 1.0167786 37 14
-4.2925982 -0.33105096 -0.075149834 6 7
-4.4301634 -0.34088245 1.1905677 58 15
-4.2951069 -0.32445881 0.075184874 50 8
-4.2879944 -0.32241634 0.22535871 55 9
-4.3153453 -0.32371545 0.37860429 52 10
-0.55156314 -0.041278556 -0.087603308 20 3
-4.3333058 -0.32354179 0.53354394 41 11
-0.56616795 -0.042172987 -0.069709241 17 4
-4.3594885 -0.32396555 0.69237918 45 12
-4.375864 -0.32441458 0.85291588 40 13
-0.88237554 -0.06526228 -0.046369642 78 6
-4.394156 -0.3242285 1.0172286 39 14
-4.3017044 -0.31665203 -0.075289451 6 7
-4.4313259 -0.32541606 1.1905676 58 15
-4.3002019 -0.3097513 0.075254671 52 8
-4.3010468 -0.30830315 0.22598673 53 9
-4.3045254 -0.30779639 0.37755844 53 10
-0.55564457 -0.039634194 -0.088229038 20 3
-4.3344083 -0.30841359 0.53354388 41 11
-0.58215261 -0.041320655 -0.071659148 16 4
-4.368474 -0.309304 0.69363052 43 12
-4.3789282 -0.30927721 0.85329759 40 13
-0.87064421 -0.061339397 -0.045741614 93 6
-4.4030371 -0.30943444 1.0190284 39 14
-4.2928095 -0.30093607 -0.075114928 6 7
-4.4227996 -0.30927196 1.1879796 56 15
-4.2932763 -0.29419196 0.075115055 52 8
-4.3060308 -0.29431087 0.22619608 55 9
-4.3095489 -0.29303911 0.37790704 50 10
-0.52818763 -0.035823025 -0.083848871 21 3
-4.3433814 -0.29381767 0.53451896 41 11
-0.57040966 -0.038486484 -0.070196718 16 4
-4.3694758 -0.29481575 0.69363052 45 12
-4.3721457 -0.2934629 0.85177159 36 13
-0.88081688 -0.058966927 -0.046264973 87 6
-4.4118676 -0.29458332 1.0208279 38 14
-4.3017645 -0.28723168 -0.075254537 6 7
-4.4122357 -0.29383337 1.1848737 53 15
-4.2942281 -0.27995414 0.075115055 52 8
-4.311018 -0.27953658 0.22640541 55 9
-4.3224745 -0.27876443 0.3789534 52 10
-0.52830356 -0.034071278 -0.083848871 21 3
-4.3284831 -0.27839336 0.53256893 43 11
-0.63392693 -0.040660787 -0.077996351 14 4
-4.3803349 -0.28019306 0.69519484 46 12
-4.3770127 -0.27921358 0.85253477 36 13
-0.87104154 -0.055411674 -0.045741614 93 6
-4.4128208 -0.27995127 1.020828 39 14
-4.3027411 -0.27221382 -0.075254537 6 7
-4.4248023 -0.27915969 1.1879796 44 15
-4.3031635 -0.26545414 0.075254671 52 8
-4.2999606 -0.26450327 0.2257774 56 9
-4.3193984 -0.26418564 0.37860429 53 10
-0.55207986 -0.033669926 -0.087603308 20 3
-4.3333907 -0.26352432 0.53305638 42 11
-0.57858431 -0.03508367 -0.071171671 16 4
-4.3871551 -0.26602432 0.69613343 45 12
-0.85715467 -0.051825225 -0.07512828 16 5
-4.3916802 -0.26475915 0.85520571 40 13
-0.87521684 -0.052610703 -0.045950957 75 6
-4.3982086 -0.26361308 1.0172287 39 14
-4.3195891 -0.25890091 -0.075533777 6 7
-4.4218459 -0.26425427 1.1869441 45 15
-4.3040199 -0.25118271 0.075254671 50 8
-4.3048453 -0.24972425 0.22598673 55 9
-4.3242717 -0.24933575 0.3789534 53 10
-0.57585359 -0.033203483 -0.091357723 19 3
-4.3481135 -0.24995013 0.53476256 42 11
-0.56680644 -0.032483332 -0.069709241 17 4
-4.3801684 -0.25025782 0.69488198 45 12
-0.86130863 -0.049059458 -0.0754769 59 5
-4.3905725 -0.25008354 0.85482448 40 13
-0.87538654 -0.049708057 -0.045950957 82 6
-4.4068413 -0.24946705 1.0190283 40 14
-4.3084879 -0.24314502 -0.075324357 6 7
-4.4265995 -0.24903554 1.1879796 42 15
-4.3088646 -0.23637636 0.075324498 52 8
-4.3076854 -0.2348046 0.22609141 53 9
-4.3210964 -0.23477824 0.37860429 52 10
-0.59174585 -0.032047763 -0.093860671 18 3
-4.3469791 -0.23466277 0.53451896 41 11
-0.57088077 -0.030717909 -0.070196718 16 4
-4.3810148 -0.23496653 0.69488198 45 12
-0.82765234 -0.044244539 -0.07251361 36 5
-4.3914194 -0.23475596 0.85482407 36 13
-0.86757702 -0.046226982 -0.045532268 100 6
-4.4115767 -0.23428932 1.019928 39 14
-4.299325 -0.22757545 -0.075149819 8 7
-4.4023623 -0.23225904 1.1812502 40 15
-4.3016753 -0.22092481 0.075184874 52 8
-4.3184519 -0.22027412 0.22661479 53 9
-4.3179479 -0.21873839 0.37825617 52 10
-0.55240214 -0.027886774 -0.087603308 20 3
-4.3537188 -0.21978766 0.53525013 40 11
-0.63442731 -0.031916626 -0.077996358 14 4
-4.3916731 -0.22016798 0.69644636 46 12
-4.384407 -0.2182685 0.85329759 36 13
-0.88968349 -0.044135369 -0.046683658 61 6
-4.4124064 -0.21811846 1.0199281 39 14
-4.312077 -0.21315888 -0.075359255 8 7
-4.4012165 -0.21679533 1.1807325 35 15
-4.3064499 -0.20534727 0.075254671 50 8
-4.3191943 -0.20519844 0.22661479 55 9
-4.3306274 -0.20422663 0.37930161 52 10
-0.53671044 -0.025216674 -0.085100345 21 3
-4.3485465 -0.2035515 0.5345189 41 11
-4.3884687 -0.20465165 0.69582069 46 12
-0.7980873 -0.037078381 -0.069898926 22 5
-4.3910255 -0.20323595 0.85444248 40 13
-0.87985653 -0.040569529 -0.046160303 66 6
-4.4267669 -0.20334074 1.0230772 41 14
-4.3287754 -0.19883956 -0.075638488 8 7
-4.4154563 -0.20205003 1.1843561 35 15
-4.3111033 -0.19124253 0.075324483 48 8
-4.3138976 -0.18985783 0.22630075 53 9
-4.3392758 -0.18945616 0.37999883 50 10
-4.3491974 -0.18912993 0.5345189 41 11
-4.4009981 -0.18984246 0.69769794 46 12
-4.3995218 -0.18901059 0.85596889 40 13
-0.87799066 -0.037566185 -0.046055626 52 6
-4.4098949 -0.1879131 1.0190283 39 14
-4.3234496 -0.18347467 -0.075533777 9 7
-4.4161353 -0.18663484 1.1843562 35 15
-4.3157411 -0.17635703 0.07539431 50 8
-4.310544 -0.17463659 0.22609144 53 9
-4.3438611 -0.175226 0.38034743 50 10
-4.3617311 -0.17442299 0.53598118 41 11
-4.379921 -0.17361918 0.69425625 45 12
-4.4001546 -0.17365211 0.85596889 40 13
-0.88809496 -0.034893226 -0.046578985 35 6
-4.4144182 -0.17267182 1.0199281 38 14
-4.3180695 -0.16814835 -0.075429067 11 7
-4.4225502 -0.17144284 1.1859089 34 15
-4.3203263 -0.16143939 0.075464107 50 8
-4.321106 -0.15995817 0.22661476 53 9
-4.3404918 -0.15915872 0.3799988 48 10
-4.3543787 -0.15890697 0.53500634 41 11
-4.3883967 -0.15861464 0.69550771 45 12
-4.4046845 -0.15766393 0.85673255 40 13
-0.89420497 -0.031851452 -0.046893004 27 6
-4.4228115 -0.15676601 1.0217277 39 14
-4.3246255 -0.1532858 -0.075533777 13 7
-4.4076762 -0.15546039 1.1817679 33 15
-4.3128953 -0.14533408 0.075324498 48 8
-4.3256555 -0.14425251 0.22682409 53 9
-4.3330564 -0.14374226 0.37930161 48 10
-4.3608837 -0.1431416 0.53573757 40 11
-4.3988204 -0.1428498 0.69707209 43 12
-4.399322 -0.14209752 0.8555873 40 13
-0.90029931 -0.028922262 -0.04720702 25 6
-4.4233317 -0.14132749 1.0217277 39 14
-4.317163 -0.13718115 -0.075394161 11 7
-4.4004927 -0.1390592 1.1796973 34 15
-4.3133759 -0.13027926 0.075324483 50 8
-4.3281293 -0.12921175 0.22692879 53 9
-4.3415194 -0.12809479 0.37999928 50 10
-4.3593731 -0.1278601 0.53549385 41 11
-4.4111395 -0.1278374 0.69894928 46 12
-4.3939261 -0.1258036 0.85444248 40 13
-0.90039933 -0.02562229 -0.04720702 19 6
-4.4432993 -0.12566504 1.0262266 40 14
-4.3236122 -0.12228007 -0.075498879 11 7
-4.4086766 -0.12391582 1.1817681 33 15
-4.325778 -0.11629716 0.075533919 50 8
-4.3185315 -0.11534709 0.22640543 55 9
-4.3458838 -0.11456072 0.3803474 48 10
-4.3597732 -0.11340302 0.53549385 41 11
-4.4095449 -0.11392862 0.69863647 43 12
-4.406075 -0.11229898 0.85673207 39 13
-0.89847887 -0.022742899 -0.047102351 19 6
-4.4241915 -0.11121548 1.0217277 40 14
-4.333971 -0.10894752 -0.075673401 11 7
-4.4051809 -0.10996831 1.1807326 33 15
-4.3181434 -0.10176311 0.075394303 52 8
-4.3169103 -0.1002254 0.22630075 52 9
-4.3462572 -0.099388905 0.3803474 48 10
-4.3640943 -0.099034764 0.53598124 41 11
-4.3980665 -0.098269798 0.69675928 45 12
-4.4142742 -0.097861171 0.85825908 37 13
-0.89854926 -0.019763488 -0.047102347 13 6
-4.4303803 -0.09667109 1.0230774 40 14
-4.3243284 -0.093601972 -0.075498879 13 7
-4.4074697 -0.094633095 1.1812503 35 15
-4.3304682 -0.086930029 0.075603731 48 8
-4.3292155 -0.085393213 0.22692879 53 9
-4.3385959 -0.084820755 0.37965021 47 10
-4.3723521 -0.083953984 0.53695619 40 11
-4.4082584 -0.083103135 0.69832367 49 12
-4.4165659 -0.081717625 0.85864067 36 13
-0.8826403 -0.016176982 -0.046264976 7 6
-4.434588 -0.081276886 1.0239772 40 14
-4.3266282 -0.078543894 -0.075533777 14 7
-4.3923202 -0.078968585 1.177109 40 15
-4.3187609 -0.07086058 0.075394303 50 8
-4.3314962 -0.069556221 0.22703345 53 9
-4.3428612 -0.068981633 0.3799988 48 10
-4.3706455 -0.067895994 0.53671247 38 11
-4.4105082 -0.066976458 0.69863647 43 12
-4.4148731 -0.065501414 0.85825861 39 13
-0.89467597 -0.013117715 -0.046893008 6 6
-4.4445987 -0.065166585 1.0262268 39 14
-4.3248878 -0.062655412 -0.075498886 14 7
-4.3906493 -0.062842727 1.1765915 36 15
-4.3189921 -0.055030987 0.07539431 50 8
-4.3377042 -0.054512262 0.22734746 52 9
-4.3470693 -0.053111363 0.3803474 48 10
-4.3768191 -0.051947959 0.53744364 41 11
-4.4107151 -0.051579334 0.69863647 45 12
-4.4111476 -0.050045557 0.85749578 39 13
-0.86276209 -0.0096374508 -0.045218255 8 6
-4.4506445 -0.049715757 1.0275763 40 14
-4.3270798 -0.047581244 -0.075533777 21 7
-4.3869777 -0.047474179 1.1755562 43 15
-4.3271489 -0.040783606 0.075533919 48 8
-4.3318691 -0.040072024 0.22703345 55 9
-4.3591752 -0.038802944 0.38139328 48 10
-4.3670435 -0.037348572 0.53622502 40 11
-4.43259 -0.037135512 0.70207798 46 12
-4.4269962 -0.035543319 0.86054838 40 13
-4.4390936 -0.034864619 1.024877 41 14
-4.3372116 -0.033307452 -0.0757083 30 7
-4.3929071 -0.032969505 1.1771091 48 15
-4.3332586 -0.026470516 0.075638622 48 8
-4.3279891 -0.024927609 0.22682412 53 9
-4.363265 -0.024369275 0.38174191 48 10
-4.3790531 -0.022928922 0.53768742 38 11
-4.4149141 -0.021575648 0.69926214 48 12
-4.4270897 -0.020862507 0.86054838 37 13
-4.365963 -0.019812474 -0.22881272 2 6
-4.4430857 -0.019385962 1.0257769 39 14
-4.3293028 -0.018134965 -0.075568691 29 7
-4.3852682 -0.017604057 1.1750387 48 15
-4.3333249 -0.011345372 0.075638622 48 8
-4.3400335 -0.0098470254 0.22745217 53 9
-4.3513703 -0.0083539188 0.38069603 48 10
-4.3870473 -0.0076567712 0.53866243 37 11
-4.4149623 -0.0061644684 0.69926214 45 12
-4.4271364 -0.0046351398 0.86054838 37 13
-4.3380456 -0.0037858107 -0.22734734 10 6
-4.4528704 -0.0031088921 1.0280263 39 14
-4.3313394 -0.0030240421 -0.075603589 29 7
-4.3775754 -0.0022912943 1.172968 48 15
-4.3273387 0.00453196 0.075533919 48 8
-4.3460326 0.0053089829 0.22776617 52 9
-4.3553576 0.0068416302 0.38104516 48 10
-4.3890309 0.0084264996 0.53890616 38 11
-4.4208832 0.0092591988 0.70020074 46 12
-4.4231987 0.010807951 0.85978508 40 13
-4.31007 0.011283734 -0.22588192 29 6
-4.4528546 0.012433609 1.0280265 40 14
-4.325325 0.01207751 -0.075498886 39 7
-4.3756251 0.012982656 1.1724504 51 15
-4.3292994 0.018890802 0.075568825 48 8
-4.3459878 0.020479558 0.22776617 52 9
-4.3672624 0.022104217 0.38209054 48 10
-4.3830237 0.022949992 0.53817493 40 11
-4.4287257 0.024734106 0.70145231 49 12
-4.4231386 0.025475917 0.85978508 42 13
-4.3319783 0.025706915 -0.2270333 57 6
-4.4625316 0.027260488 1.0302758 41 14
-4.3332543 0.027227042 -0.075638488 53 7
-4.3794155 0.028281426 1.1734855 51 15
-4.3292074 0.03400185 0.075568825 48 8
-4.3398986 0.035601769 0.22745217 53 9
-4.379118 0.036686763 0.38313687 45 10
-4.3809319 0.038232259 0.5379312 38 11
-4.4404635 0.040300775 0.70332944 46 12
-4.4348021 0.041024484 0.86207479 39 13
-4.3058996 0.040583603 -0.22567259 55 6
-4.4546151 0.042762764 1.0284761 40 14
-4.3451309 0.04247015 -0.075847924 50 7
-4.3754277 0.043529961 1.1724504 51 15
-4.345058 0.049294993 0.07584805 48 8
-4.3417439 0.050773058 0.22755681 52 9
-4.3729773 0.052665927 0.38261393 45 10
-4.3906965 0.053645715 0.53914988 40 11
-4.4264698 0.055628069 0.70113939 45 12
-32.078854 0.40873885 -2.8067648 10 5
-4.4287324 0.057201527 0.86092997 42 13
-4.3077188 0.056391459 -0.22577725 53 6
-4.4524794 0.059063684 1.0280263 39 14
-4.3369579 0.057531249 -0.0757083 48 7
-4.3849072 0.058931667 1.1750386 48 15
-4.3488469 0.065280199 0.075917855 45 8
-4.3495283 0.066049688 0.2279755 53 9
-4.3568301 0.067682691 0.38121897 45 10
-4.3944402 0.069800146 0.53963739 40 11
-4.4282241 0.071110837 0.70145231 46 12
-32.02145 0.51980019 -2.8018839 10 5
-4.4402838 0.072854765 0.86321968 40 13
-4.3154836 0.071560435 -0.22619593 48 6
-4.4561429 0.074669734 1.028926 40 14
-4.3327317 0.072601788 -0.075638495 50 7
-4.3653588 0.073911615 1.1698622 48 15
-4.3326125 0.079408154 0.075638629 48 8
-4.3572593 0.081381276 0.22839418 50 9
-4.3565669 0.082889535 0.38121897 48 10
-4.4060926 0.084601067 0.54109979 41 11
-31.961931 0.61928648 -3.9251666 13 4
-4.4397984 0.086798519 0.70332944 46 12
-32.047329 0.63212377 -2.8043242 10 5
-4.4321661 0.087423123 0.86169314 42 13
-4.3192163 0.085950337 -0.22640526 51 6
-4.4656129 0.089642167 1.0311756 40 14
-4.3324523 0.087725528 -0.075638495 48 7
-4.368938 0.089228146 1.1708976 54 15
-4.3403053 0.094705924 0.075778246 48 8
-4.3609428 0.096678093 0.22860356 52 9
-4.3702121 0.097647689 0.38243914 48 10
-4.3918786 0.099666603 0.53939366 37 11
-31.95957 0.7308439 -3.9251699 13 4
-4.4473681 0.10247794 0.70458096 49 12
-32.021156 0.73784351 -2.8022325 10 5
-4.4396849 0.10307719 0.86321968 40 13
-4.3148966 0.10093237 -0.22619593 53 6
-4.4808583 0.10559693 1.0347748 41 14
-4.340116 0.10303907 -0.075778119 48 7
-4.3724618 0.10456948 1.1719327 54 15
-4.3519435 0.11015958 0.075987689 48 8
-4.3525925 0.11169625 0.22818488 52 9
-4.3738279 0.11300503 0.38278779 48 10
-4.3954725 0.11509952 0.53988111 38 11
-31.956825 0.84240001 -3.9251699 13 4
-4.450933 0.11810644 0.70520675 48 12
-32.030334 0.8499316 -2.8032782 10 5
-4.4353733 0.11846818 0.86245638 40 13
-4.3065319 0.11577898 -0.22577725 55 6
-4.4687743 0.12092232 1.0320754 41 14
-4.353723 0.11856844 -0.076022454 50 7
-4.3720703 0.1198317 1.1719327 48 15
-4.3555298 0.12546426 0.076057494 47 8
-4.3481822 0.12677264 0.2279755 53 9
-4.3853555 0.12862243 0.38383362 48 10
-4.4009967 0.13061866 0.54061234 40 11
-4.361289 0.13020198 -0.53573787 2 4
-4.4406204 0.13334604 0.70364237 48 12
-32.01107 0.96684235 -2.8018839 10 5
-4.4467063 0.13430552 0.86474657 40 13
-4.3220725 0.13129616 -0.22661464 53 6
-4.4663773 0.13646008 1.0316256 39 14
-4.3432879 0.13345806 -0.075847916 48 7
-4.377418 0.13527147 1.1734856 51 15
-4.36306 0.1409255 0.07619711 47 8
-4.3636827 0.14247136 0.22881286 48 9
-4.3729072 0.14430054 0.38278779 48 10
-4.4024982 0.14604616 0.54085606 38 11
-8.2613325 0.27549851 -1.0149285 9 4
-4.444077 0.14897838 0.70426816 48 12
-31.991573 1.0780401 -2.8004894 10 5
-4.450109 0.15073565 0.86550939 40 13
-4.3255539 0.14727245 -0.22682394 53 6
-4.4755845 0.15316257 1.033875 41 14
-4.3447943 0.14868668 -0.07588283 52 7
-4.3711271 0.15035158 1.1719327 54 15
-4.3585167 0.15677327 0.076127291 47 8
-4.3631587 0.15770167 0.22881286 48 9
-4.3703856 0.15949139 0.38261345 47 10
-4.4100275 0.16170771 -0.6989491 1 3
-4.4118514 0.16254662 0.54207468 40 11
-4.4533997 0.16485567 0.70583242 49 12
-31.959743 1.1886616 -2.798049 10 5
-4.4417076 0.16597538 0.86398286 40 13
-4.3329964 0.16267039 -0.22724263 51 6
-4.4692101 0.16778415 1.0325253 40 14
-4.3442492 0.16385104 -0.075882837 45 7
-4.3686457 0.16553575 1.1714152 51 15
-4.3539767 0.17106894 0.076057486 47 8
-4.372591 0.17256355 0.22933623 49 9
-4.3877501 0.1746968 0.3841823 52 10
-4.4094677 0.17633118 -0.69894916 1 3
-4.3974037 0.17661849 0.54036856 37 11
-4.4587493 0.1798618 0.70677096 48 12
-31.947657 1.2943158 -2.7973516 10 5
-4.4529028 0.18118277 0.86627257 42 13
-4.3184648 0.17646757 -0.22650996 57 6
-4.4764175 0.1829221 1.0343249 39 14
-4.3496757 0.17850232 -0.07598754 48 7
-4.371933 0.18018104 1.1724504 51 15
-4.3633752 0.18593214 0.076232009 50 8
-4.3639798 0.18748289 0.22891752 51 9
-4.3911276 0.18941802 0.3845309 45 10
-4.3772821 0.18958509 -0.69394326 1 3
-4.4007611 0.19137147 0.54085606 38 11
-4.3709798 0.19084172 -0.53719985 2 4
-4.4561214 0.19533722 0.70645815 49 12
-31.925278 1.399467 -2.795783 10 5
-4.4483542 0.19577457 0.86550927 42 13
-4.3278313 0.19122811 -0.22703327 51 6
-4.4757519 0.19854565 1.0343249 40 14
-4.359015 0.19413045 -0.07616207 50 7
-4.3654876 0.1951821 1.1708975 48 15
-4.3666954 0.20134534 0.076301821 48 8
-4.3632989 0.20271499 0.22891752 49 9
-4.3904405 0.20474386 0.38453093 48 10
-4.3884325 0.2054178 -0.69582039 1 3
-4.4060144 0.20701246 0.54158723 40 11
-4.3980465 0.20740631 -0.54061216 2 4
-4.4435735 0.21033055 0.70458096 46 12
-31.920198 1.5108994 -2.795783 10 5
-4.4554887 0.21167491 0.86703587 40 13
-4.3311281 0.20652325 -0.22724263 48 6
-4.4730854 0.21407472 1.033875 40 14
-4.3483233 0.20886546 -0.07598754 48 7
-4.3724976 0.21079047 1.172968 48 15
-4.3719568 0.21688408 0.076406531 48 8
-4.3725386 0.21844293 0.2294409 48 9
-4.3896985 0.2200682 0.3845309 48 10
-4.4113641 0.22192618 -0.69957489 1 3
-4.4151783 0.22289059 0.54280597 38 11
-4.397296 0.22275722 -0.54061216 2 4
-4.4467573 0.2260409 0.70520669 46 12
-31.90279 1.6217064 -2.7947371 10 5
-4.4723678 0.22812529 0.87047076 42 13
-4.3383598 0.22204895 -0.22766134 44 6
-4.4800959 0.23008838 1.0356746 40 14
-4.353559 0.2243505 -0.076092251 50 7
-4.3678761 0.22585264 1.1719326 54 15
-4.3651829 0.23182572 0.076301821 48 8
-4.3757381 0.23391795 0.22965026 48 9
-4.3849249 0.2351765 0.3841823 50 10
-4.4342327 0.23859714 -0.70332932 1 3
-4.42032 0.23862222 0.5435372 40 11
-4.451993 0.24111128 -0.54743683 2 4
-4.4597492 0.24231195 0.70739681 48 12
-31.908876 1.7337078 -2.7957833 10 5
-4.451942 0.242667 0.86665416 40 13
-4.3475294 0.2377367 -0.2281847 55 6
-4.4870477 0.24615143 1.0374742 40 14
-4.3607364 0.23998556 -0.076231875 50 7
-4.3632045 0.24088517 1.1708975 45 15
-4.3643041 0.24782345 0.076301821 50 8
-4.3848648 0.24975871 0.23017357 49 9
-4.3959675 0.25193051 0.38522813 47 10
-4.4057183 0.25326073 -0.6989491 1 3
-4.4174333 0.25470766 0.54329342 37 11
-4.4550424 0.25765631 -0.54792428 2 4
-4.4608483 0.25799209 0.70770973 48 12
-31.890368 1.849956 -2.7947371 10 5
-4.456902 0.25932476 0.86779904 40 13
-4.3366594 0.25308785 -0.22766134 51 6
-4.497788 0.26327896 1.0401735 41 14
-4.37185 0.25590718 -0.07644131 50 7
-4.3719788 0.25668135 1.1734855 51 15
-4.3754339 0.2630147 0.076511249 48 8
-4.3739982 0.26445961 0.22965023 49 9
-4.395062 0.2672739 0.38522819 50 10
-4.4048543 0.26786941 -0.6989491 1 3
-4.4145832 0.26923329 0.54304969 41 11
-4.43435 0.27121666 -0.54548746 2 4
-4.473722 0.27440846 0.70989972 48 12
-31.875763 1.9607669 -2.7940397 10 5
-4.4599371 0.27434316 0.86856228 40 13
-4.3357964 0.2674675 -0.22766131 44 6
-4.487165 0.27759126 1.0379241 40 14
-4.3709302 0.27116737 -0.07644131 50 7
-4.3710561 0.27193993 1.1734855 51 15
-4.3784809 0.27854028 0.076581061 50 8
-4.3710566 0.2795988 0.22954561 49 9
-4.4060807 0.28261232 0.38627449 50 10
-4.4038925 0.28324267 -0.6989491 1 3
-4.41956 0.28502592 0.54378098 38 11
-4.3937578 0.28413185 -0.54061222 2 4
-4.4609098 0.28925511 0.70802253 48 12
-31.844868 2.0704794 -2.7919483 10 5
-4.4726653 0.29080233 0.87123406 40 13
-4.3428087 0.28312048 -0.22808002 46 6
-4.4900584 0.29350603 1.0388241 40 14
-4.3639703 0.28602982 -0.076336585 50 7
-4.3681526 0.28706956 1.1729679 48 15
-4.3854628 0.29435706 0.076720677 52 8
-4.3840022 0.29579723 0.23027828 48 9
-4.3970637 0.29821923 0.38557673 48 10
-4.4224982 0.30072072 0.54426837 38 11
-4.4204655 0.30135646 -0.544025 2 4
-4.4539599 0.30442086 0.70708388 46 12
-31.817568 2.1802649 -2.790205 10 5
-4.47157 0.30719256 0.87123358 40 13
-4.3497119 0.29958478 -0.2284987 53 6
-4.4928403 0.31023055 1.0397238 39 14
-4.3649397 0.30139899 -0.076371491 50 7
-4.3555608 0.30151412 1.1698622 48 15
-4.3763762 0.30986482 0.076581061 50 8
-4.3889198 0.31152174 0.23059228 49 9
-4.3920221 0.31328377 0.38522819 45 10
-4.429338 0.31672141 -0.70332932 1 3
-4.4332476 0.31777865 0.54573089 38 11
-4.4312115 0.31841105 -0.54548746 2 4
-4.4646926 0.32081687 0.70896113 46 12
-31.79784 2.2904501 -2.7891591 10 5
-4.4665532 0.32251665 0.87047076 40 13
-4.352623 0.31505471 -0.22870803 48 6
-4.497561 0.3263348 1.0410733 41 14
-4.3718386 0.31721261 -0.0765111 50 7
-4.3525553 0.31657603 1.1693447 51 15
-4.3753242 0.32437482 0.076581061 48 8
-4.4037395 0.32802704 0.23142965 51 9
-4.4067965 0.32980147 0.38662264 47 10
-4.4282627 0.33140799 -0.70332927 1 3
-4.4301891 0.33232969 0.54548711 40 11
-4.4301305 0.33310387 -0.5454874 2 4
-4.477334 0.3374379 0.7111513 48 12
-31.769781 2.3999314 -2.7874157 10 5
-4.4654593 0.33732671 0.87047076 39 13
-4.3475714 0.32918546 -0.2284987 48 6
-4.5061698 0.34198499 1.0433229 40 14
-4.376687 0.33292541 -0.076615825 50 7
-4.359129 0.33235598 1.1714151 51 15
-4.3821397 0.34026492 0.076720677 50 8
-4.3806643 0.34168863 0.23027828 48 9
-4.4096503 0.34472382 0.38697174 48 10
-4.3995085 0.34470347 -0.6989491 1 3
-4.4290023 0.34779203 0.54548711 40 11
-4.4447737 0.34981102 -0.54743683 2 4
-4.4780979 0.35322008 0.71146411 48 12
-31.757679 2.5049586 -2.7870674 10 5
-4.4818697 0.35430467 0.87390494 40 13
-4.350378 0.34467492 -0.22870806 48 6
-4.5030065 0.35755721 1.042873 41 14
-4.3854656 0.34899521 -0.076790348 52 7
-4.3617935 0.34787747 1.1724504 51 15
-4.3888979 0.35620654 0.076860301 53 8
-4.3874078 0.35762605 0.23069698 48 9
-4.4203358 0.36108777 0.38801718 50 10
-4.4356751 0.36390048 0.54646206 40 11
-4.4356117 0.36467355 -0.54646194 2 4
-4.4807749 0.36917391 0.71208984 48 12
-31.728886 2.6141632 -2.7853241 10 5
-4.4825625 0.37010986 0.87428653 40 13
-4.3531294 0.36018693 -0.22891738 48 6
-4.5056148 0.3735956 1.0437728 41 14
-4.3762493 0.363639 -0.076650739 50 7
-4.3682528 0.3637411 1.1745209 51 15
-4.3916135 0.37186208 0.076930113 50 8
-4.3901129 0.37327838 0.23090632 49 9
-4.4071364 0.37550059 0.38697174 48 10
-4.4521055 0.38011366 -0.70770955 1 3
-4.4422894 0.38005757 0.54743701 37 11
-4.4184885 0.3787981 -0.54451197 2 4
