# .PCD v0.7 - Point Cloud Data file format
VERSION 0.7
FIELDS x y z intensity ring
SIZE 4 4 4 4 2
TYPE F F F F U
COUNT 1 1 1 1 1
WIDTH 444
HEIGHT 1
VIEWPOINT 0 0 0 1 0 0 0
POINTS 444
DATA ascii
2.4339507 -0.52046096 -0.39421484 1 3
2.4070261 -0.52349645 -0.39014757 6 3
2.389822 -0.53725493 -0.38795751 39 3
2.3957305 -0.5469355 -0.38920897 43 3
2.3881299 -0.5535388 -0.38827029 42 3
2.4054825 -0.55844575 -0.30321079 1 4
2.391952 -0.56322998 -0.38920897 41 3
2.341692 -0.55225796 -0.2954112 8 4
2.395735 -0.57295436 -0.39014757 40 3
2.3744984 -0.56875175 -0.29979846 30 4
2.3898811 -0.58038116 -0.38952181 40 3
2.364783 -0.57516038 -0.29882351 36 4
2.3782511 -0.58635557 -0.38795745 19 3
2.3299983 -0.57532179 -0.29468024 49 4
2.3260505 -0.58296895 -0.29443622 43 4
2.4085619 -0.6116969 -0.39358908 1 3
2.3182297 -0.58961684 -0.29370499 40 4
2.4218245 -0.6236214 -0.39609206 3 3
2.3239508 -0.59928387 -0.29467997 29 4
2.456295 -0.64073259 -0.49343222 1 2
2.3218446 -0.60739231 -0.29467997 5 4
2.4174118 -0.64051342 -0.39609206 60 3
2.3427348 -0.62160254 -0.29760483 20 4
2.4593461 -0.65989995 -0.49495858 36 2
2.4037147 -0.64587235 -0.39421484 33 3
2.3348 -0.62822896 -0.2968736 30 4
2.4475563 -0.66590381 -0.49305061 33 2
2.4185989 -0.65893233 -0.39703068 41 3
2.3517437 -0.64159983 -0.29931128 36 4
2.4565721 -0.67757547 -0.49534026 40 2
2.4143801 -0.66684484 -0.39671779 41 3
2.328444 -0.64398444 -0.29663017 41 4
2.3733747 -0.65685683 -0.21544908 1 5
2.4485199 -0.68456048 -0.49419546 39 2
2.4063308 -0.67367089 -0.39577919 40 3
2.3338275 -0.65425169 -0.29760483 35 4
2.3154349 -0.64953142 -0.21039402 9 5
2.4536707 -0.69524401 -0.49572185 39 2
2.4020641 -0.6815272 -0.3954663 39 3
2.3334391 -0.66293657 -0.29784858 35 4
2.3189032 -0.65924436 -0.21091697 31 5
2.458777 -0.70597196 -0.49724835 39 2
2.4148586 -0.69427431 -0.39796931 41 3
2.3292031 -0.67052877 -0.29760483 35 4
2.3165879 -0.66733497 -0.21091697 33 5
2.4506426 -0.71290511 -0.4961035 29 2
2.4143171 -0.70325208 -0.39828217 40 3
2.3287539 -0.6792109 -0.29784858 35 4
2.3008561 -0.6715098 -0.20969678 40 5
2.4194257 -0.71391153 -0.3995336 40 3
2.3339839 -0.68958539 -0.29882351 35 4
2.2927663 -0.67784262 -0.20917384 45 5
2.4207044 -0.7234838 -0.40015936 40 3
2.3391695 -0.70000482 -0.29979846 35 4
2.290386 -0.6858418 -0.20917384 37 5
2.8773322 -0.86269373 -0.15742652 8 6
2.5012999 -0.7561397 -0.50793368 2 2
2.4069474 -0.72807556 -0.39828214 38 3
2.342535 -0.70948422 -0.30052969 33 4
2.2841651 -0.69267619 -0.20882525 21 5
2.4762504 -0.75753826 -0.50335431 11 2
2.4043911 -0.7364729 -0.39828214 13 3
2.3495336 -0.72056705 -0.30174866 18 4
2.8733025 -0.88284546 -0.15753119 18 6
2.5634086 -0.79350752 -0.61951512 2 1
2.4186552 -0.75054955 -0.40109795 33 3
2.3401551 -0.72753316 -0.21440317 1 5
2.8528845 -0.88802832 -0.15658914 3 6
2.5642021 -0.80406362 -0.62041491 27 1
2.4595268 -0.77171183 -0.50106454 27 2
2.4292123 -0.76313198 -0.40328801 32 3
2.3708282 -0.74569988 -0.30516073 1 4
2.341403 -0.73689395 -0.21475187 1 5
2.8650069 -0.90278339 -0.15742652 3 6
2.5688095 -0.81536776 -0.6222145 46 1
2.4736581 -0.78564101 -0.50449908 36 2
2.4265337 -0.77160674 -0.40328801 38 3
2.3568614 -0.75035781 -0.30369827 1 4
2.3236291 -0.7402243 -0.21335733 1 5
2.5436833 -0.81717712 -0.61681569 33 1
2.4746387 -0.7954725 -0.50526232 37 2
2.4257064 -0.78067756 -0.40360093 38 3
2.373122 -0.76466829 -0.30613568 2 4
2.339994 -0.7544446 -0.21510047 1 5
2.3530514 -0.7595613 -0.12958379 3 6
2.5520799 -0.82922107 -0.61951512 32 1
2.4811819 -0.80714256 -0.50717044 37 2
2.4268606 -0.78993982 -0.40422663 37 3
2.3667984 -0.77130347 -0.30564818 11 4
2.3373458 -0.76260799 -0.21510045 1 5
2.2536886 -0.73574835 -0.12424552 13 6
2.5621283 -0.84238493 -0.62266475 38 1
2.4635723 -0.81045783 -0.50411749 37 2
2.4315934 -0.80087835 -0.40547812 37 3
2.3716323 -0.78204703 -0.30662313 33 4
2.3612933 -0.77909458 -0.21754082 1 5
2.5591724 -0.85132331 -0.62266445 37 1
2.4681792 -0.82153249 -0.50564396 36 2
2.4362793 -0.81185931 -0.40672958 37 3
2.3877187 -0.79660314 -0.30906081 40 4
2.3396604 -0.78102338 -0.21579768 1 5
2.273123 -0.75969404 -0.12560627 37 6
2.5728076 -0.86584556 -0.62671351 36 1
2.4708781 -0.83202243 -0.50678873 34 2
2.4296868 -0.81909639 -0.40610385 36 3
2.3642347 -0.79795021 -0.30637944 46 4
2.3218184 -0.78408587 -0.21440318 1 5
2.2704575 -0.7676242 -0.12560627 51 6
2.5531666 -0.8691687 -0.62266475 13 1
2.4791095 -0.84444064 -0.5090785 33 2
2.430552 -0.82884783 -0.40672958 36 3
2.3689489 -0.8087635 -0.30735436 39 4
2.3416929 -0.79991454 -0.21649496 2 5
2.2450862 -0.76778924 -0.12435019 38 6
2.553802 -0.87934458 -0.62356454 28 1
2.4835715 -0.85564715 -0.51060498 33 2
2.4369814 -0.84054744 -0.40829396 34 3
2.3586061 -0.81443608 -0.30637941 39 4
2.3219376 -0.80222803 -0.21492615 3 5
2.2442803 -0.7762745 -0.12445488 36 6
2.5635998 -0.89273983 -0.62671351 32 1
2.4787154 -0.86366516 -0.51022333 22 2
2.4396276 -0.85100085 -0.40923253 31 3
2.3557487 -0.82266426 -0.30637941 37 4
2.3210039 -0.81098539 -0.21510045 19 5
2.2528679 -0.78806043 -0.1250829 35 6
2.5714962 -0.90556669 -0.62941289 36 1
2.4775374 -0.87296462 -0.51060498 11 2
2.4385056 -0.86016876 -0.40954545 5 3
2.3640935 -0.83484834 -0.30784187 14 4
2.3125231 -0.81709087 -0.21457751 8 5
2.2482209 -0.79525357 -0.12497824 35 6
2.5701554 -0.91519123 -0.62986284 35 1
2.483722 -0.884902 -0.51251304 28 2
2.2567146 -0.80713218 -0.12560627 34 6
2.5632784 -0.9228369 -0.62896311 37 1
2.4880064 -0.89622784 -0.51403958 36 2
2.4603145 -0.88722318 -0.41423845 1 3
2.4086206 -0.86953193 -0.31442308 1 4
2.3648536 -0.85419822 -0.21998119 1 5
2.2463703 -0.81228793 -0.12518756 33 6
2.5691977 -0.93511128 -0.63121259 36 1
2.4830179 -0.90423548 -0.51365793 33 2
2.4757614 -0.9025718 -0.41736713 1 3
2.3831937 -0.86976743 -0.31149796 1 4
2.3543711 -0.85971415 -0.21928394 1 5
2.2435215 -0.82012439 -0.12518758 33 6
2.3192096 -0.84871018 -0.043107308 1 7
2.5677462 -0.94474667 -0.63166279 35 1
2.4798465 -0.91289711 -0.51365793 33 2
2.4688888 -0.90984207 -0.4167414 20 3
2.4024918 -0.88632601 -0.31442282 1 4
2.3737853 -0.87620646 -0.22137566 1 5
2.2500122 -0.83141208 -0.12571092 25 6
2.2468398 -0.83113128 -0.041815832 5 7
2.5753918 -0.95777971 -0.63436216 35 1
2.4803247 -0.92291731 -0.51442116 33 2
2.3845031 -0.88915819 -0.31247288 1 4
2.3595121 -0.88030839 -0.22032979 1 5
2.2214484 -0.83056551 -0.041396983 22 7
2.5793297 -0.96950632 -0.63616151 33 1
2.4917891 -0.93709821 -0.51747411 33 2
2.4476869 -0.92148793 -0.41423842 37 3
2.4036753 -0.90587682 -0.31539774 1 4
2.3750677 -0.89556897 -0.22207293 1 5
2.3170273 -0.87460756 -0.12979315 1 6
2.2448719 -0.84781861 -0.041885644 41 7
2.5761003 -0.97805417 -0.63616145 32 1
2.4995136 -0.94997543 -0.51976383 34 2
2.45385 -0.93311042 -0.41580284 42 3
2.3932376 -0.91101807 -0.31442282 1 4
2.379374 -0.90669161 -0.22277015 1 5
2.2954519 -0.87517089 -0.12874642 1 6
2.25124 -0.85921466 -0.04206017 60 7
2.5763097 -0.9884367 -0.6370613 27 1
2.5000155 -0.95966601 -0.52052706 32 2
2.4579535 -0.94450456 -0.4170543 42 3
2.3974535 -0.92221713 -0.31539774 2 4
2.361479 -0.90885198 -0.22137569 1 5
2.2998381 -0.88605046 -0.12916511 1 6
2.2183754 -0.85555506 -0.041501701 45 7
2.5873795 -1.0030589 -0.64066052 8 1
2.4948199 -0.96767676 -0.52014542 28 2
2.4601657 -0.95522344 -0.41799286 41 3
2.388669 -0.92842275 -0.31466681 27 4
2.3768611 -0.92431068 -0.22311878 1 5
2.3041761 -0.89697105 -0.12958381 1 6
2.2284179 -0.8683756 -0.041746028 45 7
2.502394 -0.98067749 -0.52243507 4 2
2.4641721 -0.96669084 -0.41924432 28 3
2.4057386 -0.9447366 -0.31734791 37 4
2.34395 -0.92094433 -0.22032979 1 5
2.3010309 -0.90500867 -0.12958379 2 6
2.2049053 -0.86809075 -0.041362073 36 7
2.391355 -0.94873613 -0.31588551 24 4
2.3425729 -0.9298557 -0.22050411 5 5
2.2718725 -0.90271014 -0.1281184 7 6
2.224159 -0.88465071 -0.04178093 40 7
2.531944 -1.0127053 -0.5300675 1 2
2.4867053 -0.99561816 -0.42425027 1 3
2.3714457 -0.95043153 -0.31369156 4 4
2.2483189 -0.90245116 -0.126967 17 6
2.2321906 -0.8968823 -0.041990362 42 7
2.5356748 -1.0244792 -0.53159398 1 2
2.5161777 -1.0176237 -0.42988193 1 3
2.417794 -0.97881633 -0.3202728 1 4
2.3618772 -0.95665878 -0.22294445 38 5
2.2710676 -0.92080003 -0.12843239 27 6
2.2327523 -0.90617275 -0.04206017 40 7
2.5211771 -1.0288731 -0.52930427 1 2
2.5162673 -1.0278944 -0.4305076 1 3
2.4364119 -0.99626601 -0.32319736 1 4
2.3493035 -0.96112537 -0.2220729 13 5
2.2992601 -0.9415893 -0.13021182 36 6
2.2295756 -0.91396099 -0.04206017 41 7
2.2355335 -0.92050767 0.042199861 2 8
2.5139401 -1.0361712 -0.52854103 6 2
2.5309246 -1.0442054 -0.43363631 1 3
2.4292495 -1.003249 -0.32271019 1 4
2.2793489 -0.94273913 -0.12926976 36 6
2.2282195 -0.92250293 -0.04209508 41 7
2.1972249 -0.91371679 0.041536674 11 8
2.5017364 -1.0423969 -0.42925614 1 3
2.4367254 -1.0163074 -0.32417232 1 4
2.3498914 -0.98057222 -0.22277015 1 5
2.2760441 -0.95068991 -0.12926976 33 6
2.2286758 -0.93181825 -0.042164892 41 7
2.5319831 -1.0643476 -0.53388369 27 2
2.5053656 -1.0541878 -0.43050766 1 3
2.4697523 -1.0402179 -0.32904711 1 4
2.3721585 -0.99960041 -0.22521052 1 5
2.2635107 -0.9547478 -0.12874642 32 6
2.2290936 -0.94114751 -0.042234693 41 7
2.1963158 -0.93137598 0.041641396 42 8
2.5427098 -1.0793163 -0.53693664 33 2
2.4725814 -1.0505673 -0.42550173 2 3
2.4332244 -1.0348477 -0.32466009 1 4
2.3631549 -1.0055345 -0.22468758 1 5
2.2656765 -0.96499115 -0.12906042 32 6
2.2349923 -0.95284402 -0.042409215 40 7
2.1783447 -0.93273985 0.041362152 49 8
2.5208817 -1.0804513 -0.53312045 32 2
2.4979451 -1.0716529 -0.43050766 25 3
2.4259493 -1.0417687 -0.32417232 1 4
2.363292 -1.0153503 -0.22503622 1 5
2.2806423 -0.98078436 -0.13010713 27 6
2.2279792 -0.95905828 -0.042339407 40 7
2.1824181 -0.94351226 0.041501775 54 8
2.5279055 -1.0939225 -0.53541017 32 2
2.4941888 -1.0803658 -0.4305076 40 3
2.4222982 -1.0502304 -0.32417232 1 4
2.3560774 -1.0220077 -0.22468758 1 5
2.2284548 -0.96803486 -0.042409215 40 7
2.177444 -0.9499445 0.041466866 42 8
2.5438609 -1.1113857 -0.53960788 10 2
2.4942126 -1.0902131 -0.43113333 12 3
2.4406261 -1.0678055 -0.32709721 2 4
2.3561461 -1.0318245 -0.22503623 1 5
2.3050129 -1.0099114 -0.13188659 1 6
2.2305558 -0.97821701 -0.042513926 38 7
2.1759453 -0.95834553 0.041501775 23 8
2.418725 -1.068298 -0.32466009 15 4
2.3743968 -1.0497098 -0.22712794 3 5
2.30878 -1.0211827 -0.13230526 2 6
2.2289567 -0.98680687 -0.042548843 38 7
2.5116081 -1.1192905 -0.43551356 1 3
2.4439902 -1.0896683 -0.32855961 33 4
2.374357 -1.0596156 -0.22747657 20 5
2.2849622 -1.0206774 -0.13115387 10 6
2.2419295 -1.0019245 -0.042862982 18 7
2.194571 -0.9853586 0.041990437 1 8
2.5293033 -1.1377753 -0.43926793 1 3
2.4218791 -1.0904686 -0.32612222 3 4
2.3797266 -1.0719886 -0.22834814 37 5
2.299593 -1.0368568 -0.1322006 30 6
2.2365956 -1.008922 -0.042828076 3 7
2.1912911 -0.99263054 0.041990433 1 8
2.5471022 -1.1559528 -0.4430224 1 3
2.4290938 -1.1034199 -0.32758498 1 4
2.3578334 -1.0720425 -0.22660503 31 5
2.3125036 -1.0519195 -0.13314262 36 6
2.2458 -1.0225233 -0.04307241 22 7
2.213274 -1.0119145 0.042479105 1 8
2.2140334 -1.0127289 0.1275951 1 9
2.5286844 -1.1582558 -0.44051948 1 3
2.4468815 -1.1218197 -0.33050951 1 4
2.368753 -1.0865008 -0.22799952 39 5
2.3088179 -1.0599854 -0.13314264 41 6
2.2569339 -1.0366422 -0.043351647 40 7
2.2244329 -1.0259484 0.042758342 1 8
2.1760314 -1.0045458 0.12560636 7 9
2.5463476 -1.1765779 -0.44427386 1 3
2.4467514 -1.1315943 -0.33099699 1 4
2.3595214 -1.0922515 -0.22747657 38 5
2.2926037 -1.0617605 -0.13240993 37 6
2.2732582 -1.0537648 -0.043735594 47 7
2.2172124 -1.0320193 0.04268853 1 8
2.5314832 -1.1804501 -0.44239658 1 3
2.4319937 -1.1350909 -0.32953459 1 4
2.3558865 -1.10007 -0.22747657 30 5
2.2888834 -1.0697567 -0.13240993 37 6
2.244391 -1.0494395 -0.043246932 45 7
2.2173982 -1.0410659 0.042758346 1 8
2.1402209 -1.005743 0.12393159 38 9
2.5382805 -1.1938829 -0.44427389 1 3
2.4461763 -1.1516048 -0.33197197 1 4
2.2997763 -1.0841542 -0.13324732 37 6
2.2407141 -1.0572674 -0.043246932 41 7
2.2097704 -1.0478586 0.042688526 1 8
2.1311069 -1.0110124 0.12361757 44 9
2.5194027 -1.1968393 -0.44177088 5 3
2.4381509 -1.159284 -0.3314845 1 4
2.4019303 -1.1425759 -0.23270592 1 5
2.3082194 -1.0989869 -0.13398002 38 6
2.2386296 -1.0663329 -0.043281838 41 7
2.2098916 -1.0569063 0.042758342 2 8
2.1347709 -1.0218948 0.12403627 48 9
2.50295 -1.1992127 -0.43958083 28 3
2.4557722 -1.177663 -0.33440936 1 4
2.3979275 -1.1509533 -0.23270592 1 5
2.3117638 -1.1100934 -0.13439868 38 6
2.2457075 -1.0793382 -0.043491263 41 7
2.1439607 -1.0350465 0.12476896 45 9
2.5094197 -1.2131008 -0.44145805 13 3
2.4462857 -1.1836343 -0.33367813 7 4
2.4012709 -1.1623713 -0.23340316 1 5
2.3042803 -1.1164144 -0.13418935 38 6
2.2583115 -1.0946294 -0.043805409 41 7
2.1385393 -1.0416495 0.1246643 39 9
2.4548352 -1.1978337 -0.33538461 33 4
2.3882475 -1.1663744 -0.23253162 3 5
2.2969766 -1.1222959 -0.13398002 29 6
2.2562726 -1.1033839 -0.043840308 41 7
2.2006865 -1.0804876 0.042793248 37 8
2.1259274 -1.0447036 0.12414094 42 9
2.4363909 -1.1993811 -0.33343467 33 4
2.396672 -1.1808679 -0.23375177 21 5
2.2892652 -1.1289407 -0.13377067 6 6
2.2524073 -1.1112531 -0.043840308 38 7
2.2020869 -1.0912099 0.042897966 6 8
2.1328197 -1.0578132 0.12476896 39 9
2.4426455 -1.2136025 -0.33489683 37 4
2.3798399 -1.1834344 -0.23253162 32 5
2.3333893 -1.1613517 -0.13659683 32 6
2.2447395 -1.1177186 -0.043770503 10 7
2.1396446 -1.0709871 0.125397 41 9
2.4470537 -1.2269963 -0.33611551 36 4
2.3863797 -1.1970942 -0.23357746 34 5
2.3257511 -1.1676972 -0.13638747 33 6
2.2477832 -1.1339599 0.043945104 1 8
2.1430244 -1.0820502 0.12581569 41 9
2.439213 -1.2337387 -0.33562803 18 4
2.3768532 -1.2027185 -0.23305455 38 5
2.321661 -1.1758085 -0.13638747 38 6
2.2919765 -1.1617801 -0.044852547 1 7
2.2366824 -1.1381719 0.043805491 1 8
2.1358647 -1.0873384 0.12560634 41 9
2.3761897 -1.2128195 -0.23340316 37 5
2.3104279 -1.180271 -0.13596877 37 6
2.2738662 -1.1620941 -0.044573307 2 7
2.2400124 -1.1492339 0.043945104 1 8
2.1429086 -1.0998874 0.12623438 41 9
2.4680507 -1.2689503 -0.34074655 1 4
2.3827839 -1.2261621 -0.234449 36 5
2.3171549 -1.1934131 -0.13659681 37 6
2.2539508 -1.1658427 0.044294152 1 8
2.1426034 -1.1091971 0.12644371 41 9
2.4671304 -1.2793852 -0.34123403 1 4
2.3749528 -1.2326367 -0.2341004 36 5
2.3202751 -1.204772 -0.13701551 37 6
2.2623544 -1.1757004 -0.044503495 37 7
2.2285919 -1.1626047 0.043875296 1 8
2.1493416 -1.122216 0.12707177 38 9
2.4696856 -1.2916694 -0.34220898 1 4
2.3794615 -1.2455392 -0.23497197 34 5
2.3246896 -1.2179027 -0.13753887 38 6
2.2706349 -1.1900886 -0.044747833 42 7
2.2490895 -1.1838045 0.044363964 1 8
2.1524796 -1.1334338 0.12749043 38 9
2.4614236 -1.2988595 -0.3417215 9 4
2.3997667 -1.2668597 -0.23741233 6 5
2.3186581 -1.2250768 -0.13743418 37 6
2.2788422 -1.2045487 -0.044992164 41 7
2.2486849 -1.1931309 0.044433776 1 8
2.1467466 -1.1400039 0.12738578 37 9
2.4448349 -1.3004891 -0.34001565 25 4
2.4129167 -1.2845913 -0.23915544 2 5
2.3181086 -1.2346368 -0.13764355 37 6
2.2852118 -1.2181399 -0.045201592 41 7
2.2374535 -1.1971991 0.044294152 1 8
2.1480358 -1.1503191 0.12769976 29 9
2.4577737 -1.3183988 -0.34245273 4 4
2.4174216 -1.2972966 -0.24002703 20 5
2.3243418 -1.2483912 -0.13827157 37 6
2.2739005 -1.2223223 -0.045061976 41 7
2.2262211 -1.2012036 0.044154529 7 8
2.4041171 -1.3009861 -0.23915546 36 5
2.3305073 -1.2622039 -0.13889959 27 6
2.2731361 -1.2321582 -0.045131788 39 7
2.172832 -1.1822078 0.043177206 22 8
2.4115739 -1.3164712 -0.24037562 37 5
2.3260872 -1.2703313 -0.13889959 4 6
2.268821 -1.2400852 -0.045131784 23 7
2.2090151 -1.2119071 0.04398001 39 8
2.4087093 -1.3258419 -0.24054994 41 5
2.3179169 -1.2769208 -0.13869025 19 6
2.2185559 -1.2277416 0.044259254 37 8
2.4023244 -1.3332748 -0.24037562 37 5
2.3309052 -1.2947023 -0.13973697 30 6
2.2948451 -1.2757208 -0.045829877 1 7
2.2160027 -1.2364526 0.044294152 39 8
2.4080882 -1.3474902 -0.24142152 36 5
2.3594811 -1.321373 -0.14172572 36 6
2.3287544 -1.305233 -0.046597779 1 7
2.2291019 -1.2539847 0.044643201 39 8
2.4085758 -1.3588246 -0.24194443 37 5
2.3339841 -1.3178172 -0.14046967 37 6
2.2965553 -1.2972127 -0.046039313 1 7
2.2318895 -1.2653147 0.044782821 27 8
2.4040565 -1.3668045 -0.24194445 38 5
2.3382809 -1.3304884 -0.14099303 32 6
2.2922409 -1.3048211 -0.046039309 2 7
2.4064255 -1.3787307 -0.24264167 37 5
2.3373213 -1.3402222 -0.14120238 33 6
2.2861664 -1.3114203 -0.046004403 22 7
2.4156442 -1.3946729 -0.24403618 36 5
2.3259463 -1.3439685 -0.14078367 34 6
2.3077743 -1.3340054 -0.046527971 40 7
2.4105163 -1.4035172 -0.24403618 32 5
2.3382618 -1.3625405 -0.14183041 32 6
2.3129992 -1.3489015 -0.046737403 52 7
2.4038839 -1.4109142 -0.24386184 10 5
2.3438241 -1.3767636 -0.14245844 22 6
2.2789707 -1.3397387 -0.04614402 45 7
2.3544714 -1.3940951 -0.14340048 3 6
2.2897635 -1.3568606 -0.046458162 41 7
2.339057 -1.3965721 -0.14277245 1 6
2.2918801 -1.3689468 -0.046597779 32 7
2.3615482 -1.4212061 -0.14444721 1 6
2.3619459 -1.4321358 -0.14476122 16 6
2.3742523 -1.4617925 -0.14612193 37 6
2.3538616 -1.4605938 -0.14517991 32 6
2.3586516 -1.4755669 -0.14580794 33 6
2.3602448 -1.4880518 -0.14622663 23 6
