# .PCD v0.7 - Point Cloud Data file format
VERSION 0.7
FIELDS x y z intensity ring
SIZE 4 4 4 4 2
TYPE F F F F U
COUNT 1 1 1 1 1
WIDTH 1229
HEIGHT 1
VIEWPOINT 0 0 0 1 0 0 0
POINTS 1229
DATA ascii
-4.0913358 -2.0443249 0.5615738 31 11
-4.0064497 -2.0010359 -0.54987478 4 4
-4.1285787 -2.0611322 0.73086196 34 12
-4.0019188 -1.9979005 -0.39132938 35 5
-4.1440034 -2.0679305 0.90023667 27 13
-4.0034623 -1.9969255 -0.23446499 42 6
-4.152451 -2.0703351 1.0712169 29 14
-4.0269418 -2.006882 -0.078535587 45 7
-4.0860548 -2.0354519 1.2231789 37 15
-4.0515828 -2.0112243 0.078954592 42 8
-4.0437689 -2.0055852 0.2365586 42 9
-4.0556793 -2.0106118 0.39603543 40 10
-4.0966692 -2.0291502 0.56133014 32 11
-4.002737 -1.9817531 -0.54841185 4 4
-4.1233549 -2.040576 0.72867191 33 12
-3.9910114 -1.9750817 -0.38958627 37 5
-4.1371183 -2.0464888 0.89718366 24 13
-4.0121994 -1.9838229 -0.23456968 44 6
-4.1561584 -2.0541017 1.0703171 29 14
-4.0231652 -1.9874989 -0.078326151 37 7
-4.0827422 -2.0160432 1.2200732 37 15
-4.0442252 -1.9900051 0.078675352 42 8
-4.0507445 -1.9914583 0.23655857 40 9
-4.0555205 -1.9929265 0.39533818 42 10
-4.0965996 -2.0113382 0.56035519 32 11
-3.9918087 -1.9590237 -0.54597443 4 4
-4.1339993 -2.0279102 0.72929764 33 12
-3.9943044 -1.9593836 -0.38923767 37 5
-4.1336598 -2.0268486 0.89489442 24 13
-4.0101328 -1.965412 -0.23404635 42 6
-4.1598029 -2.0378668 1.0694174 31 14
-4.0318747 -1.9743215 -0.078361057 40 7
-4.0828133 -1.9983829 1.2180024 36 15
-4.0367684 -1.9688629 0.078396112 43 8
-4.0576715 -1.9773064 0.2365586 40 9
-4.0696177 -1.9822478 0.39603543 40 10
-4.0875306 -1.989208 0.5581615 36 11
-4.0057631 -1.9485509 -0.54694933 4 4
-4.1375003 -2.01174 0.72867191 33 12
-4.0011196 -1.9454288 -0.38923767 37 5
-4.1407099 -2.0124073 0.89489394 27 13
-4.0097828 -1.9479109 -0.23362765 40 6
-4.1756563 -2.0275898 1.0716667 30 14
-4.0405402 -1.9611096 -0.078395963 39 7
-4.0932412 -1.985806 1.219038 36 15
-4.049017 -1.9573709 0.078500822 45 8
-4.0501618 -1.9561803 0.23572123 42 9
-4.0765123 -1.96803 0.39603543 40 10
-4.094449 -1.9749274 0.55816144 35 11
-3.998235 -1.9276593 -0.54499996 4 4
-4.1409373 -1.9955707 0.72804612 36 12
-4.0060911 -1.9305863 -0.38906336 39 5
-4.1388664 -1.9936813 0.89298588 24 13
-4.0129585 -1.9321691 -0.2334183 42 6
-4.1686611 -2.0062411 1.0680676 30 14
-4.0401535 -1.9435261 -0.078256346 42 7
-4.1088533 -1.9756912 1.2216259 35 15
-4.0576282 -1.9440901 0.078535728 43 8
-4.0533619 -1.9403055 0.23551185 42 9
-4.0761676 -1.9503493 0.39533818 42 10
-4.0977373 -1.9589112 0.55767411 36 11
-4.0156865 -1.9188275 -0.54646194 4 4
-4.1300535 -1.9725891 0.72491741 30 12
-4.0092101 -1.9148722 -0.38871473 41 5
-4.1458001 -1.9792215 0.89298582 26 13
-4.0160732 -1.91643 -0.23320894 46 6
-4.1650853 -1.9866436 1.0653682 30 14
-4.0360827 -1.924248 -0.078046918 39 7
-4.1104922 -1.9588443 1.2200732 32 15
-4.066196 -1.9307719 0.078570627 45 8
-4.0601096 -1.9261457 0.23551185 43 9
-4.0757494 -1.9326941 0.39464092 43 10
-4.1081367 -1.9462957 0.5581615 37 11
-4.0115952 -1.8996994 -0.54499996 4 4
-4.1315575 -1.9556251 0.72397882 31 12
-4.008667 -1.8974562 -0.38801748 39 5
-4.154458 -1.9655786 0.89336747 26 13
-4.0245442 -1.9032522 -0.23331361 44 6
-4.1790419 -1.9754237 1.0671678 30 14
-4.0391583 -1.9084399 -0.077977106 39 7
-4.1103177 -1.941183 1.2180026 30 15
-4.0584369 -1.9097544 0.078291401 45 8
-4.0631938 -1.9102621 0.23530252 43 9
-4.0770617 -1.915912 0.39411798 43 10
-4.1113124 -1.9302568 0.55767411 36 11
-4.011014 -1.8823113 -0.544025 4 4
-4.1383586 -1.9411923 0.72397882 34 12
-4.0062461 -1.8792219 -0.38714591 37 5
-4.1488504 -1.9452304 0.89069664 24 13
-4.0329719 -1.8900399 -0.2334183 46 6
-4.1788526 -1.9575185 1.0653682 31 14
-4.0476069 -1.8951757 -0.078012012 42 7
-4.1188188 -1.9276423 1.2185203 30 15
-4.0614529 -1.8938867 0.078221582 45 8
-4.0734577 -1.8977538 0.23551185 43 9
-4.0855312 -1.902511 0.39429238 43 10
-4.0982265 -1.9066811 0.55499285 37 11
-4.0175595 -1.8682996 -0.544025 4 4
-4.1540661 -1.9308981 0.7255432 31 12
-4.0200081 -1.8685851 -0.38784313 39 5
-4.1395922 -1.9232905 0.88726157 24 13
-4.0250525 -1.8692216 -0.2325809 46 6
-4.1785903 -1.9396375 1.0635686 31 14
-4.05057 -1.8793523 -0.077942207 42 7
-4.1465521 -1.923007 1.2247317 30 15
-4.0644088 -1.8780204 0.078151777 47 8
-4.0746174 -1.881012 0.23519784 43 9
-4.093956 -1.8890727 0.39446664 43 10
-4.1084628 -1.8940274 0.55548042 37 11
-4.0204515 -1.852603 -0.54353702 4 4
-4.1571922 -1.9147328 0.72491741 34 12
-4.0156488 -1.8495404 -0.38679731 38 5
-4.1569796 -1.9137557 0.88955128 24 13
-4.035182 -1.8568301 -0.23279026 46 6
-4.1817942 -1.9234096 1.0626686 31 14
-4.0571051 -1.8652023 -0.077942193 42 7
-4.1514845 -1.9077146 1.2242142 21 15
-4.0673032 -1.8621566 0.078081973 48 8
-4.0702615 -1.8617926 0.23456983 43 9
-4.0932775 -1.8714566 0.39376938 43 10
-4.1114373 -1.8780246 0.55499285 37 11
-4.0088358 -1.8303127 -0.54109967 4 4
-4.1494746 -1.8936491 0.72241455 34 12
-4.0238929 -1.8363386 -0.38697156 41 5
-4.1636348 -1.8992333 0.88955128 27 13
-4.0398216 -1.8419045 -0.23268557 51 6
-4.1742969 -1.902337 1.0590695 32 14
-4.0490327 -1.8443974 -0.07766296 42 7
-4.1598759 -1.8940116 1.2247317 19 15
-4.0810623 -1.8512527 0.078221582 47 8
-4.0764127 -1.8482847 0.23456983 43 9
-4.0888953 -1.8522253 0.39272353 47 10
-4.1197767 -1.8644801 0.55523664 37 11
-4.0188174 -1.8179444 -0.54158711 6 4
-4.1521316 -1.87825 0.72178876 34 12
-4.0212011 -1.8181771 -0.38610002 39 5
-4.1684494 -1.8838791 0.88917011 24 13
-4.046227 -1.8277918 -0.2326856 53 6
-4.1826873 -1.8885559 1.0595194 32 14
-4.0478363 -1.8276683 -0.077523343 45 7
-4.1555696 -1.8754387 1.2216259 20 15
-4.0725884 -1.8311489 0.077942349 47 8
-4.0864835 -1.8356808 0.23477916 43 9
-4.0953369 -1.83794 0.39272353 45 10
-4.124125 -1.8499954 0.55499285 37 11
-4.0248237 -1.8046082 -0.54158711 6 4
-4.1478472 -1.8588977 0.71991163 34 12
-4.0202498 -1.8008713 -0.3854028 39 5
-4.1567569 -1.8620197 0.88535345 27 13
-4.0449739 -1.8111001 -0.23226692 51 6
-4.18537 -1.8730831 1.0586197 32 14
-4.0541921 -1.8135277 -0.077523351 43 7
-4.1620913 -1.8609204 1.2216259 17 15
-4.0753021 -1.8152941 0.07787253 47 8
-4.0855675 -1.818158 0.2343605 43 9
-4.0977678 -1.8227307 0.39237487 45 10
-4.116046 -1.8291404 0.55304301 37 11
-4.0310988 -1.790547 -0.54158711 4 4
-4.1488948 -1.842003 0.71897304 39 12
-4.0243793 -1.7867212 -0.38522848 24 5
-4.1560526 -1.844314 0.88382745 28 13
-4.0366654 -1.7904897 -0.2314295 51 6
-4.1847568 -1.8553025 1.05682 34 14
-4.0641532 -1.8009858 -0.077593148 42 7
-4.1809254 -1.8518581 1.2252494 21 15
-4.0852733 -1.8026713 0.077942349 47 8
-4.084579 -1.8006628 0.23394179 43 9
-4.1041059 -1.8084147 0.39237493 47 10
-4.122406 -1.8147614 0.55304301 38 11
-4.0445929 -1.779663 -0.54256207 4 4
-4.1571069 -1.8283054 0.71928579 39 12
-4.16606 -1.8313755 0.88459074 28 13
-4.042891 -1.776388 -0.2314295 55 6
-4.1769333 -1.8344158 1.0532209 33 14
-4.0667539 -1.7851797 -0.077523343 45 7
-4.1873641 -1.8372525 1.2252494 21 15
-4.0805469 -1.7835956 0.077732913 47 8
-4.0871787 -1.7847941 0.23373243 45 9
-4.1176972 -1.7972665 0.39307216 43 10
-4.1232562 -1.7979786 0.55231172 41 11
-4.0325828 -1.7576034 -0.54012525 4 4
-4.156219 -1.8106272 0.71803433 40 12
-2.9079247 -1.2668166 -0.277504 5 5
-4.1724281 -1.8168211 0.88459027 27 13
-4.0490665 -1.7622657 -0.2314295 51 6
-4.1904588 -1.8229337 1.0550205 33 14
-4.05829 -1.7645942 -0.07724411 45 7
-4.2043829 -1.8272448 1.2283553 21 15
-4.0904179 -1.7709297 0.077802725 48 8
-4.0933833 -1.7705172 0.23373243 45 9
-4.1056581 -1.7749758 0.39132905 45 10
-4.1367965 -1.7867242 0.55328667 40 11
-4.0605631 -1.7529572 -0.54304951 4 4
-4.166142 -1.7976723 0.71866006 40 12
-2.8995235 -1.2511319 -0.2762838 7 5
-4.175139 -1.8006901 0.88382745 28 13
-4.0551934 -1.7481209 -0.2314295 55 6
-4.1896386 -1.8052095 1.0532209 33 14
-4.0644245 -1.7504172 -0.07724411 45 7
-4.200088 -1.8079754 1.2252494 24 15
-4.0892234 -1.7534882 0.077663101 48 8
-4.0940313 -1.7538584 0.23341845 46 9
-4.1081653 -1.7590649 0.39098039 47 10
-4.1393585 -1.770712 0.55279928 40 11
-4.0338025 -1.7247249 -0.53866273 4 4
-4.1651258 -1.7800136 0.7174086 40 12
-2.8873847 -1.2339565 -0.27471501 7 5
-4.1651502 -1.7791656 0.88039243 28 13
-4.0539236 -1.730818 -0.23101082 53 6
-4.2030835 -1.7936333 1.0550205 34 14
-4.0705099 -1.7362201 -0.077244118 42 7
-4.1957116 -1.7887566 1.2221435 28 15
-4.0916371 -1.7376407 0.077593289 47 8
-4.1056442 -1.7418969 0.23373243 45 9
-4.117949 -1.7462703 0.39132899 45 10
-4.132719 -1.7508314 0.55109304 37 11
-4.047111 -1.713729 -0.53963774 4 4
-4.174952 -1.7670046 0.71803433 39 12
-2.9081872 -1.2308598 -0.2762838 7 5
-4.164103 -1.7615561 0.87886602 30 13
-4.056262 -1.7150999 -0.23080149 51 6
-4.1985483 -1.7744001 1.052321 34 14
-4.0857563 -1.7258914 -0.07741864 47 7
-4.2161679 -1.7801111 1.2262847 30 15
-4.0903058 -1.7202461 0.07745368 48 8
-4.1024933 -1.7236876 0.23320909 46 9
-4.1203461 -1.7303417 0.39098039 48 10
-4.1406355 -1.7371634 0.55133677 40 11
-4.0494065 -1.6980571 -0.5391497 4 4
-4.1810951 -1.7524207 0.71803439 40 12
-2.9126787 -1.220193 -0.2762838 6 5
-4.1774693 -1.7500451 0.88039249 30 13
-4.0548544 -1.6978458 -0.2303828 55 6
-4.1921329 -1.7544671 1.0491717 32 14
-4.0843773 -1.7085311 -0.077279024 45 7
-4.2223554 -1.7653841 1.2262847 33 15
-4.1036696 -1.7090325 0.077593297 48 8
-4.0937333 -1.7032181 0.23237173 46 9
-4.1303391 -1.7167584 0.39132899 47 10
-4.1393418 -1.7196519 0.55036187 40 11
-4.0516429 -1.6823891 -0.53866225 6 4
-4.1707659 -1.7309999 0.71521848 43 12
-2.9113996 -1.2077274 -0.27576086 6 5
-4.1856694 -1.7354729 0.88077408 30 13
-4.0647407 -1.6845019 -0.23059213 51 6
-4.200336 -1.7398361 1.0496217 33 14
-4.0847731 -1.6919684 -0.077174298 48 7
-4.2374172 -1.7543294 1.228873 35 15
-4.1117539 -1.6947433 0.077628203 48 8
-4.1107335 -1.6934822 0.23299974 46 9
-4.1141977 -1.693231 0.38923734 48 10
-4.151125 -1.7067336 0.55109304 37 11
-4.0467653 -1.6630005 -0.5371998 6 4
-4.1731286 -1.7149289 0.71459281 42 12
-2.9137547 -1.1968005 -0.27558655 6 5
-4.1862531 -1.7186148 0.87962925 33 13
-4.0724435 -1.671061 -0.23069683 55 6
-4.1973686 -1.7214663 1.0473721 36 14
-4.0777035 -1.6723881 -0.076929972 47 7
-4.2220645 -1.7307341 1.2226611 35 15
-4.1043921 -1.6758074 0.077383861 45 8
-4.1147699 -1.6783694 0.23289508 45 9
-4.1127033 -1.675851 0.38854006 47 10
-4.1549234 -1.6922097 0.55084938 41 11
-4.0632892 -1.6540632 -0.53866225 6 4
-4.186409 -1.7033296 0.71584433 42 12
-2.9308338 -1.1918761 -0.27680674 5 5
-4.1791987 -1.699546 0.87695789 31 13
-4.0687113 -1.6537876 -0.23017345 55 6
-4.2084703 -1.7097381 1.0487218 34 14
-4.0853691 -1.6588962 -0.07696487 45 7
-4.2227106 -1.7138063 1.2211082 37 15
-4.1046553 -1.6592221 0.07727915 52 8
-4.1224561 -1.6647439 0.23299979 48 9
-4.1256275 -1.6651871 0.38923728 48 10
-4.1497588 -1.6732428 0.54938692 40 11
-4.0745621 -1.6420946 -0.53939402 6 4
-4.1941609 -1.6894435 0.71615714 45 12
-2.9497621 -1.1875917 -0.27820125 5 5
-4.1887479 -1.6864147 0.87772107 30 13
-4.0670481 -1.6365917 -0.22975478 55 6
-4.2180285 -1.6964915 1.0496216 34 14
-4.0948453 -1.6461179 -0.077034682 45 7
-4.2358375 -1.7019367 1.2231789 43 15
-4.1104226 -1.6448829 0.07727915 50 8
-4.1115508 -1.6436708 0.23205771 45 9
-4.133553 -1.6507936 0.3894116 48 10
-4.1537304 -1.6580112 0.5491432 37 11
-4.0544562 -1.6175631 -0.53598112 6 4
-4.1926923 -1.671868 0.71490568 43 12
-2.970547 -1.1839266 -0.27977005 5 5
-4.1876054 -1.6681435 0.87619466 31 13
-4.0693078 -1.6201975 -0.22954544 48 6
-4.2079229 -1.6745355 1.0455725 36 14
-4.0987086 -1.6310738 -0.076999776 45 7
-4.2417526 -1.6871403 1.2231789 51 15
-4.1182828 -1.6305435 0.077314064 48 8
-4.1191206 -1.6300426 0.23216237 46 9
-4.1374378 -1.6356221 0.38923728 48 10
-4.1597795 -1.6427759 0.5491432 37 11
-4.0603571 -1.602693 -0.53598112 6 4
-4.1911535 -1.6543204 0.7136541 45 12
-2.9931955 -1.1808612 -0.28151315 2 5
-4.1952286 -1.6542368 0.87657666 33 13
-4.0767961 -1.6067152 -0.22965011 55 6
-4.195611 -1.6526943 1.0410733 38 14
-4.0894928 -1.6108934 -0.076720536 45 7
-4.2530084 -1.6744477 1.2247318 54 15
-4.1255293 -1.6176077 0.077348962 48 8
-4.1210661 -1.6141984 0.23195304 46 9
-4.13199 -1.6168139 0.38819146 48 10
-4.1633558 -1.6282493 0.54889947 41 11
-4.0601039 -1.5870514 -0.53525048 6 4
-4.1913834 -1.6375231 0.71271557 43 12
-4.1988626 -1.6396015 0.87619507 31 13
-4.0839624 -1.5939131 -0.22975475 55 6
-4.2083306 -1.641605 1.042873 36 14
-4.0932279 -1.5958833 -0.076685637 48 7
-4.2408271 -1.6525772 1.2195555 54 15
-4.1143723 -1.5966858 0.077034831 48 8
-4.1210885 -1.5976373 0.231639 45 9
-4.1429024 -1.6052622 0.3887144 48 10
-4.1616087 -1.6108401 0.54792446 41 11
-4.0656185 -1.5728692 -0.53525048 4 4
-4.2007585 -1.6243081 0.7133413 42 12
-4.07898 -1.577221 -0.38261375 33 5
-4.1990676 -1.622812 0.87504989 34 13
-4.0857759 -1.5782086 -0.22954544 53 6
-4.2213068 -1.6297134 1.0446726 38 14
-4.1043706 -1.583745 -0.076790348 45 7
-4.2447686 -1.6370678 1.219038 57 15
-4.1161866 -1.5808811 0.076965012 47 8
-4.1359639 -1.5868193 0.23216237 48 9
-4.142899 -1.5886518 0.38819146 48 10
-4.1634994 -1.5948834 0.54743707 40 11
-4.0747914 -1.5600873 -0.5357374 6 4
-4.1990232 -1.6068108 0.7120899 43 12
-4.090044 -1.5651084 -0.38313675 42 5
-4.1973715 -1.6053391 0.87352335 34 13
-4.0800662 -1.5596579 -0.22891741 51 6
-4.2233291 -1.6135771 1.0437728 37 14
-4.1024017 -1.566555 -0.076650739 45 7
-4.2378225 -1.6174198 1.2154144 48 15
-4.1179419 -1.5650814 0.076895207 47 8
-4.1246729 -1.5659932 0.23122035 45 9
-4.1446929 -1.5727656 0.38784328 48 10
-4.1616158 -1.5775267 0.54646206 41 11
-4.0690746 -1.5416342 -0.53427547 6 4
-4.2101483 -1.594242 0.71302843 45 12
-4.0805764 -1.5451775 -0.38174227 39 5
-4.2102942 -1.5934584 0.87504989 34 13
-4.081749 -1.5439928 -0.22870803 53 6
-4.2216444 -1.5960685 1.0419732 38 14
-4.1190681 -1.5564661 -0.07686016 47 7
-4.2416353 -1.6019346 1.2148968 46 15
-4.1289949 -1.5528091 0.076999918 48 8
-4.1282449 -1.5508823 0.23111565 46 9
-4.1576195 -1.5610899 0.38854006 48 10
-4.1708145 -1.5643833 0.54694951 41 11
-4.0837255 -1.5309052 -0.53549367 6 4
-4.199039 -1.5732993 0.71021259 43 12
-4.0896764 -1.5323232 -0.3820909 42 5
-4.2158313 -1.578751 0.87504989 33 13
-4.0908551 -1.5311357 -0.22891741 55 6
-4.2162385 -1.5772266 1.0392737 37 14
-4.1076193 -1.5357758 -0.076546028 50 7
-4.2472014 -1.5871185 1.2148968 46 15
-4.1362643 -1.539085 0.077034831 45 8
-4.1336331 -1.5364625 0.23111565 48 9
-4.146234 -1.5403239 0.38697124 50 10
-4.1725283 -1.5484337 0.54646206 41 11
-4.0815997 -1.5138807 -0.53451878 6 4
-4.2063575 -1.5593177 0.71052545 45 12
-4.0800548 -1.5124967 -0.38069639 41 5
-4.224998 -1.5653892 0.87581307 33 13
-4.0999203 -1.5182345 -0.22912674 53 6
-4.2290292 -1.5652041 1.0410733 38 14
-4.1110792 -1.520734 -0.076511107 47 7
-4.2382188 -1.5669247 1.2107555 46 15
-4.130352 -1.5204923 0.076825403 45 8
-4.1389704 -1.5220248 0.23111562 48 9
-4.1459756 -1.5237794 0.38644829 48 10
-4.1816339 -1.5352284 0.54694951 41 11
-4.0961761 -1.5030426 -0.53573787 6 4
-4.2117748 -1.5446252 0.71052545 45 12
-4.0815687 -1.4968735 -0.38034779 42 5
-4.2083158 -1.5425246 0.87123358 34 13
-4.1014442 -1.5025398 -0.22891738 51 6
-4.2362967 -1.5511024 1.0415233 38 14
-4.1201181 -1.5077498 -0.076580919 45 7
-4.2400346 -1.5507929 1.2097203 46 15
-4.1243601 -1.5019597 0.076615959 45 8
-4.1442585 -1.5075678 0.23111565 48 9
-4.1568866 -1.5113401 0.38697124 48 10
-4.1701756 -1.5145239 0.54475594 38 11
-4.1163263 -1.4941527 -0.53768778 4 4
-4.213428 -1.5285678 0.70989978 45 12
-4.0961337 -1.4860152 -0.38121936 44 5
-4.2210574 -1.5305022 0.87276006 33 13
-4.0972748 -1.4848101 -0.22839402 55 6
-4.2361884 -1.5343157 1.0401736 38 14
-4.123476 -1.492678 -0.076546028 48 7
-4.2454219 -1.5359827 1.2097203 46 15
-4.1371031 -1.4902644 0.076755576 48 8
-4.1457367 -1.4917397 0.23090631 48 9
-4.1602626 -1.4961464 0.38679695 48 10
-4.1716995 -1.4986153 0.54426837 37 11
-4.0841498 -1.4663599 -0.53281301 4 4
-4.222456 -1.5151849 0.71052551 43 12
-4.0956693 -1.4696889 -0.38069639 39 5
-4.2152863 -1.5117818 0.87047035 34 13
-4.0967927 -1.4684781 -0.22807999 53 6
-4.2305112 -1.5155756 1.0374742 36 14
-4.124896 -1.4769258 -0.076476216 50 7
-4.2507577 -1.521154 1.2097203 46 15
-4.1385126 -1.4744717 0.076685764 47 8
-4.1433926 -1.4745806 0.23048761 46 9
-4.1673365 -1.4822829 0.38697124 50 10
-4.1843877 -1.4867026 0.54524338 37 11
-4.0929852 -1.4534231 -0.53329998 4 4
-4.2165494 -1.4964722 0.70864826 43 12
-4.1007748 -1.4553833 -0.38069639 41 5
-4.2205381 -1.4970573 0.87047035 34 13
-4.1018939 -1.4541686 -0.22807999 53 6
-4.2394495 -1.5021008 1.0383741 36 14
-4.126256 -1.4611831 -0.076406389 48 7
-4.2578626 -1.5069522 1.2102379 48 15
-4.1511793 -1.462675 0.076825403 47 8
-4.1409783 -1.4574561 0.23006894 48 9
-4.159328 -1.4630986 0.38575155 48 10
-4.1895518 -1.4720871 0.54524338 38 11
-4.101779 -1.4404422 -0.53378797 4 4
-4.2198839 -1.4810892 0.70833534 48 12
-4.0983109 -1.4384197 -0.37999916 42 5
-4.2312956 -1.4842663 0.87161517 36 13
-4.1107149 -1.4411629 -0.22828937 55 6
-4.2373104 -1.4847142 1.0365742 36 14
-4.1237822 -1.4441282 -0.07626678 48 7
-4.257627 -1.4901658 1.208685 46 15
-4.1411519 -1.4429128 0.076546155 47 8
-4.1535854 -1.4456183 0.2304876 48 9
-4.160646 -1.4472628 0.38540292 47 10
-4.1909146 -1.4561509 0.54475588 37 11
-4.1030316 -1.4248142 -0.53329998 2 4
-4.2231622 -1.4657035 0.70802253 43 12
-4.0995421 -1.4227995 -0.3796505 42 5
-4.2271762 -1.4662701 0.86970758 34 13
-4.1157198 -1.426806 -0.22828937 53 6
-4.244308 -1.4705542 1.0370244 34 14
-4.1344671 -1.4316876 -0.076371498 47 7
-4.2518487 -1.4715027 1.2055792 46 15
-4.1423826 -1.427146 0.07647635 48 8
-4.1586065 -1.4311117 0.23048761 48 9
-4.1675563 -1.4333794 0.38557673 50 10
-4.1847076 -1.437644 0.54329348 38 11
-4.1042256 -1.4091929 -0.53281254 2 4
-4.2301211 -1.451594 0.70833546 46 12
-4.108253 -1.4097742 -0.37999919 41 5
-4.2211266 -1.4476852 0.86741745 34 13
-4.1055613 -1.4072489 -0.22745201 53 6
-4.2457285 -1.4544656 1.0361245 34 14
-4.1337638 -1.4153035 -0.07626678 48 7
-4.2606153 -1.4579039 1.2066146 45 15
-4.1397672 -1.4100972 0.076336719 47 8
-4.1484504 -1.4114401 0.22965026 48 9
-4.1763082 -1.420104 0.38592538 48 10
-4.1915803 -1.4236664 0.54353726 40 11
-4.1053605 -1.3935816 -0.53232503 4 4
-4.2389035 -1.4380884 0.70896113 48 12
-4.1093755 -1.3941448 -0.37965056 39 5
-4.2354507 -1.4360939 0.86932558 37 13
-4.1199055 -1.3961139 -0.22797532 55 6
-4.2415514 -1.4365108 1.033875 36 14
-4.142467 -1.4021474 -0.076336585 48 7
-4.2693381 -1.4442606 1.2076499 45 15
-4.152245 -1.3981918 0.07647635 47 8
-4.1533527 -1.3969499 0.22965027 48 9
-4.1850171 -1.4067881 0.38627401 45 10
-4.1965246 -1.4090252 0.54353726 40 11
-4.0913806 -1.3729274 -0.52988821 2 4
-4.2232962 -1.4163749 0.70551962 45 12
-4.1179943 -1.3810596 -0.37999916 42 5
-4.2292695 -1.417556 0.86703587 36 13
-4.1247544 -1.3817242 -0.22797535 55 6
-4.2391477 -1.4192225 1.0320754 36 14
-4.132165 -1.3826027 -0.076057345 45 7
-4.27069 -1.4281238 1.2066147 45 15
-4.1533051 -1.382426 0.076406531 48 8
-4.1525168 -1.3805537 0.22933622 45 9
-4.1747761 -1.387145 0.38487953 48 10
-4.2051849 -1.3956182 0.54402465 40 11
-4.1187568 -1.3661375 -0.53281301 2 4
-4.2282147 -1.4016231 0.70551962 45 12
-4.1076608 -1.3616602 -0.37860465 42 5
-4.228601 -1.4009321 0.86589098 39 13
-4.1200724 -1.3641798 -0.22745201 53 6
-4.2440763 -1.4044152 1.0320754 37 14
-4.1312704 -1.3662865 -0.075952634 45 7
-4.2719793 -1.4119956 1.2055792 45 15
-4.1543064 -1.3666698 0.076336719 45 8
-4.1667986 -1.3691679 0.22985961 46 9
-4.1776996 -1.371942 0.38470519 47 10
-4.2062583 -1.3796945 0.5435372 40 11
-4.1159554 -1.3492786 -0.53183758 2 4
-4.2330818 -1.3868554 0.70551968 43 12
-4.1048155 -1.3448323 -0.3779074 42 5
-4.229733 -1.3849418 0.86512816 39 13
-4.1305041 -1.3516533 -0.22776605 57 6
-4.256362 -1.3920151 1.033875 37 14
-4.1436176 -1.3543435 -0.076092258 45 7
-4.2695374 -1.3946748 1.2035087 44 15
-4.1552482 -1.3509248 0.076266922 47 8
-4.1677527 -1.3533807 0.22965026 48 9
-4.1862531 -1.3585818 0.38505384 48 10
-4.2034955 -1.3625549 0.54256225 40 11
-4.1244178 -1.3361255 -0.53232503 2 4
-4.2491722 -1.3757221 0.70739675 43 12
-4.1189618 -1.3335649 -0.37877893 44 5
-4.2270699 -1.3677512 0.86360168 40 13
-4.1275949 -1.3347673 -0.2273473 55 6
-4.2611947 -1.3771501 1.033875 36 14
-4.1521249 -1.3411002 -0.076162063 52 7
-4.2707028 -1.3785757 1.2024734 44 15
-4.1599383 -1.3364108 0.076266915 45 8
-4.164844 -1.3363842 0.22923155 46 9
-4.1814842 -1.3409178 0.3841823 48 10
-4.194993 -1.3436351 0.54085606 37 11
-4.1214938 -1.3193007 -0.53135014 2 4
-4.2464223 -1.3584735 0.70614529 45 12
-4.1254892 -1.3197858 -0.37895325 42 5
-4.235559 -1.3541834 0.8643645 39 13
-4.1189117 -1.3160969 -0.22661462 55 6
-4.2511244 -1.3575246 1.0302758 36 14
-4.1510663 -1.3247734 -0.076057345 50 7
-4.2828503 -1.3660086 1.2045439 45 15
-4.1683898 -1.3230915 0.076336719 47 8
-4.1637726 -1.3200264 0.22891755 45 9
-4.193737 -1.3287205 0.38487953 48 10
-4.2072282 -1.3313791 0.54183102 38 11
-4.1374297 -1.3084971 -0.53281301 2 4
-4.2454877 -1.3418565 0.70520669 46 12
-4.1224728 -1.3029754 -0.37825605 41 5
-4.2402606 -1.3393903 0.8643645 39 13
-4.1330032 -1.3047172 -0.22713797 59 6
-4.2576957 -1.3432634 1.0307257 39 14
-4.1480365 -1.307871 -0.075917721 50 7
-4.2839074 -1.349889 1.2035086 44 15
-4.1729832 -1.308533 0.076336719 45 8
-4.1740727 -1.3072747 0.22923157 46 9
-4.1793351 -1.3081218 0.38313639 48 10
-4.2118497 -1.3166848 0.54183102 38 11
-4.1230254 -1.2881273 -0.53037518 2 4
-4.2426038 -1.3246738 0.70395523 46 12
-4.1193886 -1.2862021 -0.3775588 42 5
-4.2486577 -1.3257502 0.86512768 39 13
-4.141346 -1.2914715 -0.2273473 59 6
-4.2567773 -1.3266536 1.029376 38 14
-4.1506677 -1.292789 -0.07588283 50 7
-4.2793708 -1.3320563 1.2009205 48 15
-4.1698852 -1.2915931 0.07619711 45 8
-4.1745691 -1.2922444 0.22902222 48 9
-4.181972 -1.2929376 0.38296208 47 10
-4.2164202 -1.3019745 0.54183102 37 11
-4.1350837 -1.2760698 -0.5313502 2 4
-4.2450852 -1.3100158 0.70364237 43 12
-4.1238527 -1.2718146 -0.37755877 45 5
-4.2326221 -1.3045506 0.86092997 34 13
-4.1458287 -1.2770085 -0.22734731 55 6
-4.2688322 -1.3140798 1.0311756 37 14
-4.1568432 -1.279606 -0.075917728 50 7
-4.2782249 -1.3161538 1.1993675 46 15
-4.1684093 -1.2760022 0.0760924 48 8
-4.1790547 -1.2776644 0.22902222 48 9
-4.1864595 -1.2783319 0.38296208 47 10
-4.2093215 -1.2845087 0.54036856 37 11
-4.1354952 -1.261192 -0.53086269 2 4
-4.2534118 -1.2963403 0.70426804 45 12
-4.1282673 -1.2574117 -0.37755877 44 5
-4.2425594 -1.2922236 0.86207479 37 13
-4.1347556 -1.2586006 -0.22650996 55 6
-4.2694378 -1.2987821 1.0302758 37 14
-4.163198 -1.2656697 -0.075952642 52 7
-4.28649 -1.3023361 1.2004029 46 15
-4.1728377 -1.2614436 0.076092392 48 8
-4.1758409 -1.2607609 0.22860354 50 9
-4.1963978 -1.2661684 0.3834855 48 10
-4.2099786 -1.268663 0.53988111 38 11
-0.86675006 -0.26102725 -0.1111448 4 4
-4.2598028 -1.2820547 0.70458096 46 12
-4.0427456 -1.2167277 -0.36936617 31 5
-4.2489243 -1.2779728 0.86245638 36 13
-4.0779171 -1.225762 -0.22316048 40 6
-4.2664795 -1.2816283 1.0284761 36 14
-4.146523 -1.2448061 -0.075568691 34 7
-4.2891593 -1.2868091 1.1998851 51 15
-4.1408086 -1.2360027 0.075429201 37 8
-4.1725602 -1.2438945 0.22818485 40 9
-4.1931553 -1.2492361 0.38278779 50 10
-4.2162852 -1.2545259 0.54012495 40 11
-0.89429462 -0.26592097 -0.11455715 3 4
-4.2491035 -1.2626765 0.70207798 46 12
-4.0278687 -1.1969337 -0.36762303 5 5
-4.2495947 -1.2620155 0.86169314 42 13
-4.0515347 -1.2024264 -0.22148567 63 6
-4.2671905 -1.2656204 1.0275763 36 14
-4.0568972 -1.2024784 -0.073858358 55 7
-4.2936254 -1.2718292 1.1998851 48 15
-4.0913897 -1.2057134 0.074451864 65 8
-4.0906568 -1.2039456 0.22347461 58 9
-4.1133866 -1.2098556 0.37511805 48 10
-4.1654034 -1.2235754 0.53305638 38 11
-0.83807576 -0.24602351 -0.10724508 5 4
-4.2288437 -1.2406076 0.69801068 36 12
-4.0454054 -1.1867926 -0.3688432 1 5
-4.2577424 -1.2482775 0.86245638 34 13
-4.0595403 -1.1894007 -0.22169502 78 6
-4.2678423 -1.2496221 1.0266765 37 14
-4.0668273 -1.1899935 -0.073963068 69 7
-4.2887678 -1.2541239 1.197297 46 15
-4.0840535 -1.1880729 0.07424245 78 8
-4.0909986 -1.1885448 0.22326526 73 9
-4.0965381 -1.189379 0.37320065 60 10
-4.1391444 -1.2001828 0.52915663 52 11
-0.91519582 -0.26519626 -0.11699454 2 4
-4.1648412 -1.206058 0.68674737 55 12
-4.1677799 -1.2061207 0.8433755 48 13
-4.0579119 -1.1735584 -0.22138102 44 6
-4.189805 -1.2109097 1.0068809 40 14
-4.0709567 -1.1757911 -0.073963068 66 7
-4.2114515 -1.2155734 1.174521 32 15
-4.0804863 -1.1716019 0.074102812 76 8
-4.0951223 -1.1742572 0.22326526 73 9
-4.106411 -1.1767186 0.3737236 63 10
-4.1318579 -1.1824501 0.52769417 68 11
-0.9313845 -0.26636663 -0.11894444 2 4
-4.1690259 -1.1915126 0.68674737 69 12
-4.1625257 -1.1888691 0.84146738 55 13
-4.1865101 -1.1941391 1.0050813 47 14
-4.0827279 -1.1637663 -0.074102677 66 7
-4.2138104 -1.2003356 1.1740031 82 15
-4.092248 -1.159533 0.07424245 76 8
-4.0895877 -1.1572362 0.2227419 76 9
-4.120079 -1.1650889 0.37459514 66 10
-4.1225882 -1.1642436 0.52598804 60 11
-0.89792013 -0.25340906 -0.11455714 3 4
-4.1712589 -1.1764164 0.68643457 72 12
-4.1723194 -1.1759297 0.84261227 57 13
-4.1887774 -1.17899 1.0046314 57 14
-4.0867658 -1.1495076 -0.074102677 68 7
-4.2179756 -1.1856184 1.1740032 92 15
-4.0962701 -1.145241 0.074242443 76 8
-4.0897541 -1.1418805 0.22253256 74 9
-4.1145253 -1.1480217 0.37372404 71 10
-4.1266265 -1.1498467 0.52598798 57 11
-0.88732535 -0.24707799 -0.11309471 4 4
-4.1639209 -1.1586713 0.68455732 72 12
-4.1839647 -1.1634632 0.8441388 58 13
-4.1834784 -1.1617539 1.0023817 61 14
-4.0811191 -1.1325625 -0.073928162 69 7
-4.2053342 -1.1662422 1.1693447 86 15
-4.1002426 -1.1309344 0.074242443 76 8
-4.1014175 -1.1297191 0.22295126 79 9
-4.1108246 -1.1315373 0.37302634 74 10
-4.1287007 -1.1349088 0.52574426 61 11
-0.86521202 -0.23766927 -0.11016994 4 4
-4.1736546 -1.1456991 0.68549591 69 12
-4.1823211 -1.1472921 0.84299392 60 13
-4.1856289 -1.1466298 1.0019319 59 14
-4.0754042 -1.1156688 -0.073753648 66 7
-4.1981993 -1.1484972 1.1662388 86 15
-4.0887289 -1.1124159 0.073963203 76 8
-4.1012864 -1.1150638 0.22274189 74 9
-4.1109028 -1.1161375 0.37267771 79 10
-4.1422176 -1.1230863 0.526963 60 11
-0.86220443 -0.2336096 -0.10968237 5 4
-4.1698041 -1.1297858 0.68424439 45 12
-4.1806149 -1.1311477 0.84184909 31 13
-4.1971312 -1.1340455 1.0037316 59 14
-4.0868034 -1.1042354 -0.073893264 66 7
-4.2019849 -1.1345689 1.1662388 84 15
-4.0923948 -1.0988508 0.073963203 78 8
-4.1051545 -1.1007409 0.2227419 76 9
-4.1186233 -1.1028117 0.37302682 76 10
-4.1267414 -1.1042135 0.52452552 60 11
-0.88215154 -0.23587687 -0.11211976 4 4
-4.2027521 -1.1206229 1.0041815 48 14
-4.1060915 -1.0940808 -0.074172497 26 7
-4.2040534 -1.1193973 1.1657212 76 15
-4.1213365 -1.0912129 0.074416965 19 8
-4.1128335 -1.0874254 0.22295126 47 9
-4.1241846 -1.0896566 0.37320065 65 10
-4.1228938 -1.0877762 0.52355063 60 11
-0.86761349 -0.22874749 -0.11016984 4 4
-1.6599573 -0.43734017 0.27188316 3 12
-1.6574403 -0.43636733 0.33315259 5 13
-4.1580124 -1.0854061 0.075010344 6 8
-0.87224925 -0.22671629 -0.11065732 4 4
-4.1895847 -1.0757033 0.37842998 26 10
-0.86534333 -0.22169971 -0.10968237 5 4
-4.1657619 -1.0633883 -0.075045109 52 7
-1.6585134 -0.42305771 0.45862737 10 15
-4.1868105 -1.0617595 0.075394303 56 8
-4.1878881 -1.060477 0.22640543 47 9
-4.1875196 -1.059605 0.37790704 34 10
-2.0420096 -0.51594985 0.25860673 1 11
-0.88920832 -0.22450893 -0.11260723 4 4
-1.6682765 -0.42089978 0.27250889 70 12
-1.6409783 -0.41370839 0.32895482 75 13
-1.6289902 -0.41008094 0.38781562 25 14
-4.1636319 -1.0473772 -0.074940406 53 7
-4.1730309 -1.042774 0.075080149 39 8
-4.1935019 -1.0463355 0.22651009 43 9
-4.2124577 -1.0502832 0.37982446 32 10
-2.0052719 -0.49922734 0.25373191 7 11
-0.8745755 -0.21756977 -0.11065742 9 4
-1.6639845 -0.41364413 0.2715703 76 12
-1.6443181 -0.40845063 0.32933623 92 13
-1.6606747 -0.41189829 0.39501408 30 14
-4.175025 -1.0347608 -0.075080007 43 7
-1.6858041 -0.41750661 0.46535671 44 15
-4.1824713 -1.0296361 0.075184874 50 8
-4.1816125 -1.0278759 0.22567271 50 9
-4.2199678 -1.0365241 0.38017309 29 10
-1.9973632 -0.48986 0.25251329 11 11
-0.8791858 -0.2154606 -0.1111448 9 4
-1.6673371 -0.4083035 0.27188319 82 12
-1.6323849 -0.3994419 0.32666492 88 13
-1.6564232 -0.40471172 0.39366439 19 14
-4.1766691 -1.0197067 -0.075045109 40 7
-1.6666064 -0.40658298 0.45966271 28 15
-4.1938133 -1.0169151 0.075324483 52 8
-4.181293 -1.012333 0.22546338 52 9
-4.2119417 -1.0189763 0.37912726 27 10
-2.0029199 -0.48381701 0.25300074 19 11
-0.87607306 -0.21145898 -0.11065742 9 4
-1.6476287 -0.39738572 0.26844159 78 12
-1.6356778 -0.39420131 0.32704672 82 13
-1.7336121 -0.41716343 0.41166043 6 14
-4.1724257 -1.003251 -0.074905492 37 7
-1.7318807 -0.41610777 0.47726238 8 15
-4.1934471 -1.0013406 0.075254671 52 8
-4.1906295 -0.9991219 0.2257774 48 9
-4.1980295 -1.0001119 0.37755841 29 10
-2.0026655 -0.47636369 0.25275701 24 11
-0.87294328 -0.20748155 -0.11016984 9 4
-1.6547717 -0.39300135 0.26938024 89 12
-1.6465948 -0.39075622 0.32895482 88 13
-1.8146996 -0.42998001 0.43055633 7 14
-4.1739564 -0.98822057 -0.074870579 32 7
-1.8329608 -0.43363121 0.50469726 9 15
-4.1930237 -0.98578238 0.075184874 52 8
-4.1940918 -0.98448765 0.2257774 48 9
-4.2034349 -0.98590583 0.37773275 40 10
-1.9985175 -0.46801221 0.25202578 33 11
-0.88912541 -0.20805122 -0.11211976 8 4
-1.6503627 -0.38587382 0.26844159 86 12
-1.6364782 -0.38232628 0.32666492 86 13
-4.2776289 -0.99779719 1.0140793 23 14
-4.1832232 -0.97500646 -0.074975304 35 7
-4.333096 -1.0091397 1.1921207 41 15
-4.1886468 -0.96933544 0.07504525 53 8
-4.1994481 -0.97029203 0.22588207 52 9
-4.2146158 -0.97302067 0.37842998 48 10
-1.986598 -0.457912 0.25031957 35 11
-0.89758396 -0.20672865 -0.11309471 8 4
-1.6574748 -0.38143963 0.26938021 66 12
-1.6358896 -0.3761712 0.32628331 72 13
-4.313374 -0.99027205 1.0217276 10 14
-4.1788054 -0.95860881 -0.074835688 45 7
-4.319644 -0.99012446 1.1874617 30 15
-4.1998038 -0.95648456 0.075184874 52 8
-4.1987486 -0.95547342 0.22567274 50 9
-4.2218723 -0.95918578 0.37877864 45 10
-1.9843127 -0.4500964 0.24983211 35 11
-0.88281214 -0.20008397 -0.1111448 9 4
-1.6972609 -0.38467377 0.2756376 27 12
-1.6429372 -0.37175873 0.32742834 48 13
-4.1897631 -0.94650954 -0.074975304 47 7
-4.2068548 -0.94342709 0.075254671 50 8
-4.1903629 -0.93819374 0.22504467 52 9
-4.2174168 -0.94270402 0.37808183 47 10
-1.989669 -0.444379 0.25031957 36 11
-0.87572104 -0.19542587 -0.11016984 14 4
-2.0302143 -0.4526906 0.32945105 28 12
-1.6709884 -0.37228549 0.33277097 51 13
-2.0506282 -0.45611551 0.48499447 6 14
-4.1852336 -0.93014336 -0.074835688 47 7
-2.080162 -0.46192273 0.57095492 5 15
-4.2101221 -0.92873663 0.075254671 52 8
-4.2014151 -0.92527813 0.22546338 52 9
-4.2146831 -0.92742896 0.37755844 48 10
-1.995086 -0.43828291 0.25080708 32 11
-0.88027573 -0.19321901 -0.11065742 9 4
-2.0298524 -0.4451783 0.32913819 32 12
-4.2995958 -0.94218087 0.8555873 13 13
-4.3138242 -0.94372088 1.0194781 9 14
-4.1767335 -0.91296631 -0.074626267 45 7
-4.3296108 -0.94559109 1.1874617 6 15
-4.1937962 -0.9097963 0.074905634 52 8
-4.2085233 -0.91145217 0.22567271 52 9
-4.2200017 -0.91239613 0.37773278 48 10
-1.9985443 -0.43173525 0.25105083 24 11
-0.88094479 -0.19014527 -0.11065742 9 4
-2.0313942 -0.43808955 0.32913819 22 12
-4.299181 -0.92559028 0.85482407 45 13
-4.2829595 -0.92053264 1.0113797 23 14
-4.1838045 -0.8992213 -0.074696064 50 7
-4.3253303 -0.92885071 1.1853913 32 15
-4.2049255 -0.89608514 0.075045243 53 8
-4.211679 -0.89675707 0.22567271 52 9
-4.2192626 -0.89683133 0.3773841 48 10
-1.9981711 -0.42399567 0.25080708 8 11
-0.90878928 -0.1928377 -0.11406967 7 4
-4.2977123 -0.91115481 0.69582063 43 12
-4.2927818 -0.90854383 0.85291636 40 13
-4.3126817 -0.91196918 1.0176786 37 14
-4.1967006 -0.88667947 -0.074870586 48 7
-4.3417778 -0.91653889 1.1890148 41 15
-4.2117882 -0.88295662 0.075115055 52 8
-4.206811 -0.88114786 0.22525404 52 9
-4.2261138 -0.88365024 0.37773275 48 10
-4.2867274 -0.89476353 0.53768742 51 11
-0.88610518 -0.18495567 -0.1111448 4 4
-4.2949095 -0.89568818 0.69488209 43 12
-4.2957711 -0.89430445 0.85291588 37 13
-4.3137736 -0.89726567 1.0172286 38 14
-4.1976604 -0.87235099 -0.074835695 50 7
-4.3561416 -0.90449315 1.1921206 46 15
-4.2146926 -0.86898577 0.075115055 50 8
-4.2098608 -0.86645776 0.22525403 52 9
-4.2290211 -0.86963189 0.37773275 47 10
-4.2546692 -0.87335831 0.53330016 35 11
-0.89452386 -0.18345651 -0.11211976 4 4
-4.2844634 -0.87791586 0.69269192 46 12
-4.306561 -0.88087654 0.85444248 40 13
-4.31497 -0.88181299 1.0167786 38 14
-4.1908832 -0.85569257 -0.074661158 48 7
-4.3479161 -0.88696402 1.1890148 53 15
-4.2158899 -0.8531357 0.075080156 53 8
-4.2130084 -0.85102189 0.22525403 52 9
-4.2224145 -0.85215509 0.37686121 48 10
-4.2578421 -0.85775828 0.53330016 41 11
-0.91465086 -0.18409377 -0.11455714 3 4
-4.2934618 -0.86337477 0.69363046 45 12
-4.3059101 -0.86431438 0.8536796 39 13
-4.3258162 -0.86752367 1.0185783 36 14
-4.1939912 -0.84032637 -0.074661158 50 7
-4.3473492 -0.87026471 1.1879796 54 15
-4.2131038 -0.8365106 0.074975438 52 8
-4.2200174 -0.83635122 0.22546338 52 9
-4.2255092 -0.83667326 0.37686118 50 10
-4.2687473 -0.84368634 0.53427517 41 11
-0.89973956 -0.17766373 -0.11260723 4 4
-4.2946601 -0.84725034 0.69331771 48 12
-4.303123 -0.8481397 0.85253429 40 13
-4.2523894 -0.83736926 -0.22713797 2 6
-4.3289666 -0.85166383 1.0185783 36 14
-4.1950808 -0.82456321 -0.07462626 47 7
-4.3524055 -0.85469609 1.1884972 57 15
-4.2101097 -0.82065004 0.074870713 53 8
-4.2268319 -0.82237929 0.22567271 50 9
-4.2381835 -0.82381922 0.37773275 48 10
-4.2580242 -0.82613462 0.53256893 43 11
-0.91594476 -0.17754397 -0.11455714 7 4
-4.3072877 -0.8341316 0.69488198 45 12
-4.2944922 -0.83087516 0.85024458 40 13
-4.1925359 -0.81039107 -0.22378846 6 6
-4.3299994 -0.83617812 1.0181284 38 14
-4.2018604 -0.81067109 -0.074696064 50 7
-4.3572593 -0.83986479 1.1890148 60 15
-4.2227697 -0.80782771 0.07504525 53 8
-4.2179055 -0.80537117 0.22504467 52 9
-4.2371192 -0.80827332 0.3773841 48 10
-4.2608824 -0.81126517 0.53256893 41 11
-0.92045915 -0.1750875 -0.11504472 6 4
-4.3121133 -0.81946105 0.69519484 46 12
-4.3108673 -0.81844366 0.85291636 39 13
-4.181603 -0.79314595 -0.22305575 17 6
-4.3233185 -0.81924534 1.0158789 37 14
-4.2105594 -0.79711586 -0.074800782 50 7
-4.352571 -0.8232137 1.1869441 60 15
-4.2275286 -0.7934522 0.075080149 53 8
-4.2206912 -0.79064286 0.22504467 52 9
-4.2438312 -0.79421204 0.37773275 48 10
-4.2597852 -0.79565781 0.53208143 41 11
-0.89764792 -0.16750397 -0.11211976 8 4
-4.3052378 -0.80259269 0.69363046 45 12
-4.3117685 -0.80303144 0.85253429 40 13
-4.1863108 -0.77891111 -0.22316048 27 6
-4.3299842 -0.80486023 1.0167787 38 14
-4.1995535 -0.77985746 -0.07455644 47 7
-4.3592172 -0.80872011 1.1879796 58 15
-4.2283068 -0.77832854 0.07504525 53 8
-4.2293191 -0.77698874 0.22535871 53 9
-4.2406983 -0.77831429 0.37720981 48 10
-4.2781582 -0.78364593 0.53403145 43 11
-0.8943218 -0.16365489 -0.11163228 4 4
-4.3041277 -0.7868492 0.69300485 45 12
-4.3242021 -0.7897402 0.85444248 42 13
-4.1890039 -0.76429218 -0.22316045 34 6
-4.3289323 -0.78904176 1.0158788 38 14
-4.1963482 -0.76411879 -0.07445173 48 7
-4.3544106 -0.79211545 1.1859088 60 15
-4.2211571 -0.76178825 0.074870713 55 8
-4.2320051 -0.76222086 0.22535871 53 9
-4.2433901 -0.7635057 0.37720984 48 10
-4.2847757 -0.7694093 0.53451896 42 11
-0.91833448 -0.16473797 -0.11455715 3 4
-4.3107367 -0.77251697 0.69363052 45 12
-4.3134041 -0.77221906 0.85177159 42 13
-4.1995106 -0.75107151 -0.22357912 36 6
-4.3354974 -0.77461165 1.0167787 38 14
-4.2108011 -0.75157517 -0.074661158 50 7
-4.3533459 -0.77623272 1.1848737 60 15
-4.2296982 -0.74809372 0.074975431 53 8
-4.2384429 -0.74887758 0.22556803 53 9
-4.2460284 -0.74868965 0.37720981 48 10
-4.2757034 -0.75238347 0.53305638 43 11
-0.93060601 -0.1637561 -0.11601957 3 4
-4.3152204 -0.75855958 0.69394338 46 12
-4.3180079 -0.75749594 0.85215271 37 13
-4.1942377 -0.7350288 -0.22316045 36 6
-4.339962 -0.76056665 1.0172287 39 14
-4.21524 -0.73795223 -0.074696071 47 7
-4.355896 -0.76179206 1.1848737 60 15
-4.2360973 -0.73474687 0.07504525 53 8
-4.2310634 -0.73311311 0.22504467 52 9
-4.250452 -0.73494357 0.3773841 48 10
-4.2742629 -0.73752528 0.53256887 42 11
-0.93114394 -0.16066915 -0.11601957 3 4
-4.3177118 -0.74424547 0.69394338 46 12
-4.3263001 -0.74417204 0.85329801 40 13
-4.1966519 -0.72111595 -0.22316045 36 6
-4.3347774 -0.74485028 1.015429 38 14
-4.2235761 -0.72498465 -0.074800774 48 7
-4.3717265 -0.7496295 1.1884972 58 15
-4.2385101 -0.72069627 0.07504525 53 8
-4.237535 -0.71900767 0.22525403 52 9
-4.256794 -0.72151232 0.37773275 48 10
-4.2805996 -0.72400922 0.53305638 43 11
-0.91995496 -0.15543337 -0.11455714 3 4
-4.3124924 -0.72785521 0.69269192 46 12
-4.3230639 -0.72808653 0.85215271 42 13
-4.1952043 -0.70580071 -0.22295111 36 6
-4.339273 -0.73003882 1.0158789 37 14
-4.2142487 -0.7082485 -0.074591346 50 7
-4.3781276 -0.73500335 1.1895325 58 15
-4.2450686 -0.70581138 0.075115062 52 8
-4.2362013 -0.70281774 0.2250447 52 9
-4.2515478 -0.70460135 0.3770355 48 10
-4.2832251 -0.70831519 0.53305644 43 11
-0.92835265 -0.15335487 -0.1155322 3 4
-4.3112335 -0.71140099 0.69206625 46 12
-4.2954097 -0.70801991 -0.3808707 1 5
-4.3334517 -0.71351367 0.85367918 42 13
-4.2095876 -0.69236356 -0.22357912 36 6
-4.3361511 -0.71317983 1.0145292 39 14
-4.2148433 -0.69247347 -0.074556433 47 7
-4.3598218 -0.7155112 1.1838384 62 15
-4.2417049 -0.68928629 0.075010344 53 8
-4.2445436 -0.68898624 0.22535871 53 9
-4.2501678 -0.68837672 0.37668687 48 10
-4.2857924 -0.69261158 0.53305644 41 11
-0.93282801 -0.15058394 -0.11601957 3 4
-4.3234406 -0.69792145 0.69363046 45 12
-4.2939215 -0.6923874 -0.3805221 2 5
-4.3242865 -0.69650942 0.85138947 40 13
-4.208035 -0.67703146 -0.22336981 36 6
-4.3502798 -0.69913846 1.0172286 38 14
-4.2172351 -0.67775667 -0.07455644 47 7
-4.3718295 -0.70181906 1.1864265 60 15
-4.2321186 -0.67333126 0.074800916 53 8
-4.2449498 -0.6738525 0.22525403 52 9
-4.2545128 -0.67384821 0.37686118 48 10
-4.2841439 -0.67777491 0.53256887 41 11
-4.3019085 -0.6798169 -0.53476292 2 4
-4.3180461 -0.68159366 0.69237918 45 12
-4.292376 -0.67677397 -0.3801735 2 5
-4.3285117 -0.68247139 0.85177112 40 13
-4.2063117 -0.66245186 -0.22316048 40 6
-4.3525743 -0.68470836 1.0172286 39 14
-4.2235265 -0.66365236 -0.074626267 47 7
-4.3742533 -0.68655419 1.1864266 60 15
-4.2403708 -0.65947497 0.074905626 53 8
-4.2353187 -0.65793228 0.22462596 52 9
-4.2626314 -0.6606515 0.37738416 48 10
-4.2845216 -0.66251391 0.53232515 42 11
-0.98091531 -0.15150303 -0.12186942 2 4
-4.3300428 -0.66877806 0.69394338 46 12
-4.2827826 -0.66071332 -0.37912762 4 5
-4.3328075 -0.66765779 0.85215271 40 13
-4.2085986 -0.64776498 -0.22316048 42 6
-4.3491597 -0.66862243 1.0158789 37 14
-4.2237272 -0.64933902 -0.074591354 50 7
-4.3841438 -0.67321861 1.1884973 60 15
-4.2445121 -0.64571148 0.07494054 53 8
-4.2435141 -0.64404434 0.22494 53 9
-4.2609706 -0.64517128 0.37703598 48 10
-4.2925835 -0.64919257 0.53305638 43 11
-0.95785838 -0.14469133 -0.11894444 2 4
-4.3284454 -0.65306985 0.69331771 46 12
-4.3008232 -0.64813566 -0.3805221 4 5
-4.3388801 -0.65387088 0.85291636 39 13
-4.2067728 -0.63321042 -0.22295111 42 6
-4.3494258 -0.65390652 1.015429 39 14
-4.2200356 -0.6337015 -0.074486643 47 7
-4.386467 -0.65790981 1.1884972 60 15
-4.2428927 -0.62956309 0.074870713 53 8
-4.2477117 -0.62952042 0.22504467 52 9
-4.2592549 -0.62971193 0.37668687 48 10
-4.2949347 -0.63345408 0.53305644 42 11
-0.95838225 -0.14117984 -0.11894444 2 4
-4.3170185 -0.63594246 0.6911276 45 12
-4.3030596 -0.63311893 -0.3805221 4 5
-4.3431907 -0.63824815 0.85329759 36 13
-4.2169695 -0.61894864 -0.22336981 42 6
-4.3575773 -0.63880855 1.0167786 38 14
-4.2202435 -0.61867571 -0.07445173 48 7
-4.3753567 -0.64063495 1.1848737 62 15
-4.2449574 -0.61548948 0.074870713 55 8
-4.2538376 -0.61526215 0.22525404 52 9
-4.267343 -0.61569393 0.37720981 48 10
-4.2989764 -0.6194911 0.53330016 42 11
-4.2715769 -0.61478287 -0.52988774 31 4
-4.3309436 -0.62255567 0.69300485 48 12
-4.2874942 -0.61554521 -0.37895328 4 5
-4.3375096 -0.62272584 0.85177159 36 13
-4.2189989 -0.6049611 -0.22336981 46 6
-4.3616009 -0.62463194 1.0172286 38 14
-4.2342548 -0.60563934 -0.074661158 50 7
-4.3813901 -0.62590539 1.1859088 62 15
-4.245101 -0.60038805 0.074835822 53 8
-4.2559586 -0.60040849 0.22525403 52 9
-4.2614698 -0.60042751 0.37651259 48 10
-4.2834196 -0.60199541 0.53110641 42 11
-4.3311338 -0.60715967 0.69269192 46 12
-4.3013506 -0.60298449 -0.37999919 4 5
-4.3396568 -0.60758221 0.85177159 40 13
-4.2171288 -0.5896771 -0.22316045 46 6
-4.3637547 -0.60940218 1.0172286 39 14
-4.2284203 -0.58975124 -0.074521542 50 7
-4.3816357 -0.61034107 1.1853913 60 15
-4.2550941 -0.58665854 0.074975438 53 8
-4.248136 -0.58418822 0.22473069 53 9
-4.267488 -0.58609062 0.37686121 48 10
-4.2933621 -0.58811742 0.53208143 43 11
-4.3170662 -0.59059691 -0.5350067 61 4
-4.3410559 -0.59310704 0.69394344 46 12
-4.3152723 -0.58958429 -0.38104498 4 5
-4.3456416 -0.59296101 0.85253477 42 13
-4.2112455 -0.57387406 -0.22274174 48 6
-4.3581324 -0.59311593 1.0154291 38 14
-4.2383795 -0.57606488 -0.074661158 50 7
-4.3856535 -0.59530234 1.1859089 62 15
-4.2531519 -0.57127035 0.074905626 53 8
-4.254108 -0.56988609 0.22494 53 9
-4.2774062 -0.5722484 0.37755841 48 10
-4.2973566 -0.57338959 0.53232515 42 11
-4.3411417 -0.57768953 0.69363052 43 12
-4.3154297 -0.57350159 -0.3808707 2 5
-4.3476853 -0.57778823 0.85253429 40 13
-4.2171831 -0.55969608 -0.22295111 57 6
-4.3601756 -0.5778994 1.015429 38 14
-4.2284698 -0.5596922 -0.07445173 50 7
-4.3972807 -0.58125561 1.1884972 58 15
-4.2610688 -0.55719727 0.075010344 53 8
-4.2540908 -0.55477566 0.22483535 52 9
-4.2676206 -0.55502427 0.37651259 50 10
-4.309175 -0.55966485 0.53354388 43 11
-4.3313775 -0.56101012 0.69175333 45 12
-4.3497739 -0.56184918 0.85253429 40 13
-4.2192063 -0.54423547 -0.22295111 55 6
-4.3622651 -0.56191468 1.0154291 38 14
-4.2343645 -0.54543948 -0.074521542 48 7
-4.3897028 -0.56467021 1.1859089 62 15
-4.2511802 -0.54006487 0.074800916 53 8
-4.2600579 -0.53968078 0.22504467 52 9
-4.2774386 -0.54112518 0.37720981 53 10
-4.3052888 -0.54312068 0.53281265 42 11
-4.3432045 -0.54636377 0.69331771 46 12
-4.349761 -0.54641742 0.85215271 39 13
-4.2290068 -0.53049964 -0.22336981 59 6
-4.3719339 -0.54765278 1.0172286 38 14
-4.2363348 -0.52991599 -0.074521542 50 7
-4.3821583 -0.54738116 1.1833208 60 15
-4.2609782 -0.52620244 0.07494054 53 8
-4.2619157 -0.52480805 0.22504467 52 9
-4.2832565 -0.52667701 0.37755841 52 10
-4.297307 -0.52688217 0.53159398 41 11
-4.3490067 -0.53167915 0.69394344 46 12
-4.3399491 -0.52980417 0.84986299 40 13
-4.2169542 -0.51404148 -0.22263707 44 6
-4.3738189 -0.53238845 1.0172286 39 14
-4.2460995 -0.51609123 -0.074661158 48 7
-4.4013023 -0.5341748 1.1879796 65 15
-4.2608032 -0.51108634 0.074905634 53 8
-4.2616501 -0.51043445 0.22494 53 9
-4.2890258 -0.51219386 0.37790704 52 10
-4.3010912 -0.51211315 0.53183776 42 11
-4.3546686 -0.51772058 0.69456917 48 12
-4.3495693 -0.51557583 0.85138988 40 13
-4.2167401 -0.49908364 -0.22253241 14 6
-4.3678193 -0.51696503 1.015429 39 14
-4.2497735 -0.50224239 -0.074696071 40 7
-4.4030499 -0.51957756 1.1879797 62 15
-4.2624741 -0.49695498 0.074905626 53 8
-4.255384 -0.4953756 0.22452132 53 9
-4.2946582 -0.49842831 0.37825617 52 10
-4.3126254 -0.49898803 0.53305644 41 11
-4.3387003 -0.50123662 0.69175321 45 12
-4.3571072 -0.50182307 0.85253429 40 13
-4.3695102 -0.50247788 1.0154291 38 14
-4.2474422 -0.48769045 -0.07462626 22 7
-4.4066672 -0.50519347 1.1884972 60 15
-4.2740335 -0.48394212 0.075080149 53 8
-4.2729645 -0.48231059 0.22535871 55 9
-4.2804489 -0.48239878 0.37686118 52 10
-0.51822919 -0.058311898 -0.082597397 22 3
-4.3083382 -0.48401907 0.53232521 42 11
-4.3384604 -0.48586977 0.69144046 46 12
-4.3646007 -0.48802593 0.85367918 42 13
-4.3712373 -0.48722219 1.015429 39 14
-4.2451439 -0.4724187 -0.07455644 13 7
-4.3930445 -0.48810047 1.1843561 60 15
-4.2637706 -0.4677127 0.074870721 53 8
-4.2706509 -0.46695784 0.22514933 55 9
-4.286068 -0.46788767 0.37720981 52 10
-0.51057458 -0.055646472 -0.081345931 22 3
-4.3198686 -0.47005075 0.53354388 41 11
-4.3558407 -0.47242662 0.69394338 46 12
-4.3545656 -0.47151938 0.85138988 40 13
-4.3690362 -0.47154352 1.0145292 39 14
-4.2586961 -0.45888278 -0.074765876 11 7
-4.4024038 -0.47358927 1.1864266 60 15
-4.2594118 -0.45219204 0.07476601 53 8
-4.2802 -0.45288923 0.22556804 55 9
-4.2916379 -0.4533411 0.37755841 52 10
-0.49112087 -0.051792193 -0.078217231 23 3
-4.309638 -0.45372257 0.53208148 41 11
-4.3535352 -0.45680666 0.69331771 46 12
-4.3522801 -0.45590818 0.85062629 40 13
-4.3880992 -0.45811078 1.0185782 40 14
-4.2562943 -0.44359863 -0.074696071 11 7
-4.4040303 -0.45822006 1.1864266 60 15
-4.2728996 -0.43854603 0.074975438 53 8
-4.277781 -0.43753821 0.22535871 55 9
-4.2931943 -0.43835759 0.37755841 52 10
-0.56204569 -0.057288833 -0.089480519 20 3
-4.3072457 -0.43827334 0.53159398 42 11
-0.59247911 -0.060181797 -0.073121585 16 4
-4.3629632 -0.44240519 0.69456905 48 12
-4.3577514 -0.4411073 0.85138988 37 13
-0.98562163 -0.099594399 -0.051917266 3 6
-4.3761001 -0.44142258 1.0154291 38 14
-4.2697544 -0.42994162 -0.074905492 9 7
-4.4113693 -0.44342384 1.1879796 65 15
-4.2783847 -0.42402354 0.07504525 52 8
-4.2753072 -0.4222106 0.22514936 53 9
-4.3065948 -0.42454255 0.37860429 52 10
-0.57796925 -0.056874156 -0.091983467 19 3
-4.324554 -0.42478788 0.53354388 41 11
-0.56897813 -0.055788882 -0.070196718 16 4
-4.3585839 -0.4265945 0.69363052 45 12
-4.3631735 -0.42627499 0.85215271 39 13
-0.91837692 -0.089562133 -0.048358414 10 6
-4.3814931 -0.42652091 1.0163288 38 14
-4.2652578 -0.41445446 -0.074800774 8 7
-4.4167361 -0.42839548 1.1890148 62 15
-4.2838197 -0.40946701 0.075115062 52 8
-4.2886844 -0.4084214 0.2257774 53 9
-4.3001165 -0.40875286 0.37790751 52 10
-0.566365 -0.053736649 -0.090106256 19 3
-4.3260107 -0.40969071 0.53354388 41 11
-0.60474241 -0.057165068 -0.074584082 15 4
-4.3580799 -0.411192 0.69331771 46 12
-4.3724523 -0.41177818 0.8536796 40 13
-0.882891 -0.082991526 -0.046474315 28 6
-4.3887758 -0.41177005 1.0176786 38 14
-4.2666793 -0.39956334 -0.074800782 8 7
-4.4105101 -0.41225624 1.1869441 62 15
-4.2812409 -0.39414448 0.075045258 50 8
-4.2821283 -0.39271885 0.22535871 53 9
-4.293581 -0.3930136 0.37720981 52 10
-0.52523828 -0.047985334 -0.083535999 21 3
-4.331368 -0.39494798 0.53403139 41 11
-0.56935376 -0.051815167 -0.070196718 16 4
-4.3653908 -0.39651293 0.69425637 43 12
-4.3699522 -0.39615935 0.85291636 37 13
-0.89511031 -0.08098878 -0.047102354 32 6
-4.3921275 -0.39662302 1.0181285 39 14
-4.2799978 -0.38574529 -0.07501021 6 7
-4.4080744 -0.39651194 1.1859089 62 15
-4.2786064 -0.37884483 0.074975438 52 8
-4.2993898 -0.37917268 0.22619611 55 9
-4.3029313 -0.37797147 0.37790751 48 10
-0.51753932 -0.045369875 -0.082284532 22 3
-4.32481 -0.37913272 0.53305638 41 11
-0.58535141 -0.051211514 -0.072146624 16 4
-4.3687153 -0.38144511 0.69456917 46 12
-4.3655076 -0.37962866 0.85177147 36 13
-0.88943154 -0.077189624 -0.046788327 33 6
-4.4013171 -0.38119483 1.019928 39 14
-4.2952633 -0.37200963 -0.075254537 6 7
-4.42098 -0.38212052 1.1890148 62 15
-4.2879362 -0.36383665 0.075115062 52 8
-4.2907362 -0.36331895 0.22567274 53 9
-4.3081956 -0.3632839 0.3782557 52 10
-0.56493658 -0.047538225 -0.089793384 20 3
-4.3261709 -0.36327893 0.53305644 41 11
-0.56179732 -0.047076728 -0.069221765 17 4
-4.3739572 -0.36652291 0.69519484 46 12
-4.3726759 -0.36487862 0.85291588 40 13
-0.87775344 -0.073090017 -0.046160299 44 6
-4.3890271 -0.36469936 1.0167787 38 14
-4.2985296 -0.35717961 -0.075289458 6 7
-4.418437 -0.36636776 1.1879797 62 15
-4.2891188 -0.34961513 0.075115055 52 8
-4.286006 -0.34785548 0.22535871 56 9
-4.321353 -0.34920707 0.37930155 53 10
-0.54933941 -0.04439193 -0.087290429 20 3
-4.3332877 -0.34940928 0.53378767 42 11
-0.5223763 -0.042029403 -0.064347044 18 4
-4.3653646 -0.35046113 0.69363046 45 12
-4.3738618 -0.35037613 0.85291588 40 13
-0.88794559 -0.070974529 -0.046683662 68 6
-4.3921542 -0.35029757 1.0172286 39 14
-4.2798157 -0.34058732 -0.074940398 6 7
-4.429317 -0.35170674 1.1905677 58 15
-4.2982879 -0.33526409 0.075254671 52 8
