# .PCD v0.7 - Point Cloud Data file format
VERSION 0.7
FIELDS x y z intensity ring
SIZE 4 4 4 4 2
TYPE F F F F U
COUNT 1 1 1 1 1
WIDTH 335
HEIGHT 1
VIEWPOINT 0 0 0 1 0 0 0
POINTS 335
DATA ascii
3.0958996 -0.3024646 -0.38193837 1 4
3.0178001 -0.30547267 -0.37243256 10 4
3.0266421 -0.31651068 -0.37365127 37 4
3.0373602 -0.32835385 -0.37511367 45 4
3.0125804 -0.33578554 -0.37218887 52 4
3.0172455 -0.34750631 -0.37292004 47 4
3.0081916 -0.35657531 -0.37194511 47 4
3.0069287 -0.36707368 -0.37194511 48 4
3.0752044 -0.37649804 -0.27105448 1 5
3.0253251 -0.38004181 -0.3743825 25 4
3.0560803 -0.38498896 -0.26948565 21 5
3.0112481 -0.39002404 -0.26565078 36 5
3.059916 -0.40664935 -0.37901351 1 4
3.0375183 -0.40421239 -0.26809117 46 5
3.0466766 -0.41571781 -0.37755108 1 4
3.045959 -0.41616133 -0.26896271 72 5
3.0334115 -0.42469862 -0.37608865 2 4
3.0306764 -0.42485505 -0.26774257 52 5
3.0758855 -0.44050223 -0.49214283 2 3
3.0417352 -0.4366951 -0.37730736 3 4
3.0252302 -0.43486437 -0.26739389 52 5
3.0315783 -0.4465833 -0.26809117 51 5
3.0563591 -0.46004856 -0.37950099 49 4
3.0340214 -0.45722768 -0.26843977 51 5
3.0748489 -0.46447828 -0.16297412 2 6
3.0633764 -0.47095141 -0.49089131 60 3
3.0292294 -0.46678424 -0.37633237 61 4
3.0363452 -0.46842322 -0.26878843 50 5
3.031759 -0.46879935 -0.16077602 21 6
3.0675685 -0.48256272 -0.49182999 61 3
3.0256207 -0.47704628 -0.37608865 60 4
3.0464997 -0.48088309 -0.26983428 51 5
3.0360219 -0.48031551 -0.16109002 38 6
3.065865 -0.49326754 -0.49182993 61 3
3.0376554 -0.4898167 -0.3777948 47 4
3.0369346 -0.49024442 -0.26913702 50 5
3.0540433 -0.49410015 -0.16213675 40 6
3.0602262 -0.50332516 -0.4912042 57 3
3.0398445 -0.50106281 -0.37828228 48 4
3.0391366 -0.50149101 -0.26948568 50 5
3.068064 -0.50736457 -0.16297412 6 6
3.0585399 -0.51347053 -0.49120417 48 3
3.0459967 -0.51245809 -0.37925762 48 4
3.0412965 -0.51275903 -0.26983428 48 5
3.0402765 -0.52241504 -0.37876979 45 4
3.0611789 -0.52655685 -0.27175173 43 5
3.0783172 -0.5306111 -0.16370684 1 6
3.0306132 -0.53165239 -0.3777948 21 4
3.0567756 -0.53789192 -0.16266011 1 6
3.1054997 -0.55485153 -0.4996517 1 3
3.0378165 -0.54440033 -0.27000859 7 5
3.0627425 -0.54997075 -0.16307878 1 6
3.0623505 -0.55100381 -0.054311723 5 7
3.0957701 -0.56427145 -0.49840015 1 3
3.0522146 -0.55743331 -0.38096344 23 4
3.0647333 -0.56137806 -0.16328813 4 6
3.0588236 -0.5685761 -0.49276853 2 3
3.071156 -0.57253242 -0.2733205 46 5
3.0800505 -0.57641566 -0.054695677 79 7
3.0556235 -0.57791853 -0.60448301 7 2
3.0762286 -0.5829277 -0.4958972 4 3
3.044348 -0.57798749 -0.38047594 57 4
3.0652244 -0.58250523 -0.27297187 65 5
3.0568156 -0.58201289 -0.1630788 44 6
3.062305 -0.58416593 -0.054416433 57 7
3.0540051 -0.59087312 -0.38193837 59 4
3.0612161 -0.59282261 -0.27279755 48 5
3.060648 -0.59382105 -0.16339283 67 6
3.0515144 -0.59923637 -0.60448301 46 2
3.0934048 -0.60858405 -0.49933881 59 3
3.0538721 -0.60191393 -0.38218215 53 4
3.0610833 -0.6038903 -0.2729719 51 5
3.0585566 -0.60450107 -0.16339283 55 6
3.0679607 -0.6074726 -0.054590959 1 7
3.0648053 -0.61296481 -0.60753602 47 2
3.0893245 -0.61899024 -0.49902594 59 3
3.0634301 -0.61491424 -0.38364455 52 4
3.0589564 -0.61457169 -0.27297187 50 5
3.0623014 -0.6163559 -0.16370684 28 6
3.0658214 -0.61817801 -0.054590959 1 7
3.0645707 -0.62405092 -0.60791761 48 2
3.0755322 -0.62740117 -0.49714875 53 3
3.0651548 -0.62639886 -0.38413206 52 4
3.0606966 -0.62604427 -0.27332053 47 5
3.0793161 -0.63209283 -0.054870203 1 7
3.0822356 -0.6377393 0.054940108 5 8
3.0642962 -0.63514292 -0.6082992 53 2
3.0829937 -0.64014101 -0.49871305 52 3
3.059062 -0.63628584 -0.38364491 53 4
3.0721462 -0.63956672 -0.27454066 46 5
3.077476 -0.64179713 -0.16475356 1 6
3.1085227 -0.64883804 -0.055428673 1 7
3.0620608 -0.64583552 -0.60829926 47 2
3.0866528 -0.65158516 -0.4996517 50 3
3.0588772 -0.64683712 -0.3838886 49 4
3.0753307 -0.651999 -0.16475356 1 6
3.0905902 -0.65636152 -0.055149429 1 7
3.0524025 -0.65326411 0.054486342 48 8
3.0618217 -0.65639764 -0.60868084 18 2
3.0940161 -0.66442925 -0.50121605 52 3
3.0624232 -0.65876329 -0.3846195 52 4
3.0730362 -0.66272992 -0.16475356 1 6
3.0804622 -0.66545683 -0.055009816 1 7
3.0735512 -0.66901875 0.054905206 55 8
3.0762386 -0.67185348 -0.49871305 35 3
3.0620444 -0.6698733 -0.38486323 37 4
3.0809679 -0.67457664 -0.27593517 1 5
3.0785074 -0.6751641 -0.16517222 1 6
3.0742145 -0.67534733 -0.054940011 1 7
3.0594826 -0.67715049 0.054695774 56 8
3.078248 -0.68243122 -0.61287856 1 2
3.0674379 -0.68228179 -0.38583854 9 4
3.0980422 -0.68965644 -0.27767828 2 5
3.0702837 -0.68460196 -0.16485822 1 6
3.0835478 -0.68868953 -0.055149432 2 7
3.0727077 -0.69133753 0.054975014 52 8
3.0988302 -0.69835156 -0.61745805 1 2
3.0984499 -0.69940245 -0.50309324 4 3
3.0863364 -0.69780034 -0.38851932 48 4
3.0722971 -0.69518989 -0.27558655 3 5
3.0951452 -0.70149571 -0.16632363 2 6
3.0986757 -0.70343316 -0.055463579 5 7
3.0722253 -0.70250493 0.05500992 55 8
3.0772364 -0.70478123 -0.61364186 1 2
3.0936794 -0.71025217 -0.38973799 49 4
3.0810001 -0.70960587 -0.16569561 2 6
3.0815659 -0.71540219 0.055219345 55 8
3.1225066 -0.72548109 -0.74008882 1 1
3.078707 -0.7158711 -0.6144051 2 2
3.1090086 -0.72406095 -0.50559616 59 3
3.0758407 -0.71690255 -0.38778809 49 4
3.0888364 -0.72106826 -0.277504 46 5
3.1036777 -0.72624683 -0.055638101 68 7
3.0733378 -0.72424108 0.055114634 52 8
3.1219804 -0.73627907 -0.74053913 36 1
3.0751717 -0.72580642 0.16559102 16 9
3.0763161 -0.72607648 -0.6144051 10 2
3.1008232 -0.7330035 -0.50465757 56 3
3.0887733 -0.73129356 -0.38973799 50 4
3.0903056 -0.73222601 -0.27785259 50 5
3.0937159 -0.73417455 -0.16663764 30 6
3.0855601 -0.73337704 -0.055358868 17 7
3.0785699 -0.73682654 0.055254251 50 8
3.0584893 -0.73314929 -0.61135215 22 2
3.0905623 -0.74197841 -0.50340605 56 3
3.0842714 -0.74160671 -0.38949463 50 4
3.0896678 -0.74347484 -0.27802691 47 5
3.0895808 -0.75087386 0.055498581 12 8
3.0959351 -0.75299048 -0.7355898 61 1
3.0719702 -0.74772978 0.1656957 47 9
3.0807097 -0.74985695 -0.61631316 39 2
3.0994687 -0.75556898 -0.5052833 50 3
3.0720217 -0.75001431 -0.38827556 49 4
3.087054 -0.75425524 -0.27802691 45 5
3.1059752 -0.76002729 -0.1675797 1 6
3.130863 -0.76727563 -0.05626639 1 7
3.0989635 -0.76519418 -0.73693955 64 1
3.0635245 -0.75701094 0.16538167 37 9
3.0876036 -0.76296091 -0.61822128 50 2
3.0987298 -0.7668581 -0.50559616 52 3
3.0751653 -0.76216567 -0.38900679 49 4
3.1265631 -0.77664232 -0.16883574 1 6
3.1087596 -0.77337199 -0.055917338 1 7
3.1114209 -0.77922601 0.055987254 1 8
3.1038346 -0.77790195 -0.73873913 24 1
3.0686128 -0.7696436 0.16580038 49 9
3.0849214 -0.77373409 -0.61822128 48 2
3.1075296 -0.78055751 -0.50747341 52 3
3.0821118 -0.77531677 -0.3902255 48 4
3.1122131 -0.78462189 -0.16820772 1 6
3.1370628 -0.79205143 -0.056475814 1 7
3.0873625 -0.7846638 0.055603296 8 8
3.0736496 -0.78232086 0.16621906 56 9
3.0936172 -0.78740311 -0.620511 49 2
3.0971291 -0.78944826 -0.50622189 49 3
3.08131 -0.78656161 -0.39046922 23 4
3.136898 -0.80133474 -0.28325626 1 5
3.1094556 -0.79548061 -0.16820772 1 6
3.1149073 -0.79803395 -0.056126762 1 7
3.0787742 -0.79450548 0.16663775 53 9
3.0908499 -0.79819697 -0.620511 49 2
3.1039169 -0.80272752 -0.50778627 50 3
3.168798 -0.82127726 -0.28639388 1 5
3.0989268 -0.80432278 -0.16778903 1 6
3.1199863 -0.81037009 -0.05626639 1 7
3.0935583 -0.80869508 0.055812724 50 8
3.0817785 -0.80676484 0.16695178 52 9
3.0918431 -0.8099764 -0.62127423 45 2
3.1028924 -0.8134498 0.28064132 2 10
3.1069703 -0.81451887 -0.50872487 38 3
3.1200454 -0.81911063 -0.39607522 1 4
3.1620584 -0.83132017 -0.28604528 1 5
3.1464622 -0.82780725 -0.17051049 1 6
3.1190717 -0.82176518 -0.056301288 4 7
3.098448 -0.82153857 0.055952344 57 8
3.0789437 -0.8175174 0.16695178 52 9
3.1005251 -0.82324767 -0.62356395 6 2
3.1021993 -0.82485163 -0.508412 6 3
3.1210036 -0.83101815 -0.3965627 1 4
3.1515827 -0.83974946 -0.285348 1 5
3.1358349 -0.83672571 -0.17009182 1 6
3.0736821 -0.82129109 -0.055533387 27 7
3.1052172 -0.83494526 0.056126866 57 8
3.0837853 -0.83033705 0.16737045 52 9
3.1203811 -0.84019089 -0.62814331 4 2
3.0857408 -0.8314414 0.27959546 31 10
3.1085012 -0.83932 -0.39534435 9 4
3.1332452 -0.84658802 -0.28395349 2 5
3.1251833 -0.84558022 -0.16967313 1 6
3.1036086 -0.84090555 -0.05612677 44 7
3.0984249 -0.84472752 0.056057058 55 8
3.0924289 -0.84425265 0.16799851 52 9
3.128758 -0.85534424 -0.51373076 59 3
3.0978942 -0.84806907 -0.39436907 33 4
3.0955341 -0.84858465 -0.2808159 5 5
3.1164346 -0.85489899 -0.16935912 20 6
3.1353629 -0.8612684 -0.056755051 57 7
3.0973852 -0.85607076 0.056091964 53 8
3.0952375 -0.8566401 0.16831249 53 9
3.1142893 -0.86249822 -0.62814337 35 2
3.1160841 -0.86416668 -0.51216644 48 3
3.1197815 -0.86577815 -0.39753762 45 4
3.0848749 -0.85725105 -0.28011864 23 5
3.1171284 -0.86738622 -0.16956846 37 6
3.1130729 -0.86684328 -0.056405995 55 7
3.1038542 -0.87011659 0.05626649 55 8
3.0863082 -0.86635959 0.16799849 52 9
3.1320653 -0.88038385 -0.51529515 56 3
3.1318741 -0.88150972 -0.39948758 54 4
3.1296542 -0.88206416 -0.28447646 36 5
3.1006253 -0.87446678 -0.16883574 4 6
3.1079512 -0.87770426 -0.0563711 33 7
3.1065688 -0.88258493 0.056371208 53 8
3.0909491 -0.87931365 0.16841716 15 9
3.1288176 -0.89185756 -0.51529515 50 3
3.1020527 -0.88481373 -0.39607522 52 4
3.1703701 -0.90669417 -0.1728133 1 6
3.1017032 -0.89232898 0.056336302 11 8
3.1072087 -0.89508748 0.1694639 3 9
3.137388 -0.90496749 -0.51717234 50 3
3.1029158 -0.8961972 -0.3965627 42 4
3.1677585 -0.91552448 -0.28848562 1 5
3.1483204 -0.91109759 -0.17176658 1 6
3.1383977 -0.90941352 -0.057034288 1 7
3.1081686 -0.90594864 0.056510825 9 8
3.1190417 -0.91148084 -0.51466936 48 3
3.1607192 -0.9254567 -0.28813699 1 5
3.152787 -0.92432916 -0.17218524 1 6
3.1313667 -0.9192363 -0.056964479 1 7
3.1291001 -0.92628771 -0.51685947 49 3
3.1308415 -0.92799199 -0.40095034 1 4
3.1880319 -0.94554877 -0.29092601 1 5
3.1380539 -0.93191737 -0.17155722 1 6
3.1473062 -0.93586081 -0.057313524 1 7
3.1170948 -0.93220913 0.056790058 44 8
3.1072314 -0.93044102 0.16998723 48 9
3.1315241 -0.93890661 -0.51779807 48 3
3.1237807 -0.93777341 -0.40046287 1 4
3.1656299 -0.95093912 -0.28918284 1 5
3.1309562 -0.94171506 -0.17134787 1 6
3.1306169 -0.94280475 -0.05706919 11 7
3.1233907 -0.94598216 0.056964584 53 8
3.1020539 -0.94070208 0.1698826 51 9
3.1206667 -0.94753611 -0.51654661 23 3
3.1356831 -0.953291 -0.40241244 1 4
3.1888077 -0.97065806 -0.2916232 1 5
3.142935 -0.95729399 -0.17218526 1 6
3.1330452 -0.95547664 -0.057173908 44 7
3.1181579 -0.95629275 0.056929678 53 8
3.1082973 -0.95445585 0.17040594 43 9
3.1475139 -0.96890295 -0.40436232 1 4
3.1701686 -0.97708839 -0.29022872 1 5
3.1394053 -0.9688068 -0.17218524 4 6
3.148798 -0.97230738 -0.05752296 57 7
3.1184514 -0.96890169 0.05699949 53 8
3.1479027 -0.98106533 -0.40485018 1 4
3.1401114 -0.97983974 -0.28778839 1 5
3.118664 -0.97493947 -0.057034288 55 7
3.120944 -0.98103642 0.0571042 55 8
3.1484187 -0.99269259 -0.40533727 3 4
3.1406448 -0.99144703 -0.28813702 3 5
3.1479731 -0.99496895 -0.17302261 48 6
3.1287606 -0.98949677 -0.057278622 50 7
3.1310134 -0.9956224 0.057348534 52 8
3.139261 -1.0018659 -0.40460604 27 4
3.1237302 -0.99871188 -0.17187123 51 6
3.1386187 -1.0046799 -0.057522956 52 7
3.1332297 -1.0083835 0.057453252 55 8
3.1433005 -1.0152584 -0.40558138 52 4
3.1317511 -1.0127354 -0.28796268 12 5
3.1295495 -1.0132303 -0.17239459 40 6
3.1312881 -1.0143967 -0.057453148 46 7
3.1314139 -1.02048 0.057488155 52 8
3.1546521 -1.0317087 -0.40753129 49 4
3.127728 -1.025321 -0.057453148 15 7
3.1299121 -1.0314846 0.057523064 37 8
3.1417904 -1.0390478 -0.40631223 30 4
3.1908031 -1.0564929 -0.29406354 1 5
3.1680825 -1.0495836 -0.17490673 1 6
3.1262927 -1.0424038 0.057523064 49 8
3.1872821 -1.0670682 -0.29406354 1 5
3.1606119 -1.0593666 -0.17469738 1 6
3.1622012 -1.0611272 -0.05822105 2 7
3.1358984 -1.0577841 0.057767391 52 8
3.1835377 -1.0781873 -0.29406354 1 5
3.1493289 -1.0678271 -0.17427869 1 6
3.1397569 -1.0713069 0.057907011 50 8
3.1607177 -1.0833882 -0.29232046 1 5
3.1569178 -1.0827017 -0.17490673 3 6
3.1622815 -1.0857749 -0.058360666 49 7
3.1511204 -1.0874791 0.058186248 49 8
3.1682119 -1.0983305 -0.29336634 1 5
3.1395817 -1.090247 -0.058011618 53 7
3.1452258 -1.098362 0.058151346 33 8
3.1624782 -1.1087235 -0.293192 3 5
3.175473 -1.1145242 -0.17637213 48 6
3.1600907 -1.1103643 -0.05846538 50 7
3.1565051 -1.1202577 -0.17553475 57 6
3.1693859 -1.1260748 -0.058709718 52 7
3.1659145 -1.1348084 -0.29423791 25 5
3.1488159 -1.12992 -0.17532541 51 6
3.16187 -1.1352273 -0.058639903 50 7
3.1525624 -1.1430789 -0.1757441 51 6
3.1691663 -1.1503512 -0.058849335 52 7
3.1579289 -1.157513 -0.17626743 49 6
3.1707633 -1.1634731 -0.058954045 53 7
3.1557422 -1.1692233 -0.17637213 22 6
3.1554337 -1.1703619 -0.058744624 49 7
3.1644356 -1.1862825 -0.058988947 49 7
3.1811259 -1.2039511 -0.17825621 4 6
3.1658857 -1.1994469 -0.059093665 48 7
3.159812 -1.2097756 -0.059058763 48 7
3.185684 -1.2311699 -0.17898892 27 6
3.1574349 -1.2215194 -0.059093665 46 7
3.153152 -1.2325336 -0.059093669 19 7
