# .PCD v0.7 - Point Cloud Data file format
VERSION 0.7
FIELDS x y z intensity ring
SIZE 4 4 4 4 2
TYPE F F F F U
COUNT 1 1 1 1 1
WIDTH 1028
HEIGHT 1
VIEWPOINT 0 0 0 1 0 0 0
POINTS 1028
DATA ascii
2.0230322 -0.4049761 -0.10812607 1 6
1.9432564 -0.39641967 -0.10393919 2 6
1.8812386 -0.39061314 -0.10069436 17 6
1.9000163 -0.40802196 -0.10184575 59 6
1.881019 -0.41081634 -0.1009037 72 6
1.8776238 -0.41694689 -0.10079902 69 6
1.8723342 -0.42229211 -0.10058968 56 6
1.8630615 -0.42704037 -0.10017099 65 6
1.8978477 -0.44164294 -0.17047669 1 5
1.8653742 -0.43477264 -0.10038034 58 6
1.8613933 -0.44001472 -0.16733907 2 5
1.8755063 -0.44404218 -0.10100837 42 6
1.859924 -0.44618493 -0.16733907 19 5
1.8565457 -0.44605988 -0.10006633 9 6
1.9073395 -0.4586159 -0.034241516 3 7
1.8725201 -0.45647117 -0.10100837 2 6
1.8723177 -0.46265823 -0.16873358 69 5
1.8747928 -0.46396431 -0.10121771 2 6
1.8532984 -0.4648287 -0.16716477 79 5
1.8576651 -0.46661323 -0.10038033 2 6
1.8675253 -0.46978298 -0.033613231 85 7
1.836218 -0.46736351 -0.16577029 64 5
1.8676374 -0.47605476 -0.10100837 2 6
1.8755621 -0.47877204 -0.033787757 82 7
1.8403625 -0.47526479 -0.16629322 64 5
1.8814332 -0.48657173 -0.10184574 2 6
1.8564569 -0.48080376 -0.033473611 28 7
1.8425471 -0.48269576 -0.16664183 62 5
1.8488133 -0.48502716 -0.10017099 2 6
1.8630594 -0.4943293 -0.23667018 1 4
1.848639 -0.49084839 -0.16733907 62 5
1.851055 -0.49218172 -0.10038033 2 6
1.8666679 -0.49703076 -0.033717949 3 7
1.8383193 -0.49464005 -0.23374552 1 4
1.8469143 -0.49729842 -0.16733907 60 5
1.8531828 -0.49968007 -0.10058969 2 6
1.8610603 -0.50250101 -0.033648137 4 7
1.92202 -0.52220124 0.034765147 1 8
1.8519026 -0.50523376 -0.23569521 3 4
1.837479 -0.5016433 -0.16664185 62 5
1.8514272 -0.50614583 -0.10058969 2 6
1.8874115 -0.51987976 0.034171768 3 8
1.8357168 -0.50805432 -0.16664185 62 5
1.8534986 -0.51367223 -0.10079902 2 6
1.8123958 -0.50603002 0.032845385 12 8
1.8300954 -0.51338279 -0.16629322 64 5
1.832466 -0.51473778 -0.099752314 2 6
1.8499212 -0.52033776 -0.033543423 95 7
1.8006817 -0.5115788 -0.22984549 88 4
1.835958 -0.52194721 -0.16699046 62 5
1.8306581 -0.52113116 -0.099752314 2 6
1.8654014 -0.53172559 -0.033857565 91 7
1.8453416 -0.52914315 0.03350858 44 8
1.7988849 -0.51786131 -0.22984549 93 4
1.8341249 -0.52835274 -0.16699047 60 5
1.8403417 -0.53083944 -0.10038034 3 6
1.8424009 -0.53212994 -0.033473611 88 7
1.8454037 -0.53613925 0.033543482 50 8
1.7970663 -0.52413738 -0.22984549 74 4
1.8169686 -0.53028619 -0.16559595 64 5
1.8480629 -0.54006135 -0.1009037 17 6
1.8424517 -0.5391196 -0.033508521 83 7
1.8339292 -0.53975469 0.03336896 58 8
1.8028408 -0.53265691 -0.23082045 66 4
1.8151065 -0.53662539 -0.16559596 64 5
1.844393 -0.54668427 -0.033578329 77 7
1.8396993 -0.54843819 0.03350858 66 8
1.8066758 -0.54065412 -0.23155166 68 4
1.820857 -0.54524428 -0.16629322 60 5
1.8308556 -0.54893476 -0.10017099 66 6
1.8424734 -0.55311906 -0.033578329 77 7
1.8396881 -0.55543453 0.033543482 62 8
1.7971783 -0.54465431 -0.23057692 68 4
1.8151294 -0.55044049 -0.16594461 62 5
1.8117285 -0.55009979 -0.099228948 81 6
1.8405316 -0.55954713 -0.033578329 77 7
1.8415627 -0.56302214 0.033613294 62 8
2.0090933 -0.61500841 0.11011489 1 9
1.7961143 -0.55049866 -0.29753834 1 3
1.7857776 -0.54801238 -0.22935802 74 4
1.8170061 -0.55794281 -0.16629322 60 5
1.8117065 -0.55700761 -0.099333629 72 6
1.8270999 -0.56243837 -0.0333689 86 7
1.8434064 -0.5706296 0.033683103 57 8
1.881024 -0.58299375 0.10320655 1 9
1.839461 -0.5708158 -0.30504721 4 3
1.795228 -0.55777669 -0.23082045 47 4
1.8074371 -0.56191593 -0.16559596 62 5
1.8192861 -0.56629622 -0.09985698 52 6
1.8289437 -0.57000279 -0.033438709 83 7
1.8356789 -0.57526678 0.033578388 23 8
1.8656378 -0.58537072 0.10247384 4 9
1.8054647 -0.56822169 -0.16559596 64 5
1.8153934 -0.572043 -0.099752314 16 6
1.8269427 -0.57638347 -0.033438705 86 7
1.7988564 -0.57270491 -0.2317954 2 4
1.8034701 -0.57452047 -0.16559596 62 5
1.8288317 -0.58365458 -0.033508521 83 7
1.839337 -0.59019244 0.033718009 2 8
1.7988591 -0.57789683 0.099019662 31 9
1.7958757 -0.57762998 -0.29878983 60 3
1.8007267 -0.57988399 -0.23228289 2 4
1.8052465 -0.58203506 -0.16594461 60 5
1.8190606 -0.58683932 -0.10017099 2 6
1.8362975 -0.59310794 -0.033683039 79 7
1.8334619 -0.59537411 0.0336482 2 8
1.8139257 -0.58973014 0.099961713 42 9
1.8032402 -0.58695227 -0.30035418 72 3
1.7873669 -0.58247566 -0.23082045 2 4
1.8069921 -0.58956897 -0.16629322 60 5
1.817001 -0.5931856 -0.10017099 2 6
1.8152088 -0.59330159 -0.033333994 81 7
1.8389716 -0.60426742 0.033787817 2 8
1.819445 -0.59855491 0.10038041 42 9
1.8010767 -0.59355754 -0.30035415 74 3
1.8004045 -0.59368443 -0.23277035 2 4
1.8049229 -0.59587294 -0.16629322 41 5
1.826193 -0.60360187 -0.10079902 2 6
1.8131266 -0.59963423 -0.033333994 56 7
1.8253597 -0.6072163 0.033578392 2 8
1.83819 -0.61184078 0.10153179 18 9
1.7858764 -0.59546709 -0.2981641 68 3
1.8019828 -0.60153639 -0.23325785 2 4
1.8127099 -0.6061725 -0.100171 2 6
1.8422896 -0.61964101 0.033927437 1 8
1.7895073 -0.60327893 -0.29910266 74 3
1.7849311 -0.60243022 -0.23130792 2 4
1.7912812 -0.60527003 -0.16542165 2 5
1.8031216 -0.60962158 -0.099752307 2 6
1.8013196 -0.60971302 -0.033194374 2 7
1.8325429 -0.62349159 0.033787817 2 8
1.8300924 -0.62337083 0.10132244 3 9
1.7836514 -0.60824686 -0.29847693 74 3
1.7753028 -0.60609162 -0.23033297 2 4
1.7798374 -0.60798657 -0.16455013 2 5
1.7972031 -0.6146192 -0.099542961 2 6
1.8086398 -0.61923581 -0.0333689 2 7
1.8227918 -0.62728173 0.0336482 1 8
1.8203523 -0.62715292 0.10090377 3 9
1.7875031 -0.61583567 -0.36749819 1 2
1.7871195 -0.61640143 -0.29941556 71 3
1.7731763 -0.61228484 -0.23033297 2 4
1.7965357 -0.62070197 -0.16629322 3 5
1.8025967 -0.62350047 -0.099961653 2 6
1.8121362 -0.6275084 -0.033473611 3 7
1.843254 -0.64152819 0.034067053 2 8
1.7992914 -0.62693173 0.099857047 12 9
1.7575337 -0.61238194 -0.36177394 4 2
1.8625233 -0.64932817 0.17256826 1 10
1.7812266 -0.62133467 -0.2987898 68 3
1.7785245 -0.62108856 -0.23130813 2 4
1.7736684 -0.61974001 -0.1643758 6 5
1.796639 -0.62847 -0.099752307 2 6
1.8099347 -0.63383007 -0.033473611 25 7
1.8221409 -0.64131957 0.033718009 2 8
1.8207856 -0.64191431 0.16890773 5 10
1.7753212 -0.62623435 -0.2981641 68 3
1.7875764 -0.63125896 -0.23277056 2 4
1.8094977 -0.64006597 -0.10058969 2 6
1.8161231 -0.64633524 0.0336482 2 8
1.8005149 -0.64148861 0.10017106 42 9
1.7199267 -0.61277658 -0.3549048 50 2
1.7731243 -0.63242757 -0.29816407 68 3
1.7741454 -0.63348985 -0.23130792 2 4
1.7692986 -0.63210744 -0.1643758 37 5
1.7846853 -0.63830709 -0.099333622 2 6
1.8148791 -0.64982063 -0.033648137 73 7
1.8176193 -0.65402478 0.033718009 2 8
1.803902 -0.64980036 0.10048507 66 9
1.7270128 -0.62210333 -0.35681292 68 2
1.81626 -0.6546101 0.16890773 47 10
1.7709061 -0.63861305 -0.2981641 71 3
1.7644546 -0.63698274 -0.23033297 2 4
1.7914419 -0.64707875 -0.16664183 69 5
1.7749333 -0.64181614 -0.098914936 2 6
1.7956771 -0.65002602 -0.033333994 92 7
1.8172042 -0.66104907 0.033752911 4 8
1.7903626 -0.65199268 0.09985704 62 9
1.7377436 -0.63283044 -0.35948423 100 2
1.8233237 -0.66435641 0.16977951 69 10
1.7742337 -0.64682049 -0.29910269 74 3
1.775274 -0.64790183 -0.23203914 4 4
1.7723287 -0.64717752 -0.16507304 66 5
1.787689 -0.65349376 -0.099752307 4 6
1.7990307 -0.65835172 -0.033438709 96 7
1.7698421 -0.65082443 0.032915197 12 8
1.7993217 -0.66237795 0.10048507 62 9
1.7226273 -0.63414478 -0.35681289 100 2
1.8004282 -0.66314214 0.16786186 66 10
1.7701116 -0.6523267 -0.2987898 71 3
1.7767264 -0.65546894 -0.23252662 20 4
1.7569751 -0.64853072 -0.16385286 59 5
1.7722826 -0.6548841 -0.099019594 19 6
1.7892196 -0.66185242 -0.033299088 78 7
1.7951267 -0.66795832 0.10038041 60 9
1.7222433 -0.64083874 -0.35719451 93 2
1.7999694 -0.67011791 0.16803616 72 10
1.7511636 -0.65229589 -0.29597399 78 3
1.7621673 -0.65744549 -0.16455011 64 5
1.7868986 -0.66809398 -0.033299088 78 7
1.7821029 -0.66949344 0.03322934 44 8
1.7946538 -0.67492342 0.10048508 62 9
1.7236712 -0.6482287 -0.35795775 100 2
1.801349 -0.6778003 0.16838479 72 10
1.7562709 -0.66118848 -0.29722548 74 3
1.772107 -0.66785669 -0.23252662 70 4
1.7673188 -0.66640455 -0.16524735 64 5
1.7807478 -0.67217821 -0.099752307 66 6
1.7882968 -0.67574102 -0.0333689 83 7
1.7853636 -0.6778394 0.033334054 50 8
1.7810848 -0.67692637 0.09985704 64 9
1.7287384 -0.65703142 -0.3594842 97 2
1.8026967 -0.68550038 0.16873343 69 10
1.7521061 -0.66661257 -0.29691261 68 3
1.7382281 -0.6620273 -0.22838305 88 4
1.7649819 -0.67256945 -0.16524735 62 5
1.7541314 -0.66913611 -0.098391578 81 6
1.7896632 -0.68340594 -0.033438709 83 7
1.7848537 -0.6847837 0.03336896 58 8
1.744714 -0.66973299 -0.43145624 1 1
1.7824402 -0.68457162 0.10006639 62 9
1.7117727 -0.65743077 -0.35643128 100 2
1.8040125 -0.69321817 0.16908206 69 10
1.7589873 -0.67626894 -0.29847693 74 3
1.8583045 -0.71482515 0.24446987 1 11
1.739612 -0.6695168 -0.22887054 77 4
1.7663417 -0.68015814 -0.16559595 64 5
1.7592391 -0.67812848 -0.098810256 64 6
1.7779387 -0.6860494 -0.033264186 81 7
1.791775 -0.69462395 0.033543482 62 8
1.7387321 -0.67440963 -0.43055624 3 1
1.7837636 -0.69223452 0.10027573 64 9
1.7131281 -0.66482258 -0.35719454 88 2
1.7885804 -0.69446295 0.16786186 48 10
1.7529335 -0.6809743 -0.2978512 74 3
1.8817016 -0.73137569 0.24788223 1 11
1.7391142 -0.67630446 -0.22911447 67 4
1.7528163 -0.6819852 -0.16455013 64 5
1.7680278 -0.68861437 -0.099438287 61 6
1.7699437 -0.69007218 -0.033159468 78 7
1.7781675 -0.69649822 0.033334054 34 8
1.7776176 -0.69699866 0.10006639 64 9
1.725419 -0.67653173 -0.36024743 34 2
1.7395128 -0.68275851 -0.29597399 74 3
1.8200097 -0.71472013 0.24008258 6 11
1.7496765 -0.68745255 -0.23082045 31 4
1.7467164 -0.68664151 -0.16420147 62 5
1.7618964 -0.69331902 -0.099228948 30 6
1.7731061 -0.69844496 -0.033264186 81 7
1.7827244 -0.70583045 0.10048507 62 9
1.7407917 -0.6902827 -0.29659975 74 3
1.7480124 -0.69420534 -0.16455011 62 5
1.7763543 -0.70653814 -0.0333689 83 7
1.788241 -0.71452141 0.033613294 2 8
1.7045528 -0.68142736 -0.42380771 77 1
1.772832 -0.70908225 0.10006639 62 9
1.7078948 -0.68345493 -0.35757613 3 2
1.8015562 -0.7213006 0.16977951 2 10
1.7384931 -0.6960516 -0.29659975 66 3
1.8316875 -0.7337355 0.24227624 71 11
1.7228453 -0.69048452 -0.2278956 2 4
1.7566731 -0.7047537 -0.16559595 62 5
1.7626969 -0.7075277 -0.099542961 2 6
1.7738773 -0.7127344 -0.0333689 76 7
1.8024251 -0.72749525 0.033927437 1 8
1.7093916 -0.690292 -0.42560729 90 1
1.7684944 -0.71451807 0.09996172 60 9
1.7092597 -0.69058573 -0.35833937 3 2
1.7991544 -0.72727084 0.16977929 2 10
1.7415465 -0.70433772 -0.29753834 71 3
1.7978323 -0.72746658 0.23813266 48 11
1.7314643 -0.7009635 -0.22935823 2 4
1.7543262 -0.71057528 -0.16559595 62 5
1.7602164 -0.71367633 -0.099542961 2 6
1.7602609 -0.71441007 -0.033159468 68 7
1.7998745 -0.73378241 0.033927433 1 8
1.7105805 -0.69772667 -0.42650712 83 1
1.7696879 -0.72219616 0.10017106 34 9
1.7068386 -0.69654787 -0.35833937 3 2
1.7929157 -0.73204046 0.16943066 2 10
1.7390771 -0.71041244 -0.29753834 59 3
1.8081452 -0.73899502 0.23983887 46 11
1.7253324 -0.70550054 -0.22887054 2 4
1.7389271 -0.71141386 -0.1643758 37 5
1.7688041 -0.72435778 -0.100171 2 6
1.7559063 -0.71979171 -0.033124566 44 7
1.7751133 -0.73092413 0.033508576 2 8
1.7189455 -0.70814729 -0.42920652 78 1
1.7007666 -0.7010054 -0.35757613 3 2
1.7940334 -0.73981345 0.16977929 2 10
1.7183262 -0.70894474 -0.29440963 27 3
1.8110592 -0.74757439 0.24057007 6 11
1.7412069 -0.71909606 -0.23130813 2 4
1.7810298 -0.73663437 -0.10100837 2 6
1.7688583 -0.73558038 0.033438768 2 8
1.7020693 -0.70815456 -0.42560729 83 1
1.7793539 -0.74067348 0.10100843 2 9
1.7128092 -0.71297365 -0.36062908 3 2
1.7804046 -0.7414754 0.16873343 2 10
1.7882836 -0.74548942 0.23788893 3 11
1.7533432 -0.73128283 -0.23325783 2 4
1.7192085 -0.71739841 -0.1629813 2 5
1.771076 -0.73976773 -0.10058969 2 6
1.7600634 -0.73588949 -0.033299092 2 7
1.7662799 -0.7417503 0.033438768 1 8
1.7031804 -0.71560133 -0.42650715 68 1
1.7638693 -0.74146235 0.10027573 2 9
1.699451 -0.71438342 -0.35833937 3 2
1.8035175 -0.75849938 0.17117378 2 10
1.7424673 -0.73318154 -0.29941556 3 3
1.7984776 -0.75711876 0.2395951 3 11
1.7398033 -0.73277563 -0.23179542 2 4
1.7368901 -0.73190552 -0.16489872 2 5
1.7427194 -0.73507828 -0.099124283 2 6
1.7722217 -0.74825126 -0.033578329 2 7
1.76368 -0.74791116 0.033438768 2 8
1.7042599 -0.72306436 -0.42740691 78 1
1.7575934 -0.74605411 0.10006639 3 9
1.696947 -0.72031128 -0.35833937 3 2
1.7935232 -0.76167494 0.17047653 2 10
1.7289889 -0.73462456 -0.29753834 3 3
1.808612 -0.76882803 0.24130127 12 11
1.708007 -0.72641355 -0.2278956 2 4
1.7269912 -0.73484361 -0.16420145 3 5
1.7438178 -0.74272233 -0.099333622 2 6
1.7585618 -0.74972749 -0.0333689 3 7
1.7316309 -0.74110496 -0.5046972 1 0
1.7831178 -0.76350868 0.033857629 2 8
1.7017255 -0.72900879 -0.42740691 78 1
1.7623214 -0.75533193 0.10048507 8 9
1.6944222 -0.72623032 -0.35833937 3 2
1.7835288 -0.76478994 0.16977951 2 10
1.7391214 -0.74610716 -0.29972842 4 3
1.7200528 -0.73863745 -0.2298457 2 4
1.8766677 -0.80628008 0.32350656 1 12
1.7335689 -0.74479997 -0.16507304 3 5
1.7448841 -0.75038296 -0.099542961 2 6
1.7504238 -0.75348949 -0.033264186 7 7
1.6776053 -0.724922 -0.48968562 4 0
1.7694288 -0.76496696 0.0336482 2 8
1.7027476 -0.73649192 -0.42830673 83 1
1.6846696 -0.72902167 -0.35681289 3 2
1.773535 -0.7678448 0.16908205 2 10
1.8123075 -0.78538239 0.24251996 47 11
1.7283916 -0.74937493 -0.23130813 2 4
1.844846 -0.80024827 0.31850064 4 12
1.7400975 -0.75481099 -0.16594459 19 5
1.7569104 -0.76283276 -0.10038034 2 6
1.7667477 -0.77113885 0.0336482 2 8
1.6894512 -0.7377519 -0.42560732 78 1
1.7478541 -0.76361871 0.099961706 42 9
1.7001052 -0.74275774 -0.36062908 3 2
1.770844 -0.77403075 0.16908205 2 10
1.7731823 -0.77579015 0.23764522 48 11
1.7184914 -0.75221956 -0.23033297 2 4
1.739603 -0.76254618 -0.099542961 2 6
1.6972554 -0.74751753 -0.4969326 54 0
1.7640454 -0.77730113 0.0336482 2 8
1.6832992 -0.74207246 -0.4247075 87 1
1.7524877 -0.77293921 0.10038041 62 9
1.6903169 -0.74551862 -0.35910261 3 2
1.7717769 -0.78181612 0.16943066 3 10
1.7095277 -0.75470448 -0.29597399 62 3
1.7795426 -0.78598511 0.23886389 66 11
1.7085922 -0.75500417 -0.22935823 2 4
1.817534 -0.80352336 0.3147462 42 12
1.7457192 -0.77177441 -0.16699047 69 5
1.7332778 -0.76699746 -0.099333622 2 6
1.7460942 -0.77339786 -0.033333994 92 7
1.6999315 -0.75579202 -0.49848551 78 0
1.7594942 -0.78264141 0.033613294 6 8
1.6878203 -0.75111306 -0.42650712 78 1
1.7388314 -0.77417767 0.099752374 58 9
1.6841174 -0.74981731 -0.35833937 4 2
1.767217 -0.78718531 0.16925636 6 10
1.7177089 -0.76549172 -0.2978512 75 3
1.7822274 -0.79461712 0.2395951 74 11
1.7041334 -0.76015502 -0.22911449 4 4
1.8183261 -0.81147295 0.31537199 61 12
1.7211815 -0.76811975 -0.16489874 70 5
1.7451786 -0.77955973 -0.10017099 5 6
1.7415586 -0.77867204 -0.033299092 91 7
1.6761329 -0.75222939 -0.49227384 93 0
1.7147936 -0.76993942 0.032810483 23 8
1.6851881 -0.75700003 -0.42650712 83 1
1.7452272 -0.78433615 0.10027573 62 9
1.6779081 -0.75408185 -0.3575761 4 2
1.7222325 -0.7747246 -0.29910269 74 3
1.7776325 -0.80001867 0.23935136 68 11
1.7231907 -0.77587909 -0.23203914 20 4
1.7974714 -0.80970174 0.31224325 57 12
1.7039572 -0.76757663 -0.16350426 59 5
1.7151358 -0.77333254 -0.098600917 19 6
1.7315391 -0.78145599 -0.033159468 78 7
1.6596816 -0.75111932 -0.48813275 72 0
1.725118 -0.78109658 0.033054817 41 8
1.6881267 -0.76470268 -0.42785701 87 1
1.746393 -0.79146397 0.10048508 62 9
1.704142 -0.77231586 -0.36368203 5 2
1.7474409 -0.7923066 0.16786186 47 10
1.7125942 -0.77686721 -0.2978512 81 3
1.7805333 -0.80806041 0.24008258 71 11
1.8075085 -0.82106376 0.31443337 66 12
1.7122853 -0.77816886 -0.1645501 62 5
1.736356 -0.7902053 -0.033299092 83 7
1.6639457 -0.76040912 -0.49020332 72 0
1.731475 -0.79126942 0.03322934 44 8
1.6783581 -0.7673496 -0.42605743 87 1
1.7436196 -0.79755527 0.10048508 62 9
1.6691662 -0.76385158 -0.35681289 26 2
1.7517715 -0.80202359 0.16855912 67 10
1.7043476 -0.780671 -0.29691261 74 3
1.7650683 -0.80848396 0.23837639 77 11
1.7180071 -0.78729057 -0.23203914 70 4
1.8046315 -0.82736796 0.31443337 62 12
1.7095587 -0.78414112 -0.16455011 64 5
1.7297986 -0.79415584 -0.099752314 66 6
1.733587 -0.79626143 -0.033299092 76 7
1.6665438 -0.76863992 -0.49175617 78 0
1.7321948 -0.79928589 0.033299152 48 8
1.666688 -0.76941192 -0.42380771 87 1
1.7299448 -0.79861391 0.099857047 64 9
1.6593602 -0.76638061 -0.35528642 52 2
1.7435352 -0.80562633 0.16803618 63 10
1.7069911 -0.78910226 -0.2978512 81 3
1.7638949 -0.81578118 0.23862015 74 11
1.688086 -0.7810781 -0.22838306 88 4
1.8017324 -0.83366227 0.31443337 34 12
1.7140433 -0.79345185 -0.16524735 60 5
1.6998329 -0.7875942 -0.098182231 81 6
1.7380538 -0.80567181 -0.033438709 83 7
1.6761107 -0.78015912 -0.49537969 72 0
1.7277216 -0.80418175 0.033264246 55 8
1.6676605 -0.77657998 -0.4247075 87 1
1.7307675 -0.80633467 0.1000664 64 9
1.6531161 -0.77050942 -0.35452321 68 2
1.7515466 -0.81675965 0.16908205 65 10
1.698994 -0.79225397 -0.29691261 78 3
1.7629791 -0.8224653 0.2388639 77 11
1.6836879 -0.78583217 -0.22813933 73 4
1.7148734 -0.80111659 -0.16559596 62 5
1.7116868 -0.79999191 -0.099019594 64 6
1.7225519 -0.80580264 -0.033194378 88 7
1.6542785 -0.77668178 -0.48968565 67 0
1.7393838 -0.81700903 0.033543482 62 8
1.6684669 -0.7840541 -0.42560729 83 1
1.7315571 -0.81407076 0.10027573 64 9
1.6665423 -0.78350472 -0.35795775 100 2
1.7470257 -0.82171547 0.16890773 49 10
1.7069427 -0.80322611 -0.29878983 78 3
1.7654853 -0.83115071 0.23959509 74 11
1.6899139 -0.79593366 -0.22935802 72 4
1.8048034 -0.85043043 0.31599775 1 12
1.7048577 -0.80369931 -0.16489872 64 5
1.8219928 -0.85891879 0.39154014 1 13
1.7143034 -0.80851799 -0.099333622 63 6
1.7124952 -0.80839604 -0.033054758 89 7
1.6549122 -0.78439468 -0.49072096 63 0
1.7274864 -0.81879336 0.033368964 49 8
1.6762848 -0.79488313 -0.42830673 83 1
1.7287048 -0.82011008 0.10027573 64 9
1.6618856 -0.78876585 -0.35757613 84 2
1.6914973 -0.80354375 -0.29659975 71 3
1.7625734 -0.83730835 0.2395951 74 11
1.6925038 -0.80438411 -0.23008944 58 4
1.7875518 -0.84993923 0.31349474 2 12
1.6984438 -0.80793387 -0.16455011 64 5
1.7745143 -0.84449977 0.38199952 9 13
1.7203449 -0.81908858 -0.09985698 52 6
1.7223004 -0.82038844 -0.033299088 78 7
1.6661062 -0.79683471 -0.49486202 48 0
1.6628138 -0.7959733 -0.42560732 83 1
1.7292901 -0.82816589 0.10048507 62 9
1.6662048 -0.79795414 -0.35910261 39 2
1.7518817 -0.83936101 0.1699536 2 10
1.6815568 -0.80602795 -0.29534826 81 3
1.7523329 -0.84032941 0.23862013 74 11
1.6859646 -0.80886465 -0.22960196 29 4
1.7915479 -0.85990435 0.3147462 2 12
1.6992054 -0.8155818 -0.16489872 64 5
1.7012727 -0.81730491 -0.098914936 14 6
1.7192822 -0.8266955 -0.033299092 86 7
1.7485954 -0.84417468 0.033892535 2 8
1.653006 -0.79838246 -0.42380771 92 1
1.7191957 -0.83072144 0.1000664 64 9
1.74356 -0.8428697 0.16943067 2 10
1.6929595 -0.81877309 -0.2978512 81 3
1.7493891 -0.84644115 0.23862015 71 11
1.7956471 -0.86959684 0.31599775 2 12
1.7035208 -0.82498181 -0.16559595 62 5
1.7827098 -0.86371565 0.38505247 44 13
1.7199841 -0.83443755 -0.0333689 76 7
1.7366492 -0.84589505 0.033718012 2 8
1.6607199 -0.80926973 -0.42650712 78 1
1.7180805 -0.83759278 0.10017106 45 9
1.6500053 -0.80440491 -0.35681289 3 2
1.74777 -0.85244435 0.17012791 2 10
1.6954172 -0.82727653 -0.29878983 78 3
1.7482077 -0.85341334 0.2388639 56 11
1.6856281 -0.82322854 -0.23033297 2 4
1.7926008 -0.87585944 0.31599775 2 12
1.7024211 -0.8317979 -0.16577029 58 5
1.8008497 -0.8802793 0.38963187 63 13
1.7170559 -0.83969104 -0.100171 2 6
1.7116725 -0.83779907 -0.033264186 65 7
1.7444539 -0.85724348 0.033927437 2 8
1.657885 -0.81506181 -0.42650712 78 1
1.729484 -0.8506366 0.10100843 11 9
1.6577574 -0.81535834 -0.35910258 3 2
1.7412083 -0.85678071 0.16977929 2 10
1.6854299 -0.8296997 -0.29753834 63 3
1.7541221 -0.86389583 0.24008258 12 11
1.6756214 -0.825598 -0.22935802 2 4
1.7789015 -0.87687111 0.31412047 2 12
1.6941459 -0.83509272 -0.16524735 34 5
1.7766368 -0.8761403 0.3850525 35 13
1.6997854 -0.83861023 -0.099333622 2 6
1.6926007 -0.83580029 -0.032950044 22 7
1.7271181 -0.85622191 0.0336482 2 8
1.6655046 -0.82603908 -0.42920652 83 1
1.739028 -0.86288273 0.10174114 2 9
1.6619358 -0.82463062 -0.36062905 3 2
1.7310687 -0.85930997 0.16908206 2 10
1.6595236 -0.82415575 -0.29347104 28 3
1.7510959 -0.87001354 0.24008258 3 11
1.6798397 -0.83497632 -0.23033297 2 4
1.7722924 -0.8813163 0.3134948 2 12
1.6947883 -0.84277546 -0.16559595 4 5
1.7718096 -0.88146186 0.38467082 11 13
1.7004237 -0.84631824 -0.099542961 2 6
1.7312727 -0.86582327 0.033787817 2 8
1.6521543 -0.82661611 -0.42650712 83 1
1.7324334 -0.8671599 0.1015318 2 9
1.6625586 -0.83218431 -0.36139232 2 2
1.7423106 -0.87248409 0.17047654 2 10
1.7444991 -0.87434185 0.2395951 3 11
1.684013 -0.84439403 -0.23130792 2 4
1.7868618 -0.89635444 0.31662345 2 12
1.7132069 -0.85940641 -0.1676877 2 5
1.7810049 -0.89380556 0.38734218 44 13
1.6938895 -0.85045636 -0.099333629 2 6
1.715313 -0.86196244 -0.033508521 2 7
1.7282399 -0.87186122 0.033787817 2 8
1.6492589 -0.83237809 -0.42650712 83 1
1.7186985 -0.86780059 0.10090376 2 9
1.6666536 -0.84152222 -0.36291879 2 2
1.7285842 -0.87317067 0.16943067 2 10
1.674886 -0.84641272 -0.29722548 2 3
1.7556088 -0.88759106 0.24154502 3 11
1.6810552 -0.85026723 -0.23130792 2 4
1.8083978 -0.91507268 0.32100359 2 12
1.6959745 -0.85818505 -0.16629322 2 5
1.78488 -0.90356368 0.38886884 63 13
1.6980376 -0.85997355 -0.099752307 2 6
1.7229959 -0.87336946 -0.033717949 2 7
1.7251861 -0.87788868 0.033787817 2 8
1.6532899 -0.8416664 -0.42830673 68 1
1.7120994 -0.8719818 0.10069442 3 9
1.6462117 -0.83842492 -0.35910261 3 2
1.7255257 -0.87919933 0.16943067 2 10
1.6789609 -0.85584247 -0.29847693 2 3
1.7454264 -0.89010662 0.24057007 20 11
1.6674674 -0.85071707 -0.2298457 2 4
1.7700038 -0.90341908 0.3147462 2 12
1.6894194 -0.86228824 -0.16594459 2 5
1.7607335 -0.89907485 0.38428923 60 13
1.7056971 -0.87134713 -0.10038034 2 6
1.7056926 -0.87209588 -0.033438709 3 7
1.7327852 -0.88938397 0.033997245 2 8
1.6468747 -0.84565204 -0.42740691 68 1
1.7072687 -0.87704021 0.10058974 4 9
1.6362898 -0.84057766 -0.35757613 3 2
1.7259903 -0.88703853 0.16977929 2 10
1.6759633 -0.86169791 -0.29847693 3 3
1.6715481 -0.86016572 -0.23082045 2 4
1.7668395 -0.90959197 0.3147462 2 12
1.6828562 -0.86635631 -0.16559596 3 5
1.7698021 -0.91150796 0.38696054 62 13
1.6884416 -0.86997747 -0.099542968 2 6
1.702638 -0.87804443 -0.033438709 5 7
1.7083602 -0.88439536 0.033578392 2 8
1.6577563 -0.85856521 -0.43100613 47 1
1.6542637 -0.85712254 -0.36215556 2 2
1.7228835 -0.89305788 0.16977929 2 10
1.6676844 -0.8648147 -0.29753834 3 3
1.749742 -0.90775502 0.24203248 47 11
1.679107 -0.87148213 -0.23228288 2 4
1.7636538 -0.91575384 0.3147462 2 12
1.6780537 -0.87130713 -0.16542165 3 5
1.7631248 -0.91587007 0.38619751 63 13
1.7031168 -0.88507575 -0.10058968 2 6
1.7774373 -0.92409265 0.46249941 8 14
1.7088078 -0.89220428 0.0336482 2 8
1.6219306 -0.84720403 -0.42245799 12 1
1.6373415 -0.8556177 -0.35910258 3 2
1.7268182 -0.90275878 0.17047653 2 10
1.7219385 -0.90097308 0.23862015 50 11
1.6690198 -0.87365538 -0.23130792 2 4
1.7814457 -0.93290144 0.31850064 2 12
1.666177 -0.87253791 -0.16455011 23 5
1.7564393 -0.92019689 0.38543409 66 13
1.6823268 -0.88174373 -0.099542961 2 6
1.7074524 -0.8990953 0.033683103 3 8
1.6979909 -0.8948704 0.10058975 62 9
1.6447661 -0.86681986 -0.36139232 2 2
1.7254189 -0.90971017 0.17065084 4 10
1.7170272 -0.90605181 0.23837639 66 11
1.66596 -0.87947619 -0.23130792 2 4
1.7642049 -0.93173426 0.31599775 3 12
1.7601599 -0.92999089 0.38696054 63 13
1.6863017 -0.89134407 -0.099961646 2 6
1.6951175 -0.89676106 -0.033473611 92 7
1.6725134 -0.88816816 0.033054817 12 8
1.689566 -0.89797992 0.10027573 62 9
1.6451973 -0.87439859 -0.36215553 2 2
1.6620249 -0.88408637 -0.2981641 60 3
1.7296259 -0.92043298 0.24057007 74 11
1.6611279 -0.88435316 -0.2310642 4 4
1.7626849 -0.93881518 0.31631055 8 12
1.6881813 -0.89913428 -0.16733907 69 5
1.7569029 -0.93612927 0.38696054 66 13
1.6849427 -0.89816457 -0.10006633 11 6
1.7607849 -0.93898708 0.46069977 52 14
1.69727 -0.90549642 -0.033578329 86 7
1.6934626 -0.90764618 0.10069442 62 9
1.6386744 -0.8782813 -0.36139232 4 2
1.6711138 -0.89641881 -0.30035418 78 3
1.7333989 -0.93021953 0.24154502 71 11
1.6720223 -0.89765799 -0.23301411 24 4
1.7263323 -0.92720354 0.31036606 21 12
1.6639695 -0.89370883 -0.16524735 74 5
1.7605418 -0.94597334 0.38848719 61 13
1.6765196 -0.90120357 -0.099752307 34 6
1.7574964 -0.94512773 0.46069977 59 14
1.6835327 -0.90573102 -0.0333689 78 7
1.6821079 -0.90837449 0.03336896 44 8
1.6922007 -0.91420615 0.10079909 60 9
1.6615058 -0.89799809 -0.3671166 6 2
1.7000246 -0.91919982 0.16908205 77 10
1.6540748 -0.894728 -0.2978512 74 3
1.7301413 -0.93626457 0.24154502 71 11
1.7475681 -0.94608945 0.3147462 42 12
1.6520801 -0.89476746 -0.1643758 64 5
1.7520509 -0.94930726 0.38734218 69 13
1.764465 -0.95683044 0.4633992 59 14
1.6875513 -0.91512185 -0.033508517 78 7
1.6773299 -0.91299146 0.033334054 50 8
1.6889992 -0.92010754 0.10079909 60 9
1.6118164 -0.87842607 -0.35681289 26 2
1.6950564 -0.92417461 0.16890773 66 10
1.6545675 -0.90209931 -0.29847693 78 3
1.7165706 -0.93629336 0.24008256 71 11
1.6693586 -0.9109199 -0.23350157 70 4
1.7685291 -0.96543485 0.3191264 61 12
1.6681815 -0.91103339 -0.16629322 66 5
1.7437241 -0.95228899 0.38619733 63 13
1.6615829 -0.90780634 -0.099228948 81 6
1.7664126 -0.96548039 0.46474895 61 14
1.682592 -0.92004746 -0.033473611 81 7
1.679392 -0.92172736 0.033438772 58 8
1.6771851 -0.92089707 0.10027573 62 9
1.6972207 -0.93266934 0.16943066 67 10
1.6583326 -0.91167593 -0.29972845 78 3
1.7098131 -0.94036639 0.23959509 74 11
1.6366019 -0.90047359 -0.22935823 88 4
1.7410878 -0.95796275 0.3147462 13 12
1.6686422 -0.91848183 -0.16664185 62 5
1.7438288 -0.96026397 0.38696054 66 13
1.6601534 -0.91456449 -0.099333622 72 6
1.7527912 -0.96599668 0.46204948 63 14
1.6882888 -0.93044817 -0.033648137 75 7
1.6903247 -0.93503487 0.033718009 66 8
1.6774551 -0.9286806 0.10048507 64 9
1.6212569 -0.89793777 -0.36024746 100 2
1.69744 -0.94051927 0.16977951 58 10
1.6570278 -0.91812748 -0.30004126 85 3
1.7136304 -0.94988084 0.24057007 71 11
1.6336069 -0.90589589 -0.22935802 83 4
1.6619419 -0.9223671 -0.16629322 62 5
1.7457848 -0.96889949 0.38810542 69 13
1.6675884 -0.9258818 -0.099961653 65 6
1.7444674 -0.96896517 0.46069977 63 14
1.6727948 -0.92953664 -0.033403803 81 7
1.6868864 -0.94122404 0.033718009 64 8
1.6776911 -0.93647736 0.10069442 62 9
1.6095423 -0.89880538 -0.35833937 96 2
1.6924076 -0.945467 0.16960499 40 10
1.6553762 -0.92515838 -0.30035418 78 3
1.7101374 -0.9561553 0.24057007 71 11
1.6441356 -0.91962975 -0.23130813 62 4
1.7343576 -0.97009438 0.3147462 2 12
1.6517571 -0.92427117 -0.16559596 62 5
1.7439346 -0.97625047 0.38848719 66 13
1.671154 -0.93589127 -0.10038034 56 6
1.7477047 -0.97916234 0.46249941 60 14
1.6712846 -0.93634754 -0.033438709 86 7
1.6785266 -0.94387221 0.033613291 56 8
1.6796335 -0.94526643 0.10100843 58 9
1.6166593 -0.91019738 -0.36062905 55 2
1.6454145 -0.92676508 -0.29910269 78 3
1.7104161 -0.96376991 0.24105754 71 11
1.6410772 -0.92507678 -0.23130792 62 4
1.748167 -0.9858458 0.31787491 2 12
1.6554619 -0.93394715 -0.16629322 60 5
1.7287185 -0.97527564 0.38581568 74 13
1.6697805 -0.9424094 -0.100485 55 6
1.7495389 -0.987827 0.46384907 59 14
1.6680059 -0.94217557 -0.033438709 83 7
1.6752217 -0.94972563 0.033613291 16 8
1.6797979 -0.95309496 0.10121778 60 9
1.638734 -0.93055224 -0.29847696 78 3
1.7018635 -0.96679294 0.24032633 68 11
1.637838 -0.93079948 -0.23130792 54 4
1.7515844 -0.99584728 0.3191264 2 12
1.6521918 -0.93972003 -0.16629322 64 5
1.7253034 -0.98130393 0.38581589 71 13
1.6525935 -0.94033045 -0.099647634 32 6
1.7443864 -0.99296391 0.4633992 43 14
1.6681821 -0.94997156 -0.033508517 83 7
1.6660587 -0.95300269 0.10058974 58 9
1.6979759 -0.97204649 0.17117378 2 10
1.6438831 -0.94146073 -0.30004129 81 3
1.6933105 -0.96976793 0.2395951 62 11
1.6242443 -0.93058997 -0.22984549 25 4
1.7446698 -0.99999064 0.31850064 2 12
1.6540867 -0.9484548 -0.16681616 58 5
1.7336159 -0.99445909 0.38848719 63 13
1.7339752 -0.99546975 0.46159956 10 14
1.6735272 -0.96076673 -0.033683043 73 7
1.6909052 -0.97467124 0.034067057 1 8
1.6731033 -0.96479875 0.10121778 25 9
1.6807672 -0.97000039 0.16977951 2 10
1.6422974 -0.94818085 -0.30035415 78 3
1.6966207 -0.97993934 0.24057007 23 11
1.7309062 -1.000145 0.31662345 2 12
1.6559408 -0.957214 -0.16733907 54 5
1.7352329 -1.003453 0.38963187 39 13
1.6579242 -0.95913291 -0.10038034 2 6
1.6545867 -0.95758772 -0.0333689 46 7
1.6772887 -0.97424674 0.033857625 2 8
1.7014812 -0.98988813 0.17221963 2 10
1.6425592 -0.95560849 -0.30097991 78 3
1.6314321 -0.94989741 -0.23179542 2 4
1.7308185 -1.0081693 0.31724918 2 12
1.6405392 -0.95596695 -0.1661189 22 5
1.7352885 -1.0111789 0.39039513 10 13
1.6547344 -0.96462554 -0.10038034 2 6
1.6738778 -0.98009568 0.033857629 2 8
1.685282 -0.98756331 0.10236917 2 9
1.6810012 -0.98544908 0.17047654 2 10
1.6323975 -0.95733887 -0.29972842 74 3
1.7070328 -1.0015103 0.24300747 3 11
1.6486501 -0.9676441 -0.23472048 2 4
1.7375094 -1.0202061 0.3191264 2 12
1.7317482 -1.0172298 0.39039513 44 13
1.6513571 -0.97039574 -0.10038034 2 6
1.6633745 -0.97823894 -0.033683043 2 7
1.6704464 -0.98593265 0.033857629 1 8
1.685264 -0.99547172 0.10257851 2 9
1.6912735 -0.99941951 0.17187102 2 10
1.6239444 -0.96001548 -0.2987898 71 3
1.7001091 -1.0054417 0.24251996 3 11
1.6247607 -0.9612636 -0.2317954 2 4
1.7373374 -1.028277 0.31975213 2 12
1.642567 -0.97218537 -0.16699047 2 5
1.728187 -1.0232686 0.39039513 63 13
1.6342123 -0.96801096 -0.099542953 2 6
1.6582296 -0.98301935 -0.033648137 2 7
1.6807429 -0.99993706 0.034136865 2 8
1.6680499 -0.99317396 0.10174114 3 9
1.6911979 -1.0073562 0.17221963 2 10
1.6273712 -0.96972299 -0.30004129 68 3
1.6931789 -1.0093372 0.24203248 6 11
1.6350348 -0.97506332 -0.23374531 2 4
1.723559 -1.0282629 0.31787491 2 12
1.6460075 -0.98199624 -0.16768771 2 5
1.7077459 -1.0192333 0.38657892 60 13
1.6411126 -0.97985303 -0.100171 2 6
1.6582215 -0.99085337 -0.033717949 2 7
1.6703824 -1.0016841 0.033997245 2 8
1.6542977 -0.99282384 0.1011131 3 9
1.6910874 -1.0153047 0.17256826 2 10
1.6188961 -0.97234643 -0.29910269 43 3
1.6794362 -1.0091071 0.24057007 29 11
1.6248157 -0.97667384 -0.23277035 2 4
1.7199594 -1.034273 0.31787494 2 12
1.6528145 -0.9938966 -0.16873358 2 5
1.7210011 -1.0353087 0.39039513 68 13
1.6445273 -0.98969501 -0.10058969 2 6
1.6479006 -0.99250871 -0.033578329 2 7
1.6737212 -1.0116463 0.034136865 2 8
1.6578329 -1.0024378 0.10153179 8 9
1.6704876 -1.0108864 0.17082517 2 10
1.6877892 -1.0221614 0.24227624 58 11
1.6247923 -0.98439676 -0.23325783 2 4
1.71652 -1.0399709 0.31787491 2 12
1.635704 -0.99139822 -0.16733907 2 5
1.7173768 -1.0413096 0.39039513 56 13
1.6478931 -0.99957281 -0.10100837 2 6
1.6309236 -0.98966861 -0.033299088 3 7
1.6635256 -1.0130308 0.033997245 2 8
1.6601449 -1.0125616 0.17012793 2 10
1.6962523 -1.0349904 0.2439824 47 11
1.6249077 -0.99184799 -0.23374531 2 4
1.7229947 -1.0521333 0.31975213 2 12
1.6186316 -0.9887926 -0.16594459 3 5
1.7088877 -1.0439284 0.38925046 61 13
1.6445695 -1.0050317 -0.10100837 2 6
1.6496363 -1.0089192 -0.033752851 16 7
1.6531624 -1.0146474 0.033857629 2 8
1.6422849 -1.0087606 0.10100843 42 9
1.6703581 -1.0264058 0.17152241 3 10
1.6672651 -1.0253073 0.24032633 58 11
1.6248173 -0.99959421 -0.23423302 2 4
1.7125822 -1.0539997 0.31850058 3 12
1.6221308 -0.99833179 -0.16664183 6 5
1.7018896 -1.0478286 0.38848719 61 13
1.6274468 -1.0023868 -0.100171 2 6
1.6564128 -1.0246195 0.033997245 10 8
1.6472446 -1.0197436 0.10153179 66 9
1.6430508 -1.0175442 0.16908205 14 10
1.6687379 -1.0342581 0.24105754 60 11
1.6111953 -0.99898326 -0.23277035 3 4
1.7240009 -1.0693425 0.32131648 6 12
1.706563 -1.058939 0.39039513 50 13
1.6307254 -1.0122752 -0.10058969 4 6
1.65784 -1.0299083 -0.034066994 65 7
1.6385915 -1.0223157 0.10121778 65 9
1.6752192 -1.0463866 0.24251996 62 11
1.6093819 -1.0056535 -0.23301412 11 4
1.6850821 -1.0533651 0.3147462 21 12
1.6978623 -1.0617664 0.38925046 26 13
1.6355906 -1.0240163 -0.033683039 83 7
1.6390599 -1.0297755 0.033787817 44 8
1.6434669 -1.0333447 0.10174114 64 9
1.6443397 -1.0342939 0.1699536 42 10
1.6765963 -1.0554004 0.24325117 68 11
1.6947657 -1.0676639 0.31724912 63 12
1.6149591 -1.0173876 -0.16699046 74 5
1.63708 -1.0329205 -0.033787757 86 7
1.6354551 -1.0354906 0.033787813 62 8
1.6347886 -1.0358683 0.10142712 60 9
1.6524988 -1.0474941 0.17117378 69 10
1.6796072 -1.0654999 0.24422616 65 11
1.6157305 -1.0253736 -0.234964 70 4
1.70437 -1.0820434 0.31975213 61 12
1.6013057 -1.0166116 -0.16594459 68 5
1.6217215 -1.0303673 -0.10069436 72 6
1.6351519 -1.0397016 -0.033822659 73 7
1.6301451 -1.0401175 0.033752915 61 8
1.641263 -1.0480176 0.10205515 60 9
1.6454743 -1.0511111 0.17082517 62 10
1.6658423 -1.064941 0.24276371 68 11
1.6037796 -1.0256597 -0.23374552 79 4
1.6922629 -1.0826635 0.31818777 59 12
1.612852 -1.0318588 -0.1675134 58 5
1.6164329 -1.034945 -0.10058969 64 6
1.6365638 -1.0486395 -0.033927374 75 7
1.6332326 -1.0501276 0.033892535 62 8
1.6310594 -1.0491326 0.10163646 60 9
1.6451458 -1.0590054 0.1711738 62 10
1.6571082 -1.0675241 0.24203245 71 11
1.5885096 -1.0237244 -0.23203914 42 4
1.6953052 -1.0925496 0.31943929 69 12
1.6109149 -1.0385618 -0.16768771 64 5
1.6128105 -1.0405811 -0.10058969 58 6
1.6364374 -1.0562296 -0.033997182 67 7
1.6364548 -1.0598862 0.034032151 60 8
1.6223593 -1.0515609 0.10132245 62 9
1.6497967 -1.0701627 0.17204534 52 10
1.6585549 -1.0762552 0.24276371 68 11
1.588436 -1.0311482 -0.23252662 14 4
1.6898242 -1.0973848 0.3191264 64 12
1.613963 -1.0485203 -0.16838497 62 5
1.6127001 -1.0481002 -0.10079902 60 6
1.6226826 -1.0553938 -0.033787753 75 7
1.6327451 -1.0655918 0.034032151 59 8
1.6253676 -1.0615861 0.10174114 64 9
1.641235 -1.0723585 0.17152241 13 10
1.6647567 -1.0885565 0.24422616 65 11
1.6859834 -1.1032765 0.3191264 64 12
1.6002913 -1.0476002 -0.16733907 64 5
1.6123735 -1.0559117 -0.10100837 58 6
1.6173162 -1.0599552 -0.033752851 73 7
1.6306864 -1.0723834 0.034067057 47 8
1.6266574 -1.0705472 0.10205515 60 9
1.6559739 -1.0910844 0.24349493 60 11
1.6887184 -1.1135046 0.32037786 64 12
1.599951 -1.055374 -0.16768771 62 5
1.6068256 -1.0607138 -0.10090369 55 6
1.6219499 -1.0711043 -0.033927374 75 7
1.6260511 -1.0787102 0.10226449 60 9
1.6368395 -1.0862787 0.17187102 2 10
1.6486566 -1.09495 0.24300747 62 11
1.684626 -1.1196867 0.32037786 66 12
1.5977314 -1.0623342 -0.16786203 58 5
1.6031133 -1.0663162 -0.1009037 39 6
1.6213423 -1.079258 -0.033997182 67 7
1.6189549 -1.0821598 0.10205515 29 9
1.6394712 -1.0967016 0.17256826 2 10
1.6382248 -1.0962821 0.24203245 27 11
1.6839895 -1.1277583 0.32100356 64 12
1.5989792 -1.0712316 -0.16838495 64 5
1.5859232 -1.0632871 -0.10006633 9 6
1.6092615 -1.0793417 -0.033822659 47 7
1.625813 -1.0941494 0.034206674 2 8
1.6490444 -1.1110384 0.17396276 2 10
1.6786034 -1.1322322 0.32069075 48 12
1.6003726 -1.0798713 -0.16890788 58 5
1.6387285 -1.1107545 0.034555718 1 8
1.6264274 -1.1032453 0.10299721 2 9
1.6385621 -1.1123118 0.17326552 2 10
1.6570009 -1.1252514 0.24593234 2 11
1.6713731 -1.135864 0.32006502 17 12
1.5916505 -1.0820909 -0.16838495 55 5
1.5936997 -1.0838906 -0.10100837 2 6
1.60849 -1.094771 -0.03396228 2 7
1.6249332 -1.1097015 0.034346297 1 8
1.6291622 -1.1134235 0.10341589 2 9
1.6381539 -1.1199884 0.17361413 2 10
1.6563396 -1.1332704 0.24641982 3 11
1.5880535 -1.0873626 -0.16838495 55 5
1.5899063 -1.0894469 -0.10100836 2 6
1.6129045 -1.1060334 -0.034136802 2 7
1.6276393 -1.1199006 0.03448591 1 8
1.6285555 -1.121369 0.10362523 2 9
1.6211081 -1.116658 0.17221963 2 10
1.6540079 -1.1401715 0.24666354 12 11
1.5940883 -1.0996878 -0.16943084 46 5
1.6091045 -1.1108762 -0.10247377 2 6
1.6057434 -1.1093836 -0.034066994 2 7
1.6237203 -1.1255754 0.03448591 2 8
1.6180674 -1.1224931 0.10320655 3 9
1.6302953 -1.1313974 0.17361413 2 10
1.5886039 -1.1041083 -0.16925652 11 5
1.5920999 -1.1073627 -0.1016364 2 6
1.6018614 -1.1149819 -0.034066994 2 7
1.6165024 -1.1289464 0.034416102 2 8
1.6092279 -1.1247021 0.10289253 4 9
1.6361332 -1.1439314 0.17466001 2 10
1.6443813 -1.1505529 0.24641979 47 11
1.6013101 -1.1220827 -0.10247378 2 6
1.607783 -1.1274554 -0.034276422 2 7
1.6158227 -1.1368837 0.03448591 2 8
1.6158415 -1.138162 0.1729169 2 10
1.6289976 -1.1482799 0.24471362 60 11
1.5973835 -1.1276653 -0.10247377 2 6
1.5956717 -1.1272916 -0.0341019 4 7
1.6085815 -1.1402042 0.034416102 3 8
1.6151085 -1.1461017 0.17326553 3 10
1.6265979 -1.1551088 0.24495737 68 11
1.6032029 -1.1401796 -0.1031018 2 6
1.6029642 -1.1446501 0.034381196 12 8
1.6054871 -1.147298 0.10341589 68 9
1.622556 -1.1607795 0.24495737 62 11
1.5992134 -1.145769 -0.1031018 6 6
1.5917469 -1.1458938 0.10278786 69 9
1.6217151 -1.1687573 0.24544485 60 11
1.5951267 -1.1521355 -0.034346234 70 7
1.5835994 -1.1475991 0.034136865 44 8
1.5944065 -1.1558551 0.10320655 64 9
1.6094689 -1.1676315 0.17396276 69 10
1.6208384 -1.1767437 0.24593234 58 11
1.5945317 -1.1597711 -0.034416039 73 7
1.5959384 -1.164632 0.03448591 62 8
1.5871363 -1.1590577 0.10299721 64 9
1.5957317 -1.1661891 0.1729169 65 10
1.623337 -1.1867982 0.24690725 49 11
1.5760499 -1.1539166 -0.10236911 72 6
1.5807952 -1.1582388 -0.034206614 67 7
1.5854188 -1.1654582 0.034346297 67 8
1.5895158 -1.169325 0.10341589 66 9
1.5966699 -1.175017 0.17343983 68 10
1.6191844 -1.1924576 0.24690725 15 11
1.5736197 -1.1605966 -0.10247377 47 6
1.5751338 -1.1625623 -0.034171708 65 7
1.5797337 -1.169795 0.034311388 62 8
1.5886337 -1.1772445 0.10362523 66 9
1.6005614 -1.1865159 0.17431138 62 10
1.5615427 -1.160127 -0.10195041 15 6
1.5806943 -1.175212 -0.034381133 71 7
1.5852582 -1.182476 0.034520816 62 8
1.5797137 -1.1791986 0.10331123 60 9
1.6011988 -1.1956719 0.17483431 70 10
1.5797839 -1.18312 -0.034450945 71 7
1.5843185 -1.1904049 0.034590632 59 8
1.5771838 -1.1859058 0.10341589 62 9
1.6033846 -1.2060447 0.17553157 69 10
1.5676624 -1.1826057 -0.034276422 67 7
1.5833424 -1.1983415 0.034660436 56 8
1.5762188 -1.1938157 0.10362523 64 9
1.5896366 -1.2044146 0.17448568 69 10
1.5667093 -1.1904905 -0.034346234 67 7
1.58074 -1.2050734 0.034695342 18 8
1.57363 -1.2005219 0.1037299 51 9
1.58859 -1.2123735 0.17483452 66 10
1.5657198 -1.198383 -0.034416039 67 7
1.5820993 -1.2157433 0.10456728 14 9
1.5875082 -1.2203403 0.17518297 67 10
1.5646946 -1.2062826 -0.034485847 69 7
1.5691252 -1.2136326 0.034625534 1 8
1.5863892 -1.228314 0.17553157 66 10
1.5636332 -1.21419 -0.034555655 67 7
1.5806543 -1.2313921 0.034974582 1 8
1.578299 -1.2304428 0.1048813 2 9
1.5852342 -1.2362943 0.17588018 66 10
1.5562352 -1.2171768 -0.034485847 61 7
1.5731999 -1.2344332 0.034904771 1 8
1.5645691 -1.2285435 0.10425326 2 9
1.5777756 -1.2393587 0.17553157 61 10
1.5441227 -1.2164145 -0.034311324 45 7
1.5782945 -1.2473564 0.035114195 1 8
1.5696704 -1.2414314 0.1048813 2 9
1.5703148 -1.2423865 0.17518297 40 10
1.5582852 -1.2404042 0.03476515 2 8
1.5715761 -1.2518805 0.10529999 3 9
1.5601869 -1.2508396 0.034904771 2 8
1.5516183 -1.2448601 0.10425326 8 9
1.5744807 -1.2713535 0.035323627 2 8
1.580893 -1.2856735 0.035567958 6 8
1.5495316 -1.2696322 0.10498597 65 9
1.5335356 -1.2645986 0.034695342 44 8
1.5468533 -1.2760348 0.10509063 66 9
1.5401034 -1.2786185 0.034939673 50 8
1.5454624 -1.2839792 0.10529999 64 9
1.5402331 -1.2878348 0.035044387 42 8
1.5348442 -1.2842393 0.1048813 68 9
1.5379883 -1.2960241 0.10540466 60 9
