# .PCD v0.7 - Point Cloud Data file format
VERSION 0.7
FIELDS x y z intensity ring
SIZE 4 4 4 4 2
TYPE F F F F U
COUNT 1 1 1 1 1
WIDTH 510
HEIGHT 1
VIEWPOINT 0 0 0 1 0 0 0
POINTS 510
DATA ascii
2.5614092 -0.1306518 -0.31491026 1 4
2.5371521 -0.1382955 -0.3119857 10 4
2.5281992 -0.1555171 -0.31101042 47 4
2.5415075 -0.16524281 -0.31271663 42 4
2.60343 -0.17748405 -0.41329983 1 3
2.5672965 -0.18447649 -0.4076682 3 3
2.529707 -0.19154173 -0.31149793 1 4
2.5640121 -0.20179215 -0.40735531 48 3
2.5488474 -0.20149389 -0.31393534 1 4
2.5819795 -0.20502 -0.22660501 1 5
2.5770738 -0.21187404 -0.40954545 63 3
2.5441718 -0.21006308 -0.31344783 1 4
2.5634153 -0.21210244 -0.22503623 3 5
2.55077 -0.2182297 -0.40547812 59 3
2.5513725 -0.2191783 -0.31442282 1 4
2.557863 -0.22783324 -0.40672958 50 3
2.5664091 -0.22949737 -0.31637269 1 4
2.5570107 -0.23720674 -0.40672955 50 3
2.5220664 -0.23485304 -0.31101072 1 4
2.5649791 -0.23975213 -0.22538483 61 5
2.5620232 -0.24714607 -0.4076682 54 3
2.5330443 -0.24524309 -0.31247288 1 4
2.5363634 -0.2460113 -0.22294445 51 5
2.5533271 -0.25485593 -0.40641671 54 3
2.5677707 -0.25720286 -0.31686017 1 4
2.539454 -0.25526184 -0.22329308 58 5
2.5563519 -0.26417327 -0.40704247 54 3
2.5431638 -0.26370764 -0.31393534 1 4
2.5405753 -0.26388741 -0.22346739 56 5
2.5593898 -0.2730681 -0.4076682 57 3
2.5462224 -0.27256218 -0.31442308 2 4
2.5535057 -0.27424338 -0.22468758 58 5
2.5584214 -0.28200036 -0.4076682 57 3
2.5610399 -0.28319389 -0.31637269 3 4
2.5644636 -0.28402552 -0.22573343 61 5
2.5607069 -0.28451428 -0.13502672 1 6
2.5476801 -0.28892031 -0.49839321 2 2
2.5652723 -0.29182228 -0.40891969 57 3
2.5541193 -0.29145667 -0.31564149 25 4
2.5476213 -0.29116562 -0.22433898 61 5
2.5557296 -0.29299617 -0.13481738 12 6
2.5524664 -0.29939428 -0.40704247 57 3
2.5590005 -0.30106628 -0.31637269 30 4
2.5426319 -0.29959044 -0.22399035 61 5
2.5612116 -0.3094871 -0.4086068 63 3
2.552022 -0.30928054 -0.31564146 3 4
2.5494819 -0.30942419 -0.22468758 61 5
2.5556045 -0.31107256 -0.13492206 55 6
2.5523083 -0.31654975 -0.49991968 42 2
2.5581553 -0.31818169 -0.40829396 59 3
2.5331986 -0.31597558 -0.31344783 1 4
2.5641463 -0.32074478 -0.22608207 61 5
2.546576 -0.31899837 -0.13450338 45 6
2.5511308 -0.32590231 -0.49991968 57 2
2.5648096 -0.32855967 -0.40954545 57 3
2.5438936 -0.32633159 -0.31491026 1 4
2.5590589 -0.32918501 -0.22573344 61 5
2.5402446 -0.33352751 -0.49801153 56 2
2.567564 -0.33802617 -0.41017118 18 3
2.5741687 -0.33980992 -0.31881037 1 4
2.5460434 -0.33654925 -0.22468759 49 5
2.5526843 -0.34422913 -0.50068283 59 2
2.5415535 -0.34408322 -0.31491026 1 4
2.5488014 -0.34597057 -0.22503622 13 5
2.5688236 -0.34914491 -0.13586409 2 6
2.5495846 -0.35242361 -0.50030136 56 2
2.57303 -0.35657966 -0.41142261 2 3
2.5835936 -0.35896289 -0.32027254 1 4
2.5715454 -0.35866141 -0.13607344 2 6
2.6518583 -0.37033474 -0.046737403 1 7
2.5541699 -0.3621479 -0.50144613 46 2
2.5992143 -0.36899742 -0.41580284 1 3
2.5430832 -0.36193421 -0.31539774 1 4
2.5621667 -0.36556283 -0.22643068 11 5
2.5466161 -0.36379763 -0.13481739 2 6
2.5773082 -0.36910027 -0.04544593 4 7
2.5586541 -0.37235516 -0.50259101 11 2
2.5977781 -0.37897483 -0.41580281 2 3
2.5495317 -0.37284532 -0.31637269 1 4
2.5491521 -0.37415323 -0.13502672 3 6
2.5476294 -0.37983662 -0.50068283 23 2
2.5808771 -0.38525417 -0.41329983 2 3
2.57184 -0.38482291 -0.31929755 1 4
2.547663 -0.38211465 -0.22538483 58 5
2.5666914 -0.38634294 -0.045306314 74 7
2.546356 -0.38828278 -0.50068289 45 2
2.5834222 -0.39485767 -0.41392556 2 3
2.5547831 -0.39139313 -0.31734791 2 4
2.5581298 -0.39281976 -0.22643071 61 5
2.5416107 -0.3916454 -0.044887453 55 7
2.5955567 -0.40459701 -0.6064679 1 1
2.5584939 -0.39973453 -0.50335425 52 2
2.5858607 -0.404935 -0.41455129 3 3
2.5651686 -0.40215325 -0.31881008 2 4
2.5626476 -0.40267467 -0.22695363 64 5
2.5628512 -0.40362346 -0.13596879 65 6
2.5639315 -0.40425226 -0.04530631 61 7
2.5805857 -0.41195709 -0.60331863 28 1
2.5532057 -0.4080433 -0.50259101 56 2
2.5657091 -0.4114193 -0.31905383 22 4
2.5651605 -0.41224989 -0.22730224 66 5
2.5555112 -0.41161415 -0.13565478 58 6
2.5723755 -0.41479117 -0.045480832 60 7
2.549901 -0.41619146 -0.50220942 59 2
2.5830443 -0.4225269 -0.41455129 88 3
2.5486591 -0.41735893 -0.31710395 39 4
2.5696774 -0.42172188 -0.22782516 61 5
2.5580738 -0.42073455 -0.13586411 58 6
2.5433621 -0.41877088 -0.044992164 36 7
2.5931754 -0.43162268 -0.60691792 76 1
2.5446339 -0.42399964 -0.50144619 59 2
2.5991652 -0.4340184 -0.41736719 77 3
2.568723 -0.42985672 -0.31978533 40 4
2.560405 -0.42892429 -0.22712794 61 5
2.556664 -0.4292151 -0.13586409 52 6
2.5688102 -0.43632656 0.045480911 1 8
2.5724416 -0.43740532 -0.6024189 70 1
2.5547502 -0.43485606 -0.50373578 59 2
2.566478 -0.43777412 -0.41236123 63 3
2.5652502 -0.43848625 -0.31954134 60 4
2.5549643 -0.43718708 -0.22677931 61 5
2.5571189 -0.43847448 -0.13596877 47 6
2.5719097 -0.44193491 -0.045550641 2 7
2.5377178 -0.44016469 0.044957343 13 8
2.5689788 -0.44604871 -0.60196894 66 1
2.5570858 -0.44444352 -0.50449908 59 2
2.5688267 -0.44740805 -0.41298699 70 3
2.5676146 -0.4481205 -0.32002905 40 4
2.5671616 -0.44850317 -0.22799952 64 5
2.5358992 -0.44395369 -0.13492206 11 6
2.5742903 -0.45160085 -0.045620445 2 7
2.5616496 -0.45399323 -0.60061926 52 1
2.5555186 -0.45336676 -0.50449908 59 2
2.5711386 -0.45706365 -0.41361269 17 3
2.5484459 -0.45394728 -0.31783512 4 4
2.559696 -0.4564122 -0.22747657 58 5
2.5884459 -0.46340325 -0.045899693 1 7
2.5522933 -0.46106985 0.045271486 49 8
2.5658021 -0.4639726 -0.60196894 50 1
2.5539205 -0.46228439 -0.50449908 59 2
2.5468459 -0.46284035 -0.31783512 2 4
2.569849 -0.46748403 -0.22852246 61 5
2.5622113 -0.46701872 -0.13649212 1 6
2.5710752 -0.46956164 -0.045620449 1 7
2.5605018 -0.47178805 0.045446012 56 8
2.5679996 -0.47363296 -0.60286868 48 1
2.5464995 -0.4701272 -0.50335425 56 2
2.5970216 -0.48039189 -0.41830575 2 3
2.5725408 -0.47679225 -0.32124746 1 4
2.5603647 -0.47499782 -0.22782516 61 5
2.5723474 -0.47814962 -0.13712016 1 6
2.5654891 -0.47780129 -0.045550644 1 7
2.5490124 -0.4788768 0.045271486 65 8
2.5759065 -0.48439473 -0.60511822 20 1
2.5525606 -0.48046589 -0.50488073 52 2
2.5720348 -0.4850612 -0.41455129 2 3
2.5708609 -0.48576921 -0.32124746 1 4
2.5586913 -0.48393232 -0.22782518 48 5
2.5902863 -0.4908444 -0.13816689 1 6
2.5716641 -0.48824561 -0.045690265 1 7
2.5532174 -0.4888998 0.0453762 61 8
2.5585802 -0.49085265 -0.5064072 52 2
2.5936048 -0.49851069 -0.41830578 2 3
2.5964394 -0.49999532 -0.32465982 1 4
2.5589433 -0.493238 -0.22799952 40 5
2.5650244 -0.49533883 -0.13691081 1 6
2.5699441 -0.49721944 -0.045690265 2 7
2.5554206 -0.49857512 0.045446008 59 8
2.5858505 -0.50498068 -0.6082679 1 1
2.5626314 -0.50091064 -0.50755203 12 2
2.5879712 -0.50680172 -0.41767994 1 3
2.5868862 -0.50752681 -0.32368484 2 4
2.561116 -0.50293511 -0.22834814 56 5
2.5632801 -0.50428945 -0.13691083 2 6
2.5799642 -0.50850731 -0.045899693 2 7
2.6452289 -0.52520895 -0.72262281 1 0
2.5615103 -0.50905126 0.045585629 63 8
2.591717 -0.51552463 -0.61006713 1 1
2.6169758 -0.52102369 0.13984172 1 9
2.5666437 -0.5110029 -0.50869691 2 2
2.5861871 -0.5158323 -0.41768003 1 3
2.5617397 -0.51188618 -0.32075998 2 4
2.5691133 -0.51382577 -0.22921968 58 5
2.5654206 -0.51401865 -0.13712017 2 6
2.5938582 -0.52065837 -0.04617893 3 7
2.6092958 -0.52754813 -0.71330529 1 0
2.5597177 -0.51798952 0.045585629 63 8
2.586082 -0.52379453 -0.6091677 2 1
2.5525935 -0.5170117 0.13649222 8 9
2.543679 -0.51566833 -0.50449908 14 2
2.5998571 -0.52800184 -0.42018294 1 3
2.5754993 -0.52399123 -0.32270992 2 4
2.5614469 -0.5215978 -0.22869673 56 5
2.5694818 -0.52416813 -0.1374342 5 6
2.5392168 -0.5184558 -0.045236502 22 7
2.594193 -0.53392708 -0.70968187 22 0
2.5540683 -0.52566874 0.045515817 63 8
2.6129606 -0.53826505 -0.61591589 3 1
2.6135683 -0.53981704 -0.42268589 2 3
2.5679154 -0.53132236 -0.32197896 22 4
2.5615621 -0.53094018 -0.22887108 61 5
2.559907 -0.5310632 -0.13701551 24 6
2.5628443 -0.53260571 -0.045690265 43 7
2.5561326 -0.53540087 0.045585629 59 8
2.5489218 -0.5348193 0.13649222 60 9
2.5631671 -0.53780824 -0.5090785 47 2
2.6000693 -0.54649878 -0.42080867 2 3
2.5617366 -0.53984261 -0.22904538 56 5
2.5805335 -0.54568553 -0.046039309 52 7
2.5886095 -0.55117029 -0.70916426 71 0
2.5620708 -0.54598725 0.045725245 61 8
2.5411799 -0.54246265 0.13617823 42 9
2.565114 -0.5475719 -0.50984174 54 2
2.6020093 -0.55639762 -0.42143443 2 3
2.5816131 -0.55297869 -0.32417232 67 4
2.5734732 -0.55170488 -0.23026556 58 5
2.5600429 -0.5497604 -0.13722485 52 6
2.5903425 -0.55721313 -0.046248734 75 7
2.5904458 -0.56102067 -0.71019953 67 0
2.5640581 -0.55577445 0.045795057 61 8
2.5767095 -0.55898762 -0.60871744 70 1
2.5555131 -0.5548563 -0.50831532 48 2
2.5622108 -0.55818385 -0.32197896 64 4
2.5734785 -0.56110901 -0.23043987 56 5
2.5698154 -0.56125015 -0.13785288 49 6
2.5688469 -0.56197816 -0.045899685 48 7
2.5828116 -0.5688132 -0.7086466 64 0
2.5660083 -0.5655821 0.045864869 63 8
2.5918698 -0.57175672 -0.61276692 70 1
2.5554779 -0.56419653 -0.50869691 52 2
2.611563 -0.57753515 -0.42362455 75 3
2.5621853 -0.56755358 -0.32222244 49 4
2.5617783 -0.56793255 -0.2295683 58 5
2.563941 -0.56935114 -0.13764353 10 6
2.5571096 -0.56877083 -0.045725163 10 7
2.5732698 -0.57613713 -0.70657605 61 0
2.5601158 -0.57366133 0.045795057 61 8
2.5898581 -0.58080047 -0.61276692 57 1
2.5684888 -0.57647914 0.13795762 2 9
2.5554085 -0.57354337 -0.5090785 50 2
2.5748403 -0.57884884 -0.41799292 5 3
2.5659981 -0.57780206 -0.32295361 47 4
2.5694985 -0.57906151 -0.23043987 56 5
2.5863125 -0.58854526 -0.71071708 61 0
2.5619972 -0.58348238 0.045864869 58 8
2.5840149 -0.58897126 -0.61186713 60 1
2.5703557 -0.5863297 0.13816698 2 9
2.5572188 -0.58333308 -0.50984174 49 2
2.593987 -0.592673 -0.42143443 2 3
2.5678356 -0.58764118 -0.32344109 46 4
2.5694039 -0.58847201 -0.23061419 58 5
2.587158 -0.59348869 -0.13910896 1 6
2.6017995 -0.59780359 -0.046597779 1 7
2.5936532 -0.59974563 -0.71330529 45 0
2.5599449 -0.59242183 0.045864869 41 8
2.5762479 -0.59666842 -0.61051708 55 1
2.5527275 -0.59169048 0.13732959 2 9
2.5666425 -0.59491581 -0.51213145 49 2
2.5658095 -0.59519458 0.23043966 4 10
2.6111445 -0.60619134 -0.42456311 1 3
2.5677025 -0.59705061 -0.32368487 38 4
2.5673342 -0.59743732 -0.23061419 51 5
2.5850701 -0.602516 -0.13910894 1 6
2.5996974 -0.60688192 -0.046597786 1 7
2.5773277 -0.60593069 0.046213914 15 8
2.5779436 -0.60655028 -0.61141694 55 1
2.5661993 -0.60425979 0.13816696 2 9
2.556906 -0.60207146 -0.51060492 48 2
2.6090126 -0.61530215 -0.42456311 1 3
2.5768661 -0.60914534 -0.23166002 34 5
2.57129 -0.6087749 -0.1384809 1 6
2.5819969 -0.61226177 -0.046318546 1 7
2.5928686 -0.61962169 -0.6154663 57 1
2.5641818 -0.61276633 0.13816698 2 9
2.5700643 -0.61464626 -0.51365793 34 2
2.606849 -0.6244055 -0.42456311 1 3
2.5885684 -0.62241596 -0.13952762 1 6
2.5916173 -0.62362772 -0.046527971 1 7
2.5653698 -0.62157631 0.046074297 57 8
2.5813303 -0.62592041 -0.61321646 52 1
2.5660174 -0.62220728 0.13837631 2 9
2.5518 -0.61970305 0.22974239 63 10
2.5817299 -0.62744874 -0.42080867 1 3
2.5846729 -0.62864178 -0.32661 2 4
2.5784678 -0.62808597 -0.23218298 2 5
2.6097744 -0.63667697 -0.14078368 1 6
2.597306 -0.63411546 -0.046667598 2 7
2.5652361 -0.63055712 0.0461092 72 8
2.5754561 -0.63354594 -0.61231673 38 1
2.579345 -0.63498002 0.1392137 2 9
2.5583062 -0.62980086 -0.51213151 1 2
2.5574694 -0.63006824 0.23043966 65 10
2.62183 -0.64640969 -0.42769182 1 3
2.5940263 -0.64051545 -0.32807213 2 4
2.5995815 -0.64236844 -0.23427472 21 5
2.5766284 -0.63765103 -0.13910894 1 6
2.5950766 -0.64317787 -0.046667594 5 7
2.5649595 -0.63999176 0.046144102 66 8
2.6018045 -0.65014994 -0.5212903 1 2
2.5591202 -0.63995838 0.23078828 65 10
2.615725 -0.65459859 -0.42706612 1 3
2.5782962 -0.6461882 -0.32636598 10 4
2.5644701 -0.64319879 -0.23131141 32 5
2.5743868 -0.64664125 -0.13910894 1 6
2.5704641 -0.65090483 0.046283726 68 8
2.584295 -0.65536714 -0.51823735 2 2
2.562664 -0.6503576 0.23131119 60 10
2.5942781 -0.65886265 -0.42393738 1 3
2.5837202 -0.65714145 -0.32734093 39 4
2.5853796 -0.65804398 -0.23340316 41 5
2.5837262 -0.6585834 -0.13973697 2 6
2.5866482 -0.66028988 -0.046597786 52 7
2.5681763 -0.65987343 0.046283726 66 8
2.57623 -0.66242206 -0.61411631 37 1
2.5551457 -0.65747613 0.13827164 42 9
2.5933993 -0.66731936 -0.52052701 2 2
2.5488017 -0.65631813 0.23026536 63 10
2.6225686 -0.6758011 -0.42894328 2 3
2.5910208 -0.66863632 -0.32855991 40 4
2.5888541 -0.66855901 -0.2339261 66 5
2.5814114 -0.66759837 -0.13973695 3 6
2.5959425 -0.67232311 -0.046807215 75 7
2.5658574 -0.66883397 0.046283726 65 8
2.5927584 -0.67632949 -0.61861533 35 1
2.5568168 -0.66695398 0.13848099 41 9
2.5834558 -0.67438447 -0.51900059 15 2
2.5542059 -0.6672253 0.23096257 58 10
2.6201935 -0.6849516 -0.42894328 2 3
2.5867512 -0.67717391 -0.32831591 63 4
2.5595214 -0.67052299 -0.23148572 43 5
2.5771337 -0.67609841 -0.13963228 19 6
2.5762911 -0.67635798 -0.046493068 72 7
2.567492 -0.67836058 0.046353534 65 8
2.5595651 -0.67817813 0.23165983 58 10
2.61027 -0.69161284 -0.42769182 7 3
2.5806539 -0.68472999 -0.32782841 58 4
2.5706444 -0.6830349 -0.23270592 46 5
2.5748775 -0.68464071 -0.13963228 30 6
2.5777795 -0.68637586 -0.046562884 53 7
2.5728347 -0.68938899 0.046493154 66 8
2.5825982 -0.69297141 -0.51976383 47 2
2.5611503 -0.68769568 0.23200844 60 10
2.5782478 -0.69373405 -0.32782841 43 4
2.5720921 -0.69304067 -0.23305455 48 5
2.576329 -0.69466448 -0.13984165 2 6
2.5830898 -0.69745475 -0.046702497 55 7
2.5742724 -0.69941425 0.046562966 65 8
2.5747461 -0.70050818 0.13984174 1 9
2.5724638 -0.70036948 -0.51823735 50 2
2.5624573 -0.6981256 0.23235707 60 10
2.5681505 -0.70063978 -0.32685348 46 4
2.5773451 -0.70411491 -0.23375177 48 5
2.6065152 -0.71306187 -0.14162105 1 6
2.576782 -0.70541114 -0.046632688 48 7
2.5794024 -0.71097016 0.046702579 65 8
2.5799866 -0.71161574 0.14026041 1 9
2.5718958 -0.70986718 -0.51861894 52 2
2.5600052 -0.707066 0.23235708 63 10
2.6008551 -0.7188372 -0.42737895 26 3
2.577044 -0.71322459 -0.32831588 45 4
2.5748715 -0.71310717 -0.23375177 47 5
2.6040103 -0.72215599 -0.14162105 1 6
2.5743041 -0.71440136 -0.046632688 8 7
2.5731783 -0.71844441 0.046632767 33 8
2.600569 -0.72707057 0.14151649 2 9
2.5712929 -0.71936929 -0.51900059 48 2
2.5498469 -0.71384925 0.23165983 58 10
2.58231 -0.7239098 -0.32929114 46 4
2.5781214 -0.72370619 -0.23427472 40 5
2.6131384 -0.73402786 -0.14224909 1 6
2.5903285 -0.73396593 0.14109778 2 9
2.5840044 -0.73217386 -0.52205354 49 2
2.5628002 -0.72664899 0.23305432 55 10
2.5978019 -0.73706305 -0.42769176 1 3
2.5835867 -0.7340042 -0.32977831 43 4
2.5951927 -0.73877031 -0.14141172 1 6
2.6057928 -0.74277127 -0.04729588 1 7
2.5892448 -0.74245399 0.047016725 3 8
2.5954294 -0.74520802 0.14151648 1 9
2.5889807 -0.74335647 -0.52357996 45 2
2.5640783 -0.73669058 0.23340297 40 10
2.617995 -0.75267631 -0.43144622 1 3
2.5848241 -0.74411678 -0.33026612 41 4
2.592598 -0.74782491 -0.14141172 1 6
2.603184 -0.75186253 -0.04729588 2 7
2.5424709 -0.73865604 0.046213914 18 8
2.6004834 -0.75649464 0.14193515 1 9
2.5863705 -0.75238907 -0.52358001 30 2
2.6229379 -0.76402003 -0.43269771 1 3
2.5803053 -0.75257903 -0.33002236 11 4
2.62026 -0.76472861 -0.23880683 1 5
2.620645 -0.76583391 -0.14308648 1 6
2.604382 -0.76206803 -0.047365688 2 7
2.5825007 -0.76105094 0.14109778 2 9
2.6316228 -0.77652556 -0.4345749 1 3
2.5890851 -0.76495612 -0.3314845 7 4
2.6061108 -0.77048117 -0.23776095 2 5
2.6064651 -0.77157533 -0.14245844 1 6
2.5959544 -0.76944959 -0.04726097 23 7
2.5755789 -0.7678135 0.046912011 50 8
2.5874839 -0.7723459 0.14151649 2 9
2.6137552 -0.78118151 -0.43207198 1 3
2.5995886 -0.77843046 -0.23741235 2 5
2.619061 -0.78525776 -0.14329581 1 6
2.5805404 -0.77911103 0.047051627 51 8
2.5809479 -0.78021729 0.14130712 8 9
2.6185749 -0.79258955 -0.43332344 1 3
2.5893805 -0.78473967 -0.33221599 55 4
2.5930421 -0.78634357 -0.23706374 10 5
2.6124818 -0.79323459 -0.14308648 1 6
2.5981722 -0.78988039 -0.04740059 66 7
2.5797176 -0.78869879 0.047086533 58 8
2.6195695 -0.80288285 -0.43394917 2 3
2.5904214 -0.79493839 -0.3327035 58 4
2.5982425 -0.79882747 -0.14245844 2 6
2.5992219 -0.80012155 -0.047470402 68 7
2.5845897 -0.80006415 0.04722615 58 8
2.5658996 -0.79526019 0.14078377 42 9
2.6280706 -0.81553465 -0.43582642 16 3
2.5838387 -0.80279779 -0.33221599 45 4
2.600807 -0.80856746 -0.23828389 58 5
2.5954382 -0.80789208 -0.14245844 10 6
2.5849581 -0.80561972 -0.04726097 55 7
2.5855978 -0.81027716 0.047295965 56 8
2.5669198 -0.805408 0.14099313 41 9
2.5950551 -0.81523103 -0.43082052 28 3
2.5885959 -0.81419468 -0.33319065 43 4
2.5770633 -0.81106168 -0.23636645 50 5
2.5859444 -0.81584144 -0.047330786 53 7
2.5789413 -0.81808841 0.04722615 58 8
2.569803 -0.81617689 0.14130713 43 9
2.6317258 -0.83685517 -0.43739074 53 3
2.5951955 -0.82623661 -0.33440936 49 4
2.5875051 -0.82428569 -0.23758663 46 5
2.6087627 -0.83206087 -0.14350514 14 6
2.5926054 -0.8279044 -0.047505304 52 7
2.5760701 -0.82708555 0.04722615 58 8
2.5726423 -0.82697576 0.14162114 41 9
2.5979638 -0.83711702 -0.33514088 43 4
2.5884049 -0.83453554 -0.23793526 46 5
2.5992136 -0.84002417 -0.047679827 55 7
2.5864801 -0.84039825 0.047470488 45 8
2.5716395 -0.83656895 0.14172581 37 9
2.5912514 -0.84494972 -0.33465308 43 4
2.5968404 -0.84727359 -0.23898113 37 5
2.5914996 -0.84653211 -0.14287713 1 6
2.6000664 -0.85033494 -0.047749631 53 7
2.5920565 -0.85523367 -0.33514091 45 4
2.5999069 -0.85933346 -0.14350516 1 6
2.5894887 -0.85689282 -0.047610018 23 7
2.5965874 -0.86679059 -0.33611551 45 4
2.6078701 -0.87106311 -0.24054994 1 5
2.6044681 -0.87093747 -0.14392385 1 6
2.5983853 -0.87445343 0.047854438 1 8
2.6010687 -0.8783896 -0.33709049 47 4
2.5897131 -0.87505835 -0.23915544 1 5
2.6430345 -0.89410365 -0.14622661 1 6
2.6156421 -0.88585478 -0.048203401 2 7
2.5953171 -0.88351798 0.047854438 2 8
2.6017437 -0.8887471 -0.33757797 45 4
2.6168082 -0.89440316 -0.24194445 1 5
2.6134419 -0.89427161 -0.14476122 1 6
2.5879407 -0.88655484 -0.047749635 13 7
2.5911205 -0.89523053 -0.33660299 42 4
2.6136699 -0.90353209 -0.24194443 1 5
2.6046422 -0.90142906 -0.14444719 1 6
2.5760229 -0.89656186 0.047610104 43 8
2.5900114 -0.90447253 -0.33684704 24 4
2.629308 -0.91922528 -0.24368757 1 5
2.5978677 -0.90874243 -0.14423785 2 6
2.5931706 -0.90811533 -0.047959071 52 7
2.6087172 -0.91816241 0.048273299 55 8
2.6187305 -0.92528421 -0.24299029 2 5
2.6135094 -0.92446566 -0.14528458 2 6
2.6088345 -0.92383683 -0.048308112 63 7
2.5885408 -0.92122895 0.047959156 51 8
2.60798 -0.93173844 -0.24229304 2 5
2.6027443 -0.93089247 -0.14486589 15 6
2.6055939 -0.93293762 -0.048308115 53 7
2.5909543 -0.93228996 0.048063871 52 8
2.6060817 -0.94338846 -0.04837792 53 7
2.5933216 -0.94337928 0.048168581 47 8
2.6145124 -0.95470637 -0.24351324 40 5
2.6036856 -0.95178318 -0.14528458 45 6
2.6177962 -0.95797735 -0.04865716 55 7
2.6031504 -0.95725703 0.048412915 28 8
2.614902 -0.9652068 -0.24386184 45 5
2.6097143 -0.96432722 -0.14580794 45 6
2.6031835 -0.96294683 -0.048447732 56 7
2.613384 -0.97502512 -0.24403618 42 5
2.6007192 -0.97133446 -0.14549391 18 6
2.6016793 -0.97272807 -0.048482634 52 7
2.6025071 -0.98132968 -0.24333891 39 5
2.607621 -0.98533773 -0.04865716 53 7
2.6237323 -1.0008569 -0.14716868 1 6
2.6060338 -0.99514753 -0.048692066 52 7
2.6202226 -1.0100092 -0.14716867 1 6
2.6193345 -1.0107169 -0.049006201 53 7
2.6278472 -1.0234983 -0.14779668 1 6
2.6027489 -1.0147693 -0.048761874 52 7
2.6354105 -1.0370532 -0.14842474 1 6
2.6029124 -1.0253143 -0.048831686 52 7
2.6280625 -1.0447706 -0.14821541 2 6
2.610465 -1.0388302 -0.049041111 50 7
2.6132789 -1.0494717 -0.14758734 9 6
2.6142447 -1.0509197 -0.049180731 50 7
2.6170025 -1.0615907 -0.14800604 34 6
2.6142657 -1.0615432 -0.049250543 43 7
2.611433 -1.069962 -0.14790137 24 6
2.6031437 -1.0676271 -0.049110916 10 7
