# .PCD v0.7 - Point Cloud Data file format
VERSION 0.7
FIELDS x y z intensity ring
SIZE 4 4 4 4 2
TYPE F F F F U
COUNT 1 1 1 1 1
WIDTH 1263
HEIGHT 1
VIEWPOINT 0 0 0 1 0 0 0
POINTS 1263
DATA ascii
-2.4238501 5.1300111 1.1028757 56 13
-0.65418506 1.3851904 -0.080283336 130 6
-0.65218019 1.3815696 -0.026667198 168 7
-1.0230464 2.1681876 0.64238894 13 15
-0.81037098 1.7244686 0.099857047 1 9
-0.93734682 1.996483 0.19296272 15 10
-2.4009109 5.1184154 0.69416767 50 11
-2.4058812 5.1313405 0.8976211 79 12
-2.400996 5.1255751 1.1002049 52 13
-0.65466988 1.398205 -0.080911376 127 6
-0.6509853 1.3909694 -0.026806815 153 7
-1.0117582 2.1628184 0.63980073 12 15
-0.80434602 1.7272869 0.09985704 1 9
-0.94165039 2.0230627 0.19522877 16 10
-2.3789003 5.1155491 0.69270521 45 11
-2.3871212 5.1379166 0.89730823 82 12
-2.3798501 5.1246071 1.0982969 53 13
-0.63321114 1.364136 -0.078817919 103 6
-1.0107021 2.1803586 0.64394188 12 15
-0.79161769 1.7155758 0.099019662 1 9
-0.94710046 2.0534751 0.19784342 24 10
-2.356046 5.1130042 0.69124281 46 11
-2.3650439 5.1372447 0.89574385 79 12
-2.360307 5.1293149 1.097533 53 13
-2.3529551 5.1203928 -0.098361455 52 7
-1.0055037 2.1891406 0.64549482 13 15
-0.75738895 1.6565702 0.095460817 1 9
-0.94323909 2.0640171 0.19854066 31 10
-2.3381848 5.1211963 0.69124275 46 11
-2.3405364 5.131093 0.89324105 76 12
-2.3407576 5.1339507 1.0967704 53 13
-2.3309214 5.1194763 -0.098186933 58 7
-1.0002567 2.1979122 0.64704782 14 15
-0.79445571 1.7538081 0.10090377 1 9
-0.93438476 2.0636671 0.19819205 26 10
-2.3186572 5.1257119 0.69075543 45 11
-2.3193581 5.1320305 0.89198947 76 12
-2.323632 5.1438789 1.0971514 51 13
-0.3172538 0.70263904 -0.040403351 12 6
-2.3089266 5.1184673 -0.09801241 55 7
-0.99019653 2.1961067 0.64549482 16 15
-0.79323506 1.7675039 0.10153179 1 9
-0.92635918 2.0650985 0.19801772 5 10
-2.29669 5.1247163 0.68953663 47 11
-2.298202 5.1328835 0.89073813 76 12
-2.2960372 5.1304555 1.0925726 51 13
-0.35557607 0.79490066 -0.045636944 7 6
-1.0245012 2.2913721 0.57947397 1 14
-2.2902286 5.1246705 -0.097977497 58 7
-0.98094821 2.196022 0.64445955 14 15
-1.0187272 2.2891741 0.043735672 1 8
-0.76758718 1.7264615 0.099019669 1 9
-0.92319125 2.0774229 0.19888929 4 10
-0.32396075 0.72934008 -0.12639904 9 3
-2.27315 5.1200013 0.68783051 45 11
-2.2802696 5.1408753 0.89073813 79 12
-2.2757287 5.1330543 1.0914278 53 13
-0.31234071 0.70483679 -0.040403351 12 6
-1.0086038 2.2771165 0.57497489 1 14
-2.2723274 5.1326332 -0.097977497 55 7
-0.97718602 2.208266 0.64704782 14 15
-2.366056 5.364563 -1.5710317 2 0
-0.98169142 2.2268441 0.042479105 1 8
-0.78087735 1.7729982 0.1015318 1 9
-0.91272324 2.0733387 0.19819205 4 10
-0.32141271 0.73046654 -0.12639904 9 3
-2.2504699 5.1170015 0.68636805 45 11
-2.2599254 5.1433783 0.88979942 82 12
-2.2530613 5.1301804 1.089138 50 13
-1.0022146 2.2841928 0.57587475 1 14
-2.2511861 5.1332088 -0.097837888 56 7
-0.96791989 2.2081249 0.64601243 15 15
-2.3473141 5.3727899 -1.5710317 2 0
-0.98351592 2.252248 0.042897962 1 8
-0.7619049 1.7464231 0.099857047 1 9
-0.90388715 2.0728598 0.19784342 4 10
-0.3188611 0.73158395 -0.12639904 9 3
-2.233386 5.1266465 0.68661177 45 11
-2.2388058 5.14399 0.8885479 82 12
-2.2382712 5.145216 1.0906639 41 13
-1.0004495 2.3019748 0.57947391 1 14
-2.2300658 5.1336994 -0.097698271 56 7
-0.96559244 2.2238944 0.64963591 17 15
-2.328546 5.3809509 -1.5710317 2 0
-0.98199832 2.2703507 0.043177199 1 8
-0.75610948 1.7489401 0.099857047 1 9
-0.2686719 0.62175685 -0.13165824 25 2
-0.89111638 2.0631983 0.19662324 4 10
-0.29125172 0.67465734 -0.11638724 12 3
-2.2146914 5.1325879 0.68636799 45 11
-2.2186072 5.1441298 0.88729644 85 12
-2.2420506 5.2034807 1.1013497 21 13
-0.98624444 2.2911332 0.57587469 1 14
-2.2067053 5.1263723 -0.097419038 56 7
-0.95668465 2.2235348 0.64860052 15 15
-2.2808301 5.3215709 -1.5513612 2 0
-0.98706871 2.3030021 0.043735672 1 8
-0.73349029 1.7130123 0.09765894 1 9
-0.26649973 0.62269104 -0.13165824 25 2
-0.88782656 2.0754557 0.19749479 2 10
-0.29212037 0.68288434 -0.11763872 12 3
-2.1960969 5.1362543 0.68588054 46 11
-2.2169313 5.189992 0.89386672 30 12
-2.2533047 5.2776947 1.1154691 56 13
-0.31356776 0.73479408 -0.041868757 11 6
-0.97864068 2.2943914 0.57587469 1 14
-2.1903646 5.1377234 -0.097488843 56 7
-0.94891787 2.2268608 0.64860064 14 15
-2.2435355 5.2828746 -1.5379027 2 0
-0.74310142 1.7523375 0.099752374 1 9
-0.28436178 0.67056501 -0.1415803 22 2
-0.88949269 2.0985665 0.19941221 3 10
-0.28357041 0.66934872 -0.11513576 12 3
-2.1843486 5.1585126 0.68783057 25 11
-2.2442107 5.3050365 0.9123261 91 12
-2.2287531 5.2710619 1.1124161 56 13
-0.30011606 0.71012819 -0.040403351 12 6
-2.2407813 5.3046708 1.3294606 4 14
-2.1731963 5.1471786 -0.097523741 55 7
-0.93663275 2.2194803 0.64549482 9 15
-2.2355673 5.3156042 -1.5451497 2 0
-0.73697966 1.754921 0.099752381 1 9
-0.2820192 0.67155367 -0.14158031 22 2
-0.89295673 2.1273789 0.20185259 3 10
-0.27511862 0.6557619 -0.11263282 13 3
-2.1978009 5.2411628 0.69782376 37 11
-2.2149935 5.2873297 0.90794575 85 12
-2.2126129 5.2842422 1.1135615 50 13
-0.30843028 0.7369653 -0.041868757 11 6
-2.2079644 5.2783022 1.3209126 9 14
-2.1521294 5.1473546 -0.097384125 55 7
-0.93334824 2.2334309 0.64860052 7 15
-2.211056 5.3091092 -1.5410086 2 0
-0.73084968 1.7574825 0.099752374 1 9
-0.26007369 0.62540215 -0.13165824 25 2
-0.89317286 2.1488807 0.2035957 2 10
-0.2849535 0.68590587 -0.11763872 12 3
-2.1871066 5.2671351 0.70026112 51 11
-2.1919813 5.2840829 0.90606868 82 12
-2.1918998 5.2864928 1.1124161 48 13
-2.1798296 5.2625728 1.315064 16 14
-2.1280298 5.1400542 -0.097104885 55 7
-0.92924035 2.2456007 0.65118879 5 15
-2.1763086 5.277503 -1.5296205 2 0
-0.73991984 1.796959 0.1018458 1 9
-0.25788918 0.62630612 -0.13165824 25 2
-0.89324969 2.1704097 0.20533881 1 10
-0.28406018 0.69055015 -0.11826446 11 3
-2.1687081 5.2747369 0.70026112 57 11
-2.1712701 5.286221 0.90513009 88 12
-2.1741796 5.2959266 1.1127983 50 13
-2.107801 5.1418996 -0.097000174 55 7
-0.91260618 2.2273793 0.64497709 3 15
-2.1695557 5.3136845 -1.5379026 2 0
-0.70800632 1.7366494 0.098286964 1 9
-0.28386545 0.69628584 -0.14615974 20 2
-2.1412401 5.2548132 0.49643883 7 10
-0.26972657 0.6622659 -0.11325855 13 3
-2.1472876 5.2749219 0.69928622 55 11
-0.31720448 0.77961868 -0.10334517 6 4
-2.1520615 5.2919374 0.90481716 85 12
-2.1497653 5.2889342 1.1097454 50 13
-2.1496348 5.2939119 1.3191128 43 14
-2.0928464 5.1566381 -0.097139798 26 7
-0.90990967 2.243082 0.64860052 2 15
-2.1423075 5.2997322 -1.5316911 2 0
-0.69745529 1.7279975 0.09765894 1 9
-0.27261564 0.67542559 -0.1415803 22 2
-2.1124501 5.2363873 0.49399847 22 10
-0.27480039 0.68152398 -0.11638724 12 3
-2.1251528 5.2731791 0.69806755 50 11
-0.31448132 0.78072101 -0.10334516 6 4
-2.1328392 5.2975841 0.9045043 88 12
-2.1261578 5.2836576 1.107074 52 13
-2.1325979 5.3049989 1.3200126 58 14
-2.1270189 5.2937994 -0.099583119 68 7
-0.90351337 2.2498305 0.64963591 1 15
-2.1324096 5.3286996 -1.5379026 2 0
-0.93050587 2.3264315 0.043735679 1 8
-0.68252563 1.7081655 0.096402869 1 9
-0.27025604 0.67637318 -0.1415803 22 2
-2.1037636 5.2677836 0.49626455 15 10
-0.2724196 0.68247902 -0.11638723 12 3
-2.1037891 5.2731905 0.69709259 52 11
-2.1084826 5.2903171 0.90200132 88 12
-2.1077032 5.2910461 1.107074 51 13
-2.1068599 5.2943053 1.3155137 66 14
-2.0989206 5.2770357 -0.099129356 68 7
-0.8956551 2.2529707 0.64963597 1 15
-2.1024103 5.3073745 -1.5296204 2 0
-0.92237985 2.3296649 0.043735672 1 8
-0.68537438 1.7328247 0.09765894 1 9
-2.0912242 5.2899165 0.49765897 3 10
-0.26713216 0.67607713 -0.11513577 12 3
-2.0817251 5.2712688 0.6958738 47 11
-2.0892787 5.2958074 0.90168846 96 12
-2.0921025 5.3056765 1.1086005 51 13
-2.0862229 5.2961884 1.314164 68 14
-2.0738959 5.2675838 -0.098815218 56 7
-0.88778567 2.256083 0.64963591 1 15
-2.0782282 5.3002939 -1.5254794 2 0
-0.91424263 2.3328702 0.043735672 1 8
-0.69388336 1.7724029 0.099752374 1 9
-0.24691911 0.63071162 -0.13165824 25 2
-0.77682662 1.9852844 0.18651317 3 10
-0.26477039 0.67700559 -0.11513577 12 3
-2.0647557 5.2822022 0.69636136 55 11
-0.28606203 0.73219961 -0.096520483 9 4
-2.0664673 5.2920275 0.89981109 96 12
-2.0707126 5.3056321 1.107074 51 13
-2.06914 5.3070693 1.3150638 70 14
-2.0525901 5.2673392 -0.098675609 53 7
-0.88411111 2.2699692 0.65274173 1 15
-2.0569205 5.3003116 -1.5234089 2 0
-0.88873804 2.2913034 0.042897966 1 8
-0.65882808 1.70032 0.09556549 1 9
-0.24471621 0.63156962 -0.13165824 25 2
-0.77061081 1.9898425 0.18668751 5 10
-0.2524229 0.65213495 -0.1107556 14 3
-2.0455904 5.2875252 0.69611758 52 11
-0.27777693 0.71838188 -0.094570585 9 4
-2.047272 5.2973657 0.89949834 88 12
-2.042985 5.2890201 1.1021124 50 13
-2.0463934 5.3033504 1.3123645 74 14
-2.0320337 5.2688742 -0.098570898 52 7
-0.88313121 2.2910669 0.6579181 1 15
-2.0453331 5.3254933 -1.5285853 2 0
-0.88073385 2.2943919 0.042897966 1 8
-0.66433084 1.7324471 0.097240239 1 9
-0.25721136 0.67145866 -0.11388429 13 3
-2.0235724 5.2853637 0.69489884 47 11
-0.28094301 0.73417902 -0.096520483 9 4
-2.0287688 5.3044801 0.8994984 88 12
-2.0238087 5.2942858 1.1017308 51 13
-2.027868 5.310462 1.3123645 67 14
-2.0136287 5.2759356 -0.098570898 52 7
-0.884767 2.3194056 0.66516501 1 15
-2.0143757 5.3000951 -1.5192677 2 0
-0.8755604 2.3049293 0.043037582 1 8
-0.65402752 1.7235518 0.096612215 1 9
-0.75528729 1.9914477 0.18633887 42 10
-0.2534655 0.6686582 -0.11325855 13 3
-2.0029998 5.2868271 0.69416767 50 11
-0.29806212 0.78713578 -0.10334526 6 4
-2.0081413 5.3059869 0.89855969 85 12
-2.0067055 5.3049903 1.102494 58 13
-2.0038087 5.3029246 1.3087653 73 14
-1.9944942 5.2810597 -0.09853597 55 7
-0.87257254 2.3116355 0.66205919 1 15
-1.9890636 5.2890124 -1.5140914 2 0
-0.84640253 2.2518163 0.041990437 1 8
-0.64690393 1.7219715 0.096402869 1 9
-0.75463188 2.0108597 0.1879079 75 10
-0.28026664 0.74722034 -0.12639906 9 3
-1.9838349 5.2919283 0.69392395 47 11
-1.9870706 5.3033681 0.89699543 88 12
-1.9874858 5.3101244 1.1021124 53 13
-1.98392 5.3062363 1.3078654 70 14
-1.9741681 5.2801538 -0.098396361 55 7
-0.84326202 2.2566087 0.64549482 1 15
-1.9719356 5.2995453 -1.5151268 2 0
-0.859851 2.3108358 0.043037582 1 8
-0.64645565 1.7391963 0.097240247 1 9
-0.73789811 1.9873331 0.1854673 62 10
-1.963514 5.2910323 0.69294894 46 11
-1.968545 5.3102727 0.89699548 88 12
-1.9678204 5.3111625 1.1009681 52 13
-1.9663134 5.3127861 1.3078654 70 14
-1.9501759 5.2720079 -0.098117128 55 7
-0.85011864 2.2994015 0.65688282 1 15
-1.9490105 5.291553 -1.5109857 2 0
-0.84210837 2.2875507 0.042548914 1 8
-0.63762385 1.7339439 0.096821561 1 9
-0.73267913 1.9935091 0.18581595 62 10
-1.945034 5.2978535 0.69294894 47 11
-1.9486346 5.3134027 0.89636964 88 12
-1.9445409 5.3050957 1.0982969 53 13
-1.9450749 5.3122983 1.3060658 69 14
-1.9351984 5.2881727 -0.098291643 55 7
-0.86597621 2.3676701 0.6755178 1 15
-1.9265578 5.2874331 -1.5078799 2 0
-0.83138174 2.2829602 0.042409297 1 8
-0.62610471 1.721144 0.095984191 1 9
-0.72707784 1.9997995 0.18616457 62 10
-1.9211069 5.2896848 0.69099909 46 11
-1.9260349 5.3090305 0.89449251 93 12
-1.9226635 5.3026233 1.0963882 52 13
-1.9265207 5.3190551 1.3060658 67 14
-1.9133223 5.2854953 -0.098117135 55 7
-0.85770589 2.3706784 0.6755178 1 15
-1.9094003 5.29776 -1.5089149 2 0
-0.81256372 2.2557468 0.04185082 1 8
-0.63091308 1.7533876 0.09765894 1 9
-0.7200923 2.0023255 0.18616457 60 10
-1.8992763 5.2870173 0.68978035 46 11
-1.9101615 5.3231573 0.89574397 93 12
-1.9054691 5.3129973 1.097152 52 13
-1.9053141 5.3184085 1.3042661 69 14
-1.8982328 5.3015537 -0.098291643 55 7
-0.84942573 2.3736579 0.6755178 1 15
-1.8883024 5.2971134 -1.5068444 2 0
-0.80199963 2.251035 0.041711204 1 8
-0.60871732 1.7104191 0.09514679 1 9
-0.71443337 2.0085816 0.1865132 60 10
-1.8821391 5.2973552 0.6902678 46 11
-1.8842989 5.3093157 0.89230239 85 12
-1.8829715 5.3085151 1.0948622 52 13
-1.8854349 5.3213539 1.3033664 69 14
-1.8723713 5.2874136 -0.097907692 58 7
-0.84113425 2.3766088 0.6755178 1 15
-1.8697993 5.3036728 -1.5068444 2 0
-0.79945433 2.2689087 0.041990437 1 8
-0.60274249 1.7125338 0.095146798 1 9
-0.70345122 1.9997855 0.1854673 64 10
-1.8603448 5.2945294 0.68904912 46 11
-1.8637929 5.3102684 0.89136374 88 12
-1.8644316 5.3150549 1.0948622 52 13
-1.863628 5.318706 1.3011167 65 14
-1.8532429 5.2920294 -0.097872786 60 7
-0.83283371 2.3795302 0.6755178 1 15
-1.841098 5.280982 -1.4985622 2 0
-0.79547757 2.2830157 0.042199869 1 8
-0.59282148 1.7033099 0.094518766 1 9
-0.69253945 1.9909383 0.18442145 64 10
-1.8451084 5.3103676 0.69026786 45 11
-1.8465393 5.3204746 0.89198941 88 12
-1.8452219 5.3196764 1.0944806 56 13
-1.8469627 5.3307037 1.3024664 69 14
-1.8367207 5.3041353 -0.097977497 61 7
-1.8213947 5.2837234 -1.497527 2 0
-0.78098923 2.2668724 0.041850824 1 8
-0.22078779 0.64121443 -0.1565659 18 1
-0.59467155 1.7280315 0.095774837 1 9
-0.68882495 2.002764 0.185293 66 10
-1.8214023 5.3017554 0.68831789 46 11
-1.8273169 5.3250198 0.89167666 82 12
-1.8234583 5.3168001 1.0925726 51 13
-1.8296084 5.340806 1.3033665 69 14
-1.8181957 5.310514 -0.097977497 60 7
-0.81620115 2.3852863 0.6755178 1 15
-1.8041874 5.2937055 -1.4985622 2 0
-0.76791376 2.2544408 0.041571576 1 8
-0.22482848 0.66042894 -0.16106494 17 1
-0.57576996 1.6922803 0.093681388 1 9
-0.67990506 1.9994974 0.18477006 62 10
-1.8016086 5.3043222 0.68783051 45 11
-1.8087183 5.3313656 0.89167666 82 12
-1.8036284 5.3194141 1.0918094 52 13
-1.8059551 5.3323927 1.2997671 70 14
-1.7996485 5.3168283 -0.097977497 60 7
-0.80786937 2.3881211 0.6755178 1 15
-0.76514435 2.2722692 0.04185082 1 8
-0.22376475 0.66490376 -0.16196476 17 1
-0.5711323 1.6980661 0.093890741 1 9
-0.65768576 1.9565333 0.18058658 58 10
-1.7824486 5.3086972 0.68758678 45 11
-1.7838149 5.3189182 0.8885479 82 12
-1.7844239 5.3238163 1.0914278 53 13
-1.7848538 5.3312731 1.2979676 67 14
-1.7785397 5.3154926 -0.09783788 60 7
-0.79952914 2.3909264 0.6755178 1 15
-0.70626414 2.120636 -0.59890723 1 0
-0.75720847 2.2749262 0.04185082 1 8
-0.21898216 0.65828419 -0.16016513 17 1
-0.57150286 1.7190019 0.094937466 1 9
-0.6326341 1.9039853 0.17553157 68 10
-0.251508 0.75738448 -0.12639904 9 3
-1.7632828 5.3130021 0.687343 45 11
-1.7639954 5.321362 0.88792217 85 12
-1.765213 5.3281484 1.0910455 52 13
-1.765623 5.3356209 1.2975177 66 14
-1.7536958 5.3026824 -0.097488835 48 7
-0.67831999 2.0606987 -0.58130759 2 0
-0.74926239 2.2775557 0.041850824 1 8
-0.22033501 0.67015201 -0.16286454 17 1
-0.56051058 1.7058067 0.09410008 1 9
-0.61728048 1.8796812 0.17309122 49 10
-1.7441067 5.3172388 0.68709928 45 11
-1.7454083 5.327487 0.88792217 85 12
-1.7429371 5.3230824 1.0887563 51 13
-1.747591 5.3436041 1.2979676 70 14
-1.7308251 5.2954669 -0.097244501 21 7
-0.78281754 2.39645 0.6755178 1 15
-0.6723187 2.0667281 -0.58234292 3 0
-0.74378109 2.2877638 0.041990437 1 8
-0.21317664 0.65609014 -0.1592654 18 1
-0.5570206 1.7153513 0.094518773 1 9
-0.59042013 1.8192863 0.16733894 72 10
-1.7224755 5.3138533 0.6858806 45 11
-1.7274108 5.3354263 0.88823503 88 12
-1.7231375 5.3253989 1.0879925 51 13
-1.7283297 5.3478174 1.2975177 63 14
-1.7129464 5.3033786 -0.097279407 6 7
-0.75901741 2.3513687 0.66205919 1 15
-0.67219496 2.0911324 -0.58855456 3 0
-0.73579115 2.2903457 0.041990433 1 8
-0.21326797 0.66425222 -0.16106494 17 1
-0.55377114 1.7247957 0.094937459 1 9
-0.5712893 1.7814945 0.16367839 96 10
-1.7008897 5.31038 0.68466187 46 11
-1.7091047 5.3392448 0.88792217 85 12
-1.7033432 5.327641 1.0872294 51 13
-1.7049078 5.3389673 1.2939184 61 14
-1.6904825 5.2937913 -0.097000174 1 7
-0.76648837 2.4017227 0.6755178 1 15
-0.6625517 2.0861008 -0.5864839 3 0
-0.7366659 2.3194559 0.042479105 1 8
-0.2146015 0.67610019 -0.16376434 16 1
-0.54774749 1.7267181 0.094937459 1 9
-0.55965143 1.7663838 0.1621096 72 10
-1.6862653 5.3254547 0.6858806 45 11
-1.686884 5.3338766 0.88604486 82 12
-1.6856654 5.3332605 1.0872294 51 13
-1.6848483 5.3371577 1.2921188 66 14
-1.6719943 5.2996588 -0.097000167 1 7
-0.75809973 2.4043834 0.67551774 1 15
-0.65447342 2.0846004 -0.58544868 3 0
-0.72018325 2.2953019 0.04199044 1 8
-0.21573879 0.68800199 -0.16646376 16 1
-0.53813338 1.7171844 0.094309434 1 9
-0.54009438 1.7244996 0.15810043 91 10
-1.665889 5.325624 0.68514937 47 11
-1.6688454 5.3416181 0.8863579 79 12
-1.6670396 5.3391118 1.0872294 51 13
-1.6729511 5.3613405 -0.2943373 2 6
-1.6662091 5.3430061 1.2921188 66 14
-1.6594356 5.3245554 -0.097349226 1 7
-0.72902 2.340615 0.65688282 1 15
-0.6471923 2.0868723 -0.58544868 3 0
-0.72992694 2.3551033 0.043037578 1 8
-0.21794845 0.70364279 -0.17006296 30 1
-0.53213573 1.7190523 0.094309419 1 9
-0.5281837 1.7073404 0.15635732 85 10
-1.6467015 5.3295107 0.68490565 12 11
-1.6478579 5.3398609 0.88510633 79 12
-1.6449196 5.3336425 1.0849397 47 13
-1.6354023 5.3060708 -0.29098782 4 6
-1.6475468 5.3487902 1.2921188 66 14
-1.633778 5.3073812 -0.09693037 1 7
-0.74129558 2.4096177 0.6755178 1 15
-0.63990444 2.0891185 -0.58544862 3 0
-1.6570476 5.4131947 0.098815396 1 8
-0.20865002 0.68203735 -0.16466415 33 1
-0.52729982 1.7247193 0.094518766 2 9
-0.52105671 1.7053626 0.15600868 100 10
-1.622875 5.3181367 0.68271196 5 11
-1.6292095 5.3455801 0.88510633 79 12
-1.6222882 5.3262038 1.0822688 50 13
-1.6005868 5.2582469 -0.28805703 4 6
-1.6288649 5.3545094 1.2921189 64 14
-1.6152403 5.3130522 -0.09693037 4 7
-0.70480049 2.3197694 0.64963591 1 15
-0.62925148 2.0802453 -0.58234292 3 0
-1.6115228 5.3308954 0.097209781 1 8
-0.20514099 0.67903054 -0.16376434 33 1
-0.51781243 1.7150774 0.093890741 2 9
-0.51510012 1.7071713 0.15600869 100 10
-1.6106002 5.344677 0.68539304 7 11
-1.6105386 5.3512354 0.88510633 79 12
-1.6065124 5.3412356 1.084177 48 13
-1.597169 5.3135333 -0.29077849 9 6
-1.6056805 5.3452306 1.2885195 61 14
-1.5984111 5.3244033 -0.09703508 8 7
-0.69669837 2.3222156 0.64963591 1 15
-0.62862134 2.1046412 -0.5885545 3 0
-1.5871855 5.3173265 0.096860729 7 8
-0.20165519 0.67600769 -0.16286454 34 1
-0.51524621 1.7283585 0.094518766 2 9
-0.51141381 1.7165964 0.15670614 85 10
-0.63462269 2.1328769 0.27323103 7 11
-1.5873495 5.3416753 0.88260335 79 12
-1.5889773 5.350575 1.0849396 52 13
-1.5786103 5.3190761 -0.29077849 31 6
-1.5853505 5.3451982 1.2871699 59 14
-1.5735652 5.3088608 -0.096651137 6 7
-0.68090576 2.2987015 0.64238894 1 15
-0.61471426 2.0845873 -0.58234292 3 0
-1.5725706 5.3362617 0.097105063 11 8
-0.20479944 0.69540119 -0.16736357 16 1
-0.50695473 1.7224826 0.094100088 2 9
-0.50204504 1.7069027 0.15566006 100 10
-1.5704529 5.3462677 0.68417436 10 11
-1.5681361 5.3452897 0.8822906 82 12
-1.569187 5.3523202 1.084177 52 13
-1.5622815 5.3322201 -0.29119715 18 6
-1.5694197 5.3600502 1.2894193 61 14
-0.66854042 2.2862303 0.63824785 1 15
-0.60527378 2.0793009 -0.58027232 3 0
-1.5500256 5.3282771 0.096860729 30 8
-0.20237103 0.69611174 -0.16736364 16 1
-0.50205326 1.7280777 0.094309427 2 9
-0.49497309 1.704818 0.15531144 100 10
-1.5451466 5.3288388 0.68124956 27 11
-1.5500184 5.3526278 0.88260341 79 12
-1.5472183 5.3464503 1.0818872 51 13
-1.5485364 5.3580079 1.2876197 61 14
-1.5409036 5.3350859 -0.09693037 53 7
-0.67984265 2.3553691 0.65688282 1 15
-0.60121226 2.0925417 -0.5833782 2 0
-1.529762 5.3278899 0.096756026 31 8
-0.19134042 0.66684347 -0.16016515 17 1
-0.49711844 1.7336595 0.094518766 2 9
-0.49011719 1.7103658 0.15566027 100 10
-1.5243496 5.3265672 0.68027467 36 11
-1.5313262 5.358005 0.88260341 79 12
-1.5258493 5.3423805 1.0799792 50 13
-1.5239208 5.3391566 -0.29098782 83 6
-1.5298226 5.3633809 1.2876197 61 14
-1.5217211 5.3385096 -0.096895456 61 7
-0.67161644 2.3577278 0.65688282 1 15
-0.5949586 2.0983446 -0.58441341 3 0
-1.5116985 5.3351212 0.096790917 39 8
-0.19644438 0.69375759 -0.16646376 16 1
-0.48562604 1.7161661 0.093472049 2 9
-0.48522758 1.7159009 0.15600869 97 10
-1.50359 5.324213 0.67929959 46 11
-1.5131485 5.3652196 0.88291633 82 12
-1.5066602 5.3457842 1.0795976 47 13
-1.5009437 5.3290634 -0.29015046 83 6
-1.5079249 5.3574328 1.2849203 61 14
-1.5057859 5.3534136 -0.097069986 60 7
-0.68220192 2.4270098 0.6755178 1 15
-0.58658963 2.0966876 -0.58337814 3 0
-1.4941442 5.3442168 0.096860729 56 8
-0.21709448 0.77702093 -0.18625945 11 1
-0.47855866 1.7140033 0.093262702 2 9
-0.47923556 1.717584 0.15600868 100 10
-1.4903257 5.3485503 0.68173695 47 11
-1.4922916 5.3628569 0.88166481 82 12
-1.4949956 5.3725743 -0.48789799 1 5
-1.4900957 5.3585763 1.0811235 51 13
-1.4834012 5.3381181 -0.29035977 69 6
-1.4866064 5.3532763 1.282671 59 14
-1.4812089 5.337441 -0.096686028 60 7
-0.64791209 2.336297 0.64963591 1 15
-0.57464075 2.0819623 -0.57871938 3 0
-1.4738837 5.343617 0.096756019 60 8
-0.21438065 0.77777404 -0.18625945 11 1
-0.4749946 1.7232827 0.093681388 3 9
-0.47006413 1.7077209 0.15496282 95 10
-1.4711188 5.3518076 0.68149328 50 11
-1.4724077 5.3601565 0.88041335 82 12
-1.4693774 5.3527827 -0.48563197 4 5
-1.4682647 5.3523855 1.0788344 48 13
-1.4663434 5.3490429 -0.29067379 78 6
-1.4694564 5.3640704 1.2840205 61 14
-1.4634997 5.3423233 -0.09668602 60 7
-0.65036333 2.3756983 0.6599887 1 15
-0.5704155 2.0951395 -0.58182526 3 0
-1.453005 5.3368983 0.096546598 61 8
-0.47316888 1.7403486 0.094518766 2 9
-0.46410039 1.7093514 0.15496282 95 10
-1.4533646 5.3566561 0.68149328 50 11
-1.454206 5.3671694 0.88072622 88 12
-1.4470398 5.3444166 -0.48441175 13 5
-1.4494817 5.353435 1.0780705 48 13
-1.4465091 5.3461647 -0.29025513 74 6
-1.449627 5.3613892 1.282221 61 14
-1.4453646 5.3493295 -0.096720934 60 7
-0.63199437 2.3406532 0.64963591 1 15
-0.56396639 2.0988855 -0.58234292 4 0
-1.4328097 5.3361444 0.09644188 63 8
-0.46398786 1.7304149 0.093890741 3 9
-0.46049163 1.7185791 0.15566006 97 10
-1.4300383 5.3444376 0.67929953 47 11
-1.4359707 5.3741221 0.88103914 82 12
-1.431365 5.3568854 -0.485109 34 5
-1.4297714 5.3546686 1.0773072 48 13
-1.4247504 5.3396029 -0.28962708 74 6
-1.4319061 5.3701825 1.2831208 61 14
-1.4266818 5.3543429 -0.096720934 58 7
-0.62978548 2.3652468 0.65584761 1 15
-0.55416173 2.0915043 -0.57975471 3 0
-1.415199 5.3449788 0.096511684 61 8
-0.4518179 1.7088531 0.09263467 3 9
-0.45550811 1.7240283 0.15600868 95 10
-1.410362 5.3455582 0.67881215 47 11
-1.4161974 5.3752813 0.88041335 85 12
-1.4136738 5.3657026 -0.48545769 45 5
-1.4115725 5.3615251 1.0776895 50 13
-1.4030558 5.3329539 -0.28899905 74 6
-1.4101802 5.3638396 1.2804214 64 14
-1.4064598 5.353488 -0.096616223 60 7
-0.6038661 2.3001633 0.63721263 1 15
-0.5468573 2.0934258 -0.57975465 3 0
-1.3965316 5.3498869 0.096511684 61 8
-0.44967768 1.7238702 0.093367383 3 9
-0.44948688 1.7256081 0.15600868 88 10
-1.4251235 5.4750433 -0.89605659 1 3
-1.3921927 5.3523693 0.67905581 52 11
-1.3963752 5.3723011 0.87916189 96 12
-1.3904285 5.3532486 -0.48388883 57 5
-1.3933405 5.3683205 1.0780705 52 13
-1.3854326 5.3416862 -0.28920841 74 6
-1.3894913 5.3611846 1.2786218 64 14
-1.386691 5.3503795 -0.0964766 60 7
-0.6078589 2.3470368 0.64963591 1 15
-0.53954673 2.0953219 -0.57975465 4 0
-1.3787842 5.3544884 0.096511684 61 8
-1.3859601 5.3862486 -1.2840203 2 1
-0.44216511 1.7196263 0.093053363 4 9
-1.3880376 5.402132 -1.0841768 1 2
-0.44247007 1.7233069 0.15566006 76 10
-1.3873079 5.4032068 -0.88354188 3 3
-1.3759164 5.3627253 0.67978704 46 11
-1.3848406 5.4014235 -0.68466234 4 4
-1.3761442 5.3714008 0.87822318 88 12
-1.3677799 5.342628 -0.48249435 57 5
-1.3755319 5.372911 1.0780705 48 13
-1.3696923 5.3539901 -0.28962708 74 6
-1.3726716 5.3695388 1.2795216 66 14
-1.3685025 5.3571258 -0.09651152 60 7
-0.59584039 2.3341694 0.64549476 1 15
-0.53307039 2.0989723 -0.58027232 4 0
-1.3571348 5.3476386 0.096302256 61 8
-1.3594868 5.3608303 -1.2768219 11 1
-0.43615919 1.7211597 0.093053371 4 9
-1.3643267 5.3838692 -1.0795975 3 2
-0.43528602 1.7189704 0.15513712 73 10
-1.3592327 5.3716302 -0.87759727 7 3
-1.3620884 5.3908272 -0.68271238 10 4
-1.3573847 5.3761721 0.87822318 88 12
-1.3500949 5.351234 -0.48284295 55 5
-1.3495315 5.3529291 -0.28931311 76 6
-1.3548708 5.378077 1.2804214 64 14
-1.3478398 5.3541126 -0.096371882 60 7
-0.59145975 2.351223 0.64963591 1 15
-0.5239681 2.0952892 -0.57871938 3 0
-1.3394291 5.3562226 0.09637206 61 8
-1.3379297 5.3541994 -1.2741225 33 1
-0.4301489 1.7226714 0.093053363 4 9
-1.3350806 5.3507352 -1.071965 6 2
-0.42946431 1.7224874 0.15531144 69 10
-1.3347614 5.3574085 -0.87446868 14 3
-1.3341496 5.3589501 -0.67808074 21 4
-1.339565 5.3847113 0.87884897 57 12
-1.3314085 5.3559141 -0.48284295 57 5
-1.3279771 5.3500857 -0.28889439 76 6
-1.3360895 5.3867893 1.2813212 64 14
-1.3305883 5.3646069 -0.0964766 60 7
-0.59068435 2.3832753 0.6579181 1 15
-0.51572621 2.0933542 -0.57768416 3 0
-1.3178772 5.3533292 0.096232444 65 8
-1.3206252 5.3685288 -1.2763721 57 1
-0.42430839 1.726176 0.093158029 4 9
-1.3140497 5.3458314 -1.070057 18 2
-0.42344949 1.7239761 0.15531145 61 10
-1.31558 5.3601165 -0.87415576 27 3
-0.51255584 2.089905 0.26421273 8 11
-1.3088301 5.3406672 -0.67515588 51 4
-1.3127059 5.3605285 -0.48284295 59 5
-1.3064485 5.3430471 -0.28826636 76 6
-1.3135787 5.3762751 1.2777218 66 14
-1.3099666 5.3655634 -0.096406795 60 7
-0.57003993 2.3366272 0.64445955 1 15
-0.5056839 2.0838771 -0.57457829 3 0
-1.2996523 5.3598409 0.09626735 69 8
-1.2959107 5.3484855 -1.2705234 77 1
-0.41781154 1.7257051 0.093053363 4 9
-1.2912272 5.3332119 -1.0666225 32 2
-0.41789714 1.7273804 0.15548575 45 10
-1.2968603 5.364676 -0.87415576 30 3
-1.2897128 5.3432741 -0.67491215 51 4
-0.50854272 2.1085036 0.34353015 5 12
-1.2939848 5.3650789 -0.48284298 60 5
-0.50413728 2.0918353 0.41825321 40 13
-1.2891911 5.3534007 -0.28858036 74 6
-1.292979 5.3732495 1.2759223 66 14
-1.2888954 5.3603811 -0.096232265 60 7
-0.55285442 2.3010349 0.63410681 1 15
-0.49571237 2.0743561 -0.57147247 3 0
-1.2818624 5.3682346 0.096337147 69 8
-1.2772348 5.3529758 -1.2705233 74 1
-0.41115925 1.7231958 0.092844017 5 9
-1.2726016 5.337687 -1.0666225 32 2
-0.41047925 1.7230142 0.15496282 41 10
-1.2790421 5.3730135 -0.87478143 37 3
-0.50300723 2.1146748 0.2668938 39 11
-1.2738252 5.3552465 -0.67588705 65 4
-0.49515235 2.0832729 0.33915001 36 12
-1.2715675 5.3540554 -0.4814485 59 5
-0.50181818 2.1145945 0.42245102 44 13
-1.2704951 5.3578687 -0.28858036 78 6
-1.275152 5.3775077 1.2759222 66 14
-1.2688061 5.3548975 -0.096057758 60 7
-0.55145234 2.3291736 0.64135373 1 15
-0.47820324 2.0308585 -0.55904913 3 0
-1.2613096 5.3607769 0.096127734 69 8
-1.2581391 5.351491 -1.2691737 82 1
-0.40772828 1.734271 0.093367383 5 9
-1.2566887 5.3495235 -1.068149 43 2
-0.40430835 1.7224262 0.15478852 33 10
-1.2580613 5.3637633 -0.87259144 40 3
-0.49010265 2.0912061 0.26372519 42 11
-1.256964 5.3633065 -0.67637455 65 4
-0.49454734 2.11183 0.34353015 42 12
-1.2538069 5.358242 -0.4814485 59 5
-0.48541605 2.0761013 0.41443726 34 13
-1.2531762 5.3639975 -0.28868505 76 6
-1.2582004 5.3855023 1.2768222 64 14
-1.2524066 5.3649173 -0.096162468 61 7
-0.54372489 2.3309896 0.64135373 1 15
-0.46317223 1.9966775 -0.54921412 2 0
-1.2426237 5.3610334 0.096057929 69 8
-1.2381859 5.3461404 -1.2669246 76 1
-0.40302253 1.7415212 0.093681388 9 9
-1.2371241 5.3500509 -1.0673857 45 2
-0.39859468 1.7237574 0.15478852 16 10
-1.240266 5.3679066 -0.87259144 47 3
-0.48227257 2.0889513 0.26323771 50 11
-1.2386822 5.3695955 -0.67661828 68 4
-0.49161008 2.1327925 0.34665886 55 12
-1.2333055 5.3548207 -0.48075128 59 5
-0.48036715 2.0873497 0.41634512 45 13
-1.2299701 5.348875 -0.28763837 76 6
-1.2393949 5.3898611 1.2768222 66 14
-1.2341182 5.3712058 -0.096197374 60 7
-0.53299063 2.3215764 0.63824785 2 15
-0.44553986 1.953158 -0.53679073 2 0
-1.2238507 5.369451 0.096127719 67 8
-1.2177187 5.3468428 -1.2660248 76 1
-0.39264867 1.7254595 0.092739351 9 9
-1.2179409 5.3564644 -1.0677674 45 2
-0.39492416 1.7368636 0.15583438 7 10
-1.2205844 5.3724151 -0.87259138 47 3
-0.47109789 2.0752189 0.26128787 51 11
-1.2150397 5.3566756 -0.67442524 65 4
-0.47855058 2.1114621 0.34290448 47 12
-1.2145519 5.3631907 -0.48109987 57 5
-0.47401372 2.0948405 0.41749021 45 13
-1.2094774 5.3494496 -0.28742898 76 6
-1.2179146 5.3867636 1.2750225 66 14
-1.2157465 5.3815436 -0.096302077 60 7
-0.518098 2.2952476 0.63048321 3 15
-0.42907751 1.9133074 -0.52540272 2 0
-1.2032895 5.3699994 0.096057929 69 8
-1.1985378 5.3531718 -1.2664741 73 1
-0.38487738 1.7190237 0.092320658 9 9
-1.1979512 5.3549352 -1.0666225 45 2
-0.38942522 1.7421882 0.156183 5 10
-1.2017452 5.3807092 -0.87321723 47 3
-0.46435279 2.0808063 0.26177534 51 11
-1.1963353 5.3608851 -0.6744253 65 4
-0.47031686 2.1092634 0.34227869 53 12
-1.1966887 5.3712873 -0.4814485 57 5
-0.46797878 2.1022317 0.41863486 47 13
-1.1903619 5.3516898 -0.28732434 74 6
-1.1982554 5.3871784 1.2741226 66 14
-1.1917471 5.36233 -0.09588322 61 7
-0.510921 2.3008137 0.63151854 4 15
-0.40024063 1.8128526 -0.4974502 2 0
-1.1863377 5.3778644 0.096127726 69 8
-1.1811974 5.3590198 -1.2669246 76 1
-0.38175371 1.7319932 0.09294869 11 9
-1.1784991 5.3512087 -1.065096 46 2
-0.37979254 1.7259575 0.15461421 3 10
-1.1847422 5.3885231 -0.87384284 47 3
-0.45915437 2.0900896 0.26275027 49 11
-1.1785524 5.3648219 -0.67442524 65 4
-0.46247315 2.1069524 0.34165296 53 12
-1.1771616 5.3674421 -0.48075128 59 5
-0.46184579 2.1076071 0.41939807 47 13
-1.1734638 5.359509 -0.28753364 74 6
-1.1803855 5.3911219 1.2741227 64 14
-1.1739563 5.3662524 -0.09588322 61 7
-0.50535154 2.3119318 0.63410676 4 15
-0.38520136 1.7726387 -0.4860622 3 0
-1.165951 5.3700442 0.095918298 69 8
-1.1646628 5.3686204 -1.2682737 85 1
-0.37697524 1.7391708 0.093262702 14 9
-1.1598113 5.3552904 -1.065096 43 2
-0.37322304 1.723313 0.15426558 3 10
-1.16269 5.3731155 -0.87071419 50 3
-0.45305908 2.0954816 0.26323774 49 11
-1.1589789 5.3650236 -0.67393786 63 4
-0.45594865 2.1124158 0.34227869 55 12
-1.1563194 5.3617797 -0.47987965 55 5
-0.45159066 2.095772 0.41672671 45 13
-1.1555878 5.3674779 -0.28774297 74 6
-1.1611483 5.3933053 1.2736729 68 14
-1.1560597 5.3742275 -0.095953032 60 7
-0.49403027 2.2985723 0.62996566 4 15
-0.37426576 1.7532563 -0.48036817 5 0
-1.144593 5.3664584 0.095778681 69 8
-1.1417274 5.3576059 -1.2646745 78 1
-0.36851904 1.7307736 0.092739351 18 9
-1.1393595 5.3556643 -1.0643327 46 2
-0.37022129 1.7402594 0.15566006 3 10
-1.1438113 5.3812046 -0.87133992 50 3
-0.44290182 2.0854774 0.26177531 49 11
-1.1393085 5.3692355 -0.67393786 65 4
-0.44820264 2.114073 0.34227869 53 12
-1.1366584 5.3659821 -0.47987965 59 5
-0.4455328 2.1050961 0.41825321 52 13
-1.1317738 5.3521371 -0.28669626 74 6
-1.1429843 5.4051509 1.2754724 70 14
-1.1355263 5.3745165 -0.095883228 58 7
-0.48719877 2.3079281 0.63203621 3 15
-0.36744043 1.7527257 -0.47985053 7 0
-1.1257374 5.3745322 0.095848493 69 8
-1.1220816 5.3617549 -1.2646745 78 1
-0.36053744 1.7242928 0.092320658 20 9
-1.119724 5.3598032 -1.0643327 46 2
-0.36221108 1.7338033 0.15496282 3 10
-1.1228683 5.37956 -0.87040126 57 3
-0.43606517 2.0909731 0.26226279 51 11
-1.118408 5.3675447 -0.67320597 68 4
-0.44085425 2.1176353 0.34259155 51 12
-1.1177962 5.3740134 -0.4802283 57 5
-0.43741521 2.1047926 0.41787159 50 13
-1.1113389 5.3523383 -0.28648692 74 6
-1.1199981 5.3940396 1.2718732 73 14
-1.1141964 5.3708096 -0.095743604 61 7
-0.47912803 2.31159 0.63255382 4 15
-0.3629615 1.7635214 -0.48243868 13 0
-1.1076384 5.3864574 0.09598811 69 8
-1.1008548 5.3581953 -1.2628756 78 1
-0.3526091 1.7177767 0.091901973 18 9
-1.0984896 5.3561797 -1.0628064 43 2
-0.35745379 1.7429265 0.15566027 3 10
-1.1043345 5.3894448 -0.87133992 50 3
-0.4291952 2.0964468 0.26275027 51 11
-1.0975301 5.3657737 -0.67247474 63 4
-0.43190366 2.1134307 0.34165293 53 12
-1.0964986 5.370265 -0.47953102 56 5
-0.43048114 2.1102295 0.41863486 47 13
-1.0925131 5.3602896 -0.28669629 74 6
-1.1002212 5.3981085 1.2718734 76 14
-1.0929091 5.3670192 -0.095603988 58 7
-0.4725776 2.3227961 0.63514209 4 15
-0.35511884 1.7532928 -0.47933292 20 0
-1.0899187 5.3859911 0.095918305 71 8
-1.0844007 5.3635378 -1.2633255 76 1
-0.3490935 1.7266461 0.092320658 20 9
-1.0818188 5.3555665 -1.0620431 45 2
-0.34645873 1.7166989 0.15321971 4 10
-1.087396 5.3928881 -0.87133992 50 3
-0.42221534 2.095839 0.26250654 48 11
-1.0810603 5.371141 -0.67271847 68 4
-0.42563048 2.1147029 0.34165293 53 12
-1.0789872 5.3656821 -0.47883376 56 5
-0.42499286 2.1153464 0.41939807 47 13
-1.0773884 5.367424 -0.28690562 74 6
-1.0840218 5.4053593 1.272773 74 14
-1.0765852 5.3682775 -0.095569074 60 7
-0.46644446 2.327976 0.63617724 2 15
-0.34748849 1.7469426 -0.47726235 21 0
-1.0689321 5.3738842 0.09563905 69 8
-1.0677519 5.3728385 -1.2646747 73 1
-0.34423149 1.733731 0.09263467 16 9
-1.0638803 5.3631611 -1.0628062 42 2
-0.34046376 1.7178978 0.1532197 6 10
-1.0675851 5.386776 -0.86977559 54 3
-0.41564789 2.0991745 0.26275027 49 11
-1.0632441 5.3746963 -0.67271847 70 4
-0.41824561 2.1161759 0.34165293 53 12
-1.0602528 5.3694153 -0.47883376 57 5
-0.41645384 2.1090398 0.4178718 57 13
-1.0607442 5.3768449 -0.28721961 76 6
-1.0585532 5.3706856 1.263775 60 14
-1.0597728 5.381813 -0.095743604 60 7
-0.4560771 2.318217 0.63307148 1 15
-0.34280485 1.7537735 -0.47881526 25 0
-1.0501684 5.377583 0.09563905 69 8
-1.0474972 5.3688812 -1.2628756 81 1
-0.33741286 1.7310015 0.092425331 21 9
-1.0460881 5.3666596 -1.0628062 43 2
-0.3359088 1.7248839 0.15374263 6 10
-1.0480244 5.386591 -0.8691498 54 3
-0.40642351 2.0908701 0.26153159 48 11
-1.0440992 5.3764262 -0.67247474 65 4
-0.41161025 2.1215014 0.34227875 53 12
-1.0407432 5.3691726 -0.47848523 57 5
-0.40946248 2.1124084 0.41825321 62 13
-1.0385501 5.3628683 -0.28627759 74 6
-1.0261065 5.3035564 1.2471285 64 14
-1.0405995 5.3835173 -0.095708705 60 7
-0.4531098 2.3463504 0.64031845 1 15
-0.33710232 1.7588127 -0.47985053 25 0
-1.0321423 5.3851452 0.095708884 69 8
-1.0280148 5.3686781 -1.2619752 81 1
-0.33212021 1.7360919 0.09263467 18 9
-1.0264126 5.3704581 -1.0628064 45 2
-0.33070517 1.7319747 0.15426557 7 10
-1.029016 5.3942766 -0.86977559 54 3
-0.39875203 2.0903258 0.26128784 49 11
-1.0238376 5.3722377 -0.67150038 65 4
-0.40457112 2.1248653 0.34259149 60 12
-1.0227432 5.3766861 -0.47883376 56 5
-0.40171784 2.1138949 0.41825321 66 13
-1.0188885 5.3666387 -0.28627759 74 6
-1.0030282 5.288136 1.2426296 64 14
-1.0214295 5.3851514 -0.0956738 60 7
-0.44851398 2.3668985 0.64549482 1 15
-0.33131742 1.7618772 -0.48036817 26 0
-1.012399 5.3888917 0.095708877 67 8
-1.0090508 5.3762398 -1.2628756 78 1
-0.32532078 1.7333148 0.092425331 10 9
-1.0062113 5.3662901 -1.0612799 45 2
-0.3250246 1.7350768 0.15443988 7 10
-1.0101787 5.3978357 -0.86977553 57 3
-0.39291045 2.1015298 0.26250654 53 11
-1.0026836 5.3681483 -0.67052543 63 4
-0.39570123 2.1184976 0.34134009 68 12
-1.0046984 5.384141 -0.47918242 63 5
-0.39289671 2.1075642 0.41672671 66 13
-1.0012474 5.3760524 -0.28659159 76 6
-0.98385113 5.2877727 1.2417296 61 14
-0.99970102 5.3729558 -0.095394559 58 7
-0.43813029 2.3570535 0.64238888 1 15
-0.32411534 1.7573234 -0.47881526 31 0
-0.99452484 5.3922181 0.095708869 71 8
-0.99121559 5.3795567 -1.2628756 81 1
-0.32071424 1.7422968 0.092844017 13 9
-0.9867667 5.3659072 -1.0605165 45 2
-0.31608561 1.7205242 0.1530454 8 10
-0.99227178 5.4011559 -0.86977553 57 3
-0.38522309 2.0989163 0.26201907 46 11
-0.98630726 5.3792543 -0.67150038 65 4
-0.38830331 2.1198661 0.34134009 68 12
-0.9837448 5.3758559 -0.47813654 59 5
-0.38944006 2.1281676 0.42054296 58 13
-0.98269445 5.3754144 -0.28638226 76 6
-0.96665961 5.2929239 1.2421798 59 14
-0.9816556 5.3803473 -0.095464364 58 7
-0.43128616 2.3661709 0.64445955 1 15
-0.31794149 1.7564877 -0.47829765 32 0
-0.97498268 5.3917217 0.095639065 69 8
-0.31356677 1.7375093 0.092530005 19 9
-0.3096717 1.7176414 0.15269677 8 10
-0.37894914 2.1061089 0.26275027 49 11
-0.96682304 5.3787575 -0.67101228 12 4
-0.38229716 2.1289856 0.34259155 68 12
-0.96427107 5.3753347 -0.47778791 59 5
-0.37784958 2.1063247 0.4159635 61 13
-0.96498293 5.3847098 -0.28669629 74 6
-0.94886333 5.3001022 1.2430794 70 14
-0.96251786 5.381773 -0.095429458 60 7
-0.42166543 2.360055 0.64238894 2 15
-0.31285039 1.76525 -0.4803682 35 0
-0.95545936 5.3911543 0.09556926 71 8
-0.8873868 5.0121613 -1.1751447 2 1
-0.30923858 1.7484268 0.093053363 13 9
-0.30787584 1.7442715 0.15496282 7 10
-0.37056053 2.1015546 0.26201907 44 11
-0.37417912 2.1264167 0.34196585 68 12
-0.94688022 5.386518 -0.47848523 57 5
-0.37080553 2.1115625 0.41672695 63 13
-0.9431684 5.3764071 -0.28606826 74 6
-0.9321233 5.3189001 1.2466786 70 14
-0.9447602 5.3910089 -0.095534176 58 7
-0.41009268 2.3424833 0.63721257 2 15
-0.30470324 1.7549111 -0.47726235 41 0
-0.93637538 5.39856 0.09563905 71 8
-0.92623574 5.3456416 -1.2525271 2 1
-0.301429 1.7396559 0.092530005 7 9
-0.9224841 5.3295188 -1.0513577 1 2
-0.3007673 1.7394458 0.15443988 7 10
-0.92866212 5.3763766 -0.86414397 2 3
-0.36353096 2.1068108 0.26250654 44 11
-0.36809692 2.1354964 0.34321731 68 12
-0.92807317 5.3897905 -0.47848523 59 5
-0.3640987 2.1167142 0.41749001 58 13
-0.92439651 5.3796659 -0.28606823 74 6
-0.9109149 5.3067565 1.2430794 70 14
-0.9255991 5.392303 -0.09549927 63 7
-0.40648484 2.3705575 0.64445955 3 15
-0.29889897 1.7578686 -0.47777998 45 0
-0.91008645 5.3523517 0.094766445 63 8
-0.91242087 5.371738 -1.2579266 57 1
-0.30738223 1.8115859 0.096298203 3 9
-0.29535925 1.7444139 0.15478851 7 10
-0.35654196 2.1080048 0.26250654 45 11
-0.35866827 2.1250808 0.34134009 71 12
-0.90925205 5.3929963 -0.47848514 56 5
-0.35968795 2.1333973 0.42054316 61 13
-0.90655041 5.3827024 -0.28606826 74 6
-0.89266658 5.3059044 1.2421798 73 14
-0.90743226 5.3994455 -0.095569082 61 7
-0.40076569 2.3872035 0.64860064 2 15
-0.29243335 1.755039 -0.47674471 46 0
-0.87990749 5.2864561 0.093544789 67 8
-0.89526123 5.3845029 -1.2601756 55 1
-0.35018283 2.1061568 0.11189432 3 9
-0.89294076 5.3763456 -1.0593717 38 2
-0.28696373 1.7296598 0.15339403 8 10
-0.89785802 5.4176517 -0.86977559 79 3
-0.34950611 2.1111946 0.26275027 49 11
-0.3509742 2.1223612 0.3407144 68 12
-0.89006543 5.3881192 -0.47778791 59 5
-0.35223931 2.13464 0.42054296 63 13
-0.88873148 5.3917465 -0.28638229 76 6
-0.87068015 5.2879839 -0.093544617 53 7
-0.38971242 2.3694568 0.64342421 1 15
-0.28599489 1.7541425 -0.4762271 48 0
-0.86044246 5.2775025 0.093335345 67 8
-0.88366407 5.42591 -1.2691736 100 1
-0.35918504 2.2079046 0.11723258 3 9
-0.8710205 5.3600516 -1.0555556 31 2
-0.28188157 1.736551 0.15391697 7 10
-0.8757714 5.3952508 -0.86570823 36 3
-0.34345585 2.118221 0.2634815 43 11
-0.87406296 5.3966188 -0.67125601 8 4
-0.34545594 2.1352735 0.34259158 68 12
-0.87061495 5.38726 -0.47743934 59 5
-0.34296554 2.1222296 0.41787159 74 13
-0.86289048 5.3453698 -0.28376547 78 6
-0.85285074 5.2949386 -0.093614414 63 7
-0.37898466 2.3555441 0.63928312 1 15
-0.2807849 1.7588965 -0.47726235 48 0
-0.84264374 5.2844238 0.093405157 67 8
-0.85828525 5.3885469 -1.2597256 68 1
-0.35555482 2.2347867 0.11859332 4 9
-0.85755819 5.3900542 -1.0608981 46 2
-0.27612174 1.7374762 0.15391697 9 10
-0.85786593 5.4041271 -0.86664683 43 3
-0.3329514 2.0998006 0.26104409 48 11
-0.33800176 2.1364658 0.34259155 71 12
-0.84838468 5.368618 -0.47552186 53 5
-0.33524951 2.1214747 0.41749001 66 13
-0.83208025 5.2714095 -0.27968326 76 6
-0.37027669 2.3484519 0.54888058 1 14
-0.83249736 5.2860322 -0.093404993 58 7
-0.27433676 1.7599138 -0.47726238 48 0
-0.82357752 5.2833805 0.093335338 67 8
-0.83856964 5.3857331 -1.2583759 47 1
-0.34928584 2.245882 0.11911668 4 9
-0.8380996 5.3951015 -1.0612799 37 2
-0.27005762 1.7404453 0.15409127 11 10
-0.83956188 5.4169965 -0.86821127 50 3
-0.3259232 2.1029122 0.26128784 51 11
-0.33084339 2.139585 0.34290442 77 12
-0.81686509 5.2888474 -0.4682008 59 5
-0.32866946 2.13045 0.41901645 46 13
-0.81214678 5.2704754 -0.27947393 76 6
-0.81434333 5.2908812 -0.093439884 58 7
-0.26877311 1.7646804 -0.47829765 48 0
-0.80631143 5.3002033 0.093579687 65 8
-0.81999654 5.3964772 -1.2601756 81 1
-0.34444612 2.2668335 0.12016341 5 9
-0.81631458 5.3785834 -1.0574636 36 2
-0.26457742 1.745317 0.15443988 11 10
-0.81621557 5.3905964 -0.86351812 23 3
-0.32058862 2.1197944 0.26323771 60 11
-0.3230772 2.1387739 0.34259158 68 12
-0.79899681 5.2956061 -0.46854943 57 5
-0.3212302 2.1315844 0.41901645 36 13
-0.79493213 5.2811785 -0.27989262 76 6
-0.79408967 5.281827 -0.093230464 58 7
-0.26765874 1.7824333 0.48295644 1 15
-0.26147428 1.7579646 -0.47622707 52 0
-0.78902358 5.3048258 0.093614578 65 8
-0.80266786 5.4030218 -1.261076 81 1
-0.3324267 2.2403636 0.11869801 7 9
-0.79810911 5.3852849 -1.0582268 45 2
-0.25760871 1.7403175 0.15391697 11 10
-0.78676379 5.3151107 -0.85100341 51 3
-0.3132675 2.1188824 0.26299402 45 11
-0.78325665 5.3042154 -0.65833789 4 4
-0.31388062 2.1281633 0.3407144 53 12
-0.77876318 5.2865367 -0.46750355 59 5
-0.31416029 2.132638 0.41901645 11 13
-0.77741325 5.2837849 -0.27989259 76 6
-0.27369899 1.8624799 0.43460545 0 14
-0.77448475 5.2766528 -0.093090847 55 7
-0.263116 1.7948253 0.48606226 1 15
-0.25564441 1.7588218 -0.47622707 56 0
-0.76820678 5.2917156 0.093335345 67 8
-0.78436071 5.4096484 -1.2619752 81 1
-0.30284992 2.0912852 0.11074292 18 9
-0.76955789 5.3140678 -1.0437254 46 2
-0.25126609 1.737218 0.15356833 10 10
-0.76283818 5.2806778 -0.84505886 15 3
-0.3064357 2.1238925 0.2634815 44 11
-0.30701223 2.1331561 0.34134009 33 12
-0.76009125 5.2812009 -0.46680623 59 5
-0.76010352 5.294374 -0.28031126 78 6
-0.25945076 1.8094118 0.42200819 0 14
-0.7577607 5.2912016 -0.093300276 58 7
-0.25739762 1.7995574 0.48709753 1 15
-0.24896055 1.755878 -0.47519177 60 0
-0.75085062 5.3022842 0.093474962 54 8
-0.75674117 5.3506079 -1.2475783 81 1
-0.32348216 2.2900927 0.12121013 5 9
-0.74386287 5.2661786 -1.0338032 16 2
-0.24575673 1.7420305 0.15391697 7 10
-0.29653096 2.1072576 0.26128784 25 11
-0.74276066 5.2917147 -0.46750352 60 5
-0.25129455 1.7925923 0.35185191 1 13
-0.73995519 5.2851281 -0.27968326 76 6
-0.33625084 2.4047353 0.56057805 1 14
-0.74039364 5.3017354 -0.093439884 60 7
-0.25965342 1.8616717 0.50366199 1 15
-0.24388748 1.7643911 -0.47726235 62 0
-0.72422028 5.2528319 -1.2241833 21 1
-0.24347481 1.7705109 0.15635732 5 10
-0.71278614 5.189981 -0.82972831 1 3
-0.72482598 5.2982235 -0.46785221 59 5
-0.24397218 1.785678 0.35032523 1 13
-0.7209633 5.283721 -0.27947393 74 6
-0.72199947 5.2982178 -0.093335181 56 7
-0.25243589 1.8548656 0.50159138 1 15
-0.23798534 1.7671463 -0.47778001 68 0
-0.23940378 1.7776788 0.031309579 2 8
-0.68004102 5.0562763 -1.1778435 7 1
-0.68254489 5.0883365 -0.99793118 1 2
-0.23808622 1.7772743 0.15688024 1 10
-0.70029128 5.2275586 -0.83535999 1 3
-0.24164331 1.8062226 0.22375211 1 11
-0.23983325 1.7974663 0.28721374 1 12
-0.7068522 5.3046708 -0.4682008 59 5
-0.2401242 1.8020456 0.35337818 1 13
-0.70396316 5.2900419 -0.27968323 74 6
-0.25210106 1.8969847 0.44180387 0 14
-0.70139486 5.2848477 -0.093055949 14 7
-0.23885286 1.8021126 0.48709753 1 15
-0.23036388 1.7545178 -0.47415653 72 0
-0.2337174 1.7824692 0.031379387 6 8
-0.66187984 5.0547543 -1.1769443 7 1
-0.23281121 1.7803787 0.094100088 1 9
-0.66872329 5.1139317 -1.0025107 1 2
-0.22677383 1.7365661 0.1532197 10 10
-0.67488557 5.1751246 -0.8265996 1 3
-0.23174828 1.7794963 0.22033973 2 11
-0.23152167 1.7826214 0.28471082 1 12
-0.68679464 5.2952509 -0.46715492 59 5
-0.236358 1.8223423 0.35719433 1 13
-0.68574846 5.2944484 -0.27978796 60 6
-0.23602036 1.829759 0.49434444 1 15
-0.22490998 1.7630155 -0.47622707 76 0
-0.22319245 1.7495522 0.030786006 10 8
-0.64324749 5.0493021 -1.1751441 5 1
-0.22155359 1.7415546 0.092006646 13 9
-0.64799708 5.1007676 -0.99945766 1 2
-0.22090851 1.7413386 0.15356833 16 10
-0.65492135 5.1697249 -0.82534814 1 3
-0.22703172 1.7921108 0.22180219 2 11
-0.22628842 1.7912577 0.28596228 1 12
-0.66755706 5.2916861 -0.46663198 49 5
-0.22771364 1.8076134 0.35414159 1 13
-0.22977597 1.8291326 0.42560738 0 14
-0.22307269 1.7757711 -0.031239711 1 7
-0.22963224 1.8305715 0.49434441 1 15
-0.21875407 1.76379 -0.47622707 76 0
-0.21333717 1.7225753 0.030297339 46 8
-0.62425923 5.0477571 -1.1742443 7 1
-0.21761727 1.7621769 0.093053363 21 9
-0.63163042 5.1146884 -1.0017473 2 2
-0.21555986 1.7480316 0.15409127 26 10
-0.63880408 5.1876636 -0.82785106 1 3
-0.21852404 1.7771688 0.21985228 2 11
-0.2202028 1.7959963 0.28658801 1 12
-0.22474302 1.8356791 0.35948405 1 13
-0.21704701 1.7805468 -0.031309523 1 7
-0.22292085 1.8314011 0.49434444 1 15
-0.21274985 1.7684158 -0.47726235 76 0
-0.60849351 5.0653844 -1.1778435 2 1
-0.20979924 1.7490445 0.092320658 15 9
-0.61241406 5.113071 -1.0009841 1 2
-0.20962511 1.7527665 0.15443988 20 10
-0.20808181 1.7424411 0.21546498 2 11
-0.22467507 1.886984 0.30097997 1 12
-0.21523659 1.8130957 0.35490486 1 13
-0.21958223 1.8524715 -0.097763546 1 6
-0.21668111 1.8307298 0.42560738 0 14
-0.21106501 1.7832797 -0.031344429 7 7
-0.21380721 1.809146 0.4881328 1 15
-0.20688391 1.7691115 -0.47726232 76 0
-0.58945292 5.0558639 -1.1751447 2 1
-0.20330372 1.7437794 0.092006646 15 9
-0.59772396 5.1345754 -1.0048004 1 2
-0.20450205 1.759389 0.15496282 28 10
-0.20931081 1.8062574 0.2232646 1 11
-0.21024317 1.8170764 0.28971672 1 12
-0.21417181 1.8567066 0.36330044 1 13
-0.20521161 1.7817602 -0.093995355 2 6
-0.21060848 1.8314383 0.42560735 0 14
-0.20824693 1.8136836 0.48916808 1 15
-0.19983611 1.7621448 -0.47519177 76 0
-0.58540142 5.1700997 -1.2012389 5 1
-0.1974411 1.7464628 0.092111312 16 9
-0.59719199 5.2907491 -1.0349482 16 2
-0.19813581 1.7581125 0.15478852 5 10
-0.20243239 1.799051 0.22228965 1 11
-0.19773322 1.7628335 0.28095636 1 12
-0.19890496 1.7760705 -0.15635745 1 5
-0.20408089 1.8222876 0.35643134 1 13
-0.19708206 1.7625819 -0.09294863 19 6
-0.21318284 1.9095951 0.44360349 1 14
-0.20576024 1.8489597 0.49848559 1 15
-0.19399187 1.7627978 -0.47519177 76 0
-0.19240636 1.7511934 0.030751102 100 8
-0.58350134 5.3193331 -1.235431 10 1
-0.19221289 1.755083 0.092530005 6 9
-0.19663697 1.7983713 0.15827474 1 10
-0.19529052 1.7918532 0.22131471 1 11
-0.20141891 1.8510907 -0.2286268 1 4
-0.19925916 1.8342105 0.29221964 1 12
-0.19279855 1.7747396 -0.15618315 9 5
-0.19687144 1.8151815 0.35490486 1 13
-0.19221789 1.7751731 -0.093576662 31 6
-0.20107055 1.859954 0.43190604 0 14
-0.19118911 1.7714411 -0.031100092 100 7
-0.21793099 2.0225327 0.54507303 1 15
-0.188247 1.7673062 -0.47622707 76 0
-0.18629192 1.7518544 0.030751102 100 8
-0.18658422 1.763383 0.15513714 1 10
-0.18717517 1.7719314 -0.28220776 1 3
-0.19111685 1.8122654 0.2237521 1 11
-0.18851429 1.7905827 -0.2210709 3 4
-0.19079006 1.8152494 0.28909099 1 12
-0.1859771 1.7694572 -0.15566021 28 5
-0.19012471 1.8119526 0.35414159 1 13
-0.19903542 1.9032843 0.4418039 0 14
-0.18479635 1.7701089 -0.031065188 82 7
-0.22268628 2.136646 0.57561368 10 15
-0.18207632 1.7679527 -0.47622707 72 0
-0.18056613 1.7623428 0.092844024 2 9
-0.18407634 1.7997005 0.15827474 1 10
-0.18420053 1.8040165 -0.28721368 2 3
-0.18156849 1.7813237 0.21985228 2 11
-0.1788462 1.7576565 -0.21692754 12 4
-0.18325512 1.8041127 0.28721374 1 12
-0.18040383 1.7760423 -0.15618315 22 5
-0.18577875 1.8321377 0.35795781 1 13
-0.17901643 1.7685232 -0.093157969 12 6
-0.21413776 2.1191819 0.49174306 4 14
-0.21135509 2.0989676 0.56526089 24 15
-0.17915381 1.8012575 -0.4850269 32 0
-0.17598587 1.7788626 0.093681388 1 9
-0.17762844 1.7954656 -0.35070699 1 2
-0.17368151 1.7586945 0.15461421 7 10
-0.17518863 1.7771264 -0.28283349 4 3
-0.17962575 1.8254088 0.22521454 1 11
-0.17329229 1.764197 -0.21765856 17 4
-0.17541476 1.7890139 0.28471082 2 12
-0.17342588 1.7687297 -0.15548591 28 5
-0.19353344 1.9773649 0.38619751 1 13
-0.17245401 1.7651618 -0.09294863 4 6
-0.20011935 2.0520325 0.47599643 8 14
-0.17514659 1.7992198 -0.031553853 3 7
-0.19692762 2.0266263 0.54559064 23 15
-0.16844878 1.7655485 0.09294869 13 9
-0.16837782 1.7648046 -0.34460112 2 2
-0.16772987 1.7612734 0.15478851 1 10
-0.17047919 1.7934595 -0.28533646 4 3
-0.17287815 1.8220721 0.22472705 2 11
-0.16694541 1.7628149 -0.21741483 13 4
-0.17288636 1.8289474 0.29096818 1 12
-0.1666878 1.7633735 -0.15496296 3 5
-0.16778904 1.7816607 -0.093786009 1 6
-0.18784809 1.9983931 0.4633992 13 14
-0.16662391 1.7759291 -0.031135 15 7
-0.17976463 1.9195892 0.51660287 19 15
-0.16383423 1.7761885 0.031135054 12 8
-0.16543156 1.7969345 -0.41660929 1 1
-0.16082236 1.7502147 0.092111312 22 9
-0.16544954 1.8005719 -0.35147026 1 2
-0.16412871 1.789625 0.15722908 1 10
-0.16313781 1.7822406 -0.28345925 3 3
-0.16579486 1.8147572 0.22375211 2 11
-0.16006951 1.7554795 -0.21643987 3 4
-0.19085008 2.0970852 0.33351836 4 12
