# .PCD v0.7 - Point Cloud Data file format
VERSION 0.7
FIELDS x y z intensity ring
SIZE 4 4 4 4 2
TYPE F F F F U
COUNT 1 1 1 1 1
WIDTH 1334
HEIGHT 1
VIEWPOINT 0 0 0 1 0 0 0
POINTS 1334
DATA ascii
0.56435084 1.0808812 0.10667857 87 10
0.5650174 1.0821582 -0.193353 73 3
0.55879498 1.0697865 0.14819311 76 11
0.5635789 1.0784855 -0.14941175 66 4
0.56048781 1.0716597 -0.1058071 72 5
0.56019366 1.0706413 -0.063326493 68 6
0.57423824 1.0965526 -0.021606011 80 7
0.81313705 1.5520875 0.4694978 35 15
0.56900388 1.0824169 -0.32766491 90 0
0.56870568 1.0813897 0.021326818 70 8
0.567101 1.0778822 -0.28118882 94 1
0.56187731 1.0675021 0.063221857 74 9
0.56054074 1.064963 -0.23393188 100 2
0.57183331 1.0859565 0.10737582 63 10
0.5717417 1.0853233 -0.19429162 84 3
0.56937957 1.0799247 -0.14989924 66 4
0.56999159 1.0801705 -0.10685298 72 5
0.56224906 1.0650485 -0.063117146 66 6
0.97377431 1.8438067 0.48139524 1 14
0.57264936 1.0838317 -0.021396583 87 7
0.81340355 1.5388495 0.46639201 32 15
0.56753731 1.0700836 -0.32455909 93 0
0.57716179 1.0882308 0.021501338 71 8
0.57542682 1.0845032 -0.2834383 93 1
0.56747323 1.0690625 0.063431203 69 9
0.56444103 1.0629009 -0.23393188 100 2
0.58127809 1.0936863 -0.19616881 84 3
0.57687378 1.0849413 -0.15087418 64 4
0.57001406 1.0711392 -0.10615573 72 5
1.0093241 1.895867 0.41749001 1 13
0.57553804 1.0806086 -0.064163864 68 6
1.0043511 1.8849412 0.49309272 1 14
0.57548797 1.0800618 -0.021361681 82 7
0.84512377 1.5854392 0.48140353 15 15
0.57491326 1.07491 -0.32662964 93 0
0.57831597 1.0808187 0.021396624 66 8
0.58399653 1.0909771 -0.2856878 100 1
0.57556218 1.07477 -0.2369848 100 2
0.58509248 1.0916506 -0.19616883 78 3
0.58178437 1.0845692 -0.15111807 62 4
1.0252789 1.9113363 0.34353015 1 12
0.57280773 1.0673872 -0.10598142 66 5
0.98250437 1.8300617 0.40375173 1 13
0.57741624 1.0750742 -0.063954525 60 6
0.58209449 1.0833308 -0.021466393 78 7
0.90187454 1.6777686 0.51039124 22 15
0.58232999 1.0796982 -0.32870018 90 0
0.57715052 1.0700949 0.0212221 38 8
0.58298457 1.0804592 -0.2834383 93 1
0.57744431 1.0692993 -0.23622155 100 2
0.58870965 1.0897042 -0.19616881 78 3
1.0344627 1.9139982 0.26713759 1 11
0.58821005 1.0878726 -0.15184914 64 4
0.99999034 1.8486718 0.33289263 2 12
0.58316755 1.0776473 -0.10720161 72 5
0.57907605 1.0696408 -0.063745178 57 6
2.490926 4.5991921 1.2075372 1 14
0.58873016 1.0865669 -0.021571107 47 7
0.90404272 1.6678169 0.50832069 9 15
0.5877527 1.0811555 -0.32973549 86 0
0.58861494 1.0818412 -0.28433809 93 1
0.58849603 1.0811735 -0.23927453 100 2
1.0214279 1.8757677 0.1868618 1 10
0.59345448 1.0893774 -0.19648169 73 3
1.0031401 1.8406538 0.25738806 4 11
0.59200418 1.0858124 -0.15184927 64 4
1.0385975 1.904132 0.34353015 1 12
0.59055436 1.0827038 -0.10789884 72 5
2.5033326 4.587626 1.0158674 1 13
0.57993555 1.0623536 -0.063431159 49 6
2.4826791 4.5460014 1.1958398 1 14
0.9126392 1.6697361 0.50987357 5 15
0.59338021 1.0824856 -0.33077076 86 0
0.59613675 1.0866141 -0.2861377 93 1
1.0128565 1.8454305 0.11032422 3 9
0.58659863 1.0687865 -0.23698483 100 2
0.99440646 1.8110654 0.18076091 13 10
0.59915549 1.0907619 -0.19710742 73 3
1.0554487 1.9206471 0.26908749 1 11
0.59292156 1.0785211 -0.15111794 62 4
0.59336984 1.0788902 -0.10772453 64 5
2.5098684 4.5616584 1.0120506 1 13
2.4797308 4.5031676 1.1868417 1 14
1.0121694 1.837329 -0.03661504 2 7
0.91193449 1.6546973 0.50625014 2 15
0.59715551 1.0804075 -0.33077076 86 0
1.0363423 1.8742365 0.037383009 2 8
0.60464221 1.0930531 -0.28838721 100 1
0.59412867 1.0736032 -0.23851131 99 2
1.021953 1.8459309 0.18459575 3 10
0.60774451 1.0973042 -0.19867176 84 3
0.6024574 1.0868618 -0.15258037 54 4
2.5263643 4.5576816 0.82534838 1 12
0.59616572 1.0750701 -0.10755023 21 5
2.5124412 4.5288353 1.0067079 1 13
1.0312341 1.8581004 -0.11137088 2 6
2.4897602 4.484261 1.1841422 2 14
0.97360468 1.753541 -0.035009421 2 7
2.4727113 4.4517226 1.3644941 2 15
0.59810156 1.0732541 -0.32921785 84 0
1.0006938 1.795679 0.035882108 15 8
0.60921288 1.0927438 -0.28883711 93 1
1.0516616 1.8855898 0.11315039 2 9
0.59787226 1.0715228 -0.23851128 100 2
1.0565519 1.8928041 0.18965077 1 10
0.60656607 1.0866585 -0.19710742 69 3
2.5492933 4.565167 0.64200765 1 11
2.5345473 4.5350409 0.82284546 1 12
2.5274446 4.5204797 1.0067079 1 13
2.4874878 4.4453697 1.1760441 1 14
0.99730134 1.7815403 -0.035637707 5 7
2.471246 4.4127245 1.3551767 2 15
0.60544169 1.078002 -0.33128837 84 0
1.0598496 1.8863162 0.03776696 2 8
0.61015916 1.0855142 -0.28748742 90 1
0.6052717 1.0763793 -0.24003778 91 2
2.557416 4.5461044 0.45634717 1 10
2.549633 4.5285635 0.63810778 1 11
1.05407 1.8714379 -0.26372537 1 4
2.5600607 4.5433755 0.82597417 1 12
2.5181441 4.4671626 0.99678653 1 13
1.043857 1.8510382 -0.11137087 1 6
2.4991603 4.4298701 1.1742445 2 14
0.98877162 1.7519256 -0.035114136 11 7
2.4723835 4.378839 1.347412 2 15
0.60938847 1.0757759 -0.33128837 81 0
0.61778766 1.0901595 -0.289287 90 1
0.60727537 1.0707382 -0.23927453 43 2
2.6035609 4.5886855 0.46157652 1 10
2.5654237 4.5196371 0.63810784 1 11
1.0429527 1.8366758 -0.25933784 1 4
2.5505369 4.4897542 0.81783962 1 12
1.0621965 1.8690448 -0.18808216 1 5
2.5267365 4.4442501 0.99373299 1 13
1.0565603 1.8576159 -0.11199892 2 6
2.503814 4.4003553 1.1688455 1 14
2.485744 4.3668246 1.346377 2 15
0.61888778 1.0837078 -0.33439422 84 0
1.1576389 2.0262702 0.04073387 1 8
0.66432732 1.1623311 -0.30908272 52 1
2.5780108 4.5069346 0.45425546 1 10
1.0439039 1.8242348 -0.33289254 1 3
2.5721107 4.4929748 0.63567036 1 11
1.0477041 1.8293958 -0.25885037 1 4
2.5504835 4.4533982 0.81283361 1 12
1.0726764 1.8722407 -0.1887794 1 5
2.5246632 4.4047427 0.98686379 1 13
2.5075243 4.3713036 1.1634467 1 14
2.4865491 4.3329873 1.3386123 2 15
0.61977559 1.0765179 -0.33284131 78 0
1.1543751 2.00509 0.040384822 2 8
0.72847903 1.26482 -0.3369768 33 1
1.0706401 1.8573968 -0.41672686 1 2
2.5857666 4.4840999 0.45286095 1 10
1.0578417 1.8344531 -0.33539546 2 3
2.5711215 4.4569101 0.63177055 1 11
1.1133001 1.9290699 -0.27347496 1 4
2.5660143 4.4444675 0.81283361 1 12
1.0732249 1.8581337 -0.18773353 1 5
2.533361 4.386147 0.98457462 1 13
1.0911626 1.8884265 -0.11430168 1 6
2.5083523 4.3393455 1.1571481 2 14
0.97703171 1.6895423 -0.034066994 100 7
2.4958534 4.3142481 1.3355063 1 15
1.15133 1.9837527 0.040035773 5 8
1.1626556 2.0016589 0.12131478 2 9
1.0728494 1.8470463 -0.41520047 1 2
2.5886106 4.4548273 0.45076919 1 10
1.0721802 1.8444121 -0.33789846 1 3
2.5706973 4.4204521 0.62787074 1 11
1.0820941 1.8599699 -0.26421288 1 4
2.5656135 4.4081674 0.80782771 1 12
1.0736902 1.8440455 -0.18668769 13 5
2.5387788 4.3603115 0.98075789 1 13
1.1399692 1.957091 -0.11869792 1 6
2.5156338 4.3170938 1.153549 1 14
0.99299306 1.703398 -0.034416039 100 7
2.4953284 4.2788081 1.3272243 2 15
1.1511776 1.9676403 0.039791439 7 8
1.0936326 1.8685322 -0.49984121 1 1
1.1595445 1.9803528 0.12026808 2 9
1.0776267 1.8397139 -0.41443723 2 2
2.5948474 4.4281201 0.44902608 1 10
2.5981607 4.4320006 0.63079566 1 11
2.751574 4.6918249 -0.6678437 2 4
2.5569954 4.3582931 0.80031884 1 12
1.0871805 1.8523136 -0.18790784 19 5
2.530885 4.3103456 0.9715991 1 13
1.1086942 1.8874586 -0.11472037 1 6
2.5235419 4.2944026 1.1499497 2 14
1.0019728 1.7050934 -0.034520756 100 7
2.4984989 4.2500877 1.3210126 2 15
1.1563498 1.9599626 0.039721627 3 8
1.1238116 1.904053 0.11587185 1 9
1.0900313 1.8460838 -0.41672686 1 2
2.6102896 4.4190345 0.44902664 1 10
2.6359956 4.4607816 -0.82065505 7 3
2.5719578 4.3506789 0.62055868 1 11
2.7323771 4.6201954 -0.65906978 2 4
2.5641501 4.3357377 0.79781592 1 12
1.0936393 1.8485074 -0.18790783 17 5
2.5479157 4.3048635 0.97236288 1 13
1.084749 1.8320192 -0.11158024 2 6
2.5285845 4.2688017 1.1454507 2 14
1.0099566 1.7050269 -0.034590568 100 7
2.4955909 4.2114253 1.311695 1 15
1.1270783 1.8959559 0.038499959 1 8
1.0977738 1.8451914 0.11252235 3 9
1.1185586 1.8793836 -0.42512253 1 2
2.5910401 4.3516927 0.4430995 1 10
2.7427368 4.6064696 -0.84912616 1 3
2.5782452 4.3284812 0.61860865 1 11
2.7293897 4.5804167 -0.65468192 2 4
2.5671299 4.3064013 0.79406148 1 12
1.1062084 1.8549461 -0.18895373 10 5
2.5581567 4.2896447 0.97083586 1 13
1.1337955 1.9004509 -0.11597645 9 6
2.5327404 4.2436585 1.1409518 2 14
1.0097518 1.6911887 -0.034381133 100 7
2.5132496 4.2076635 1.313248 2 15
1.1213564 1.8714259 0.038081102 3 8
1.1329682 1.8893093 0.11545316 1 9
1.0944951 1.8251518 -0.413674 1 2
2.6054578 4.3430762 0.4430995 1 10
2.7648997 4.6070304 -0.85100347 1 3
2.6158173 4.3568978 0.62397093 1 11
2.7371857 4.5572457 -0.65273249 2 4
2.5719717 4.2804823 0.79093289 1 12
1.184184 1.9708143 -0.20115551 29 5
2.5670457 4.2705941 0.96854621 1 13
1.144539 1.9033285 -0.11639515 1 6
2.537492 4.2180939 1.1364527 1 14
1.0135863 1.6842273 -0.034311324 100 7
2.510982 4.1707287 1.304448 2 15
2.6318951 4.3595033 -1.3644941 2 0
1.1547616 1.9120049 0.038988627 2 8
2.6644757 4.4082489 0.26994896 1 9
1.0988283 1.8179594 -0.41291073 1 2
2.597923 4.2964454 0.43926466 1 10
2.7748289 4.5872092 -0.84912616 1 3
2.5899019 4.2798057 0.61422139 1 11
2.7263494 4.503511 -0.64639467 2 4
2.5868971 4.2714782 0.79093283 1 12
1.1972487 1.9768947 -0.20220141 15 5
2.5554874 4.2179494 0.95862466 1 13
1.1511765 1.8993213 -0.11639515 2 6
2.521889 4.1592207 1.1229557 1 14
1.0267192 1.692647 -0.034555655 100 7
2.5155044 4.145422 1.2992716 2 15
2.6029122 4.2776737 -1.3417178 4 0
1.1843029 1.9455413 0.039756533 5 8
2.6195781 4.2999926 0.26387796 1 9
2.7864101 4.5738444 -1.0410539 1 2
2.6108294 4.2839489 0.43891606 1 10
2.7599764 4.526897 -0.8397401 1 3
2.5965545 4.2571821 0.61227143 1 11
2.7399838 4.4905782 -0.64590722 2 4
2.5915005 4.2455616 0.78780413 1 12
2.5681479 4.2056527 0.95786089 1 13
1.1682107 1.9123354 -0.11744185 3 6
2.5363927 4.1503911 1.1229557 2 14
1.0190614 1.6668736 -0.034101896 100 7
2.5279422 4.1333213 1.2982364 1 15
2.6218665 4.2751498 -1.3437884 4 0
1.1858587 1.9328727 0.039582007 7 8
2.6283009 4.2806115 0.26324996 1 9
2.7735956 4.5172458 -1.0303688 1 2
2.6132557 4.2544365 0.43682435 1 10
2.7654209 4.5004034 -0.83661133 1 3
2.5885282 4.2108879 0.60690922 1 11
2.7556441 4.4809856 -0.64590722 2 4
2.5959551 4.2196631 0.78467536 1 12
2.7007873 4.3900657 -0.45094395 1 5
2.5828121 4.1966624 0.95786136 1 13
1.2146704 1.9728745 -0.12141939 2 6
2.5447333 4.131556 1.1202561 2 14
1.0259222 1.6650088 -0.034136798 100 7
2.5241098 4.0948696 1.2889191 2 15
2.6327124 4.2593985 -1.341718 4 0
2.6298745 4.2514882 0.26199389 1 9
2.7686856 4.4741473 -1.0227364 1 2
2.6259897 4.2419019 0.43647566 1 10
2.7727919 4.4772887 -0.83410853 1 3
2.6011214 4.198451 0.60642177 1 11
2.7474871 4.4346986 -0.64054501 2 4
2.5932813 4.1841693 0.77966958 1 12
2.7034955 4.360292 -0.44885221 1 5
2.5850284 4.1676006 0.9532814 1 13
2.7105751 4.3683062 -0.26942542 2 6
2.5440352 4.0999131 1.1139575 2 14
1.0293293 1.6581994 -0.034066994 100 7
2.531559 4.0766306 1.2858131 3 15
2.6406972 4.2408042 -1.3386122 4 0
1.2159041 1.9519137 0.040140484 5 8
2.6312823 4.2224035 0.26073781 1 9
2.7710454 4.4449477 -1.018157 1 2
2.6316085 4.219645 0.43508175 1 10
2.779258 4.4546623 -0.83160561 1 3
2.6087241 4.1796985 0.60495937 1 11
2.7411573 4.3918829 -0.63567024 2 4
2.6071427 4.1755462 0.77966958 1 12
2.7010505 4.3242669 -0.44606325 1 5
2.5717869 4.1157169 0.94335943 1 13
2.7038713 4.3254218 -0.26733196 2 6
2.5679457 4.1079798 1.1184566 1 14
1.0327015 1.6513861 -0.033997182 100 7
2.5225244 4.0321813 1.274425 2 15
2.6547444 4.2320251 -1.3386122 4 0
1.2149293 1.9360145 0.039896153 9 8
2.8276095 4.5041022 -1.2277826 2 1
2.6367755 4.2001214 0.25990045 1 9
2.7878575 4.4390597 -1.0189202 1 2
2.641346 4.2041478 0.43438396 1 10
2.7792995 4.4220061 -0.82722539 1 3
2.6098905 4.1508589 0.60203445 1 11
2.7197797 4.3256316 -0.62738371 2 4
2.5810077 4.1033378 0.76778048 1 12
2.7132545 4.3119121 -0.44571456 1 5
2.5728683 4.0872278 0.93878049 1 13
2.7203279 4.3198113 -0.26754129 2 6
2.5524764 4.0532694 1.1058592 2 14
1.0413703 1.653028 -0.034101896 100 7
2.5317609 4.0172572 1.2723545 2 15
2.666697 4.219933 -1.3375767 4 0
1.222412 1.9336648 0.039931055 13 8
2.8175306 4.455173 -1.2169849 2 1
2.6293378 4.1575947 0.25780702 1 9
2.7836697 4.3999267 -1.0120511 1 2
2.6254396 4.1482253 0.4295032 1 10
2.7664728 4.3693728 -0.81909078 1 3
2.6193933 4.1354723 0.60105956 1 11
2.7553554 4.3501277 -0.63225788 2 4
2.5861435 4.0814066 0.76527756 1 12
2.7211373 4.2927952 -0.44466874 1 5
2.569587 4.052145 0.93267459 1 13
2.7025423 4.2601714 -0.26440117 2 6
2.5554659 4.0283265 1.1013603 2 14
1.0489887 1.6529429 -0.034171708 100 7
1.0685565 1.6831255 0.53420258 1 15
2.6828811 4.2096624 -1.3375767 4 0
1.2330521 1.934016 0.040035773 11 8
2.8094678 4.4048891 -1.2061874 2 1
2.6417077 4.1402726 0.25738832 1 9
2.770972 4.3428655 -1.0013657 1 2
2.6542113 4.1582685 0.43159497 1 10
2.753463 4.3120999 -0.81033039 1 3
2.6160164 4.0952721 0.59667224 1 11
2.7343109 4.2788162 -0.6234833 2 4
2.5961232 4.0610061 0.76340044 1 12
2.7161384 4.2487407 -0.44118252 1 5
2.5893569 4.0488648 0.934201 1 13
2.6973522 4.2161155 -0.26230773 2 6
2.55691 3.9950564 1.0950617 2 14
1.0577724 1.6520864 -0.034241516 100 7
1.0586319 1.6527947 0.52592039 2 15
2.6871216 4.1840167 -1.3324007 4 0
1.2279063 1.911193 0.039651815 7 8
2.8037529 4.3622689 -1.1971892 2 1
2.6453433 4.1142259 0.25634161 1 9
2.7521391 4.2803221 -0.98915398 1 2
2.6277535 4.0853014 0.4249711 1 10
2.7941518 4.3423309 -0.81783932 1 3
2.6302943 4.0861163 0.59667224 1 11
2.7363341 4.249217 -0.62055844 2 4
2.6081429 4.0485978 0.76277459 1 12
2.7201619 4.2224846 -0.43943936 1 5
2.5907118 4.0200005 0.92962116 1 13
2.7250409 4.2268171 -0.26356381 2 6
2.5750666 3.9926572 1.0968614 2 14
1.059196 1.641663 -0.034101896 100 7
2.6933143 4.1616354 -1.3282593 4 0
2.804131 4.3295569 -1.1908907 2 1
2.6444848 4.0814991 0.2548762 1 9
2.7649291 4.2673926 -0.98839062 1 2
2.6333277 4.0627294 0.42357665 1 10
2.7749012 4.2795138 -0.80782747 1 3
2.6402214 4.0702477 0.59569728 1 11
2.6050487 4.0129595 0.75776863 1 12
2.7283747 4.2029376 -0.43839353 1 5
2.6025915 4.007638 0.92885792 1 13
2.7180164 4.1837831 -0.26147038 2 6
2.6080992 4.0130572 1.1049596 1 14
1.0638306 1.6362789 -0.034066994 100 7
1.0543454 1.6210722 0.51815581 35 15
2.7078238 4.1522093 -1.3282593 4 0
1.2302926 1.8858259 0.039302766 14 8
2.8043172 4.2968946 -1.184592 2 1
2.6827364 4.1090364 0.25717899 1 9
2.7669282 4.2379899 -0.98381138 1 2
2.6453149 4.0501757 0.423228 1 10
2.7638917 4.2301126 -0.80031866 1 3
2.6305182 4.0244517 0.59033501 1 11
2.7507229 4.2067499 -0.61714661 2 4
2.6298556 4.0203729 0.7608974 1 12
2.7124918 4.1467018 -0.43351284 1 5
2.6251638 4.0116715 0.93191081 1 13
2.7172899 4.1508732 -0.26000494 2 6
2.6306334 4.0169697 1.1085587 1 14
1.0662479 1.6275376 -0.03396228 100 7
1.0568211 1.6125343 0.51660287 21 15
2.7201786 4.139504 -1.3272241 4 0
1.2599363 1.9166105 0.040035773 12 8
2.8064494 4.2675414 -1.1791931 2 1
2.6399815 4.0128822 0.25173604 1 9
2.7795458 4.2250257 -0.98304808 1 2
2.6353412 4.004302 0.41939318 1 10
2.7721224 4.2105403 -0.79844141 1 3
2.6292632 3.9920368 0.58692271 2 11
2.7544703 4.1805458 -0.61470872 2 4
2.643872 4.0111685 0.76089734 1 12
2.729142 4.1405363 -0.43386146 1 5
2.6521196 4.0221524 0.93649024 1 13
2.7317636 4.1413627 -0.26000494 2 6
1.0818977 1.6395396 0.45350131 1 14
1.0818373 1.6388259 -0.034276422 100 7
2.7580743 4.1654201 -1.3386121 2 0
1.2710354 1.9188694 0.040175386 18 8
2.8363996 4.2804608 -1.1854918 2 1
2.647351 3.9936547 0.25110799 1 9
2.7921064 4.2120252 -0.98228484 1 2
2.6470995 3.9917583 0.41904458 3 10
2.7737002 4.1810842 -0.79468697 1 3
2.6607459 4.0092974 0.59082252 2 11
2.7690451 4.1709065 -0.61470872 2 4
2.6709733 4.0216608 0.76465178 1 12
2.7325568 4.1143866 -0.43211836 1 5
2.6617985 4.0063291 0.93496382 1 13
2.7218802 4.0952091 -0.25770217 2 6
1.0930097 1.6438669 0.45575088 5 14
1.0853367 1.6317091 -0.034206614 100 7
2.6754832 4.020834 1.2940954 3 15
1.2755052 1.9110947 0.040105578 15 8
2.8166957 4.2186723 -1.1710949 2 1
2.6505997 3.9699037 0.25016594 11 9
2.8024318 4.1957226 -0.98075837 1 2
2.6610167 3.9824946 0.41904458 1 10
2.7707129 4.1451006 -0.78968108 1 3
2.681344 4.0098867 0.59228492 1 11
2.7637196 4.131516 -0.6103214 2 4
2.7040639 4.042336 0.77028346 1 12
2.7557654 4.1180701 -0.43351278 1 5
2.6845031 4.0100651 0.93801683 1 13
2.8161769 4.2051659 -0.26523852 2 6
1.0829511 1.6164715 -0.03396228 100 7
2.6931038 4.0183597 1.2961661 2 15
1.3191792 1.9624053 -0.63358903 1 0
1.2874144 1.9151521 0.040280107 18 8
2.8045702 4.1704988 -1.1602973 2 1
2.7863696 4.1403084 -0.97007304 1 2
2.6838021 3.9864032 0.420439 1 10
2.7866492 4.1391683 -0.79030693 1 3
2.6946278 4.0009718 0.59228486 1 11
2.7485666 4.0795236 -0.60398471 2 4
2.6960759 4.0001125 0.76402611 1 12
1.3176748 1.9542689 -0.20621055 1 5
2.7285187 4.0467191 0.94870204 1 13
1.0856431 1.6089276 0.4481025 33 14
1.0885868 1.6126815 -0.03396228 100 7
2.7114391 4.0153375 1.2982364 2 15
1.3278453 1.9612198 -0.6346243 2 0
1.2851198 1.8974011 0.040000863 20 8
2.8540909 4.2123084 -1.1746942 2 1
2.7645371 4.0786037 0.25822571 1 9
2.8000834 4.1310468 -0.9700731 1 2
2.7059534 3.9906738 0.42183352 1 10
2.7899923 4.1130667 -0.78717816 1 3
2.7464764 4.04739 0.60057205 1 11
2.7672496 4.0764747 -0.60495973 2 4
2.7277792 4.0168228 0.76903194 3 12
1.3196704 1.9432957 -0.2055133 2 5
1.1363266 1.6726809 0.39306644 1 13
1.3224531 1.9459317 -0.12330349 1 6
1.0945399 1.6099627 0.44945222 8 14
1.0908363 1.6039114 -0.033857569 100 7
2.7319582 4.0154324 1.3013424 2 15
1.3368602 1.9597651 -0.63565958 1 0
1.2894813 1.8895998 0.039931051 16 8
2.8182371 4.128284 -1.1539986 2 1
2.726943 3.9930592 0.25341076 1 9
2.7967703 4.0953078 -0.9639672 1 2
2.7221155 3.9844933 0.42218211 1 10
2.7954171 4.0902548 -0.78467518 1 3
2.7292147 3.9918969 0.59374738 2 11
2.7635329 4.0405746 -0.60105944 2 4
2.7440164 4.0105367 0.76965773 1 12
1.122197 1.6395428 0.38619751 1 13
1.3123125 1.9165839 -0.1217334 15 6
1.0975574 1.6017441 -0.033892471 90 7
2.7896497 4.0696077 1.3220478 0 15
1.3502586 1.9646388 -0.63876545 2 0
1.3005997 1.8916795 0.040070675 19 8
2.8171687 4.095943 -1.1477001 2 1
2.7446978 3.9905763 0.25382948 2 9
2.7887936 4.0531716 -0.95633483 1 2
2.7585974 4.0077925 0.42566836 1 10
2.7962334 4.0609493 -0.78092074 1 3
2.752142 3.9954221 0.59569722 2 11
2.7776215 4.0309024 -0.60105938 2 4
2.8133447 4.0827441 0.78530121 1 12
1.323028 1.9192721 -0.20394453 37 5
1.1312577 1.6404644 0.38734221 9 13
1.3382753 1.9399393 -0.12351283 3 6
2.8269193 4.0963244 1.1490499 1 14
1.1153572 1.6161993 -0.034276422 86 7
2.8634934 4.1477733 1.3505177 7 15
1.3571079 1.9599138 -0.63876545 2 0
1.3228037 1.9103724 0.04055934 22 8
2.8262966 4.0801716 -1.1459005 2 1
2.7699878 3.9973872 0.2548762 1 9
2.7939751 4.0305042 -0.95328176 1 2
2.7725716 3.9981382 0.42566836 1 10
2.7759135 4.0029573 -0.77153474 1 3
2.7993224 4.0352054 0.60300946 1 11
2.7796521 4.005362 -0.5986225 2 4
2.8050454 4.0404472 0.77904379 1 12
1.3342662 1.9211875 -0.20464176 10 5
2.7987986 4.0284467 -0.25707415 2 6
2.8794129 4.1429353 1.1647965 5 14
1.1118599 1.5991608 -0.033997182 65 7
2.8856773 4.1488543 1.3541414 6 15
1.354759 1.942726 -0.6346243 2 0
2.8449838 4.0766726 -1.1477001 2 1
2.8045011 4.0171733 0.25676027 1 9
2.8005819 4.011559 -0.95099211 1 2
2.7949424 4.0019894 0.42706287 1 10
2.7966585 4.0029583 -0.77341193 1 3
2.8088393 4.0189028 0.60203445 2 11
2.7936175 3.9956341 -0.5986225 2 4
2.8530986 4.0791917 0.78842986 1 12
1.1468987 1.6391605 0.38886884 44 13
2.8128443 4.0186515 -0.25707412 2 6
2.8949757 4.1344547 1.1652464 14 14
1.1059617 1.5788925 -0.033648137 33 7
2.9079015 4.1498308 1.3577648 3 15
1.3618717 1.9377466 -0.6346243 2 0
1.2912656 1.8372841 0.039198056 1 8
2.8479879 4.0507755 -1.143201 2 1
2.8139117 4.000824 0.25634158 2 9
2.8130095 3.9980543 -0.95022893 1 2
2.827939 4.0177875 0.42985189 1 10
2.8226831 4.0088334 -0.77654064 1 3
2.8434227 4.0382881 0.60642171 1 11
1.1765114 1.6696676 0.32350656 1 12
2.8250034 4.0076694 -0.42898068 1 5
1.1268779 1.5980427 0.38009143 4 13
2.8436716 4.0311646 -0.25853956 2 6
2.9292104 4.1508851 1.172895 15 14
1.1103139 1.5733883 -0.033613235 9 7
2.9301693 4.1507025 1.3613884 3 15
1.3619281 1.9235218 -0.63151848 1 0
1.2332643 1.7411572 0.037243389 1 8
2.8357768 4.0021477 -1.132404 2 1
2.8463361 4.0170503 0.25801632 1 9
2.8314869 3.9946196 -0.9517554 1 2
2.8511672 4.0208926 0.43124631 1 10
2.8389459 4.0021772 -0.77716631 1 3
2.8352277 3.9954615 -0.6015473 2 4
1.1708982 1.6494423 0.32037786 2 12
2.8458984 4.0075297 -0.43002656 1 5
2.9470956 4.1485004 0.9891535 8 13
2.8484714 4.0081892 -0.25770217 2 6
2.9565065 4.1602092 1.1782937 16 14
1.1273863 1.5858006 -0.03396228 6 7
2.9479983 4.1451726 1.3629413 3 15
1.3750292 1.9284323 -0.6346243 1 0
1.2088392 1.6947305 0.036335863 4 8
2.8309212 3.9673417 -1.1252055 2 1
2.8619609 4.0108418 0.25822571 1 9
2.8492815 3.9915986 -0.95328188 1 2
2.8636835 4.0088153 -0.78029501 1 3
2.9558005 4.1362414 0.62421477 7 11
2.85308 3.9924982 -0.60252178 2 4
1.156832 1.618232 0.3150591 19 12
2.8893063 4.040206 -0.43455866 1 5
2.9711163 4.1530762 0.9925881 11 13
2.8710451 4.0117149 -0.25853956 2 6
2.9759557 4.1583066 1.1805431 18 14
2.9696012 4.146369 1.3665648 3 15
1.3881769 1.9332777 -0.63773024 2 0
1.2132863 1.6890883 0.036300961 6 8
2.8804507 4.008574 -1.1396023 2 1
2.8716695 3.9948826 -0.95633495 1 2
2.971992 4.1329193 0.44536561 7 10
2.9069533 4.0409899 -0.78842962 1 3
2.9880526 4.1521945 0.6281144 11 11
2.8878758 4.0115118 -0.60690957 2 4
1.1497748 1.5965515 0.31161752 21 12
2.8964033 4.0203967 -0.43351278 1 5
2.9940541 4.1559429 0.99564099 11 13
2.8866694 4.0054121 -0.25874889 2 6
2.993871 4.1526356 1.1818929 19 14
2.9919698 4.1469436 1.3701884 4 15
1.3748684 1.9000047 -0.6284126 2 0
1.2203468 1.686463 0.036335863 10 8
2.903568 4.0111232 -1.143201 2 1
2.9800911 4.1153231 0.26628539 6 9
2.9047208 4.009768 -0.96244067 1 2
2.9859495 4.1203852 0.44519123 10 10
2.9287026 4.0399046 -0.79030693 1 3
2.9088531 4.0110502 -0.6083715 2 4
1.1692611 1.6117154 0.31537199 19 12
2.908078 4.0070376 -0.43316415 1 5
3.0207996 4.1608291 0.99945718 11 13
2.9060242 4.0012693 -0.25916758 2 6
3.0182352 4.1542463 1.185492 18 14
1.1471819 1.5789611 -0.034066994 58 7
3.0132413 4.1458511 1.3732941 3 15
1.381493 1.8951937 -0.62841266 2 0
1.224164 1.6787472 0.036266055 36 8
2.9182494 4.0004554 -1.1432011 2 1
3.0120933 4.1291003 0.26785553 12 9
2.9071279 3.9837444 -0.95862448 1 2
3.012063 4.1260285 0.44693437 12 10
2.9357955 4.0200853 -0.78842968 1 3
1.2155069 1.6638238 0.25300074 1 11
2.9469609 4.0324144 -0.6132468 2 4
3.0409346 4.1610022 0.81627518 12 12
2.9314532 4.0097303 -0.43455866 1 5
3.0376239 4.1534276 1.0002204 11 13
2.9482782 4.0297856 -0.26167968 2 6
3.0442266 4.1594124 1.1899911 16 14
3.0265543 4.1337471 1.3727763 2 15
1.3972461 1.902818 -0.63255382 2 0
1.2238052 1.6666201 0.036091529 28 8
2.9614961 4.0315881 -1.1548984 2 1
3.0300374 4.1233883 0.26816952 13 9
2.9396203 3.9988828 -0.9647305 1 2
3.0417905 4.1363559 0.44920096 14 10
2.9701767 4.0389724 -0.7940613 1 3
1.1916093 1.6198084 0.24690723 5 11
2.967376 4.0322142 -0.61470872 2 4
3.0683222 4.1678605 0.81971675 12 12
2.9808779 4.0476007 -0.43978801 1 5
3.0583651 4.1528172 1.0025108 11 13
3.0672534 4.1618428 1.1935903 16 14
1.1486839 1.5580375 -0.033787757 4 7
3.0661912 4.1573629 1.3841645 1 15
1.3966575 1.8888537 -0.62944794 2 0
1.2415076 1.6784145 0.036440577 18 8
2.9709151 4.0149593 -1.1530988 2 1
3.0484478 4.1197391 0.26858822 11 9
2.9528642 3.9891131 -0.9647305 1 2
3.064976 4.1390572 0.45059493 14 10
2.9795547 4.0222292 -0.79280972 1 3
2.9814322 4.021832 -0.61470872 2 4
3.0903606 4.1687717 0.82190686 13 12
3.0915589 4.1673431 1.0086167 11 13
3.0625267 4.1267071 -0.26932076 11 6
3.0887327 4.1604981 1.1962897 16 14
1.1586126 1.5606418 -0.033927374 3 7
3.0868723 4.1564765 1.3872701 0 15
1.4078586 1.8901637 -0.63151848 2 0
1.2578177 1.6887217 0.036754724 7 8
2.9911983 4.0144625 -1.1557982 2 1
3.0735495 4.123487 0.26953027 13 9
2.9714665 3.9850762 -0.96625692 1 2
3.1020398 4.1586757 0.45390683 8 10
3.0070493 4.0313287 -0.79656428 1 3
1.2073555 1.6180246 0.24788223 41 11
3.1119862 4.1674557 0.82378417 12 12
3.0906317 4.1373558 -0.45181549 6 5
3.1218076 4.17909 1.0139593 10 13
3.091738 4.1373262 -0.27068147 15 6
3.1083457 4.1580377 1.1985391 18 14
1.1712376 1.5661973 -0.034136802 4 7
3.1407075 4.1982713 1.4048699 0 15
1.4071637 1.8762122 -0.62841266 2 0
1.2493037 1.6651257 0.036335863 20 8
3.0168903 4.0195827 -1.1602973 2 1
3.1027937 4.134037 0.27089098 11 9
3.0247426 4.0285807 -0.97923189 1 2
1.2034547 1.6011053 0.24593231 5 11
3.1041806 4.1283727 -0.63420779 8 4
3.1400359 4.1760578 0.82753843 13 12
3.1151152 4.1414137 -0.45338431 11 5
3.1470015 4.1822863 1.0173934 10 13
3.116972 4.1408691 -0.27162352 15 6
3.140424 4.1705141 1.2052878 16 14
1.1668022 1.5495248 -0.033857565 4 7
3.1429875 4.1724029 1.3996934 0 15
1.4230211 1.8836199 -0.63255382 2 0
1.2825427 1.697672 0.037138678 28 8
3.0443017 4.0282135 -1.1656961 2 1
3.1292512 4.1391125 0.27193773 12 9
3.1287906 4.137002 -1.0082349 1 2
1.2393671 1.6381443 0.17971505 1 10
3.1309566 4.1383691 -0.82190663 8 3
3.1518755 4.1645036 0.64127642 10 11
3.1322317 4.1370487 -0.63713264 14 4
3.1677101 4.1823955 0.83098006 15 12
3.134366 4.1368666 -0.45408154 11 5
3.1572971 4.1671314 1.0162483 8 13
3.1415436 4.1448369 -0.27256557 15 6
3.1695416 4.1802645 1.2111363 19 14
1.2314187 1.6235108 -0.035567895 1 7
3.173882 4.182951 1.4069403 0 15
1.4228938 1.8691689 -0.62944788 2 0
1.2829931 1.6847808 0.036964148 8 8
3.1584365 4.1445413 0.27308911 12 9
3.1356013 4.1145768 -1.0055635 5 2
1.216374 1.5955626 0.17553157 12 10
3.1564076 4.1388817 -0.82440954 10 3
3.1666374 4.1507931 0.6410327 10 11
3.1565254 4.1360364 -0.63883883 14 4
3.1897409 4.1780515 0.83254445 13 12
3.161597 4.1411872 -0.4558247 11 5
3.191148 4.1783829 1.0219727 10 13
3.1647122 4.1422653 -0.27319363 15 6
3.1926703 4.1773524 1.2138358 16 14
1.2692218 1.6600741 -0.036475416 2 7
3.2110469 4.1983542 1.416258 0 15
1.4223566 1.8549927 -0.62634212 1 0
3.1781466 4.14184 -1.2052876 2 1
3.1789644 4.1414132 0.27361247 12 9
3.1750479 4.1363111 -1.0135775 8 2
3.1852775 4.1466365 -0.82816404 11 3
3.193202 4.1554556 0.64347005 10 11
3.1721494 4.1265683 -0.63908309 14 4
3.2235732 4.1919451 0.83755028 13 12
3.1881797 4.1459193 -0.45756778 11 5
3.2105033 4.1734414 1.0234991 10 13
3.1828034 4.1359434 -0.27350762 15 6
3.2167437 4.1785355 1.2174351 19 14
1.2798896 1.6619705 -0.036615036 2 7
3.2233214 4.184062 1.4152228 0 15
1.4382701 1.8622473 -0.63048315 1 0
3.2092674 4.1523075 -1.2115861 2 1
3.2012315 4.1419106 0.27434522 5 9
3.1834643 4.1174369 -1.0116695 9 2
1.2335776 1.5949123 0.17640312 25 10
3.2106109 4.1495543 -0.83097988 11 3
3.2283442 4.1709695 0.64761358 11 11
3.2023354 4.1358743 -0.64225173 14 4
3.2398746 4.1843572 0.83817607 13 12
3.2123919 4.147367 -0.45896229 9 5
3.2406826 4.182384 1.0284607 10 13
3.2094579 4.1405931 -0.27455434 15 6
3.2420568 4.1811419 1.2214842 18 14
1.2682389 1.6355938 -0.036126375 2 7
3.2253387 4.1580834 1.4100462 0 15
1.4376453 1.8480664 -0.62737739 2 0
3.2427058 4.1684384 0.092183486 7 8
3.2301993 4.1508713 -1.2142856 2 1
1.2919111 1.6595342 0.11021957 1 9
3.2062621 4.1171408 -1.0143408 9 2
3.2337558 4.1509542 0.46035632 10 10
3.2449908 4.1653762 -0.83629858 11 3
3.2506983 4.1712012 0.64931971 11 11
3.2282386 4.1408868 -0.64468908 14 4
3.2617486 4.1823688 0.8400532 13 12
3.2292993 4.1392708 -0.45931089 9 5
3.267817 4.188643 1.0326586 10 13
3.2366889 4.1472459 -0.27570572 15 6
3.2714927 4.1903372 1.2273328 19 14
1.2960956 1.6595248 -0.036754657 1 7
3.2422132 4.1498442 1.4110817 0 15
1.4366181 1.8341639 -0.62427151 2 0
3.2572362 4.157095 0.092183493 10 8
3.2566919 4.1549067 -1.2187847 5 1
1.2705842 1.6204362 0.10791678 3 9
3.2404904 4.132751 -1.0208282 8 2
3.2573414 4.1527486 0.46175081 14 10
3.2619505 4.1571312 -0.83692437 11 3
3.2799487 4.1785665 0.65224469 10 11
3.2586105 4.1498909 -0.64785713 14 4
3.2946322 4.1942582 0.84474629 15 12
3.2540853 4.1426396 -0.46087971 9 5
3.2896981 4.1864719 1.0349478 10 13
3.2634881 4.1516256 -0.27675244 15 6
3.2981467 4.1942096 1.2318319 18 14
1.2919898 1.6424166 -0.036475416 2 7
3.3116333 4.2083368 1.4348929 0 15
1.4477977 1.8352053 -0.62634212 2 0
3.2841144 4.1613984 0.092532538 12 8
3.2590992 4.1282191 -1.2142856 2 1
3.2658465 4.1352816 -1.0242628 9 2
3.2878728 4.1616774 0.46401685 14 10
3.2813427 4.1519175 -0.83817583 11 3
3.2945139 4.1670923 0.65224469 10 11
3.2878525 4.1571751 -0.65078259 14 4
3.3190596 4.1951251 0.84724927 13 12
3.2821257 4.1484423 -0.46279711 9 5
3.3152556 4.1888185 1.0383828 10 13
3.2866373 4.1511698 -0.27748513 15 6
3.326077 4.1994748 1.2367809 16 14
1.2952311 1.6347624 -0.036405608 2 7
3.3143048 4.1816111 1.4297166 0 15
1.4541954 1.8301399 -0.62634212 2 0
3.3098183 4.1639981 0.092846677 13 8
3.2977476 4.1473222 -1.2232842 2 1
3.294929 4.1422935 -1.0288423 9 2
3.3197467 4.1720028 0.46645725 14 10
3.3167288 4.1667128 -0.84349459 11 3
3.3238792 4.1742005 0.65516943 10 11
3.3122375 4.1580958 -0.6527319 14 4
3.3501809 4.205729 0.8516295 13 12
3.306519 4.149426 -0.46419165 11 5
3.3469913 4.1987123 1.0437249 10 13
3.3060894 4.1459179 -0.27790383 15 6
3.3431454 4.1908865 1.2376806 15 14
1.2956574 1.6242049 -0.036265988 1 7
3.3402023 4.1856976 1.4348929 0 15
1.4654027 1.8310863 -0.62841266 2 0
3.3298571 4.1608052 0.093021199 5 8
3.3285327 4.1576624 -1.2295823 2 1
1.2647297 1.5792063 0.1060327 6 9
3.31305 4.1353645 -1.0299872 9 2
3.3504889 4.1806002 0.46872333 12 10
3.3367035 4.1633992 -0.84505886 11 3
3.3501191 4.1786442 0.6576069 8 11
3.3359451 4.1594772 -0.65468186 14 4
3.363606 4.1924663 0.85131639 13 12
3.338443 4.1596122 -0.46663198 9 5
3.3731861 4.2029009 1.0475411 10 13
3.3410761 4.1614084 -0.27968323 15 6
3.365566 4.190413 1.2408299 15 14
1.3013195 1.6196718 -0.036265988 2 7
3.3910992 4.2191868 1.4504222 0 15
1.4593456 1.8111742 -0.62323624 2 0
1.366608 1.6954713 0.038011294 1 8
3.347919 4.1520853 -1.2313818 2 1
3.3548009 4.1606197 0.28010213 12 9
3.3403029 4.1411638 -1.0341849 9 2
3.3643346 4.1694651 0.4687233 14 10
3.3673463 4.1717076 -0.84912616 10 3
3.3796494 4.1854591 0.66053176 8 11
3.3666613 4.1678815 -0.6578505 14 4
3.3961105 4.2043386 0.85600954 13 12
3.3622355 4.1609168 -0.46802649 11 5
3.4075801 4.2155313 1.0536469 10 13
3.3731647 4.1714625 -0.28114867 15 6
3.3997834 4.2028804 1.2480284 18 14
3.3780084 4.1759615 -0.093754038 4 7
3.4050708 4.2079191 1.4504222 0 15
1.4656594 1.8060685 -0.62323624 2 0
1.3167791 1.62261 0.036475483 2 8
3.3714943 4.1530652 -1.2349811 2 1
3.3869295 4.1705904 0.28156754 13 9
3.3646419 4.1416688 -1.0372379 9 2
3.3914354 4.1731567 0.47046641 14 10
3.3836551 4.1635838 -0.84975195 10 3
3.4085386 4.1927114 0.66345662 8 11
3.3917353 4.1705556 -0.66004413 14 4
3.4257262 4.2108464 0.85976398 15 12
3.3930874 4.1692448 -0.47029251 11 5
3.422781 4.2057309 1.0540286 10 13
3.3958054 4.1710968 -0.28188139 15 6
3.4284701 4.2097149 1.2534273 16 14
3.408983 4.1842995 -0.094207793 11 7
3.4197397 4.1960058 1.4504219 0 15
1.4691962 1.7982057 -0.62220097 2 0
3.3909039 4.1473064 -1.2367808 2 1
3.4166417 4.1772933 0.28282359 12 9
3.3982463 4.1548028 -1.0433438 9 2
3.4229155 4.1834779 0.47290677 12 10
3.4119279 4.1685648 -0.85319352 10 3
3.4244115 4.182323 0.66370034 8 11
3.4163363 4.1709757 -0.66199398 12 4
3.4541728 4.2156725 0.86320555 15 12
3.4195216 4.1733818 -0.47203568 11 5
3.457355 4.2180505 1.0601351 10 13
3.420476 4.1715717 -0.28271872 15 6
3.4604433 4.2188177 1.2597258 18 14
3.436254 4.1878324 -0.094556838 11 7
3.4343667 4.1840425 1.4504219 0 15
1.4803731 1.7990342 -0.62427151 2 0
1.3191791 1.6025704 0.036231156 35 8
3.422704 4.1565046 -1.2430793 5 1
3.4388194 4.1745939 0.28345165 13 9
3.4239597 4.1565547 -1.0467782 7 2
3.4552374 4.1930294 0.4753471 12 10
3.4427936 4.1764431 -0.85726076 9 3
3.4579306 4.1933193 0.66735643 10 11
3.4371898 4.1666808 -0.66321325 12 4
3.4801841 4.2173009 0.86602139 15 12
3.4505546 4.181396 -0.47430167 9 5
3.4770541 4.2120147 1.061661 11 13
3.4426463 4.1688476 -0.28334677 15 6
3.4776325 4.2097168 1.2606257 18 14
3.4623165 4.1896844 -0.094870977 8 7
3.4489498 4.1720304 1.4504222 0 15
1.4854115 1.7923679 -0.62375385 3 0
1.3183838 1.590258 0.036056627 7 8
3.4371912 4.1445327 -1.2430793 7 1
3.471225 4.1840835 0.28491706 13 9
3.4409564 4.1475992 -1.0475416 7 2
3.4876673 4.2024069 0.47778749 14 10
3.4762774 4.1871991 -0.86195391 10 3
3.4915726 4.2041283 0.67101252 10 11
3.4644003 4.1699262 -0.66565007 14 4
3.5087719 4.2218385 0.86946291 13 12
3.4727697 4.1785207 -0.47534755 9 5
3.5105636 4.2224956 1.0673858 18 13
3.477613 4.1813741 -0.28502154 15 6
3.5060146 4.2140312 1.2655746 18 14
3.5626259 4.2805548 -0.097209603 1 7
3.507992 4.2134118 1.4690571 0 15
1.4854699 1.7797559 -0.62116569 2 0
3.5039816 4.1966691 0.095429629 11 8
3.4503891 4.131012 -1.2426299 7 1
3.5037386 4.193398 0.28638247 12 9
3.4705195 4.1536398 -1.0521209 7 2
3.5023127 4.1902094 0.47778749 12 10
3.498476 4.1841307 -0.86383104 10 3
3.5151427 4.2025728 0.6727187 8 11
3.4929445 4.1745572 -0.66833121 12 4
3.5374351 4.2262263 0.87290442 15 12
3.497566 4.1785946 -0.47674206 11 5
3.5378861 4.2252669 1.0712013 16 13
3.5037274 4.182992 -0.28596362 15 6
3.5394776 4.2241716 1.272323 16 14
1.3552289 1.6168175 -0.036824465 1 7
3.512747 4.1892986 1.4649159 0 15
1.4966457 1.7804756 -0.6232363 1 0
3.5237586 4.1905336 0.09556926 13 8
3.4660437 4.1204338 -1.2430793 5 1
3.5260692 4.1903114 0.28701046 13 9
3.5026932 4.1625314 -1.0574635 7 2
3.5297492 4.1931992 0.47953117 12 10
3.5296021 4.1915355 -0.86789834 9 3
3.5502529 4.2145696 0.67661852 10 11
3.5254047 4.1835895 -0.67174411 12 4
3.5636258 4.2274456 0.87572038 15 12
3.5224049 4.178546 -0.47813654 9 5
3.5551436 4.2158942 1.0719652 16 13
3.5324738 4.1875277 -0.28711495 13 6
3.5655141 4.225194 1.2763724 16 14
1.3518345 1.6013813 -0.036580134 15 7
3.5697265 4.2271957 1.4825157 0 15
3.0855896 3.644845 -1.2796015 4 0
3.5538714 4.1965203 0.09598811 11 8
3.4703257 4.0964174 -1.2394801 5 1
3.5548799 4.1947379 0.28816187 11 9
3.5273573 4.1622615 -1.0605166 8 2
3.5649784 4.2051697 0.48231956 12 10
3.5531528 4.1897378 -0.87008846 10 3
3.5726485 4.2112331 0.67808092 8 11
3.5579703 4.1924467 -0.67515588 14 4
3.5975366 4.2375693 0.88041335 15 12
3.5447054 4.1753392 -0.47918242 9 5
3.5850899 4.221415 1.076544 16 13
3.557416 4.1873474 -0.28795233 13 6
3.5979075 4.2335119 1.2826709 16 14
1.3664832 1.607317 -0.036824465 32 7
3.5694425 4.1970487 1.4763039 0 15
3.1007988 3.6369925 -1.2806365 4 0
3.5814755 4.1993032 0.096337147 11 8
3.4694264 4.0664873 -1.2340819 5 1
3.5824654 4.1974959 0.28920856 12 9
3.5635307 4.1753101 -1.0670041 8 2
3.587399 4.2017908 0.48336542 12 10
3.5882831 4.2013412 -0.87509429 10 3
3.5950632 4.2077928 0.67954338 8 11
3.5803204 4.1890569 -0.67661828 12 4
3.6212912 4.2354965 0.88260341 13 12
3.5755241 4.1804895 -0.48127416 9 5
3.6163914 4.2282715 1.0815057 17 13
3.5772035 4.1809759 -0.28837106 13 6
3.6177306 4.2268496 1.2844704 16 14
1.3681844 1.5979799 -0.036719751 24 7
3.5991507 4.2021718 1.4825157 0 15
3.1166267 3.6285331 -1.2816718 4 0
3.6117492 4.2049789 0.096756026 11 8
3.4835994 4.0543528 -1.2340813 5 1
3.5983992 4.1864786 0.28931326 10 9
3.5890508 4.1741295 -1.070057 8 2
3.6183655 4.2067413 0.48545721 10 10
3.6126781 4.1986423 -0.87728441 10 3
3.631741 4.2207975 0.68368691 8 11
3.6065774 4.1900725 -0.67881256 12 4
3.6463642 4.2348061 0.88510633 13 12
3.6122012 4.193645 -0.48423746 11 5
3.6574962 4.2447338 1.0891374 11 13
3.6433802 4.2253675 1.2880696 22 14
3.6106737 4.1874366 -0.096511506 6 7
3.6617467 4.2451692 1.5021858 0 15
3.124218 3.6117883 -1.2796013 4 0
3.6428375 4.2098594 0.097174868 11 8
3.5035384 4.0474501 -1.2358814 5 1
3.6333292 4.1959105 0.29088333 12 9
3.6215906 4.182354 -1.0753996 8 2
3.6434643 4.206131 0.48685166 10 10
3.641541 4.2024283 -0.88072598 9 3
3.6562867 4.217958 0.68539304 8 11
3.6414173 4.1993232 -0.682468 12 4
3.6696284 4.2303653 0.88698357 13 12
3.6320386 4.1870313 -0.48493469 11 5
3.6903038 4.2527008 1.09448 17 13
1.4506676 1.6711577 -0.11597644 1 6
3.6747169 4.2317529 1.2939184 7 14
3.6522241 4.2043676 -0.097209595 11 7
3.6772804 4.2317204 1.5021858 0 15
3.1291938 3.5921202 -1.2764956 4 0
3.6680219 4.209178 0.097454108 11 8
3.5099614 4.0263824 -1.2331814 5 1
3.6610816 4.1982546 0.29193008 11 9
3.6477828 4.1830034 -1.0788343 7 2
3.6830108 4.2219138 0.49016362 12 10
3.6613824 4.1956458 -0.8819775 9 3
3.682739 4.2186279 0.68758678 8 11
3.6678061 4.2000427 -0.68466234 12 4
3.7142627 4.2517467 0.89417958 34 12
3.6689146 4.1998367 -0.48789799 11 5
3.6896245 4.2220516 1.0899012 5 13
1.4025973 1.6044323 -0.1116849 9 6
3.6866283 4.214169 -0.09773317 9 7
3.6538639 4.1752443 1.4866568 1 15
3.1569991 3.598604 -1.2827071 4 0
3.6958814 4.2113791 0.097803161 11 8
3.5214248 4.0111766 -1.2322817 5 1
3.7033873 4.2169666 0.29412818 11 9
3.6727223 4.1820483 -1.0818872 7 2
3.7056146 4.2180128 0.49120945 12 10
3.6955671 4.2050962 -0.88667053 9 3
3.7171009 4.2281108 0.69124275 25 11
3.6929314 4.1991396 -0.68661153 10 4
3.7199497 4.2283731 0.89198947 6 12
3.7019782 4.2079453 -0.49033833 11 5
1.4002705 1.5905328 -0.11105689 27 6
3.7041705 4.2059956 1.2939184 1 14
3.713213 4.2147794 -0.098047316 9 7
3.6914062 4.1885538 1.4959743 2 15
3.1516354 3.5672925 -1.2754602 4 0
3.7264519 4.2164321 0.098222017 11 8
3.5328224 3.9959409 -1.2313819 5 1
3.7233787 4.2099967 0.29454684 12 9
3.7055082 4.1897907 -1.0872298 7 2
3.7414401 4.2289271 0.49399847 24 10
3.7259319 4.2099218 -0.89042485 10 3
3.7318363 4.2151108 0.69124275 5 11
3.7141488 4.1936531 -0.68783027 10 4
3.7386153 4.2197986 0.89292812 3 12
3.7298553 4.2099113 -0.49208146 11 5
3.776304 4.2608395 1.1066924 1 13
1.4018394 1.5811512 -0.11074286 23 6
3.7451544 4.2212386 -0.098501086 9 7
3.7201118 4.1915355 1.5016685 3 15
3.1615014 3.5533824 -1.274425 4 0
3.7570977 4.2213259 0.098640867 11 8
3.5389748 3.9748511 -1.2286823 5 1
3.7579787 4.2193451 0.29611695 20 9
3.7227232 4.1797614 -1.0879931 7 2
3.7694297 4.2307191 0.49574155 5 10
3.7576921 4.2160597 -0.89449215 10 3
3.7491708 4.2050209 0.69173032 2 11
3.740653 4.1939983 -0.69002455 10 4
3.7564666 4.2102447 -0.49365023 5 5
3.7671189 4.219223 -0.2964308 9 6
3.7360399 4.1829395 1.2948182 1 14
3.7705259 4.2200685 -0.098780312 11 7
3.7347178 4.1785264 1.5016685 3 15
3.1687281 3.5365705 -1.2723544 4 0
3.7918315 4.2305212 0.099164449 18 8
3.5424221 3.9508655 -1.2250832 5 1
3.7820182 4.21661 0.29684964 6 9
3.7543314 4.1857419 -1.0929542 7 2
3.77087 4.2027059 0.49399844 3 10
3.796138 4.2293777 -0.90012389 10 3
3.7804749 4.2089744 -0.69465566 12 4
3.8234367 4.2553077 0.90606868 1 12
3.771836 4.1964092 1.0967704 2 13
3.7858312 4.2105017 -0.29674479 13 6
3.7375872 4.1553831 1.2903191 2 14
3.8052957 4.2291799 -0.099303879 3 7
3.735065 4.1496687 1.4959743 3 15
3.1772356 3.52373 -1.2713193 4 0
3.7984061 4.2111645 0.098989926 5 8
3.5626485 3.9483984 -1.2277826 5 1
3.7925711 4.2017407 0.29664028 2 9
3.7898269 4.1987014 -1.0994418 7 2
3.8107293 4.2188973 -0.9004367 10 3
3.8408587 4.2507615 0.7034297 1 11
3.8096509 4.2147493 -0.6975798 12 4
3.7864404 4.1875973 0.89417958 6 12
1.4551948 1.6093663 -0.18982528 2 5
3.761296 4.1583295 1.0899012 1 13
3.8191397 4.2208023 -0.29831484 22 6
3.7689312 4.1638484 1.2966177 2 14
3.8293025 4.2290621 -0.099583119 21 7
3.7662389 4.1579604 1.5032212 2 15
3.1921139 3.5154767 -1.2723544 4 0
3.8224945 4.2082396 0.099234253 1 8
3.5685434 3.9272871 -1.2250838 5 1
3.8255877 4.2086916 -1.1055477 7 2
3.8361917 4.2188778 0.49887913 1 10
3.8480284 4.230412 -0.90575546 10 3
3.8062401 4.1830044 0.69441134 8 11
3.8457217 4.2249126 -0.70147961 12 4
3.7957168 4.1685109 0.89292812 3 12
3.7757876 4.1451755 1.0899012 1 13
3.8432674 4.2177782 -0.29904756 13 6
3.7913208 4.159307 1.2993171 2 14
3.8373036 4.208282 -0.099408597 3 7
3.7989578 4.1647692 1.5104681 3 15
3.2017596 3.501461 -1.2713192 4 0
3.5717068 3.9033046 -1.2214838 5 1
3.8447378 4.2002072 0.29841974 1 9
3.856163 4.2126889 -1.1101269 3 2
3.8145649 4.1657887 0.49417278 10 10
3.8747795 4.2300649 -0.9085713 9 3
3.8792236 4.2319498 -0.70489258 17 4
3.8075712 4.1523271 0.89230239 3 12
1.4637009 1.5962315 -0.18947664 30 5
3.8300483 4.1753726 1.1013497 1 13
3.8579659 4.2043381 -0.29904756 6 6
3.8242629 4.1661487 1.3056158 2 14
3.8278496 4.1671319 1.5161622 2 15
3.2113445 3.4874213 -1.2702838 4 0
3.5905938 3.8965445 -1.2232842 5 1
3.8350084 4.1603274 0.29653561 5 9
3.8881421 4.2179689 -1.1150879 1 2
3.906935 4.2353888 -0.91263866 13 3
3.8232348 4.1431999 0.69221777 2 11
3.8926277 4.2169237 -0.70464832 8 4
3.8300838 4.147717 0.89417958 1 12
1.4652095 1.5867209 -0.18895373 7 5
3.8259492 4.141789 1.0960065 1 13
3.8493662 4.1642213 1.3092151 2 14
3.8646724 4.1778536 1.5249621 2 15
3.2129893 3.464859 -1.2661428 4 0
3.8758748 4.1782427 0.099478602 5 8
3.5962195 3.8754175 -1.2205843 5 1
3.8549416 4.1527719 0.2969543 2 9
3.9095199 4.2115669 -1.1169962 5 2
3.839489 4.1346736 0.49365044 3 10
3.9351382 4.2361989 -0.91576731 5 3
3.8592935 4.1530972 0.69611758 1 11
3.93841 4.2367496 -0.71025491 2 4
3.8741319 4.1661482 0.90106273 1 12
3.8698003 4.1600342 1.1044028 1 13
3.8851218 4.1735826 1.3164135 2 14
3.8988769 4.186893 -0.099862359 1 7
3.8897674 4.1756454 1.5291029 3 15
3.2171521 3.4451516 -1.263037 4 0
3.9109104 4.1866069 0.10000215 1 8
3.6123874 3.8656871 -1.2214839 5 1
3.866688 4.1363711 0.29674497 2 9
3.9389455 4.2136693 -1.1211938 7 2
3.8620632 4.1299791 0.49469572 1 10
3.9566493 4.2296481 -0.91733158 2 3
3.9063208 4.174386 0.70196736 1 11
3.9183571 4.18432 0.90794587 1 12
3.8923523 4.1550956 1.1066924 1 13
3.9156609 4.1770554 1.3218123 2 14
3.9271476 4.1878433 -0.1002114 1 7
3.9148924 4.1733146 1.5332443 2 15
3.2318065 3.4367142 -1.2640723 4 0
3.9035773 4.1496272 0.099443689 1 8
3.6231871 3.8502162 -1.2205842 5 1
3.9030058 4.1461182 0.29841974 1 9
3.9482458 4.1941762 -1.1196673 2 2
3.9174325 4.1599879 0.49992505 1 10
3.9181447 4.1578364 0.70147985 1 11
1.5114473 1.6033493 -0.2705501 8 4
3.9464927 4.1849866 0.9110744 3 12
3.941859 4.1786156 1.1166147 1 13
3.9313729 4.166039 -0.30019894 2 6
3.9542978 4.1888676 1.3299105 1 14
3.9225202 4.1537566 -0.09972275 1 7
3.9546425 4.186305 1.5430793 2 15
3.2384701 3.4198 -1.2620015 4 0
3.9372907 4.1563001 0.099932343 1 8
3.6232011 3.8233998 -1.2160851 5 1
3.9092107 4.1237702 0.29779166 2 9
4.0141892 4.2345109 -1.1341689 1 2
3.94838 4.1636376 0.50201678 1 10
3.968163 4.1815715 0.70781708 1 11
1.5156679 1.5966241 -0.27030635 33 4
3.9855614 4.19697 0.9167062 1 12
3.9800992 4.1912189 -0.50567782 1 5
3.9753523 4.1847568 1.1219566 1 13
3.929378 4.1349201 -0.29894289 2 6
3.9742656 4.1806893 1.3317102 2 14
3.9342401 4.1371393 -0.099652931 1 7
3.9865401 4.1906724 1.5498086 2 15
3.2530539 3.411272 -1.263037 4 0
3.9766209 4.1685743 0.10056063 1 8
3.6311438 3.8050909 -1.2142856 5 1
3.9380312 4.1266794 0.29894307 5 9
3.9711471 4.1584744 0.50306267 1 10
3.9909632 4.1763067 0.70927954 1 11
1.5075154 1.5769743 -0.267869 21 4
3.9939961 4.1780195 0.91545469 3 12
3.9754281 4.1571393 -0.50323743 1 5
4.0035048 4.1850419 1.1257733 1 13
3.9548364 4.1327214 -0.29978028 2 6
4.0184822 4.1977596 1.341608 2 14
3.9534709 4.1298475 -0.099792555 6 7
4.0217929 4.1997542 1.5580909 1 15
3.2542379 3.3887479 -1.2588958 4 0
3.9959643 4.1611328 0.10070025 1 8
3.6410425 3.7902162 -1.2133857 5 1
3.9759374 4.1373911 0.30072251 1 9
4.002212 4.1618199 0.50515443 1 10
4.0282841 4.1889315 -0.9204604 1 3
4.0268092 4.1859393 0.71317935 1 11
4.033217 4.1896677 0.92108637 1 12
3.9733274 4.1260176 -0.5011456 1 5
4.0309787 4.185885 1.1295896 1 13
4.007318 4.1598577 -0.30271104 2 6
4.0459023 4.1984444 1.3461071 2 14
3.9747989 4.1232233 -0.099967077 17 7
4.0444756 4.1940327 1.5611967 2 15
3.2600858 3.3723826 -1.2568252 4 0
4.0299239 4.1672869 0.10118893 1 8
3.6542497 3.7774844 -1.2133857 5 1
4.0292463 4.1636729 0.30365333 1 9
4.0439272 4.1788435 -1.1303527 1 2
4.0326219 4.1657019 0.50724614 1 10
4.0413976 4.1718564 0.71317935 1 11
4.0227866 4.1511908 -0.70976734 2 4
4.0505657 4.1784015 0.9217121 1 12
4.0064044 4.1328459 -0.50358605 1 5
4.051034 4.1774249 1.1311153 1 13
4.0357218 4.1601791 -0.30375776 2 6
4.0713882 4.1954837 1.3497062 2 14
4.0128474 4.1337152 -0.10056046 16 7
4.0725503 4.193747 1.566373 2 15
3.2718372 3.3609834 -1.2568253 4 0
4.0402613 4.1488957 0.10108421 11 8
3.6728535 3.7702882 -1.2151853 5 1
4.0799971 4.1867747 0.30637482 1 9
4.0582609 4.1630158 0.50864059 1 10
1.6025608 1.6433517 -0.36355367 1 3
4.0614781 4.1634083 0.71415418 1 11
4.0705247 4.1712246 -0.71561652 2 4
4.0872054 4.186852 0.926718 3 12
4.0597763 4.1587539 -0.50846678 1 5
4.0902824 4.1885414 1.1379845 1 13
4.0920863 4.18893 -0.30689794 2 6
4.1050787 4.200758 1.3560048 1 14
4.0412321 4.1339798 -0.10090951 9 7
4.1101232 4.2029886 1.5751729 2 15
3.2916644 3.3578186 -1.2599311 4 0
4.0757222 4.1561823 0.10160778 16 8
3.6778018 3.7491007 -1.2124859 5 1
4.1281614 4.206718 0.30888695 1 9
4.0978928 4.1744156 0.51177818 1 10
1.5806048 1.6095604 -0.35729629 19 3
4.1121569 4.1860232 0.72049141 1 11
4.0906262 4.162653 -0.71659142 2 4
4.1322579 4.2035532 0.93360102 1 12
4.0861669 4.1552124 -0.50986129 1 5
4.1489258 4.2190318 1.1501968 1 13
4.0842752 4.1518388 -0.30522326 2 6
4.1388502 4.2058525 1.3623037 2 14
4.1505246 4.2147679 1.5850079 3 15
3.2985187 3.3402336 -1.2578605 4 0
4.1098752 4.1618509 0.10209644 16 8
3.6881282 3.7334661 -1.2115862 5 1
4.1624746 4.2121701 0.31035233 1 9
4.1243715 4.1707025 0.51317269 1 10
1.5795486 1.5967335 -0.35573196 41 3
4.1351223 4.1801109 0.72195393 1 11
4.1051311 4.1483488 -0.71659142 2 4
4.1635838 4.2059488 0.93735558 3 12
4.128686 4.1692362 -0.51334751 1 5
4.1726513 4.2121673 1.152486 1 13
4.1360154 4.173727 -0.30794466 2 6
4.1679597 4.2044902 1.3668026 3 14
4.1347532 4.1709933 -0.10251512 1 7
4.1665707 4.2016273 1.5855256 3 15
3.293813 3.3122602 -1.251649 4 0
4.1434364 4.1651883 0.1025502 15 8
3.6990368 3.7171614 -1.2106863 5 1
4.1771502 4.1976175 0.31035233 1 9
4.1810822 4.1986327 0.51840198 1 10
1.5767467 1.5828143 -0.35385475 19 3
4.1924505 4.2071109 0.72926599 1 11
4.1763673 4.1895089 -0.72634095 2 4
4.1977649 4.2109737 0.94173563 1 12
4.1488404 4.1604433 -0.51404476 1 5
4.2095151 4.2198138 1.1585919 3 13
4.1759553 4.1847105 -0.30982876 2 6
4.188117 4.1954336 1.3686022 2 14
4.1549377 4.1621962 -0.10265473 1 7
4.1648331 4.1706533 1.5793141 3 15
3.3053536 3.3007429 -1.2516489 4 0
4.16996 4.1641431 0.10286435 11 8
3.7085857 3.7021201 -1.2097865 5 1
4.1974335 4.1886535 0.31077102 1 9
4.1697764 4.1595988 -1.1448541 1 2
4.1872468 4.1755719 0.51735616 1 10
4.2120018 4.1987925 0.730241 1 11
4.1874256 4.172833 -0.72585416 2 4
4.2348299 4.2186027 0.94674164 6 12
4.1915727 4.1740541 -0.51753098 1 5
4.2067904 4.189209 1.1540124 2 13
4.1954718 4.1764746 -0.31024742 2 6
4.1937175 4.1732755 1.3659028 2 14
4.2204776 4.1984391 -0.10391131 1 7
4.1725168 4.1492772 1.5767258 2 15
3.3135378 3.2870438 -1.2506137 4 0
4.2000885 4.1650515 0.1032483 13 8
3.7187188 3.6864073 -1.2088867 5 1
4.2205405 4.1824126 0.31139907 1 9
4.2086468 4.1706257 -1.1517233 1 2
4.2265487 4.186904 0.52049381 1 10
4.202414 4.1615391 -0.93672955 1 3
4.2435608 4.2008233 0.73316592 2 11
4.2104316 4.1665692 -0.72731656 2 4
4.2467217 4.201015 0.94611585 3 12
4.2308893 4.1853518 -0.52066863 1 5
4.2241817 4.1772585 1.1547757 2 13
4.2242274 4.1758466 -0.31129414 2 6
4.1971722 4.1476521 1.3623037 2 14
4.2692509 4.2174082 -0.10474902 1 7
4.1704798 4.1183991 1.5705142 2 15
3.3277447 3.2781675 -1.2516489 4 0
4.2402487 4.1756196 0.10387658 7 8
3.7204537 3.6624687 -1.2052876 5 1
4.2465038 4.1788597 0.31223643 1 9
1.6847945 1.6579571 -0.45946822 1 2
4.2422657 4.1717758 -0.94236112 1 3
4.2638621 4.1915507 0.73414081 1 11
4.2645941 4.1908059 -0.73414063 2 4
4.2472677 4.1723232 0.94298708 3 12
4.2653699 4.1901059 -0.52310896 1 5
4.2191253 4.1432309 1.149433 2 13
4.2872376 4.2086487 -0.31485304 2 6
4.1949325 4.1165977 1.3569047 2 14
4.3124952 4.2304883 -0.10544711 1 7
4.1848297 4.1038175 1.5705143 3 15
3.3308823 3.258425 -1.2485429 4 0
4.2876811 4.1929507 0.1046794 1 8
3.7360032 3.6521828 -1.2061874 5 1
1.6147488 1.5779696 -0.4388608 5 2
4.2841787 4.1851401 0.52398068 18 10
4.2794161 4.1790237 -0.94736713 1 3
4.2671046 4.1655469 0.73219091 1 11
4.2905612 4.1869864 -0.73609054 2 4
4.2702913 4.1657472 0.94486439 1 12
4.2771187 4.1724076 -0.52276033 1 5
4.2251296 4.1202521 1.147144 2 13
