# .PCD v0.7 - Point Cloud Data file format
VERSION 0.7
FIELDS x y z intensity ring
SIZE 4 4 4 4 2
TYPE F F F F U
COUNT 1 1 1 1 1
WIDTH 1311
HEIGHT 1
VIEWPOINT 0 0 0 1 0 0 0
POINTS 1311
DATA ascii
13.413162 -6.2091184 3.9604497 44 15
3.8701468 -1.7981048 -1.1434625 5 0
5.8848648 -2.7341609 0.11326598 3 8
4.3154125 -2.0058949 -1.0986606 7 1
13.046549 -6.0670795 0.75405675 11 9
4.8096576 -2.2376721 -1.031132 5 2
17.01359 -7.9191113 1.6418388 6 10
5.4765167 -2.5490882 -0.95675308 3 3
16.838329 -7.8411107 2.2806625 9 11
16.692318 -7.7802086 2.9168775 6 12
7.4251132 -3.4623873 -0.7167691 3 5
16.46398 -7.6772804 3.5311103 53 13
7.3702555 -3.4383726 -0.4262239 2 6
16.39258 -7.6509528 4.1764417 72 14
13.323146 -6.2240124 3.9402618 42 15
3.8799062 -1.8183067 -1.1481212 5 0
5.8644223 -2.7495925 0.11305655 3 8
4.3083844 -2.020946 -1.0986606 7 1
12.971048 -6.0871291 0.7509166 13 9
4.7986565 -2.2519417 -1.0303688 4 2
16.752783 -7.8654122 1.6191784 6 10
5.4675846 -2.5681891 -0.95675302 3 3
16.715113 -7.8619714 2.9256382 3 12
7.4063792 -3.4835982 -0.71607184 3 5
16.470833 -7.7505846 3.5383611 56 13
16.408087 -7.7280555 4.1872392 72 14
13.220957 -6.2325864 3.9164503 40 15
3.8805211 -1.8351424 -1.1501918 5 0
5.8439431 -2.7649152 0.11284711 3 8
4.2872128 -2.0293036 -1.0950614 7 1
12.944306 -6.1298051 0.7506026 2 9
4.7978635 -2.2720389 -1.0318952 4 2
16.707218 -7.9153123 1.6174352 31 10
5.4621572 -2.5889513 -0.95737886 3 3
16.636099 -7.8887286 2.2606761 19 11
16.585842 -7.8719902 2.9078043 13 12
7.4157729 -3.5196822 -0.71816361 3 5
16.484468 -7.8274016 3.5471382 53 13
16.402126 -7.79532 4.1926374 72 14
13.134573 -6.2479939 3.8972976 37 15
3.8740914 -1.8486769 -1.1501918 5 0
5.9515548 -2.8412964 0.11511593 9 8
4.287137 -2.0476153 -1.096861 7 1
4.7721887 -2.2803082 -1.0280789 4 2
7.9919186 -3.820514 0.77498847 17 10
5.4566512 -2.6097066 -0.95800465 3 3
7.9881783 -3.8221519 1.0873182 15 11
7.9709144 -3.817312 1.399776 10 12
7.3926601 -3.5403829 -0.71711773 3 5
16.494225 -7.9027081 3.5551522 48 13
7.2582016 -3.4791052 -0.4218277 2 6
16.41172 -7.870223 4.202086 72 14
9.4203501 -4.5195422 -0.18237709 1 7
13.041278 -6.2595315 3.8760746 47 15
3.8641336 -1.8605124 -1.1491565 5 0
5.91818 -2.8507724 0.11466216 9 8
4.2764525 -2.0608761 -1.0959613 7 1
4.7783484 -2.3037739 -1.0311321 4 2
16.726923 -8.0681095 1.6247563 44 10
5.4403915 -2.6253042 -0.95675308 3 3
16.659279 -8.0426512 2.2714005 39 11
16.601627 -8.021965 2.9203191 27 12
7.3874331 -3.569634 -0.71781498 1 5
16.510731 -7.9815979 3.5646927 58 13
7.1704965 -3.4678972 -0.41743147 2 6
16.422741 -7.946136 4.2119842 68 14
7.8493958 -3.7996182 -0.15221941 7 7
12.941107 -6.2671251 3.8527808 40 15
3.8471901 -1.868925 -1.1460507 5 0
5.8938036 -2.8644202 0.11438291 7 8
4.2902627 -2.0860164 -1.1013606 4 1
4.78087 -2.3255913 -1.0334216 4 2
16.743443 -8.148243 1.6291161 51 10
5.1789937 -2.5214899 -0.91232574 7 3
16.681072 -8.1250925 2.2782252 48 11
16.605486 -8.0954504 2.9259508 40 12
16.511 -8.0529528 3.5707986 58 13
7.1296277 -3.4788926 -0.41575673 2 6
16.436928 -8.0239286 4.2227802 68 14
7.850461 -3.8340154 -0.15249866 3 7
12.853193 -6.2800322 3.8331106 42 15
3.8545201 -1.8891442 -1.1501918 5 0
7.8426332 -3.8454618 0.15246403 22 8
4.2759571 -2.0975466 -1.0995605 7 1
4.7797728 -2.3457258 -1.0349481 4 2
16.757826 -8.2277155 1.6332977 12 10
5.1382461 -2.5238764 -0.90669405 10 3
16.650827 -8.1823959 2.2779813 13 11
16.609032 -8.1690559 2.9315822 16 12
16.514498 -8.1261396 3.5776675 55 13
7.0923543 -3.4914083 -0.41429132 2 6
16.440289 -8.096755 4.2308793 70 14
7.869318 -3.8773038 -0.15312696 15 7
12.768814 -6.2941117 3.814476 45 15
3.8513658 -1.9043 -1.1512271 5 0
4.2651157 -2.1107311 -1.0986606 4 1
4.7821121 -2.3676226 -1.0372379 4 2
6.9611936 -3.447998 0.67964011 8 10
5.1081648 -2.5312715 -0.90293962 7 3
17.410057 -8.6310673 2.385958 14 11
5.1430707 -2.5508049 -0.70489198 4 4
17.369623 -8.618578 3.0711219 43 12
17.175369 -8.5259266 3.7272618 14 13
7.0586572 -3.5054839 -0.41303524 2 6
9.4548168 -4.699584 -0.18429685 17 7
12.674115 -6.3025174 3.7927351 42 15
3.8446951 -1.9177324 -1.1512271 5 0
4.2577224 -2.1256061 -1.0986606 7 1
4.7632799 -2.3790371 -1.0349481 4 2
6.8831711 -3.4393253 0.67319053 10 10
5.0763288 -2.5376048 -0.89887238 7 3
17.42243 -8.7130957 2.3918073 7 11
5.1554389 -2.5794008 -0.70781684 17 4
17.372997 -8.6959562 3.0770667 39 12
17.047197 -8.5366001 3.7058914 6 13
7.017807 -3.5157878 -0.4113605 2 6
16.020992 -8.0297108 4.1372995 11 14
9.4365664 -4.7316623 -0.18426193 24 7
12.593327 -6.3172674 3.775135 45 15
3.8379776 -1.9311408 -1.1512271 5 0
13.015728 -6.5519223 0.25435108 10 8
4.253758 -2.1422088 -1.0995606 4 1
6.9973259 -3.5254111 0.41062805 4 9
4.7479329 -2.3921161 -1.0334215 4 2
6.8302026 -3.4427054 0.66918135 16 10
5.0374541 -2.5401888 -0.8935535 7 3
5.1215935 -2.5848594 -0.70440453 14 4
17.365459 -8.7681208 3.0811343 7 12
16.915657 -8.5447121 3.6837573 3 13
6.9341888 -3.5042305 -0.40717363 2 6
12.500524 -6.3254266 3.7539115 45 15
3.8208773 -1.9392802 -1.1481212 5 0
7.0232663 -3.5661898 0.13748987 9 8
4.2566781 -2.1623394 -1.1022604 7 1
4.7535567 -2.415791 -1.0364747 4 2
6.7879515 -3.4511757 0.6662181 26 10
4.9863005 -2.5362635 -0.88604468 10 3
16.727802 -8.5122118 2.304549 3 11
5.1125393 -2.6027212 -0.70440453 23 4
17.392836 -8.8582697 3.0914588 21 12
6.9027157 -3.5155923 -0.67772323 1 5
16.836744 -8.5787506 3.673074 3 13
17.223167 -8.7832155 4.463479 54 14
7.0698452 -3.60693 -0.13853677 5 7
12.412985 -6.3356514 3.734242 42 15
3.8244021 -1.9578878 -1.1512271 5 0
7.0054364 -3.587949 0.13738516 11 8
4.238699 -2.1718533 -1.0995606 7 1
6.8771825 -3.523777 0.40497577 10 9
4.7555766 -2.4377427 -1.0387642 4 2
6.763453 -3.4684849 0.66499788 38 10
4.9387507 -2.5338159 -0.87916166 11 3
6.9123139 -3.5478725 0.95399308 6 11
5.1180086 -2.6269124 -0.70635438 14 4
17.400267 -8.934845 3.0980291 36 12
6.8443246 -3.5159945 -0.67319119 1 5
16.747332 -8.6069574 3.6600971 3 13
17.232071 -8.8598843 4.4733758 63 14
7.0329504 -3.6175494 -0.13804811 3 7
12.336938 -6.3484926 3.7176776 49 15
3.8213224 -1.9723315 -1.1522624 5 0
5.447681 -2.8129621 0.10701802 5 8
4.2487864 -2.1948409 -1.1040599 4 1
6.7820582 -3.50348 0.40005618 20 9
4.7683964 -2.4643154 -1.0433438 4 2
6.7501435 -3.4899793 0.66482443 46 10
4.9180388 -2.5438266 -0.87697148 19 3
6.854672 -3.5470552 0.94765586 13 11
5.0775347 -2.6274486 -0.70196712 6 4
17.421413 -9.0188332 3.1071017 39 12
4.8900518 -2.5325971 -0.48179707 1 5
4.9117556 -2.5460126 -0.28994107 2 6
17.225092 -8.9286394 4.4792256 54 14
7.0226908 -3.641772 -0.13808303 20 7
12.257513 -6.3591204 3.7000773 49 15
3.818188 -1.9867762 -1.1532977 5 0
6.8253956 -3.5530763 0.13431354 11 8
4.2449422 -2.2107189 -1.1049594 4 1
6.7526884 -3.5167253 0.39900944 21 9
4.7393045 -2.4692287 -1.0387642 4 2
6.7420673 -3.5141859 0.66517216 44 10
4.9130797 -2.5619481 -0.87759733 20 3
6.8305507 -3.5633392 0.94594967 31 11
4.9755135 -2.5956094 -0.6890496 8 4
17.43169 -9.097578 3.1142983 39 12
4.8957558 -2.5561762 -0.48319158 1 5
13.404457 -7.0017238 2.9396026 6 13
4.9139075 -2.567837 -0.29056916 2 6
17.242018 -9.0100775 4.4913721 27 14
6.8564 -3.5844393 -0.13504632 13 7
12.171309 -6.3657107 3.6804075 40 15
3.8013136 -1.9940423 -1.1501918 5 0
6.8082638 -3.5729027 0.13420883 16 8
4.2410378 -2.2265947 -1.1058595 4 1
6.7286115 -3.5326002 0.39827678 22 9
4.7206626 -2.479454 -1.0364747 4 2
6.7180309 -3.5300369 0.66395205 42 10
4.9220419 -2.5874183 -0.88072604 16 3
6.7818017 -3.5665677 0.94083124 30 11
4.9862056 -2.6222587 -0.69173008 2 4
17.445129 -9.1783276 3.1221199 45 12
4.8837261 -2.5705411 -0.48284295 1 5
13.402008 -7.0571117 2.9441836 6 13
4.9053655 -2.5841177 -0.29056916 2 6
17.2586 -9.0917282 4.5035205 55 14
6.8320913 -3.6006298 -0.13480197 24 7
12.09032 -6.3745022 3.6622899 17 15
3.7936294 -2.0086234 -1.1501918 5 0
6.7927275 -3.5980825 0.13417393 16 8
4.2359018 -2.2446878 -1.106759 4 1
6.7214346 -3.5633237 0.39869544 22 9
4.7353911 -2.5104361 -1.0418173 4 2
6.7114677 -3.55954 0.66464925 38 10
4.9016013 -2.6007431 -0.87884879 5 3
6.7715635 -3.5944421 0.94131863 34 11
17.444775 -9.2677431 3.1286895 41 12
4.8914151 -2.5986221 -0.48458606 1 5
13.409487 -7.1269484 2.9518144 7 13
4.8954072 -2.6029344 -0.29056916 2 6
17.258091 -9.1801538 4.5129681 50 14
6.8175831 -3.6280262 -0.13480197 24 7
3.8036363 -2.0309527 -1.1553681 5 0
6.7977653 -3.6311932 0.13452299 9 8
4.2177277 -2.2539489 -1.1040599 4 1
6.7142391 -3.5895891 0.39900944 20 9
4.7196732 -2.5232477 -1.0402907 4 2
6.7218418 -3.5951619 0.66691536 48 10
6.7344742 -3.6049418 0.93790632 41 11
17.462818 -9.3556347 3.137763 41 12
4.8823147 -2.61568 -0.48458606 1 5
13.424324 -7.1950431 2.9605932 9 13
4.9179745 -2.6369944 -0.29245323 2 6
9.4771223 -5.0879793 2.8822093 1 15
3.7914209 -2.0414696 -1.1538153 5 0
4.2132654 -2.2705071 -1.1049598 4 1
6.7128477 -3.6175196 0.39963749 21 9
4.7073808 -2.5378437 -1.0395275 4 2
6.7162647 -3.6223865 0.66761255 44 10
6.7148623 -3.6246562 0.93693137 38 11
17.476889 -9.4378939 3.1458976 42 12
4.8871775 -2.6402831 -0.48598057 1 5
13.437126 -7.2623963 2.9689872 9 13
4.8911705 -2.6446462 -0.29140651 2 6
9.4669943 -5.1230569 2.88428 1 15
3.7927606 -2.0593009 -1.1564034 5 0
7.8448844 -4.2594252 0.15581489 9 8
4.2091379 -2.2863266 -1.105859 7 1
6.6966705 -3.6390221 0.39942813 18 9
4.6881447 -2.5486338 -1.0372379 4 2
6.7438359 -3.6677024 0.67162174 14 10
4.7687049 -2.5935075 -0.85976374 1 3
6.7097797 -3.6506982 0.93790627 44 11
8.6516581 -4.7111626 1.5602778 26 12
4.9129243 -2.6763892 -0.48946685 1 5
8.6460199 -4.7100487 1.9138137 9 13
4.9104333 -2.6761436 -0.29308125 2 6
8.58218 -4.6791558 2.2567091 17 14
9.4694033 -5.1671748 2.8904917 1 15
3.7808266 -2.0690842 -1.1548504 5 0
7.626502 -4.1753874 0.15176594 15 8
4.2079682 -2.3047497 -1.1076592 4 1
6.7207098 -3.6825309 0.40162629 12 9
4.6899967 -2.5698264 -1.0395275 4 2
6.7560964 -3.7034538 0.67406213 40 10
4.7353745 -2.5968399 -0.85538363 1 3
6.6952548 -3.6731427 0.93766254 37 11
8.6299648 -4.738481 1.559339 40 12
4.8686266 -2.6743376 -0.48598063 1 5
16.658512 -9.1505241 3.6944425 30 13
4.9220667 -2.7048104 -0.29433733 2 6
6.5864377 -3.622422 -0.13120678 1 7
3.7698357 -2.0810609 -1.1538154 5 0
7.6101303 -4.2010174 0.15173103 7 8
4.2067208 -2.3231928 -1.1094588 7 1
6.7497706 -3.7291484 0.40413839 5 9
4.6839838 -2.5888987 -1.0402908 4 2
6.7511945 -3.7330115 0.67493361 30 10
4.7258244 -2.6141784 -0.85538352 1 3
6.6945524 -3.7032175 0.93936878 38 11
8.5960903 -4.7590084 1.5562105 12 12
4.9080629 -2.7183447 -0.49086127 1 5
17.402782 -9.6425495 3.8673155 48 13
4.9330826 -2.734452 -0.29559341 2 6
12.810785 -7.1040573 3.3819144 2 14
6.563261 -3.6395724 -0.13099736 3 7
3.772676 -2.0998442 -1.156921 5 0
6.6197944 -3.6860442 0.13225417 1 8
4.1913681 -2.3348022 -1.1076592 7 1
7.3274913 -4.083456 0.43962222 11 9
4.695497 -2.6167011 -1.0448701 2 2
6.7833691 -3.7817795 0.67946577 14 10
4.6390371 -2.5873597 -0.84130448 7 3
6.6774673 -3.7257948 0.93888128 39 11
8.0508366 -4.4957728 1.4604726 4 12
4.8915868 -2.731575 -0.49016407 1 5
17.408442 -9.7252617 3.8760929 54 13
4.9514022 -2.7672451 -0.29726812 2 6
7.6005106 -4.2512646 -0.15200999 1 7
9.4914055 -5.3110909 2.9143031 1 15
3.7653232 -2.1130006 -1.156921 5 0
4.1865911 -2.3513269 -1.1085585 4 1
7.2661791 -4.0825934 0.43679607 10 9
4.6726418 -2.6253827 -1.0418173 4 2
17.658253 -9.9255657 1.7722237 23 10
4.6592484 -2.619997 -0.84662324 1 3
6.6921034 -3.7646532 0.94278109 38 11
6.9076333 -3.8890758 1.2555434 1 12
4.9063272 -2.7623179 -0.49260437 1 5
17.394913 -9.7975292 3.880672 15 13
4.9243116 -2.7747071 -0.29622141 2 6
7.4776311 -4.2168689 -0.1498459 1 7
9.4896336 -5.353682 2.9194794 1 15
3.7596059 -2.1270831 -1.1574388 5 0
7.4814401 -4.234519 0.1500556 18 8
4.1817493 -2.3678474 -1.1094583 4 1
7.2213168 -4.088953 0.43491197 10 9
4.6736984 -2.6474826 -1.044107 2 2
17.675505 -10.016615 1.7774533 24 10
4.5641522 -2.5875337 -0.83097982 1 3
6.6789212 -3.7879901 0.94278109 23 11
6.8294106 -3.8749168 1.2436543 4 12
4.9070511 -2.7853281 -0.49365023 1 5
17.42548 -9.8950291 3.8951735 23 13
4.9284892 -2.7997718 -0.29705879 2 6
8.6491547 -4.9154 2.2967501 1 14
6.5074024 -3.6982212 -0.1306483 3 7
9.5188513 -5.4118557 2.9339731 2 15
3.7555146 -2.1421075 -1.158474 5 0
7.2571807 -4.1394224 0.14583214 5 8
4.177259 -2.3836327 -1.1103586 4 1
7.1566982 -4.0854206 0.43187651 4 9
4.6678381 -2.6657281 -1.0448701 1 2
4.5521164 -2.6006949 -0.83035403 1 3
6.6611533 -3.8071625 0.94204992 35 11
6.7815499 -3.8791158 1.2373968 4 12
4.9215088 -2.8162935 -0.49609062 1 5
4.9434447 -2.8299921 -0.29852423 2 6
8.6700106 -4.9653616 2.3066483 1 14
6.5152745 -3.7328432 -0.13106717 1 7
11.294961 -6.4739223 3.4883637 16 15
3.7416909 -2.1506989 -1.1564035 5 0
6.5510082 -3.7669969 0.13190512 1 8
4.1824265 -2.4059734 -1.1139579 4 1
7.0818071 -4.0755095 0.428213 13 9
6.6392226 -3.8254359 0.94083124 44 11
6.7902145 -3.9155924 1.2414643 6 12
4.9052391 -2.8286171 -0.49539343 1 5
17.476765 -10.082081 3.9218872 52 13
4.9266167 -2.8432372 -0.29810551 2 6
9.2069836 -5.3177986 -0.18558832 1 7
11.210404 -6.4775486 3.4692111 35 15
3.7508757 -2.1734316 -1.1615798 5 0
6.489378 -3.7617607 0.13092779 1 8
4.1672602 -2.4166479 -1.1121578 7 1
7.081358 -4.108223 0.42905036 18 9
8.1145267 -4.7095051 0.82083237 2 10
6.6258292 -3.8485878 0.94083124 39 11
6.7696733 -3.9353001 1.2402127 4 12
4.9091153 -2.8537333 -0.49678791 1 5
17.466919 -10.157826 3.9276128 60 13
4.944284 -2.8764863 -0.29978031 2 6
17.373009 -10.111332 4.6407404 25 14
9.1883659 -5.3499036 -0.18558832 1 7
11.166025 -6.5040002 3.462482 43 15
3.7332573 -2.180666 -1.158474 5 0
7.3670959 -4.3049831 0.14893864 13 8
4.1520691 -2.4272456 -1.1103581 7 1
7.0745912 -4.1357141 0.42946896 20 9
4.4605007 -2.6085951 -1.0044187 1 2
17.704247 -10.357968 1.7945358 8 10
6.6174946 -3.8747017 0.94156253 16 11
6.7821536 -3.9727032 1.2449058 6 12
4.9300661 -2.8889837 -0.49992552 1 5
17.466927 -10.23959 3.9356251 20 13
4.94455 -2.89979 -0.3004083 2 6
17.372906 -10.192623 4.650188 61 14
8.3185415 -4.8804598 -0.16834542 1 7
11.091082 -6.5096998 3.4459174 48 15
3.7289524 -2.1956441 -1.1595093 5 0
7.3114243 -4.3050389 0.14810094 15 8
4.1607881 -2.4508917 -1.1148571 7 1
7.0738783 -4.1684966 0.43030638 18 9
4.4547505 -2.6261437 -1.005182 1 2
17.709171 -10.443992 1.798719 24 10
17.230455 -10.165723 2.4563985 15 11
6.7529359 -3.9873145 1.24209 6 12
4.9405375 -2.9183354 -0.50201726 1 5
17.485279 -10.328412 3.9474556 28 13
4.9417839 -2.9202349 -0.30082697 2 6
17.396044 -10.283895 4.6654844 15 14
9.0656767 -5.3614254 -0.18384308 1 7
11.02506 -6.5228 3.4324586 29 15
3.7249739 -2.209969 -1.1605446 5 0
7.1415858 -4.2386785 0.14495951 15 8
4.1488566 -2.4634109 -1.1139574 7 1
4.4392657 -2.6368911 -1.0036556 1 2
8.1101341 -4.8192744 0.82536435 6 10
4.4148092 -2.6244495 -0.81345904 1 3
17.643587 -10.492662 2.5205014 21 11
6.7610431 -4.0239964 1.2461572 3 12
4.9268961 -2.9335241 -0.50166857 1 5
17.494661 -10.416499 3.9577613 33 13
4.9384241 -2.9415555 -0.30124566 2 6
8.9610243 -5.3418427 -0.18209787 1 7
10.930879 -6.5186977 3.4102004 42 15
3.72348 -2.2275739 -1.1626152 5 0
7.1044374 -4.2502337 0.14450572 18 8
4.1536093 -2.4858842 -1.1175566 7 1
17.082867 -10.227935 1.0434747 9 9
4.446414 -2.6632321 -1.0074717 1 2
8.1265984 -4.8694501 0.82885069 2 10
4.4051609 -2.6406131 -0.8134591 1 3
17.652824 -10.581742 2.5270824 25 11
4.967742 -2.9790232 -0.7112298 2 4
6.7842226 -4.0699286 1.2530403 3 12
4.9234591 -2.9548051 -0.50236577 1 5
17.493399 -10.502786 3.9661548 21 13
4.9550042 -2.97609 -0.3029204 2 6
17.405527 -10.458296 4.6879792 26 14
8.9423218 -5.3730898 -0.18209784 1 7
10.865007 -6.5309362 3.3967414 47 15
3.7222991 -2.2445486 -1.1646857 5 0
7.1042228 -4.2855411 0.14481989 16 8
4.1277857 -2.4910221 -1.1130575 7 1
17.10178 -10.320524 1.0468241 10 9
17.658094 -10.673071 2.5334196 17 11
4.8446765 -2.9294195 -0.69514304 2 4
17.608696 -10.64741 3.2591562 13 12
4.9335728 -2.9843483 -0.50445765 1 5
17.510376 -10.596309 3.9783685 38 13
4.9445858 -2.9933679 -0.3029204 2 6
17.412256 -10.545237 4.6996775 68 14
8.0238075 -4.8593903 -0.163738 1 7
10.79423 -6.5397925 3.3817303 47 15
3.7144413 -2.2575281 -1.1646857 5 0
7.1138959 -4.3236165 0.14530857 15 8
4.1294937 -2.5107713 -1.115757 7 1
6.8477616 -4.1651411 0.42004856 1 9
4.5115709 -2.7452357 -1.0265526 1 2
6.8619514 -4.1770539 0.70282352 8 10
17.663294 -10.756348 2.5392692 17 11
4.8688416 -2.966125 -0.70001727 2 4
17.625401 -10.741709 3.2691681 37 12
4.9197226 -2.9994769 -0.50410897 1 5
17.506992 -10.673736 3.9856172 21 13
4.951684 -3.0201488 -0.30396718 2 6
17.407135 -10.62119 4.7077751 37 14
8.8021832 -5.3728757 -0.18000357 1 7
10.735063 -6.5552831 3.3703423 22 15
3.7003446 -2.2657976 -1.1626152 5 0
7.1260438 -4.3651342 0.14586703 15 8
4.1140575 -2.5210977 -1.1139574 7 1
6.7310147 -4.1263866 0.4137682 1 9
6.8242836 -4.1852036 0.70038319 12 10
17.691622 -10.858437 2.548775 21 11
4.8449259 -2.9747925 -0.69806737 2 4
17.628195 -10.827979 3.2766771 41 12
4.9131446 -3.0178602 -0.50445759 2 5
15.877223 -9.7562761 3.6223171 16 13
4.9513202 -3.0436904 -0.30459517 2 6
17.429712 -10.718638 4.7239718 59 14
8.7493114 -5.3826122 -0.17930549 1 7
10.666048 -6.5643625 3.3558483 38 15
3.7055647 -2.2868168 -1.1667563 5 0
7.1277785 -4.4004865 0.14621608 15 8
4.1151805 -2.5415871 -1.1166568 7 1
6.7471542 -4.1687546 0.41565233 1 9
6.8299704 -4.2215695 0.70247483 8 10
17.602964 -10.888796 2.5414629 4 11
4.6825886 -2.8976734 -0.67613077 8 4
17.638998 -10.919601 3.2857504 41 12
4.936461 -3.0559666 -0.50794381 2 5
15.838058 -9.8085365 3.6211741 13 13
4.9678307 -3.077785 -0.30626991 2 6
17.435257 -10.806105 4.7356696 48 14
8.6964788 -5.3920445 -0.17860739 1 7
10.597102 -6.5730429 3.3413544 27 15
3.6877167 -2.2936161 -1.1636504 3 0
7.122561 -4.4316788 0.14642549 15 8
4.1244826 -2.5672638 -1.1216058 7 1
6.7299018 -4.1889949 0.41544297 1 9
6.9420261 -4.3243937 0.71554828 2 10
4.6774983 -2.9171526 -0.676862 17 4
17.644594 -11.004167 3.2935719 19 12
4.9359059 -3.0795071 -0.50898969 2 5
15.788739 -9.8544073 3.6177375 22 13
4.9909391 -3.1162632 -0.30836335 2 6
17.455282 -10.903035 4.7514162 49 14
8.554739 -5.3435192 -0.17605934 5 7
10.545757 -6.5897207 3.332037 8 15
3.6829622 -2.308527 -1.1646857 5 0
7.1298528 -4.4690814 0.14687927 16 8
4.10604 -2.5747156 -1.1189063 7 1
6.6543293 -4.1742525 0.41167477 1 9
7.8482246 -4.927 0.81072229 2 10
14.653822 -9.203022 2.1246698 2 11
4.6963735 -2.9506001 -0.68100619 14 4
4.9554863 -3.1158071 -0.51212728 2 5
15.792536 -9.9296999 3.626133 35 13
4.9771972 -3.1306698 -0.30815402 2 6
17.46686 -10.990955 4.7644629 27 14
8.5123434 -5.3584337 -0.17557067 19 7
10.519422 -6.6244345 3.3310018 8 15
3.6785533 -2.3227899 -1.1657209 5 0
7.1412611 -4.5110297 0.14743777 18 8
4.0986748 -2.5900731 -1.1193566 7 1
6.5864215 -4.1621537 0.40832528 1 9
7.9328771 -5.0168943 0.82118094 2 10
14.520967 -9.1904182 2.1100454 2 11
4.6994634 -2.9754715 -0.6829555 31 4
4.9518604 -3.136488 -0.51282459 1 5
15.802555 -10.013139 3.6364369 29 13
5.0033503 -3.1715488 -0.31045678 2 6
17.466238 -11.075864 4.7748108 45 14
8.4962149 -5.3877029 -0.17560557 12 7
10.485976 -6.6520357 3.327378 8 15
3.6818321 -2.342876 -1.1693444 5 0
7.1465073 -4.5475674 0.14785661 20 8
4.0933514 -2.6057439 -1.1202559 7 1
6.565114 -4.1808276 0.40790659 2 9
10.375095 -6.6122108 1.0763727 2 10
14.463629 -9.2214451 2.1061456 2 11
4.652751 -2.967555 -0.67759329 23 4
4.9543166 -3.1623299 -0.51421905 1 5
14.590996 -9.3134003 3.3647249 34 13
4.9658713 -3.1709247 -0.30878201 2 6
14.547231 -9.292613 3.9852326 18 14
10.45781 -6.6854773 3.3258255 8 15
3.6606216 -2.3473713 -1.1652033 5 0
7.1499891 -4.586688 0.14827546 20 8
4.0870538 -2.6228344 -1.1211559 7 1
6.4926023 -4.1681771 0.40434775 2 9
10.214485 -6.560101 1.0620793 2 10
14.372956 -9.2379055 2.0978587 5 11
4.6151266 -2.9674106 -0.67369342 12 4
4.9533019 -3.1860709 -0.51526493 1 5
14.518789 -9.3423815 3.3559475 37 13
4.9777279 -3.2042394 -0.31024742 2 6
14.390193 -9.2667379 3.9514899 14 14
7.8051901 -5.0281749 -0.16206254 7 7
10.40076 -6.7028317 3.3154724 8 15
3.6475377 -2.3569896 -1.1636504 5 0
7.1473703 -4.6203032 0.14855471 20 8
4.0909638 -2.6455507 -1.1247555 7 1
6.454536 -4.1756258 0.40288234 2 9
10.204904 -6.6043749 1.0634737 2 10
4.4737992 -2.896446 -0.84412026 1 3
14.280642 -9.2491722 2.0890839 2 11
4.6147356 -2.9899783 -0.67515647 6 4
4.9521828 -3.2098446 -0.51631087 1 5
14.411965 -9.3449402 3.3387749 40 13
4.9732151 -3.2259426 -0.31066611 2 6
14.393722 -9.34025 3.9613881 38 14
7.8194599 -5.076076 -0.16272573 5 7
10.372438 -6.7359405 3.3139195 9 15
3.6668096 -2.3876281 -1.1724503 5 0
7.1395755 -4.6506805 0.14872922 24 8
4.0719085 -2.6534309 -1.1220555 7 1
6.4265356 -4.1894059 0.40204495 2 9
10.345338 -6.7466159 1.0805563 2 10
4.4636612 -2.912045 -0.84412026 1 3
14.171799 -9.2490549 2.0778718 2 11
4.6242175 -3.0190916 -0.67808074 8 4
4.9542918 -3.235827 -0.51770526 1 5
14.315156 -9.3533096 3.3238916 34 13
4.9920173 -3.2629526 -0.31255025 2 6
14.334932 -9.373373 3.9541893 10 14
7.8167553 -5.1131926 -0.16303989 3 7
10.339164 -6.7657585 3.3108139 9 15
3.669759 -2.4078317 -1.1760738 5 0
7.1533899 -4.6953244 0.14935751 24 8
4.0756536 -2.6761858 -1.1256548 7 1
4.5420184 -2.9835482 -1.0563189 1 2
10.251793 -6.7367306 1.0732352 2 10
4.4534693 -2.9276083 -0.84412026 1 3
14.08967 -9.2657471 2.0705597 2 11
4.6600857 -3.0657635 -0.68490607 14 4
4.9695964 -3.2706258 -0.52049428 1 5
14.243065 -9.3773117 3.3147328 43 13
4.9872694 -3.2847526 -0.31296894 2 6
14.201237 -9.3568802 3.9262955 28 14
10.302582 -6.7933006 3.306673 9 15
3.6548855 -2.4163647 -1.174003 5 0
7.1636434 -4.7379169 0.14991599 20 8
4.066287 -2.6903961 -1.1256548 7 1
6.3704839 -4.2165313 0.40037021 6 9
4.5119295 -2.9863811 -1.0517393 1 2
10.13851 -6.7130775 1.0638225 5 10
13.99105 -9.2710123 2.0608103 2 11
4.6179194 -3.0611725 -0.68027443 14 4
4.9647908 -3.2923574 -0.52119154 1 5
14.151349 -9.3878994 3.3009961 37 13
7.4952784 -4.9741964 -0.47144222 4 6
14.121408 -9.3751354 3.9132483 42 14
10.272368 -6.824945 3.3046021 11 15
3.6464283 -2.4291081 -1.174003 5 0
6.4281945 -4.2838326 0.13483712 7 8
4.0536275 -2.7024119 -1.124755 7 1
6.4238529 -4.2841778 0.40466174 1 9
4.514545 -3.0108273 -1.0547923 3 2
9.7802229 -6.5250645 1.0286115 7 10
13.928886 -9.2999525 2.0564229 2 11
4.5692387 -3.0519137 -0.67466843 21 4
4.9830871 -3.3295927 -0.52432913 1 5
14.061365 -9.3990536 3.2876396 33 13
7.5143957 -5.0247531 -0.47374499 4 6
14.072396 -9.4135361 3.9087489 6 14
8.2247934 -5.5039411 -0.17274341 1 7
10.217981 -6.8403425 3.2947669 11 15
3.6347196 -2.4396689 -1.1729679 5 0
6.404901 -4.3006706 0.1346626 22 8
4.0474057 -2.7187181 -1.1256548 7 1
6.42378 -4.3166008 0.4056038 2 9
4.5235624 -3.0397074 -1.0593717 3 2
9.7193546 -6.5335984 1.0246024 23 10
9.721014 -6.5396414 1.4385456 18 11
4.548676 -3.0611951 -0.67320597 23 4
9.6908283 -6.5242491 1.8503073 6 12
7.0571895 -4.7511797 -0.74431044 3 5
13.971481 -9.4096975 3.2742813 41 13
7.6127563 -5.1290708 -0.48107192 2 6
13.39145 -9.0258474 3.728338 12 14
7.4527912 -5.0250783 -0.15689667 1 7
10.189239 -6.8727274 3.2932143 11 15
3.6309822 -2.4555881 -1.1745209 5 0
6.401444 -4.3308449 0.13490692 28 8
4.031435 -2.7284608 -1.1238551 7 1
6.4285188 -4.3524342 0.40685984 2 9
4.5096717 -3.0532773 -1.0586084 3 2
9.6783428 -6.5551953 1.0226849 35 10
9.6701918 -6.5545998 1.434402 30 11
4.5478201 -3.0837388 -0.67466903 10 4
9.6549177 -6.5491652 1.8478044 30 12
7.0735388 -4.7981529 -0.74779654 3 5
9.6205244 -6.5282874 2.2599425 36 13
7.5683665 -5.1376653 -0.47939721 2 6
9.5890522 -6.5118213 2.6760175 10 14
7.4385123 -5.0533099 -0.15696646 3 7
10.149205 -6.8973927 3.2880373 11 15
3.6255815 -2.4704232 -1.1755562 5 0
4.0315461 -2.7491035 -1.1265551 7 1
6.4272509 -4.38273 0.4076972 2 9
4.5119624 -3.077852 -1.0616615 3 2
9.624135 -6.5676003 1.0193731 26 10
4.5028477 -3.0739386 -0.86351812 1 3
9.6046314 -6.5592074 1.4280647 30 11
4.550684 -3.107759 -0.67661828 8 4
9.6184673 -6.5711169 1.8449886 34 12
7.0633259 -4.8273115 -0.74849373 3 5
9.5652628 -6.5396681 2.25231 31 13
7.5042276 -5.132483 -0.47646645 4 6
7.4943304 -5.127634 -0.15850227 3 7
9.5539656 -6.5392871 3.1022058 44 15
3.6237409 -2.486805 -1.1776267 5 0
7.176331 -4.9266248 0.15194045 13 8
4.0191956 -2.7602518 -1.1256548 7 1
6.4192681 -4.4085426 0.40811595 2 9
4.4920216 -3.0861266 -1.0593717 3 2
9.5694618 -6.5769091 1.0158868 35 10
9.551753 -6.5696487 1.4234339 34 11
4.5665226 -3.1408317 -0.68051809 8 4
9.546175 -6.568265 1.8352895 35 12
7.0407152 -4.84619 -0.74779654 3 5
9.5111837 -6.5490837 2.2446778 37 13
7.4805856 -5.1528058 -0.47604769 4 6
9.4894838 -6.5365834 2.6602712 40 14
7.4443531 -5.1297646 -0.15780418 7 7
9.4956446 -6.5457149 3.0902998 42 15
3.6059389 -2.4922175 -1.1745209 5 0
7.1862717 -4.9685922 0.15249895 13 8
4.0196357 -2.780215 -1.1283547 7 1
6.4202642 -4.442287 0.40916264 2 9
4.484992 -3.10324 -1.060135 3 2
9.4968147 -6.5734544 1.0104831 33 10
9.4891186 -6.5730276 1.4173403 28 11
4.5881634 -3.1793652 -0.68539351 8 4
9.4874744 -6.5767899 1.8284066 37 12
7.0377049 -4.8785915 -0.74919105 3 5
9.4523087 -6.5548558 2.2358992 40 13
7.6800756 -5.3278584 -0.48986444 2 6
9.4361916 -6.5485582 2.6517231 56 14
6.4506698 -4.4783249 -0.13707078 11 7
9.4267235 -6.5468645 3.0752885 41 15
3.5877054 -2.4981658 -1.171415 5 0
9.4775629 -6.6018085 0.20160995 9 8
4.0099072 -2.7942293 -1.1283542 7 1
6.430934 -4.482945 0.41083738 2 9
4.4805746 -3.1233675 -1.0616615 3 2
9.4362221 -6.5803518 1.0064752 30 10
9.4270477 -6.5788455 1.4114906 30 11
4.6063361 -3.2158155 -0.68978083 10 4
9.4272089 -6.5838528 1.8212105 34 12
7.0140986 -4.8985648 -0.74849373 3 5
9.3907452 -6.5608268 2.2267418 39 13
7.7138166 -5.3912468 -0.49321389 2 6
9.3749447 -6.5546579 2.6409254 52 14
6.4579391 -4.51686 -0.13755943 1 7
9.3626585 -6.5509343 3.0618298 43 15
3.5963597 -2.5228782 -1.177109 5 0
9.4135399 -6.6061325 0.20073733 30 8
4.0033188 -2.8104491 -1.129254 7 1
6.3604541 -4.4652286 0.40727854 9 9
4.4760699 -3.1435013 -1.0631877 3 2
9.3708096 -6.5834723 1.0019419 16 10
9.3683004 -6.5865946 1.4061284 34 11
4.6372991 -3.2615676 -0.69611734 8 4
9.3746243 -6.5934868 1.815266 35 12
7.0262866 -4.943656 -0.75163138 3 5
9.3420992 -6.5754852 2.2206345 39 13
7.6296296 -5.3721461 -0.48902708 2 6
9.3249245 -6.5682654 2.6332772 56 14
7.7965779 -5.4917331 -0.16646054 10 7
9.3092995 -6.5596924 3.0514772 43 15
3.5875318 -2.5354161 -1.177109 5 0
7.2539392 -5.1265769 0.15504698 3 8
4.0003419 -2.8282089 -1.1310536 7 1
6.3676581 -4.5035501 0.40874398 4 9
4.4586606 -3.1545711 -1.0616615 3 2
9.3282566 -6.6023297 0.99985021 33 10
9.3010416 -6.5855055 1.3993037 33 11
4.6572366 -3.2987273 -0.70074838 8 4
9.3257627 -6.6078968 1.8102601 37 12
7.0154901 -4.9727607 -0.75232875 3 5
9.2737942 -6.5735049 2.2095675 42 13
7.59548 -5.3858647 -0.48798034 2 6
9.2601748 -6.5687084 2.6211295 59 14
7.8018222 -5.5362735 -0.16698411 10 7
9.2611399 -6.574254 3.0431948 45 15
3.5885475 -2.5540202 -1.1802149 5 0
7.2229686 -5.1425891 0.15476775 7 8
3.9936199 -2.8444169 -1.1319535 5 1
6.4462419 -4.5929689 0.41481492 2 9
4.4620099 -3.1803713 -1.065096 3 2
9.275486 -6.6112542 0.99653828 26 10
9.252142 -6.5994887 1.3954039 30 11
5.2193351 -3.7242904 -0.78727561 14 4
9.2592306 -6.6094232 1.8018128 40 12
6.141974 -4.3858814 -0.66029209 13 5
9.2192869 -6.5857692 2.202317 39 13
7.5886898 -5.4229579 -0.48881775 2 6
9.2070656 -6.5794663 2.6125817 59 14
7.795465 -5.5727763 -0.16726334 10 7
9.1972809 -6.5773253 3.0297368 12 15
3.5650337 -2.5570221 -1.1755561 5 0
9.2674828 -6.6495566 0.19909681 7 8
3.9863341 -2.8613071 -1.1328537 5 1
6.4618111 -4.639863 0.41690835 2 9
4.4551067 -3.20014 -1.0662408 3 2
9.1961727 -6.6056871 0.99061167 23 10
9.2021017 -6.6148162 1.391504 30 11
5.2378826 -3.7665739 -0.79215038 21 4
9.1916475 -6.6121693 1.7933652 37 12
6.1193891 -4.4037075 -0.65959489 6 5
9.1664047 -6.5988674 2.1954489 42 13
9.1480989 -6.5881138 2.6026838 56 14
7.7993231 -5.618844 -0.16778691 8 7
3.5603352 -2.573467 -1.177109 5 0
9.1814728 -6.6389523 0.19777042 9 8
3.9821358 -2.8804681 -1.1346529 5 1
6.4585223 -4.6717558 0.41774574 2 9
4.4439087 -3.215672 -1.0662408 3 2
9.1525326 -6.6253281 0.98851985 33 10
9.1408205 -6.6217146 1.3858981 31 11
5.2423878 -3.7976453 -0.79483157 38 4
9.139719 -6.6233501 1.7877336 37 12
6.9621515 -5.0471683 -0.75232875 3 5
9.1019926 -6.6008568 2.1855268 39 13
9.0982313 -6.6005521 2.5950353 54 14
7.8168869 -5.673049 -0.16858976 5 7
7.9696894 -5.7860684 2.6389196 1 15
3.5627143 -2.5932167 -1.1807323 5 0
9.1109095 -6.6340513 0.19672328 22 8
3.9725621 -2.8936572 -1.1346529 7 1
6.4655962 -4.70961 0.41921115 2 9
4.4427414 -3.2373276 -1.0685306 3 2
9.0805998 -6.6192598 0.98311621 21 10
9.0771141 -6.621573 1.3795608 33 11
5.2586317 -3.8360665 -0.79921883 23 4
9.0841951 -6.6291676 1.7811632 37 12
6.97756 -5.0937223 -0.75581491 3 5
9.0546885 -6.6124797 2.17942 39 13
9.040102 -6.6042466 2.5846879 57 14
6.1980615 -4.5296535 -0.13399915 16 7
7.9488993 -5.8113251 2.638402 4 15
3.5665617 -2.6141536 -1.1848736 5 0
9.0662823 -6.6476731 0.19623461 20 8
3.9660871 -2.9091198 -1.1355526 7 1
6.4748807 -4.7510552 0.42088589 2 9
4.4351463 -3.2543652 -1.0692937 3 2
9.0377188 -6.6340084 0.98085141 35 10
9.0135107 -6.6210818 1.3732237 31 11
9.0339441 -6.6409478 1.7758447 37 12
6.9638405 -5.1191931 -0.75616348 3 5
8.9884224 -6.609901 2.1687357 40 13
6.1424809 -4.5187063 -0.39963722 35 6
8.9840336 -6.611506 2.5752397 61 14
7.9270077 -5.8378901 2.6378839 4 15
3.5558603 -2.6254401 -1.184356 5 0
9.0253296 -6.6662121 0.19585067 30 8
3.9559081 -2.9229465 -1.1355526 7 1
6.474318 -4.7854991 0.42193258 3 9
4.4079723 -3.2581573 -1.0654775 3 2
8.9920797 -6.6489329 0.97840977 33 10
8.9664068 -6.6347938 1.3695676 30 11
5.0546198 -3.7415869 -0.77216458 2 4
8.9599056 -6.6348238 1.7658327 35 12
6.9619403 -5.1553273 -0.75790662 3 5
8.9337444 -6.6178646 2.1611023 40 13
6.8616138 -5.0847449 -0.44757697 7 6
8.9170666 -6.6103315 2.5626426 61 14
6.5052018 -4.8241458 -0.14136405 15 7
7.9158916 -5.8724318 2.64099 4 15
3.5513244 -2.6412945 -1.1859088 5 0
8.9667101 -6.6714153 0.19508277 28 8
3.9488077 -2.939064 -1.1364524 7 1
6.467186 -4.8152266 0.42256063 2 9
4.4028716 -3.2782142 -1.0670041 3 2
8.9208803 -6.6445765 0.97318047 33 10
4.9611349 -3.696569 -0.97990537 1 3
8.9177265 -6.6470685 1.3656676 33 11
4.9619594 -3.699878 -0.75997692 2 4
8.9113579 -6.6471615 1.7608267 35 12
6.8344154 -5.0997849 -0.74605346 3 5
8.8901348 -6.6337457 2.1561425 40 13
6.9878702 -5.2161903 -0.45699739 2 6
8.8705149 -6.6239281 2.5558939 55 14
6.499537 -4.8552012 -0.1416084 18 7
7.8984404 -5.9023414 2.6420257 4 15
3.538528 -2.6519761 -1.1848736 5 0
8.9033632 -6.6726918 0.19421014 30 8
3.9556751 -2.9656892 -1.141402 7 1
6.4918818 -4.8689299 0.42528215 2 9
4.403389 -3.3037558 -1.070057 3 2
8.8645964 -6.6533089 0.9696942 33 10
4.9570312 -3.721844 -0.98178262 1 3
8.8579597 -6.6507435 1.3600618 36 11
4.9013968 -3.6814106 -0.75266474 2 4
8.862833 -6.6592417 1.7558209 35 12
6.8293123 -5.1331863 -0.74744785 3 5
8.8249636 -6.6356087 2.146219 36 13
8.8119192 -6.6306167 2.545996 53 14
7.8623548 -5.9182568 2.6368489 2 15
3.5385001 -2.6712956 -1.1879795 5 0
8.8405495 -6.6763573 0.19337244 31 8
3.9261203 -2.9660709 -1.1360025 7 1
6.4803672 -4.8975081 0.42570084 2 9
4.3949633 -3.3214734 -1.0708202 3 2
8.8174791 -6.6661882 0.96707952 38 10
4.9251032 -3.7248263 -0.97802824 1 3
8.7891989 -6.6496301 1.3532372 36 11
4.9353571 -3.7352901 -0.75997692 2 4
8.8068676 -6.6678333 1.7495635 40 12
5.7066126 -4.3221431 -0.62630135 15 5
8.7720108 -6.6438513 2.1389697 39 13
8.7638731 -6.6425033 2.5387979 55 14
7.4876223 -5.6772375 -0.16401722 1 7
7.8590803 -5.9610443 2.6430607 1 15
3.5256104 -2.6819069 -1.186944 5 0
8.7901335 -6.6865931 0.19277903 28 8
3.9188442 -2.9821179 -1.1369023 7 1
6.491838 -4.9418745 0.42758495 2 9
4.3921309 -3.344696 -1.0731099 3 2
8.7581196 -6.6718988 0.96324474 38 10
4.9239874 -3.7524312 -0.98053122 1 3
8.7359343 -6.6574078 1.348606 36 11
4.874928 -3.7163894 -0.75266474 2 4
8.7426987 -6.6673894 1.7414289 42 12
5.6946592 -4.3444538 -0.62665004 42 5
8.7148256 -6.6509442 2.1309557 40 13
8.6945543 -6.6402783 2.5257504 56 14
8.7327795 -6.6694722 -0.19180134 8 7
7.8382249 -5.9884415 2.6430607 1 15
3.5355744 -2.7070639 -1.1931559 5 0
8.7282228 -6.685308 0.19190642 5 8
3.9182155 -3.0022085 -1.1396018 7 1
6.4953055 -4.9768224 0.42884102 2 9
4.3816028 -3.3584783 -1.0731101 3 2
8.7181425 -6.6848321 0.96115297 38 10
8.6870356 -6.6657972 1.3444624 30 11
8.6888046 -6.6695638 1.7348586 39 12
5.6809816 -4.3623223 -0.62664998 34 5
8.6596365 -6.651979 2.1225588 42 13
7.0727286 -5.4349442 -0.46746469 2 6
8.6427507 -6.6438065 2.5167525 56 14
8.507268 -6.539659 -0.18729864 17 7
7.8285608 -6.020102 2.6461666 1 15
3.5123353 -2.7087705 -1.1884971 5 0
6.5587983 -5.0582528 0.14457555 11 8
3.9174955 -3.0223269 -1.1423012 7 1
6.5063534 -5.0214291 0.4307251 2 9
4.3605275 -3.3665533 -1.0708202 3 2
8.6411419 -6.6738172 0.95522648 38 10
4.8871446 -3.7744906 -0.97802812 1 3
8.6397505 -6.6751494 1.3405627 33 11
8.6279631 -6.6708536 1.7273498 39 12
5.6562648 -4.3748116 -0.62560409 49 5
8.6080246 -6.6578369 2.1153092 40 13
7.0578246 -5.4608121 -0.46767396 2 6
8.5975561 -6.6545391 2.510004 55 14
8.4669962 -6.55585 -0.1869147 21 7
7.7066975 -5.9693141 2.6120021 1 15
3.5094366 -2.7251427 -1.1905676 5 0
6.5079384 -5.0553555 0.14384255 13 8
3.9069216 -3.0359833 -1.1423012 7 1
6.5077076 -5.0588193 0.43198118 2 9
4.3586407 -3.3882248 -1.07311 3 2
8.647274 -6.7244511 0.95836401 40 10
4.8178101 -3.7478628 -0.96676493 1 3
8.6116972 -6.7016101 1.3398315 40 11
8.5812483 -6.6827254 1.7226567 42 12
5.6331005 -4.3884082 -0.62473261 48 5
8.552207 -6.6625075 2.1072953 36 13
7.0261173 -5.475594 -0.4668366 2 6
8.5420008 -6.6593485 2.500556 55 14
8.4566755 -6.595202 -0.18719395 16 7
7.6583977 -5.9747901 2.6026847 2 15
3.5024681 -2.7403679 -1.1916029 5 0
8.1990423 -6.4150171 0.18171422 3 8
3.8886273 -3.0435972 -1.1400516 7 1
6.5088806 -5.0962801 0.43323722 2 9
4.3616481 -3.4162827 -1.0769261 3 2
8.6523676 -6.7794466 0.96167588 38 10
8.602313 -6.742651 1.3420252 37 11
8.5811825 -6.7309251 1.7273498 43 12
5.6177483 -4.4080443 -0.62473261 49 5
8.5153751 -6.6841097 2.1042423 42 13
6.9902925 -5.4889736 -0.46578985 2 6
8.486887 -6.6665363 2.4915583 58 14
8.3754177 -6.5789766 -0.18590246 27 7
7.6314182 -5.9967117 2.6006138 1 15
3.5019855 -2.7597516 -1.1947088 5 0
8.7580919 -6.9043231 0.19466391 7 8
3.886627 -3.0650699 -1.1427511 7 1
6.4957552 -5.1226792 0.43355119 6 9
4.3496962 -3.4314868 -1.0769261 3 2
8.6614943 -6.8355279 0.96533644 40 10
8.6071415 -6.7975106 1.3466562 39 11
8.5870857 -6.7841048 1.7332942 47 12
5.6101413 -4.4338036 -0.62560403 52 5
8.5212545 -6.7369275 2.1114919 45 13
6.9522924 -5.4984746 -0.46453384 2 6
8.4742622 -6.7045841 2.4947073 58 14
8.3288784 -6.5895615 -0.18537889 13 7
3.498383 -2.7767627 -1.1967793 5 0
3.8703368 -3.0730941 -1.1409515 7 1
6.4324818 -5.1092982 0.43051577 16 9
4.3284693 -3.4393218 -1.0746365 3 2
8.6672153 -6.8892751 0.96864831 38 10
4.4813952 -3.562109 -0.90669405 1 3
8.6171827 -6.8519597 1.3517747 36 11
8.5865374 -6.8324876 1.7379873 47 12
5.5868373 -4.447156 -0.62473261 54 5
8.5295868 -6.7896018 2.1191254 45 13
6.9215221 -5.5115471 -0.46369651 2 6
8.471796 -6.7484336 2.500556 56 14
8.2198124 -6.5500541 -0.18345916 12 7
8.4489126 -6.7350264 2.8951502 43 15
3.4770823 -2.7787001 -1.1926382 5 0
6.8006511 -5.4366665 0.15197539 9 8
3.8656738 -3.0914538 -1.1427511 7 1
8.7196856 -6.9757972 0.58522093 36 9
4.3262382 -3.461015 -1.0769261 3 2
8.6645441 -6.9341617 0.97091436 38 10
8.6272993 -6.9092984 1.3571368 37 11
8.5872993 -6.8821845 1.7429932 43 12
5.5689497 -4.4631658 -0.62438399 51 5
8.5380011 -6.8451223 2.1271393 42 13
6.8648453 -5.505682 -0.46118426 2 6
8.4846687 -6.8072314 2.5113535 58 14
8.1376371 -6.5311437 -0.18213278 17 7
8.4569874 -6.789876 2.9060206 55 15
3.4643521 -2.7883983 -1.1916029 5 0
8.6522655 -6.9665508 0.193896 13 8
3.8518238 -3.1024842 -1.1418513 7 1
8.7279415 -7.032506 0.58741897 44 9
4.3233037 -3.4834859 -1.0792159 3 2
8.6651068 -6.9843717 0.97370344 35 10
8.6417561 -6.9705286 1.3632303 39 11
8.5924273 -6.9356914 1.7489376 42 12
5.5533357 -4.4825773 -0.62438393 40 5
8.5369663 -6.8933854 2.1328635 43 13
6.882875 -5.5597329 -0.46369645 2 6
8.4911699 -6.8613029 2.5203516 58 14
8.1023464 -6.5494518 -0.1818535 19 7
8.4437494 -6.8278575 2.9096441 42 15
3.4696045 -2.8126395 -1.1967793 5 0
8.6341076 -7.00175 0.19403563 13 8
3.8500507 -3.1232765 -1.1445507 7 1
8.7312565 -7.0855837 0.58930314 50 9
4.3141665 -3.5010295 -1.0799791 3 2
8.6824389 -7.0484815 0.97840989 38 10
8.6374025 -7.016923 1.3663989 36 11
8.6049519 -6.9955492 1.7564466 42 12
5.5453849 -4.5082197 -0.62525547 27 5
8.5417919 -6.9466782 2.1401143 42 13
6.8634267 -5.583724 -0.46369645 2 6
8.4973965 -6.9155025 2.5293496 58 14
8.0871887 -6.5840058 -0.18202804 21 7
8.4648027 -6.893889 2.9251735 61 15
3.4627583 -2.8271768 -1.1978145 5 0
8.7428093 -7.1406298 0.19703743 11 8
3.8361073 -3.1342309 -1.1436509 7 1
8.7281189 -7.1337128 0.59076846 46 9
4.3049598 -3.5185528 -1.0807424 3 2
8.6917143 -7.1064901 0.98224461 40 10
8.6389732 -7.0684004 1.3705425 33 11
8.60952 -7.0493197 1.7623911 43 12
5.5296154 -4.5275493 -0.62525553 15 5
8.5463495 -7.0000896 2.1473639 39 13
8.4973202 -6.9648881 2.5365481 56 14
8.1260128 -6.6629143 -0.18342425 15 7
8.4675713 -6.945447 2.9344907 48 15
3.4588368 -2.8441546 -1.199885 5 0
3.831162 -3.1525555 -1.1454505 7 1
8.6800346 -7.1450963 0.58919835 20 9
4.2987137 -3.5385487 -1.0822687 3 2
8.689929 -7.1557841 0.98485941 42 10
8.6479521 -7.1262865 1.3759049 46 11
8.6138191 -7.1032081 1.7683356 45 12
5.5237417 -4.5566611 -0.62647569 7 5
8.5566959 -7.0586138 2.1561425 42 13
6.7287683 -5.5526886 -0.45720682 2 6
8.5015106 -7.0180783 2.5450964 55 14
8.1381683 -6.7205243 -0.18422705 22 7
8.4700842 -6.9971089 2.9438081 46 15
3.4513645 -2.8592777 -1.2009203 6 0
6.8510227 -5.6757197 0.15529132 1 8
3.8351386 -3.1783435 -1.14995 7 1
8.6734915 -7.1906486 0.59045446 18 9
4.2826934 -3.5517743 -1.0815055 3 2
8.6682415 -7.1914029 0.98538226 38 10
8.6321878 -7.1640353 1.3773673 39 11
4.3040137 -3.573261 -0.68685532 2 4
8.6178436 -7.1572118 1.7742802 52 12
5.5032048 -4.5720949 -0.62595272 4 5
8.5685139 -7.1212993 2.1656828 51 13
6.6776547 -5.551775 -0.45511335 2 6
8.5086908 -7.0766039 2.5549939 58 14
8.4708557 -7.047637 2.9526083 47 15
3.4324627 -2.8638823 -1.1978145 5 0
6.7104278 -5.6008449 0.15256874 1 8
3.8234637 -3.1923792 -1.1499496 7 1
8.9380989 -7.4628148 0.61023748 19 9
4.2823238 -3.5767703 -1.0845584 3 2
8.7852774 -7.3404226 1.0015932 9 10
8.6500359 -7.232553 1.3844357 25 11
8.5928078 -7.1872506 1.7742802 34 12
5.4948525 -4.5976691 -0.62682432 3 5
8.542098 -7.1499052 2.1652999 40 13
6.6107631 -5.5353026 -0.4518685 9 6
8.5123234 -7.1300378 2.5635424 70 14
6.7527623 -5.6562061 -0.15375523 3 7
8.4684143 -7.0957737 2.9603727 45 15
3.4283612 -2.8808174 -1.199885 5 0
8.9025211 -7.4806991 0.20297123 1 8
3.8068895 -3.2000251 -1.14815 7 1
8.8798923 -7.4669747 0.60803932 12 9
4.2698131 -3.591697 -1.0845585 2 2
8.9257689 -7.5108705 1.0205932 23 10
4.229043 -3.5586622 -0.87540722 1 3
8.8963251 -7.488749 1.4278209 22 11
8.7565155 -7.3762832 1.8133888 35 12
5.5031471 -4.6373639 -0.62961328 3 5
8.5528717 -7.2072897 2.1740773 37 13
6.5694666 -5.5378857 -0.45029849 7 6
8.497571 -7.1657643 2.5662417 63 14
6.7696624 -5.7106886 -0.15459296 26 7
8.4657393 -7.1439805 2.9681373 61 15
3.4217386 -2.8946662 -1.2009203 6 0
8.9450445 -7.569859 0.20454195 11 8
3.7927215 -3.2107759 -1.1472501 7 1
8.7971554 -7.4473429 0.60406178 19 9
4.2608757 -3.6083741 -1.0853218 2 2
8.8886509 -7.5301266 1.0191988 47 10
4.2165952 -3.5734031 -0.87540722 1 3
9.0427494 -7.6660967 1.4556074 34 11
9.0152397 -7.6454782 1.872208 38 12
6.7366104 -5.7150822 -0.77289742 1 5
8.9407978 -7.5877151 2.2794039 34 13
6.5196438 -5.5349317 -0.44820505 7 6
8.6700592 -7.3631568 2.6260786 43 14
9.2579975 -7.8624711 -0.21201119 4 7
8.4758654 -7.2007818 2.9800429 45 15
3.4204369 -2.9141097 -1.2040262 6 0
8.7889853 -7.4879522 0.20154013 7 8
3.7879858 -3.2283914 -1.1490496 7 1
8.755908 -7.4650478 0.60301512 34 9
4.2422786 -3.618129 -1.0837952 2 2
9.1033087 -7.7667193 1.0469142 27 10
4.2047219 -3.5873654 -0.8754071 1 3
9.0535173 -7.7269697 1.4614571 30 11
9.0125303 -7.6974282 1.8772141 36 12
6.7317672 -5.7515044 -0.7746405 3 5
8.9573793 -7.653029 2.2900891 37 13
6.4921436 -5.5487347 -0.447577 4 6
8.8988752 -7.6084185 2.703012 60 14
8.8429804 -7.563302 -0.2031105 22 7
8.8455429 -7.5681672 3.1192877 41 15
3.3990235 -2.915374 -1.199885 5 0
8.717268 -7.4795227 0.20049301 22 8
3.7855663 -3.2492096 -1.1517491 5 1
8.747983 -7.511178 0.60427123 17 9
4.1855717 -3.5938084 -1.0723467 1 2
9.1107531 -7.8254242 1.0507489 32 10
4.192174 -3.6020212 -0.87540722 1 3
9.06563 -7.7921672 1.4677941 34 11
9.0185528 -7.7571797 1.8840971 36 12
6.7207112 -5.7827649 -0.77568638 3 5
8.9663277 -7.714982 2.299248 33 13
6.4606256 -5.5609384 -0.44673961 5 6
8.9047499 -7.6674085 2.7129097 58 14
8.716526 -7.5079894 -0.20080677 14 7
8.864439 -7.6380901 3.1353345 49 15
3.3839302 -2.9240232 -1.1983321 5 0
8.7032089 -7.5203638 0.20077223 15 8
3.7712529 -3.2598553 -1.1508493 7 1
9.1341505 -7.8983078 0.63284665 24 9
4.1218867 -3.5654571 -1.0593717 1 2
9.1136494 -7.8861413 1.0544095 32 10
9.0683928 -7.8497486 1.472669 29 11
9.0362139 -7.827414 1.8934833 38 12
6.676394 -5.7853131 -0.77289742 3 5
8.9646921 -7.7709374 2.306118 34 13
6.4311457 -5.5767303 -0.44611156 5 6
8.9133892 -7.7319188 2.7241573 60 14
8.6676073 -7.5187154 -0.20028321 32 7
8.8566904 -7.6854453 3.1420636 45 15
3.3882763 -2.9484997 -1.2035086 6 0
8.9003201 -7.7478461 0.20597306 7 8
3.7651577 -3.278775 -1.1526489 7 1
9.0779066 -7.9052238 0.63085788 13 9
4.0946131 -3.5669274 -1.0555556 1 2
9.122117 -7.9493222 1.0585932 27 10
4.0918403 -3.5670252 -0.85976374 1 3
9.0784597 -7.9168553 1.4790061 34 11
4.1406312 -3.6121027 -0.67466903 2 4
9.0445614 -7.8900738 1.900992 38 12
6.5570822 -5.7221227 -0.76139295 1 5
8.9759674 -7.8357549 2.3160391 34 13
6.3875699 -5.5781245 -0.44443679 5 6
8.9230356 -7.7950368 2.7354047 58 14
8.6744404 -7.5778675 -0.2010511 11 7
8.8719959 -7.7531796 3.1570754 46 15
3.3852272 -2.9666748 -1.2060965 6 0
9.0219603 -7.9064775 0.20939369 18 8
3.7571948 -3.2938113 -1.1535493 7 1
9.1658802 -8.0382624 0.63891757 38 9
4.0644264 -3.5656614 -1.050976 1 2
9.1332483 -8.0152855 1.0631253 30 10
9.0745354 -7.9665618 1.4826623 30 11
9.0466452 -7.9476714 1.9072493 33 12
6.4442778 -5.6634302 -0.75058544 3 5
8.9809017 -7.8926926 2.324053 31 13
6.3570366 -5.5887265 -0.44359943 5 6
8.9234791 -7.8477492 2.7435033 56 14
8.8840351 -7.8185616 3.1710517 44 15
3.3811665 -2.9829972 -1.2081673 6 0
9.0437851 -7.9815888 0.21054557 12 8
3.7544396 -3.3146451 -1.1562481 5 1
9.1572285 -8.0873966 0.64027834 6 9
4.0584664 -3.5843191 -1.0525026 1 2
9.1454382 -8.0798264 1.0676587 34 10
4.0526643 -3.5817132 -0.85663509 1 3
9.0987225 -8.0442085 1.4911932 34 11
4.0564694 -3.587599 -0.66491884 2 4
9.0410395 -7.9988365 1.9119424 33 12
6.4045725 -5.6662865 -0.74814516 3 5
8.984169 -7.9513173 2.3320682 30 13
6.2956204 -5.573813 -0.44066867 20 6
8.9325018 -7.9111509 2.7547507 61 14
8.9521103 -7.9313073 -0.20876506 12 7
8.8827114 -7.8725882 3.1803691 42 15
3.3562913 -2.9819505 -1.202991 6 0
9.1937361 -8.1711931 0.21469925 6 8
3.7428467 -3.3277302 -1.1562481 5 1
8.3737936 -7.447679 0.58731431 4 9
4.0165901 -3.5723684 -1.0448701 1 2
9.1469498 -8.1381884 1.0711435 31 10
4.1286726 -3.6746364 -0.87540728 1 3
9.1061707 -8.1076012 1.497043 34 11
9.0617361 -8.0737133 1.9222673 38 12
6.4397955 -5.737649 -0.7545948 25 5
9.0003281 -8.0218182 2.3435154 34 13
6.2612181 -5.5824633 -0.43962193 10 6
8.9426441 -7.9760089 2.7664483 60 14
8.8984146 -7.9421377 3.1958978 55 15
3.35306 -3.0000882 -1.2055792 8 0
9.1055555 -8.149889 0.21330306 2 8
3.7399189 -3.3485746 -1.1589476 5 1
9.2017117 -8.2417402 0.64739597 9 9
3.9982467 -3.5811284 -1.0433438 1 2
9.1570683 -8.2046347 1.0756755 28 10
4.0216765 -3.6046448 -0.85538352 1 3
9.1177206 -8.1751184 1.5036238 32 11
9.0702553 -8.1382732 1.930089 35 12
6.3114719 -5.6629596 -0.74186999 15 5
9.0073376 -8.0846596 2.3526742 33 13
6.2446642 -5.6069527 -0.4398312 5 6
8.9524431 -8.0410328 2.7781456 54 14
8.3193865 -7.4750476 -0.19522204 1 7
8.8907518 -7.991231 3.203145 48 15
3.3526139 -3.0208266 -1.2092025 6 0
8.2690134 -7.4532967 0.19431485 1 8
3.7166286 -3.3511691 -1.1553489 5 1
3.9798903 -3.5898027 -1.0418172 1 2
9.1668329 -8.2712507 1.0802076 26 10
3.9826744 -3.594837 -0.84975195 1 3
9.1053343 -8.2215281 1.506305 30 11
9.0769682 -8.2016706 1.9375978 35 12
6.2207069 -5.6208401 -0.73350298 19 5
9.0081892 -8.1423807 2.3603079 34 13
6.3465333 -5.7385578 -0.44841433 2 6
8.9604511 -8.1049137 2.7893932 54 14
8.3288288 -7.536243 -0.19605973 1 7
8.9072027 -8.0624056 3.2191916 48 15
3.3449104 -3.0351074 -1.2102379 4 0
3.7049091 -3.3641222 -1.155349 5 1
4.0312777 -3.6617548 -1.0586084 1 2
9.1791935 -8.3407164 1.0850884 26 10
3.9701023 -3.6087174 -0.84975201 1 3
9.1118298 -8.2853146 1.5121547 27 11
3.9208124 -3.5664146 -0.65078199 4 4
9.0804272 -8.2625523 1.9444808 33 12
6.1745243 -5.6183844 -0.7303654 21 5
9.0174627 -8.2081356 2.3702288 30 13
6.3796272 -5.8090868 -0.45218253 11 6
8.9551563 -8.1571398 2.7965918 58 14
8.9161272 -8.127285 3.2326505 48 15
2.6140988 -2.388674 -0.94883066 13 0
8.1872597 -7.48386 0.19361678 1 8
2.6001573 -2.3776002 -0.81342286 1 1
9.1764803 -8.3969173 1.0882261 28 10
9.1267719 -8.3572865 1.5194665 30 11
3.8995564 -3.5720332 -0.64932013 2 4
9.0806589 -8.3208895 1.9507383 33 12
6.1372471 -5.6237507 -0.72827369 34 5
9.0278301 -8.2753811 2.3805325 34 13
6.3475356 -5.8205223 -0.45134524 9 6
8.9668379 -8.225234 2.8091891 60 14
8.2023439 -7.5266042 -0.19431449 1 7
8.9247055 -8.1923246 3.246109 51 15
2.60148 -2.3938599 -0.94727767 24 0
2.6047437 -2.3985429 -0.81747198 31 1
2.5933986 -2.388932 -0.68538606 1 2
9.188138 -8.4667006 1.0931066 27 10
9.1384077 -8.4267759 1.5262917 30 11
9.092206 -8.3900452 1.9594986 35 12
6.1073298 -5.6356816 -0.72705358 52 5
9.036396 -8.3414669 2.3904545 32 13
6.3095703 -5.8263831 -0.4500891 7 6
8.9724264 -8.2882185 2.8199866 58 14
8.1407738 -7.5226188 -0.19347678 3 7
8.9244261 -8.2496557 3.2564619 48 15
2.5803554 -2.391109 -0.94261909 22 0
2.5763502 -2.3890698 -0.81117332 21 1
9.1906567 -8.5285368 1.0969415 27 10
2.5741036 -2.3894939 -0.55628091 10 3
9.1496677 -8.4964437 1.5331162 30 11
9.0975933 -8.4540043 1.9670075 35 12
6.0876198 -5.6569653 -0.72705346 33 5
9.034544 -8.3983555 2.3977065 35 13
6.3564744 -5.9109359 -0.45490402 4 6
8.9833927 -8.3566523 2.8325837 60 14
8.9224415 -8.3057652 3.2662966 46 15
2.5734057 -2.4014194 -0.94313669 21 0
2.5622981 -2.3927281 -0.80937421 21 1
2.5493984 -2.3815155 -0.67813528 21 2
9.2074137 -8.6040964 1.1025194 27 10
2.5527589 -2.3863239 -0.55346507 19 3
9.1489506 -8.5554476 1.5379909 27 11
2.5499804 -2.3853951 -0.42873618 14 4
9.1012011 -8.5167542 1.9742035 31 12
9.0395708 -8.4620409 2.4068656 30 13
6.3532963 -5.9494705 -0.45616004 2 6
8.9911432 -8.4225988 2.8442812 58 14
8.9399052 -8.3804598 3.2833788 52 15
2.5762694 -2.4209707 -0.94727767 4 0
2.5383146 -2.3869729 -0.80442488 15 1
7.9472752 -7.4760499 0.57182288 1 9
2.53249 -2.3823287 -0.67584556 21 2
9.2121487 -8.6689548 1.106703 27 10
2.5501676 -2.4006364 -0.55471665 27 3
9.1580515 -8.6240768 1.5445719 35 11
2.5214093 -2.3752258 -0.42532387 27 4
9.1202965 -8.594532 1.984841 33 12
2.536062 -2.3898637 -0.30487087 20 5
9.0499802 -8.5312519 2.4175496 37 13
2.5254402 -2.3815191 -0.18191974 3 6
8.9928751 -8.4833498 2.8541789 58 14
8.9429083 -8.4421167 3.2952847 52 15
3.2932429 -3.1164429 -1.2148967 6 0
7.8979316 -7.4817691 0.57014817 1 9
2.5198832 -2.387104 -0.6747008 13 2
9.2208786 -8.73806 1.1114093 24 10
2.5346041 -2.4027281 -0.55315226 25 3
9.1682224 -8.6942377 1.5513966 35 11
2.5030217 -2.3744485 -0.42361808 22 4
9.1203318 -8.654871 1.9914113 33 12
2.5175881 -2.3891017 -0.30365074 26 5
9.0657082 -8.6060429 2.4297628 35 13
2.5185597 -2.3916955 -0.18202439 27 6
9.0013542 -8.5509272 2.8663261 56 14
2.4990525 -2.3748307 -0.060175709 6 7
3.2697575 -3.1159248 -1.2102379 6 0
2.4880822 -2.3718541 0.060001299 4 8
3.6582778 -3.4886038 -1.1670458 5 1
7.871767 -7.5092921 0.57014817 1 9
9.2249146 -8.8032074 1.115593 28 10
2.526201 -2.4115613 -0.5531522 9 3
9.1765823 -8.7632055 1.5579778 31 11
2.5004594 -2.3886564 -0.424593 22 4
