# .PCD v0.7 - Point Cloud Data file format
VERSION 0.7
FIELDS x y z intensity ring
SIZE 4 4 4 4 2
TYPE F F F F U
COUNT 1 1 1 1 1
WIDTH 551
HEIGHT 1
VIEWPOINT 0 0 0 1 0 0 0
POINTS 551
DATA ascii
2.5476553 -0.81208068 -0.51976383 47 2
2.5952368 -0.82774681 -0.43144622 25 3
2.6152747 -0.83514357 -0.33709049 64 4
2.6416755 -0.84459043 -0.24264167 2 5
2.6592495 -0.85123253 -0.1463313 2 6
2.7099545 -0.86798477 -0.0496694 52 7
2.5334518 -0.81779426 -0.51747411 54 2
2.5790274 -0.83300316 -0.42925614 51 3
2.5970862 -0.83983725 -0.33514062 47 4
2.6461442 -0.8567217 -0.24333891 27 5
2.667511 -0.86466837 -0.14695932 12 6
2.702951 -0.87667757 -0.049599592 52 7
2.5287156 -0.82602322 -0.51709253 52 2
2.5984874 -0.84981847 -0.43301061 53 3
2.601685 -0.85136712 -0.33611551 47 4
2.697974 -0.88548368 -0.049564682 53 7
2.5352833 -0.83748305 -0.51900059 50 2
2.5937798 -0.85781044 -0.43269777 53 3
2.6063862 -0.86248446 -0.33709052 52 4
2.6345775 -0.87283373 -0.24281597 47 5
2.6805208 -0.88909322 -0.14800604 37 6
2.6969209 -0.89505541 -0.049599588 52 7
2.7353466 -0.91258061 0.05033268 3 8
2.5250437 -0.84339797 -0.51747411 49 2
2.5796804 -0.86264843 -0.43082052 57 3
2.6014769 -0.87094676 -0.33684704 49 4
2.6466274 -0.88709033 -0.24421047 47 5
2.6529408 -0.88972133 -0.14664531 7 6
2.7013626 -0.90701002 -0.049739204 50 7
2.5330944 -0.85641968 -0.51976383 46 2
2.5877275 -0.87589741 -0.43269771 60 3
2.5908997 -0.8774752 -0.33587205 49 4
2.6378543 -0.89440399 -0.24368754 29 5
2.7038608 -0.91836345 -0.049843922 48 7
2.5505235 -0.87224472 -0.5239616 23 2
2.5883918 -0.88620466 -0.43332341 63 3
2.5895448 -0.88760918 -0.33611551 47 4
2.6861756 -0.92230314 -0.14884342 1 6
2.6836174 -0.92194843 -0.049529776 10 7
2.7332013 -0.94378525 0.0504723 38 8
2.5891726 -0.89607525 -0.43394917 60 3
2.5903385 -0.89749146 -0.33660302 45 4
2.631546 -0.91279793 -0.24368757 1 5
2.6831026 -0.93120575 -0.14884344 1 6
2.726114 -0.95200163 0.050402489 10 8
2.5426741 -0.88893747 -0.52358001 1 2
2.5767064 -0.90184486 -0.43238485 56 3
2.5928099 -0.90849715 -0.33733422 49 4
2.6585875 -0.93206602 -0.24647652 1 5
2.7099884 -0.95114887 -0.15051818 1 6
2.7036941 -0.9494698 -0.050018445 1 7
2.724828 -0.96170205 0.050437395 50 8
2.5376296 -0.89613026 -0.6213147 3 1
2.5395555 -0.89780754 -0.52358001 1 2
2.569977 -0.90906715 -0.43175912 42 3
2.5916541 -0.91775292 -0.33757797 36 4
2.6402948 -0.93601471 -0.24508204 1 5
2.676702 -0.94944739 -0.14884344 1 6
2.7041323 -0.96023995 -0.050088253 2 7
2.7252209 -0.97255194 0.050507203 43 8
2.547657 -0.91018718 -0.52586967 1 2
2.6370118 -0.94522548 -0.24508207 1 5
2.6583312 -0.95339102 -0.14800605 1 6
2.6932356 -0.9669705 -0.049948636 8 7
2.7180474 -0.98070139 0.050437391 50 8
2.5443039 -0.91951853 -0.52586967 1 2
2.5795841 -0.93379647 -0.33684704 2 4
2.6524282 -0.96121293 -0.24682517 1 5
2.6548193 -0.96312773 -0.14800605 1 6
2.7181916 -0.99202788 0.050507199 53 8
2.5133011 -0.91774833 -0.61771548 63 1
2.5521431 -0.93243676 -0.52815944 1 2
2.587981 -0.94655442 -0.43645215 2 3
2.5966492 -0.95075244 -0.33952817 11 4
2.6264386 -0.96269959 -0.24473341 1 5
2.6926937 -0.98751807 -0.15030883 2 6
2.7012653 -0.99173158 -0.05022788 52 7
2.7072084 -0.99874192 0.050367586 56 8
2.5155666 -0.92854041 -0.61906552 66 1
2.7916191 -1.0309899 0.15596122 1 9
2.5487082 -0.94178462 -0.52815938 1 2
2.5696731 -0.95055085 -0.43394923 8 3
2.6267986 -0.97324628 -0.24508202 2 5
2.67033 -0.99043524 -0.1492621 2 6
2.692162 -0.99906725 -0.050123155 66 7
2.7072763 -1.0100553 0.050437391 53 8
2.4957156 -0.93162072 -0.6150161 55 1
2.722513 -1.0162815 0.15229768 14 9
2.5380487 -0.94792789 -0.52663296 1 2
2.5478365 -0.95259708 -0.43082052 40 3
2.5825114 -0.96607518 -0.33855289 43 4
2.6233859 -0.98240966 -0.24508207 2 5
2.6369338 -0.98853278 -0.14758734 12 6
2.6830413 -1.0063517 -0.050018445 58 7
2.7113969 -1.0218483 0.050577011 53 8
2.4907889 -0.93920404 -0.6145665 50 1
2.5385652 -0.95772517 -0.5273962 1 2
2.568687 -0.97011358 -0.4348878 53 3
2.5885785 -0.97814226 -0.3397716 54 4
2.6350217 -0.99674296 -0.24647653 21 5
2.6429806 -1.0008081 -0.14811072 33 6
2.6852994 -1.017369 -0.050123155 48 7
2.7154689 -1.0336796 0.050716627 53 8
2.4949453 -0.9502331 -0.61636615 50 1
2.7341959 -1.0419012 0.15334441 37 9
2.520699 -0.9605453 -0.52434325 2 2
2.5802214 -0.98425889 -0.43739077 63 3
2.5721664 -0.98221487 -0.33806571 47 4
2.618499 -1.0009549 -0.24525636 37 5
2.6564364 -1.0159885 -0.14905275 36 6
2.6742616 -1.0238762 -0.049983531 48 7
2.7081113 -1.0417163 0.050646819 53 8
2.4934318 -0.95963615 -0.61681569 55 1
2.7435894 -1.056463 0.15407711 5 9
2.5318172 -0.97542423 -0.5273962 2 2
2.5655382 -0.98944443 -0.43551356 63 3
2.5724263 -0.99261653 -0.33855319 46 4
2.6279991 -1.0151144 -0.24647653 46 5
2.6489694 -1.0242773 -0.14884344 32 6
2.6706712 -1.0332048 -0.049983531 48 7
2.6968198 -1.0487357 0.050507195 56 8
2.4989784 -0.97230172 -0.61906552 57 1
2.5229082 -0.9821192 -0.52625132 6 2
2.5602281 -0.99767637 -0.43520069 60 3
2.578018 -1.0056455 -0.3397716 49 4
2.6114471 -1.0192109 -0.24525633 33 5
2.6707737 -1.0439771 -0.050053351 47 7
2.7007728 -1.0605969 0.050646819 52 8
2.4866717 -0.97702003 -0.61681575 52 1
2.7621703 -1.0858207 0.15554252 1 9
2.5605819 -1.0076076 -0.43582642 60 3
2.58021 -1.0163716 -0.34050316 46 4
2.6642308 -1.0510802 -0.15009949 1 6
2.6652534 -1.0525589 -0.050018448 36 7
2.6989131 -1.0707554 0.050681725 22 8
2.4904909 -0.98857003 -0.61861533 55 1
2.7509384 -1.0925072 0.15512384 1 9
2.5143397 -0.99854445 -0.52586967 42 2
2.5570488 -1.0165396 -0.43582636 60 3
2.5655797 -1.0209682 -0.33904037 47 4
2.6172247 -1.0425785 -0.24647652 1 5
2.6457028 -1.054458 -0.1492621 1 6
2.7192891 -1.0898408 0.051135484 5 8
2.4834075 -0.99580693 -0.61771548 55 1
2.7322786 -1.0961536 0.15428644 2 9
2.5143075 -1.0092162 -0.52663296 16 2
2.5551388 -1.0266412 -0.43613926 56 3
2.5656838 -1.0313983 -0.33952817 47 4
2.6320527 -1.0591458 -0.24821962 1 5
2.649231 -1.0671328 -0.14968081 1 6
2.6763873 -1.078615 -0.050367486 2 7
2.4887714 -1.0085618 -0.61996531 57 1
2.7356462 -1.1091624 0.15470514 2 9
2.8783309 -1.167599 0.27175146 1 10
2.5588613 -1.0385256 -0.43739074 52 3
2.5618865 -1.0407952 -0.33952788 36 4
2.6318445 -1.0702868 -0.24856827 1 5
2.6528897 -1.0793849 -0.15009949 1 6
2.6650083 -1.0854001 -0.050227873 2 7
2.6762557 -1.0948851 0.050472297 43 8
2.4852357 -1.0172431 -0.61996531 48 1
2.5215547 -1.0331368 -0.52968591 1 2
2.7560477 -1.1297756 0.26059589 5 10
2.5440719 -1.0433999 -0.43551353 56 3
2.609663 -1.0718974 -0.24682517 1 5
2.6599991 -1.0936579 -0.15072753 1 6
2.67045 -1.0984995 -0.050402395 18 7
2.6982915 -1.1149112 0.050960962 50 8
2.4834707 -1.0266566 -0.62041491 52 1
2.7075343 -1.1198369 0.15355375 32 9
2.5253716 -1.0444943 -0.53121233 1 2
2.5351226 -1.0495638 -0.43457496 22 3
2.5710626 -1.0654949 -0.3417215 2 4
2.6465843 -1.0973333 -0.25066003 1 5
2.6600471 -1.1040037 -0.15093686 1 6
2.6851561 -1.1204729 0.050786443 50 8
2.4690819 -1.0308145 -0.61771548 43 1
2.7220387 -1.1369791 0.15460049 42 9
2.5108404 -1.0487629 -0.52892262 1 2
2.5526786 -1.0683322 -0.33977163 2 4
2.6280351 -1.1004088 -0.24926551 1 5
2.648809 -1.1101943 -0.15051818 1 6
2.6737797 -1.1217577 -0.050611816 63 7
2.6922853 -1.134498 0.050995868 52 8
2.4654689 -1.039427 -0.61771554 7 1
2.7072113 -1.1413441 0.15397246 42 9
2.5035467 -1.055995 -0.52815938 1 2
2.7571173 -1.1635181 0.2618157 48 10
2.553211 -1.0779934 -0.4389551 10 3
2.5580761 -1.0810999 -0.34099028 5 4
2.6315181 -1.1126794 -0.24996275 1 5
2.6522748 -1.1225473 -0.15093686 3 6
2.6553142 -1.1243804 -0.050332587 63 7
2.6921885 -1.144985 0.051065676 50 8
2.7087235 -1.153134 0.15428646 45 9
2.5251327 -1.0754981 -0.53350204 1 2
2.7420416 -1.1684489 0.26076984 48 10
2.5435214 -1.0849038 -0.33952788 25 4
2.6129594 -1.1155999 -0.24856827 2 5
2.6209872 -1.1195681 -0.1493668 19 6
2.6550503 -1.1352144 -0.050402392 48 7
2.6808255 -1.1512194 0.050926059 53 8
2.7122247 -1.1652637 0.15470514 43 9
2.5107303 -1.0792141 -0.53121233 1 2
2.7527945 -1.1838324 0.26216432 48 10
2.5657742 -1.1039351 -0.44239661 77 3
2.5615971 -1.1031979 -0.34245303 37 4
2.6019266 -1.121105 -0.24787103 2 5
2.6207311 -1.1302922 -0.14957611 30 6
2.6604519 -1.1479739 -0.050576925 50 7
2.6806629 -1.1616935 0.050995868 50 8
2.7227991 -1.1810825 0.15554252 25 9
2.5141518 -1.0910977 -0.5327388 2 2
2.7449901 -1.191847 0.2618157 35 10
2.536732 -1.1014235 -0.43801647 66 3
2.5779512 -1.1203901 -0.34513417 40 4
2.6016512 -1.1317701 -0.24821965 21 5
2.6334505 -1.1461499 -0.15051818 36 6
2.6637616 -1.1604483 -0.050716542 50 7
2.6802559 -1.1726465 0.05106568 52 8
2.5141165 -1.1010044 -0.5335021 2 2
2.5310628 -1.1094786 -0.43770364 63 3
2.5467575 -1.1174182 -0.34147775 46 4
2.5812669 -1.1336343 -0.24665083 32 5
2.6111481 -1.1473012 -0.14947146 45 6
2.6596947 -1.1697396 -0.050716542 51 7
2.6798041 -1.1836109 0.051135484 52 8
2.7181406 -1.2016773 0.15575187 1 9
2.4885185 -1.1006817 -0.52892262 7 2
2.537817 -1.1235459 -0.43958086 63 3
2.5501015 -1.1295171 -0.34245273 43 4
2.5936863 -1.1499052 -0.24821962 14 5
2.614228 -1.1601044 -0.14989015 21 6
2.6519396 -1.1773936 -0.05064673 50 7
2.6882322 -1.1991276 0.051379822 45 8
2.7139294 -1.2111582 0.15575187 1 9
2.5374866 -1.1340097 -0.44020656 60 3
2.5459447 -1.1388561 -0.34245273 47 4
2.6405144 -1.183372 -0.050507106 41 7
2.7278957 -1.2288272 0.15679859 2 9
2.4825635 -1.1188345 -0.52930421 39 2
2.526509 -1.1391702 -0.4389551 60 3
2.5457728 -1.1489255 -0.34294054 46 4
2.6037531 -1.1761866 -0.24996276 1 5
2.6426713 -1.1943226 -0.15198359 1 6
2.6363676 -1.1925821 -0.05050711 6 7
2.6690834 -1.2124356 0.05117039 6 8
2.7272263 -1.2399954 0.15700795 2 9
2.5038607 -1.1384372 -0.53464693 30 2
2.526113 -1.149619 -0.43958083 60 3
2.5489728 -1.1610966 -0.34391516 45 4
2.6324725 -1.1996868 -0.2531004 1 5
2.6421204 -1.2051977 -0.15219292 1 6
2.6576557 -1.2134048 -0.050995775 2 7
2.7029128 -1.2403445 0.15585652 7 9
2.5256751 -1.1600789 -0.44020659 60 3
2.5340824 -1.1650119 -0.34245273 22 4
2.6391292 -1.2138637 -0.25414625 1 5
2.6306407 -1.2110722 -0.15177424 1 6
2.6715658 -1.2310433 -0.051344827 5 7
2.6569247 -1.2293602 0.051100586 43 8
2.5323634 -1.1738726 -0.44208381 66 3
2.6059606 -1.2096467 -0.25135723 1 5
2.6300194 -1.2219305 -0.15198357 1 6
2.6834192 -1.2530098 0.051693961 55 8
2.6996162 -1.261721 0.15617056 45 9
2.5228822 -1.1801938 -0.44114515 56 3
2.5348763 -1.1868833 -0.34367141 1 4
2.5945058 -1.2153554 -0.25066003 1 5
2.6257381 -1.2311034 -0.15198357 1 6
2.6556652 -1.2462661 -0.05120521 52 7
2.6609402 -1.2538455 0.05134492 53 8
2.6970017 -1.2719885 0.15627521 47 9
2.5187473 -1.1889931 -0.44114515 42 3
2.5773838 -1.2177734 -0.35000864 1 4
2.5974524 -1.2278101 -0.25135723 1 5
2.6322572 -1.2453867 -0.15261163 2 6
2.6386473 -1.2495373 -0.050960869 58 7
2.6601586 -1.2648436 0.051414724 52 8
2.7015629 -1.2856866 0.15679859 48 9
2.5110147 -1.1960789 -0.44051942 32 3
2.5587823 -1.2199284 -0.34805906 2 4
2.6363099 -1.2574555 -0.25554073 1 5
2.6008582 -1.2416604 -0.15104154 9 6
2.6559212 -1.2690861 -0.051379725 63 7
2.6593337 -1.2758517 0.05148454 52 8
2.6864808 -1.2894527 0.15617056 41 9
2.5139458 -1.2082597 -0.44177088 63 3
2.5404108 -1.221525 -0.34610879 4 4
2.5995893 -1.2510979 -0.25240314 1 5
2.5983074 -1.2515981 -0.1511462 33 6
2.6444921 -1.2744141 -0.051240101 53 7
2.6658881 -1.289889 0.051693961 53 8
2.6983693 -1.3061862 0.15711258 12 9
2.5152583 -1.2191745 -0.44270954 46 3
2.5274153 -1.2256119 -0.34489015 29 4
2.5954263 -1.2597115 -0.25240314 2 5
2.6085148 -1.2671894 -0.15198359 36 6
2.631259 -1.278806 -0.051065583 52 7
2.6687849 -1.3022301 0.051833585 59 8
2.532037 -1.2387886 -0.34610879 33 4
2.5661812 -1.2560488 -0.24996276 3 5
2.6132662 -1.2802256 -0.15250693 57 6
2.6357565 -1.292385 -0.051240105 53 7
2.664223 -1.3115377 0.051833585 59 8
2.5490587 -1.2581629 -0.34903368 40 4
2.5617812 -1.2649984 -0.24996276 21 5
2.6016195 -1.2858003 -0.15208825 45 6
2.634814 -1.3033507 -0.051309913 55 7
2.6542556 -1.3181615 0.051728871 47 8
2.546428 -1.2679377 -0.34927741 63 4
2.5769665 -1.2837052 -0.25188017 2 5
2.5917528 -1.2922003 -0.15177423 33 6
2.6374056 -1.3161116 -0.051449537 53 7
2.6764567 -1.3408538 0.052252445 9 8
2.5224738 -1.2670177 -0.34659627 54 4
2.5849323 -1.2989552 -0.2531004 1 5
2.6292233 -1.3235116 -0.051379729 43 7
2.669975 -1.3492863 0.052217536 2 8
2.5198061 -1.2767121 -0.34684032 43 4
2.5874908 -1.3115734 -0.25379762 1 5
2.6182919 -1.3283353 -0.15386768 1 6
2.5224049 -1.2891138 -0.34781495 45 4
2.5722532 -1.3151556 -0.25275177 1 5
2.6029711 -1.3320074 -0.15323964 1 6
2.6412776 -1.3527735 -0.051798586 2 7
2.6355927 -1.3550922 0.051728871 48 8
2.5178897 -1.2979107 -0.34781495 43 4
2.5888958 -1.3350846 -0.25484347 1 5
2.6160536 -1.350246 -0.15428635 1 6
2.6539237 -1.3762511 0.05218263 60 8
2.5256732 -1.3131018 -0.34952116 40 4
2.5983603 -1.3514683 -0.25623795 1 5
2.5936084 -1.3501471 -0.15323964 1 6
2.6491036 -1.3855066 0.05218263 60 8
2.5140417 -1.3182225 -0.34854618 7 4
2.6077421 -1.3679343 -0.25763246 1 5
2.5888798 -1.3591923 -0.15323964 2 6
2.6393578 -1.3868693 -0.052042916 64 7
2.6495574 -1.3975441 0.052287348 53 8
2.5888619 -1.3695751 -0.25623795 1 5
2.5876498 -1.3700899 -0.15344898 5 6
2.6168315 -1.3867106 -0.051693872 52 7
2.6499588 -1.4096016 0.052392058 46 8
2.5700028 -1.3711009 -0.25484347 1 5
2.6172662 -1.398664 -0.051798586 55 7
2.5792375 -1.3876151 -0.25623792 2 5
2.588573 -1.3938029 -0.15407702 36 6
2.6158881 -1.4096888 -0.051868387 60 7
2.5708756 -1.3947098 -0.25588933 2 5
2.5854471 -1.4037833 -0.15418169 55 6
2.6111994 -1.4183558 -0.05186839 60 7
2.5677397 -1.4046319 -0.25606367 16 5
2.5772736 -1.4104314 -0.15397233 49 6
2.6237712 -1.4370677 -0.052217439 59 7
2.5688372 -1.4174894 -0.153763 40 6
2.6117368 -1.4423509 -0.052077822 61 7
2.5476713 -1.4162687 -0.25501782 47 5
2.5726004 -1.431303 -0.15428635 33 6
2.6066861 -1.4514588 -0.052077822 59 7
2.54445 -1.4261272 -0.25519213 4 5
2.6033478 -1.4615279 -0.052112728 57 7
2.5660222 -1.4511946 -0.1544957 1 6
2.6104119 -1.4775016 -0.052357059 61 7
2.5505307 -1.4542071 -0.15386768 1 6
2.612186 -1.4905686 -0.052496675 59 7
2.5662181 -1.475045 -0.15512374 1 6
2.5948331 -1.4926978 -0.052252341 56 7
2.585247 -1.4980122 -0.15658914 2 6
2.5930667 -1.5037528 -0.052322153 56 7
2.5713794 -1.5019909 -0.15606578 11 6
2.5895283 -1.5138047 -0.052357059 42 7
2.5659833 -1.5229638 -0.1563798 46 6
2.688426 -0.6033982 -0.33830917 1 4
2.6982031 -0.60608727 -0.24194443 1 5
2.676733 -0.61010426 -0.33709049 3 4
2.6824737 -0.61239779 -0.24072424 16 5
2.6801827 -0.63109916 -0.24089855 49 5
2.645098 -0.63210297 -0.33392188 68 4
2.6876521 -0.64276814 -0.24177012 20 5
2.6409464 -0.64086407 -0.33367813 52 4
2.6444752 -0.65150326 -0.33440965 59 4
2.6734269 -0.65913087 -0.24089855 1 5
2.6460364 -0.66169351 -0.33489713 59 4
2.6827071 -0.67136115 -0.24194445 1 5
2.6321661 -0.66799599 -0.33343437 49 4
2.7035198 -0.68660653 -0.24403617 1 5
2.6259737 -0.67619002 -0.3329469 49 4
2.6933889 -0.69405061 -0.24333891 1 5
2.6370418 -0.68886423 -0.33465308 52 4
2.6716738 -0.6984092 -0.24159579 2 5
2.7061195 -0.71549284 -0.44333526 1 3
2.634743 -0.69760525 -0.33465308 52 4
2.6653681 -0.7067095 -0.24124719 2 5
2.6272862 -0.70447075 -0.43082052 3 3
2.6342089 -0.70731264 -0.33489683 56 4
2.6630099 -0.71554428 -0.24124719 12 5
2.607655 -0.70897293 -0.42800465 30 3
2.6259782 -0.71493912 -0.33416563 52 4
2.6879399 -0.73332053 -0.14601728 49 6
2.6234663 -0.72410113 -0.3341656 52 4
2.6694729 -0.73730075 -0.24229307 49 5
2.6834383 -0.74216622 -0.14591259 43 6
2.6159599 -0.73088121 -0.43019477 53 3
2.6247461 -0.7343238 -0.33465308 52 4
2.6630456 -0.7455402 -0.24194445 58 5
2.6769855 -0.75045067 -0.14570327 24 6
2.6076906 -0.73839378 -0.42925614 60 3
2.6240766 -0.74402297 -0.33489683 49 4
2.6508429 -0.75211215 -0.24107288 49 5
2.6145916 -0.75021607 -0.43082052 66 3
2.6310031 -0.75591904 -0.33611551 52 4
2.6539457 -0.76301211 -0.24159579 39 5
2.70239 -0.77796149 -0.14737801 1 6
2.6119566 -0.75933784 -0.43082049 66 3
2.6150064 -0.76121455 -0.33440965 49 4
2.6843188 -0.78291601 -0.14654063 1 6
2.613214 -0.76911068 -0.43144622 60 3
2.6105638 -0.76932108 -0.3341656 47 4
2.697032 -0.79633766 -0.14737801 1 6
2.7594914 -0.81582701 -0.05022788 1 7
2.5934765 -0.77314889 -0.42863047 32 3
2.6097646 -0.77899659 -0.33440936 49 4
2.6687179 -0.79760838 -0.24368754 1 5
2.7095442 -0.81032556 -0.1482154 1 6
2.7163973 -0.81340826 -0.04949487 6 7
2.6108296 -0.78925049 -0.33489713 40 4
2.6544759 -0.80345595 -0.24264169 1 5
2.6912644 -0.81561673 -0.14737801 1 6
2.6086559 -0.79804409 -0.43207198 1 3
2.6440353 -0.81038153 -0.24194443 1 5
2.7113137 -0.83203733 -0.14863408 1 6
2.7353568 -0.84046048 -0.049948636 52 7
2.5582581 -0.79142392 -0.52052706 2 2
2.5945327 -0.8036381 -0.43019477 2 3
2.6183877 -0.81202888 -0.33660302 9 4
2.660219 -0.82551092 -0.24368754 1 5
2.6855049 -0.83438534 -0.14737801 1 6
2.7152212 -0.84465754 -0.04963449 58 7
2.6180997 -0.82096457 -0.43457487 2 3
2.6649249 -0.83718044 -0.24438481 2 5
2.6673343 -0.83896041 -0.14654064 1 6
2.6971462 -0.84885448 -0.049355257 48 7
2.5303531 -0.80170327 -0.51594764 36 2
2.6115973 -0.82844746 -0.43394917 5 3
2.6072676 -0.82757479 -0.33587205 47 4
2.6431456 -0.83997869 -0.24264167 2 5
2.687376 -0.85506779 -0.14779669 2 6
2.7038434 -0.86082691 -0.049529776 52 7
2.542495 -0.81532687 -0.51900059 47 2
2.5674553 -0.82382548 -0.42706609 32 3
2.6175928 -0.84092104 -0.33757827 64 4
2.6420941 -0.84980989 -0.24281599 5 5
2.6748695 -0.86138237 -0.14727335 3 6
2.6989186 -0.86964667 -0.04949487 53 7
2.5432241 -0.82585293 -0.51976383 54 2
2.5775697 -0.83750319 -0.4292562 51 3
2.6069424 -0.84805316 -0.33660299 47 4
2.7014167 -0.88139379 -0.049599592 51 7
2.5403261 -0.83472538 -0.51976383 57 2
2.5932472 -0.85311782 -0.43238485 75 3
2.6020806 -0.85652703 -0.33635956 49 4
2.6857076 -0.88613325 -0.1482154 39 6
2.702121 -0.89207172 -0.049669396 52 7
2.5226388 -0.83819234 -0.51671082 48 2
2.6016505 -0.86545384 -0.4342621 63 3
2.595459 -0.86389744 -0.33587176 49 4
2.6481717 -0.88246983 -0.24421047 55 5
2.673281 -0.8918739 -0.14769202 27 6
2.6915607 -0.89849454 -0.049529776 52 7
2.7375412 -0.91862565 0.050402489 15 8
2.5271413 -0.84949511 -0.51823729 49 2
2.5894046 -0.87092775 -0.43269777 57 3
2.5943091 -0.87358552 -0.33611551 47 4
2.6337471 -0.88788927 -0.24316458 46 5
2.6921976 -0.90916413 -0.049599592 52 7
2.5351627 -0.86254615 -0.52052706 39 2
2.5861948 -0.88041252 -0.43269771 60 3
2.5948477 -0.88436913 -0.33660299 47 4
2.7027414 -0.92324758 -0.14968081 1 6
2.6926312 -0.92031884 -0.049669396 36 7
2.7137141 -0.93281764 0.050088346 36 8
2.5829506 -0.8898856 -0.43269771 60 3
2.5992515 -0.89600909 -0.33757827 47 4
2.6504202 -0.91571844 -0.14695932 1 6
2.7257168 -0.94706208 0.050367579 13 8
2.5799859 -0.89844602 -0.43269777 63 3
2.5887682 -0.9020111 -0.33660302 46 4
2.6412361 -0.92132664 -0.24473341 1 5
2.6775384 -0.93503821 -0.14863408 1 6
2.7202845 -0.95049858 -0.050297681 1 7
2.733882 -0.96007109 0.050577011 40 8
2.5555811 -0.89795709 -0.62536418 1 1
2.5411186 -0.89337379 -0.52358001 1 2
2.586309 -0.91027564 -0.4342621 52 3
2.5818589 -0.90972263 -0.33611551 43 4
2.6680665 -0.94114512 -0.24752238 1 5
2.6781898 -0.94524151 -0.14884342 1 6
2.7056375 -0.95599115 -0.050088257 1 7
2.7323985 -0.97027731 0.050611913 46 8
2.5193779 -0.89512855 -0.61726594 8 1
2.560024 -0.9105767 -0.52815944 1 2
2.575511 -0.91709834 -0.43301058 16 3
2.5805378 -0.91939563 -0.33635926 14 4
2.6384928 -0.941082 -0.24508204 1 5
2.6822309 -0.9577378 -0.1492621 1 6
2.7022841 -0.9654299 -0.050088257 2 7
2.7100043 -0.97352487 0.050262865 51 8
2.530966 -0.9102059 -0.52281678 1 2
2.6389403 -0.9516381 -0.24543066 1 5
2.6788714 -0.96709478 -0.1492621 1 6
2.6855628 -0.97057003 -0.049843922 25 7
2.7197464 -0.98775697 0.050507199 53 8
2.4945924 -0.9064784 -0.61276692 45 1
2.5351536 -0.92171842 -0.52434325 1 2
2.5783272 -0.9384343 -0.4345749 2 3
2.5888138 -0.94327468 -0.33830917 3 4
2.6580648 -0.96903288 -0.24752238 1 5
2.6754797 -0.97643983 -0.14926212 1 6
2.7125278 -0.99586642 0.050437391 52 8
2.5042176 -0.91988432 -0.61591589 63 1
2.5466626 -0.93598032 -0.52739614 1 2
2.586159 -0.95152128 -0.43645215 2 3
2.5873678 -0.95299143 -0.33855319 29 4
2.6322322 -0.97003788 -0.24543063 2 5
2.6683071 -0.98439044 -0.14905275 2 6
2.6974802 -0.99622285 -0.050192971 63 7
2.7165341 -1.0081118 0.050577011 53 8
2.5064719 -0.930655 -0.61726594 63 1
2.7390842 -1.017568 0.15313506 4 9
2.5323377 -0.94076186 -0.52510643 1 2
2.556901 -0.950903 -0.43207195 25 3
2.6400328 -0.98339325 -0.24647653 2 5
2.6667259 -0.99439633 -0.14915742 4 6
2.6771252 -0.99933875 -0.049878825 53 7
2.7167432 -1.0189925 0.050646819 53 8
2.5013835 -0.93871379 -0.61681569 52 1
2.5363905 -0.95235616 -0.52663296 1 2
2.5591135 -0.96190757 -0.43301061 47 3
2.5769358 -0.96963322 -0.33806571 43 4
2.625396 -0.98839056 -0.24543063 4 5
2.6295979 -0.99102062 -0.14727335 19 6
2.6773627 -1.0100893 -0.049948636 50 7
2.7094305 -1.0270522 0.050577015 56 8
2.4999139 -0.94813073 -0.61726564 50 1
2.718842 -1.0317054 0.15240237 29 9
2.5220375 -0.95702487 -0.52434325 1 2
2.5631268 -0.97364056 -0.4342621 53 3
2.590235 -0.98497272 -0.34025905 48 4
2.6410539 -1.0058806 -0.1481107 30 6
2.6775572 -1.0208535 -0.050018445 50 7
