# .PCD v0.7 - Point Cloud Data file format
VERSION 0.7
FIELDS x y z intensity ring
SIZE 4 4 4 4 2
TYPE F F F F U
COUNT 1 1 1 1 1
WIDTH 556
HEIGHT 1
VIEWPOINT 0 0 0 1 0 0 0
POINTS 556
DATA ascii
2.361357 0.087412372 -0.20673352 3 5
2.3676214 0.079369925 -0.20725644 19 5
2.3521841 0.062416062 -0.20586194 58 5
2.3464119 0.054067831 -0.205339 49 5
2.3465784 0.046285901 -0.205339 41 5
2.3527019 0.038192034 -0.20586193 8 5
2.4574354 0.023161983 -0.30174839 1 4
2.3768189 0.021986177 -0.20795368 1 5
2.4039047 0.014265088 -0.29516745 3 4
2.3768814 0.01369103 -0.20795368 1 5
2.3727088 0.01283766 -0.12435019 1 6
2.3801188 0.0058161076 -0.29224259 20 4
2.3530059 0.0053391992 -0.20586193 1 5
2.3447781 0.004502093 -0.1228848 4 6
2.4019599 -0.0029345495 -0.29492369 30 4
2.3609788 -0.0037086196 -0.20655918 1 5
2.4059074 -0.010917736 -0.2954112 36 4
2.3689232 -0.011576833 -0.20725644 1 5
2.3327668 -0.012214449 -0.12225677 32 6
2.3840194 -0.01914054 -0.29273009 39 4
2.396764 -0.019661207 -0.20969678 1 5
2.350688 -0.020103838 -0.12319881 58 6
2.3918772 -0.027553665 -0.29370525 38 4
2.3807428 -0.027840974 -0.20830232 1 5
2.3346267 -0.028116733 -0.12236143 55 6
2.3957365 -0.035962302 -0.29419276 39 4
2.3686783 -0.035969637 -0.20725644 1 5
2.3365114 -0.036296953 -0.12246611 40 6
2.3995659 -0.044398207 -0.29467997 41 4
2.3884587 -0.044609703 -0.20899954 1 5
2.3243887 -0.044224717 -0.12183807 38 6
2.3874886 -0.052512076 -0.29321751 39 4
2.396256 -0.053123344 -0.20969678 1 5
2.3242207 -0.052338079 -0.12183809 39 6
2.3912594 -0.0609468 -0.29370525 39 4
2.3761382 -0.06097639 -0.20795365 2 5
2.3280168 -0.060554668 -0.12204742 38 6
2.4367828 -0.064234994 -0.042548843 1 7
2.3989694 -0.069523513 -0.29467997 39 4
2.3958261 -0.069850922 -0.20969677 6 5
2.3357768 -0.068916209 -0.12246611 38 6
2.3525929 -0.070234299 -0.041082833 1 7
2.4026799 -0.078025922 -0.29516768 39 4
2.3355222 -0.077069178 -0.12246612 38 6
2.3223553 -0.077446245 -0.040559266 12 7
2.4795008 -0.088319242 -0.39296335 1 3
2.4063606 -0.086555064 -0.29565516 39 4
2.3932893 -0.086503148 -0.20952247 39 5
2.3352387 -0.085221201 -0.12246611 38 6
2.47523 -0.096819378 -0.39233765 7 3
2.4020767 -0.094797745 -0.29516768 37 4
2.3889911 -0.094698943 -0.20917384 40 5
2.3309355 -0.09321256 -0.12225676 38 6
2.3257539 -0.093818501 -0.040629078 59 7
2.4037149 -0.1032672 -0.2954112 34 4
2.3886461 -0.1030375 -0.20917384 30 5
2.3425679 -0.10186911 -0.12288478 39 6
2.3214347 -0.10135603 -0.040559266 65 7
2.4764867 -0.11375599 -0.39265049 34 3
2.3422177 -0.10963678 -0.1228848 39 6
2.3190694 -0.10936454 -0.040524367 47 7
2.4780474 -0.12249737 -0.39296335 49 3
2.417738 -0.12078515 -0.21178852 1 5
2.3537891 -0.11841409 -0.12351283 38 6
2.3186731 -0.11745894 -0.04052436 13 7
2.4677417 -0.13062456 -0.391399 42 3
2.4699216 -0.13160452 -0.30369827 1 4
2.4292393 -0.12986206 -0.21283442 1 5
2.3493729 -0.126415 -0.1233035 38 6
2.4771318 -0.13979429 -0.39296335 43 3
2.4615197 -0.13977522 -0.30272338 1 4
2.4327493 -0.13856749 -0.21318302 1 5
2.3429348 -0.13427225 -0.12298945 37 6
2.3497386 -0.13548508 -0.041082837 1 7
2.4952459 -0.14780787 0.043630965 1 8
2.4805725 -0.14867659 -0.39358908 43 3
2.4610167 -0.14836666 -0.30272335 1 4
2.4441831 -0.14777997 -0.21422887 1 5
2.3504267 -0.14293474 -0.12340816 36 6
2.3332837 -0.14270975 -0.040803596 1 7
2.335053 -0.14649989 0.040838584 2 8
2.4839811 -0.15758462 -0.39421484 43 3
2.4525592 -0.15645079 -0.30174866 1 4
2.4118397 -0.15427589 -0.21143992 1 5
2.3499131 -0.15113835 -0.12340815 16 6
2.3487356 -0.15188593 -0.041082837 1 7
2.2966158 -0.15213844 0.040175382 12 8
2.4834161 -0.16625443 -0.39421484 43 3
2.4519982 -0.16501091 -0.30174866 1 4
2.4033351 -0.16215739 -0.21074268 1 5
2.3673055 -0.16055652 -0.12435021 37 6
2.3561716 -0.16062765 -0.041222461 1 7
2.2661483 -0.15806711 0.039651822 23 8
2.4828205 -0.17492212 -0.39421484 45 3
2.4751692 -0.17525135 -0.30467325 1 4
2.4186532 -0.1716741 -0.21213716 1 5
2.3627462 -0.16853479 -0.12414086 47 6
2.3436289 -0.16799341 -0.041013028 1 7
2.2935038 -0.16802195 0.040140491 40 8
2.4920449 -0.18431626 -0.39577919 47 3
2.454746 -0.18241914 -0.30223587 1 4
2.4140656 -0.1798197 -0.21178854 2 5
2.3581598 -0.17648314 -0.1239315 38 6
2.3510046 -0.17677294 -0.041152645 2 7
2.3088539 -0.17725126 0.040419724 49 8
2.4972947 -0.19347173 -0.39671779 45 3
2.4620109 -0.19160277 -0.30321082 2 4
2.4213681 -0.18886501 -0.21248576 9 5
2.3575296 -0.1847136 -0.1239315 38 6
2.3463857 -0.18466458 -0.041082833 2 7
2.3062277 -0.18514957 0.040384822 47 8
2.5263617 -0.20371006 -0.4926689 1 2
2.4946353 -0.20202829 -0.39640495 50 3
2.4494553 -0.19923005 -0.30174866 2 4
2.402822 -0.19585921 -0.21091697 32 5
2.3588612 -0.19310474 -0.12403619 37 6
2.3497133 -0.19318162 -0.041152649 5 7
2.2995892 -0.19269772 0.040280104 52 8
2.4978516 -0.2110676 -0.39703065 50 3
2.4586346 -0.20861818 -0.30296734 22 4
2.4219761 -0.20593339 -0.2126601 37 5
2.3681226 -0.20218709 -0.12455954 39 6
2.2949183 -0.20037571 0.040210299 54 8
2.5209663 -0.22099932 -0.49190563 36 2
2.4911964 -0.21926586 -0.39609206 45 3
2.4559143 -0.2170244 -0.30272362 33 4
2.4172728 -0.21403494 -0.21231143 40 5
2.3634238 -0.21009843 -0.12435021 38 6
2.3101368 -0.20983239 0.040489532 52 8
2.5201797 -0.22979781 -0.49190569 38 2
2.4982843 -0.2286807 -0.39734352 45 3
2.4452579 -0.22468768 -0.30150494 22 4
2.4145272 -0.22228883 -0.21213713 38 5
2.3606873 -0.21816319 -0.12424552 37 6
2.3595083 -0.21888497 -0.041362077 52 7
2.3173537 -0.21864636 0.040629152 48 8
2.3422909 -0.22182414 0.12330356 1 9
2.5154529 -0.23822327 -0.49114242 42 2
2.5033705 -0.23796076 -0.39828214 47 3
2.4236541 -0.23166369 -0.21300873 42 5
2.3738282 -0.22773738 -0.12497824 39 6
2.3487775 -0.22616155 -0.041187551 48 7
2.3205566 -0.22712368 0.040698964 48 8
2.2957854 -0.22550826 0.12089611 8 9
2.5165601 -0.24719432 -0.49152404 42 2
2.5044901 -0.24689141 -0.39859498 41 3
2.4554825 -0.24292575 -0.30296707 1 4
2.410934 -0.2389434 -0.21196283 42 5
2.373019 -0.23602219 -0.12497824 38 6
2.3340449 -0.23296866 -0.04094322 28 7
2.3078127 -0.23401214 0.040489532 50 8
2.2671659 -0.23069014 0.1194307 20 9
2.5137286 -0.25577849 -0.49114242 41 2
2.4800317 -0.25322443 -0.3948406 11 3
2.4704177 -0.25311413 -0.30491698 1 4
2.4081032 -0.24715422 -0.21178852 35 5
2.3841009 -0.2455318 -0.12560627 39 6
2.3149371 -0.24290119 0.040629152 45 8
2.2603881 -0.23797527 0.11911668 29 9
2.5167253 -0.26496261 -0.49190563 41 2
2.4892595 -0.26382819 -0.30735436 1 4
2.3673413 -0.25216004 -0.1247689 38 6
2.3403149 -0.2501075 -0.041082833 1 7
2.3299794 -0.25270537 0.040908393 9 8
2.2734427 -0.2473764 0.11984939 42 9
2.5274959 -0.27502027 -0.4941954 40 2
2.5331869 -0.27653426 -0.4036009 1 3
2.4962165 -0.27338019 -0.30832931 1 4
2.3724022 -0.26107746 -0.1250829 37 6
2.3593042 -0.26046956 -0.041431885 1 7
2.2726099 -0.25491405 0.11984939 41 9
2.5148141 -0.28252608 -0.49190563 36 2
2.5400584 -0.28625995 -0.40485239 1 3
2.4952471 -0.28209192 -0.30832931 1 4
2.4687347 -0.27953115 -0.2173665 1 5
2.3813992 -0.27048409 -0.12560627 29 6
2.3504801 -0.26738778 -0.041292269 1 7
2.3719091 -0.27360022 0.041676302 1 8
2.2816262 -0.26399317 0.12037275 28 9
2.5352654 -0.29378858 -0.4961035 42 2
2.5233972 -0.29285967 -0.40234944 1 3
2.4864106 -0.28944674 -0.30735436 1 4
2.4439967 -0.28537396 -0.21527475 1 5
2.3614488 -0.27698866 -0.041501697 1 7
2.3471105 -0.2790451 0.041257437 1 8
2.5245302 -0.30103198 -0.49419546 46 2
2.5066683 -0.29978955 -0.39984649 2 3
2.4853849 -0.29812416 -0.30735463 1 4
2.4588618 -0.29537803 -0.21666922 2 5
2.3894174 -0.28788197 -0.12612963 3 6
2.4120841 -0.2914671 -0.042409219 1 7
2.3262737 -0.28480625 0.040908389 1 8
2.3114457 -0.28380987 0.12204751 2 9
2.5312581 -0.31079942 -0.49572185 46 2
2.51737 -0.30998617 -0.40172368 2 3
2.4922101 -0.30777121 -0.30832931 1 4
2.443975 -0.30224752 -0.21544906 5 5
2.3883979 -0.29622081 -0.12612963 21 6
2.387239 -0.29692322 -0.041990362 1 7
2.3609779 -0.2974236 0.041536678 1 8
2.2945888 -0.28987396 0.12121013 3 9
2.5379493 -0.3206175 -0.49724841 45 2
2.3640559 -0.29906893 0.20847641 1 10
2.5319502 -0.32075766 -0.40422663 22 3
2.4714279 -0.31396705 -0.30589193 1 4
2.4172111 -0.30750805 -0.21318302 25 5
2.3941221 -0.30626941 -0.042129979 1 7
2.3519928 -0.3046357 0.041397061 4 8
2.5290267 -0.32846317 -0.49572185 47 2
2.2997735 -0.29909658 0.20289844 3 10
2.5073094 -0.32653266 -0.40047225 25 3
2.4821272 -0.32413423 -0.30735436 2 4
2.4339032 -0.31826884 -0.21475185 29 5
2.396173 -0.31418589 -0.12665297 38 6
2.3692467 -0.31149659 -0.041711122 1 7
2.2628133 -0.30192381 0.11964004 29 9
2.5317566 -0.33780852 -0.49648508 47 2
2.2473695 -0.30026233 0.19836634 12 10
2.543355 -0.34025958 -0.40641671 48 3
2.4868827 -0.33358827 -0.30808586 5 4
2.4525239 -0.32941505 -0.21649495 41 5
2.4010003 -0.32334784 -0.126967 40 6
2.3681448 -0.31976485 -0.041711118 2 7
2.3121641 -0.31590486 0.04073387 39 8
2.2914276 -0.31388652 0.12121013 42 9
2.5344524 -0.34717679 -0.49724835 46 2
2.5284526 -0.34725413 -0.40422666 46 3
2.443464 -0.33688557 -0.21579768 61 5
2.3978784 -0.33145359 -0.12686233 39 6
2.3749375 -0.32912734 -0.041850742 2 7
2.3367913 -0.32758287 0.041187622 49 8
2.2982287 -0.32299504 0.1216288 47 9
2.5487785 -0.35820746 -0.50030136 46 2
2.2787588 -0.32066426 0.20132965 52 10
2.5272248 -0.35607788 -0.40422663 43 3
2.506115 -0.35399577 -0.31076673 40 4
2.4324093 -0.34401771 -0.21492612 39 5
2.3927517 -0.33926088 -0.12665299 39 6
2.3757539 -0.33769685 -0.041885644 9 7
2.3376131 -0.33602223 0.041222535 51 8
2.2832499 -0.32902133 0.12089611 48 9
2.5475125 -0.36710218 -0.50030136 43 2
2.2638221 -0.32662508 0.20010947 43 10
2.5161912 -0.36348534 -0.40266228 29 3
2.4773593 -0.35875854 -0.30735463 22 4
2.4449964 -0.3545076 -0.21614632 48 5
2.3994591 -0.34876022 -0.12707168 39 6
2.3963275 -0.3491593 -0.042269599 36 7
2.3423605 -0.34505427 0.041327242 58 8
2.2919669 -0.33844817 0.12141948 56 9
2.5423312 -0.37541881 -0.49953809 47 2
2.2744937 -0.33627364 0.20115533 44 10
2.451627 -0.36421117 -0.21684358 47 5
2.4021778 -0.3577221 -0.12728101 39 6
2.385205 -0.35604572 -0.042095073 16 7
2.3569605 -0.35561526 0.041606482 57 8
2.3026197 -0.34823853 0.12204749 54 9
2.5410051 -0.38429096 -0.49953809 43 2
2.2654264 -0.34301797 0.20045809 52 10
2.5585127 -0.38785228 -0.40985826 1 3
2.4806821 -0.37693948 -0.30808556 1 4
2.442462 -0.37156814 -0.21614635 45 5
2.4009147 -0.36610508 -0.12728101 39 6
2.3438478 -0.36200902 0.041397061 54 8
2.3132329 -0.35810739 0.12267553 51 9
2.5435288 -0.39375904 -0.50030136 43 2
2.268153 -0.35153398 0.20080671 17 10
2.5649514 -0.39799231 -0.41110978 1 3
2.4950433 -0.38803697 -0.31003577 1 4
2.44115 -0.38009158 -0.21614632 46 5
2.4114623 -0.37633139 -0.12790905 38 6
2.4004426 -0.37547004 -0.042409215 1 7
2.3465197 -0.37081262 0.041466866 55 8
2.311969 -0.36617991 0.12267554 49 9
2.5615294 -0.40570647 -0.50411749 39 2
2.5518408 -0.40508503 -0.40923253 1 3
2.5054364 -0.39861533 -0.31149793 1 4
2.4476783 -0.38986409 -0.21684356 45 5
2.4061892 -0.38411695 -0.1276997 34 6
2.43466 -0.38953355 -0.043037504 1 7
2.3491595 -0.37963936 0.041536674 52 8
2.3067985 -0.3732067 0.12246618 51 9
2.3030109 -0.3734189 0.20411864 1 10
2.5582108 -0.41525623 -0.41048405 1 3
2.3081622 -0.37508103 0.28712419 1 11
2.5236948 -0.41010556 -0.31393531 1 4
2.4679337 -0.40192857 -0.21876097 28 5
2.4175663 -0.39502519 -0.042758264 1 7
2.3656447 -0.39035743 0.04185082 33 8
2.3094895 -0.38150531 0.12267554 37 9
2.3096223 -0.38235557 0.20481586 1 10
2.564615 -0.42502907 -0.4117355 1 3
2.291239 -0.3801339 0.28517428 9 11
2.4909878 -0.41327375 -0.3100355 1 4
2.4044087 -0.40106592 -0.042548835 1 7
2.3044128 -0.3893486 0.20446725 1 10
2.5709825 -0.43484905 -0.41298699 1 3
2.5169306 -0.42661068 -0.31344783 1 4
2.4592483 -0.41771683 -0.21823806 9 5
2.4415581 -0.41515055 -0.12979315 1 6
2.4187644 -0.41214365 -0.042828076 1 7
2.3688445 -0.40746766 0.041955527 1 8
2.2990439 -0.39711389 0.20411865 1 10
2.5771573 -0.44561556 -0.41423845 1 3
2.5349855 -0.43877932 -0.31588551 1 4
2.4538491 -0.42561775 -0.21788944 32 5
2.4400198 -0.42409647 -0.12979315 2 6
2.4212511 -0.42126969 -0.042897884 1 7
2.3830919 -0.41891685 0.042234775 2 8
2.3387356 -0.41196129 0.12445496 2 9
2.3133402 -0.40790433 0.2055131 1 10
2.5911484 -0.45735562 -0.4167414 2 3
2.2714934 -0.4013432 0.28322428 71 11
2.5255415 -0.44668469 -0.31491026 3 4
2.4758909 -0.43834883 -0.21998116 41 5
2.4424577 -0.43330899 -0.1300025 2 6
2.4275663 -0.4315412 -0.043037504 1 7
2.3698053 -0.42511439 0.042025343 5 8
2.3412149 -0.42082915 0.1246643 2 9
2.3158238 -0.41668245 0.20586202 1 10
2.562319 -0.46149558 -0.41236126 2 3
2.2661715 -0.40856525 0.28273684 71 11
2.5220134 -0.45514521 -0.31466681 29 4
2.4802275 -0.44805115 -0.22050409 65 5
2.4389648 -0.44147632 -0.1298978 19 6
2.4535913 -0.44500843 -0.043526169 1 7
2.327944 -0.42683768 0.12403625 2 9
2.3143554 -0.42476365 0.20586202 1 10
2.5606921 -0.47043699 -0.41236123 5 3
2.2666843 -0.41683239 0.28298059 65 11
2.4786487 -0.45670611 -0.22050411 58 5
2.4216962 -0.44708639 -0.12906042 27 6
2.4205613 -0.44775063 -0.042967692 1 7
2.3206925 -0.43430573 0.20655899 1 10
2.2730196 -0.42620534 0.28395554 68 11
2.5070684 -0.47054392 -0.31320408 46 4
2.4711652 -0.46425182 -0.21998119 47 5
2.4377863 -0.45886207 -0.1300025 36 6
2.4268436 -0.45767951 -0.043107305 2 7
2.367188 -0.45028082 0.042060245 51 8
2.3191621 -0.44240385 0.20655899 2 10
2.5786891 -0.49237779 -0.41580281 53 3
2.2754173 -0.43488231 0.28444299 65 11
2.5190587 -0.48190325 -0.31491026 54 4
2.4656157 -0.47212556 -0.21963255 45 5
2.4498997 -0.4700028 -0.13073517 57 6
2.4134493 -0.46388343 -0.042897884 2 7
2.3636386 -0.45816061 0.042025343 56 8
2.3311896 -0.4527151 0.12445496 49 9
2.3176038 -0.45049655 0.20655899 2 10
2.5614424 -0.49835792 -0.41329983 20 3
2.2641435 -0.44092515 0.28322431 62 11
2.515413 -0.49031374 -0.31466684 46 4
2.4795964 -0.48378152 -0.22102703 48 5
2.4208019 -0.4731876 -0.12926976 44 6
2.421627 -0.47422659 -0.043072402 22 7
2.3698726 -0.46795797 0.042164966 57 8
2.3218379 -0.45889404 0.12403625 46 9
2.3257895 -0.46051869 0.20743054 3 10
2.2723262 -0.450757 0.28444302 65 11
2.5097916 -0.49831796 -0.3141793 45 4
2.3076277 -0.4581784 0.37262696 2 12
2.4818017 -0.49321073 -0.2213757 46 5
2.4230533 -0.48241484 -0.12947911 41 6
2.4337695 -0.48499 -0.043316741 43 7
2.3722281 -0.47660187 0.042234771 55 8
2.3260961 -0.46817833 0.12435028 51 9
2.2805486 -0.46025348 0.28566173 62 11
2.50618 -0.50624496 -0.31393531 29 4
2.280844 -0.46114174 0.36855969 19 12
2.4839702 -0.50266117 -0.2217243 47 5
2.4331851 -0.49282625 -0.13010713 40 6
2.4144239 -0.48990363 -0.043002598 9 7
2.3862233 -0.48808545 0.042514008 55 8
2.332274 -0.47789872 0.12476896 46 9
2.278928 -0.46821123 0.2856617 62 11
2.4822001 -0.51132864 -0.22172429 43 5
2.4529672 -0.50575298 -0.13125853 31 6
2.3766744 -0.4947817 0.042374395 57 8
2.3384123 -0.48766795 0.12518767 49 9
2.2935355 -0.47914448 0.20499019 43 10
2.2811661 -0.47697595 0.2861492 62 11
2.5608745 -0.53592753 -0.32124746 1 4
2.2969031 -0.48110339 0.37168837 79 12
2.4882002 -0.52162528 -0.22242153 46 5
2.4481268 -0.51456255 -0.043665789 1 7
2.374845 -0.50348938 0.042374395 51 8
2.344424 -0.49789506 0.12560634 47 9
2.3171842 -0.4925327 0.20725624 11 10
2.2832856 -0.4861604 0.28663668 62 11
2.5394778 -0.54117256 -0.31881037 1 4
2.2738729 -0.48498607 0.36824676 51 12
2.4902616 -0.53113878 -0.22277015 43 5
2.4570982 -0.52496219 -0.13167723 1 6
2.4540462 -0.52520597 -0.043805409 1 7
2.380892 -0.51346231 0.042514011 52 8
2.3309584 -0.50354522 0.12497832 28 9
2.2815747 -0.49412757 0.28663671 58 11
2.522053 -0.5466696 -0.31686044 1 4
2.2837493 -0.49543324 0.37012404 63 12
2.4942331 -0.54109526 -0.22329305 9 5
2.4552507 -0.5335359 -0.13167723 1 6
2.4717369 -0.53802204 -0.044154454 1 7
2.3829913 -0.52262676 0.042583816 52 8
2.3292565 -0.51212019 0.20865074 1 10
2.2953446 -0.50550425 0.28858656 60 11
2.5375767 -0.55931544 -0.31905383 4 4
2.2665744 -0.49999779 0.36762112 64 12
2.5117862 -0.55409056 -0.22503623 30 5
2.457274 -0.54296505 -0.13188659 1 6
2.4464145 -0.54146111 -0.043735594 1 7
2.3928635 -0.533553 0.042793252 19 8
2.3644218 -0.52807754 0.12696707 1 9
2.3391209 -0.5228554 0.20969659 1 10
2.2896919 -0.51264602 0.28809911 62 11
2.5201125 -0.56469756 -0.31710422 22 4
2.2705975 -0.50920326 0.36855969 49 12
2.5001159 -0.56067502 -0.22416465 40 5
2.4787481 -0.55679196 -0.13314264 1 6
2.4406075 -0.54911953 -0.043665785 1 7
2.396837 -0.54322839 0.042897962 3 8
2.3548663 -0.5341481 0.12654838 2 9
2.3178527 -0.52660316 0.20795348 1 10
2.3014381 -0.52371877 0.28980529 56 11
2.5627451 -0.58318216 -0.32270992 33 4
2.4962008 -0.5689559 -0.22399034 49 5
2.4884725 -0.56810808 -0.13377067 1 6
2.462167 -0.56255478 -0.044084646 1 7
2.3686528 -0.54554033 0.12738578 2 9
2.3393905 -0.53966075 0.2100452 1 10
2.2900176 -0.52911317 0.28858656 60 11
2.5588624 -0.59123039 -0.32246643 9 4
2.5156527 -0.58217168 -0.22590779 47 5
2.4904659 -0.57725894 -0.13398001 2 6
2.4641838 -0.57162029 -0.044154454 1 7
2.3706231 -0.55471528 0.1275951 2 9
2.3337083 -0.54650694 0.20969659 1 10
2.2863181 -0.53625101 0.28834283 55 11
2.5059493 -0.58868802 -0.22521049 46 5
2.4613197 -0.5791105 -0.13251461 3 6
2.4660661 -0.58113569 -0.044224262 2 7
2.398998 -0.56931001 0.043037582 47 8
2.3686726 -0.56298697 0.12759511 2 9
2.3356628 -0.55557191 0.2100452 1 10
2.2960186 -0.54698879 0.28980529 56 11
2.5232594 -0.60205597 -0.22695363 48 5
2.4523537 -0.58694768 -0.044014834 4 7
2.4106045 -0.58096033 0.04328192 52 8
2.3590262 -0.56896544 0.12717642 5 9
2.3414567 -0.56559283 0.21074249 2 10
2.3037424 -0.55733389 0.29102397 58 11
2.5056515 -0.6071068 -0.22555913 48 5
2.4766262 -0.60098934 -0.13356133 36 6
2.4008944 -0.58705103 0.043142293 52 8
2.3394682 -0.57376266 0.21074249 2 10
2.3076653 -0.56638992 0.2917552 56 11
2.5073867 -0.61680132 -0.22590779 45 5
2.4804378 -0.61063123 -0.13387534 50 6
2.4657762 -0.60793477 -0.044328976 65 7
2.3949492 -0.59446466 0.043072484 50 8
2.3414192 -0.5824793 0.21109109 5 10
2.2979691 -0.57252204 0.29078022 55 11
2.5129507 -0.62748075 -0.22660503 43 5
2.4724779 -0.6178332 -0.13356133 38 6
2.4403605 -0.61071277 -0.043910123 55 7
2.4083724 -0.60672903 0.043351725 50 8
2.3626215 -0.59608042 0.12769978 41 9
2.3036547 -0.58248651 0.29175517 53 11
2.5184698 -0.6382063 -0.22730224 42 5
2.4634097 -0.62562633 -0.044363879 48 7
2.4100072 -0.61654329 0.043421537 48 8
2.3584862 -0.60424012 0.1275951 46 9
2.3487709 -0.60218811 0.21213695 62 10
2.3130407 -0.59388793 0.29321763 39 11
2.523946 -0.64897835 -0.22799954 45 5
2.4950719 -0.64248264 -0.13502672 1 6
2.4436734 -0.63015711 -0.04404974 14 7
2.4155827 -0.62696159 0.043561153 50 8
2.3660278 -0.61498135 0.12811847 44 9
2.3350852 -0.60737371 0.21109109 43 10
2.5120256 -0.6552701 -0.22712797 41 5
2.4734898 -0.64614016 -0.13398002 1 6
2.4056444 -0.63335329 0.043421537 50 8
2.3678381 -0.6238417 0.12832782 33 9
2.3368039 -0.61653769 0.21143973 50 10
2.5174267 -0.66607302 -0.22782516 29 5
2.505971 -0.66397798 -0.13586409 1 6
2.452858 -0.65036345 -0.044294074 1 7
2.4073946 -0.64235812 0.043491341 47 8
2.3384867 -0.62572086 0.21178833 49 10
2.5114713 -0.67435616 -0.13628279 1 6
2.4853325 -0.66826785 -0.044922356 1 7
2.4167197 -0.65389144 0.04370077 48 8
2.3479369 -0.63660049 0.21283421 47 10
2.5013936 -0.6810202 -0.13586411 1 6
2.4714088 -0.6737833 -0.044712927 1 7
2.420208 -0.66391039 0.043805487 41 8
2.3939159 -0.65759665 0.13010722 1 9
2.3494301 -0.64625859 0.21318284 52 10
2.5258331 -0.69762778 -0.1373295 1 6
2.4651868 -0.68134069 -0.044643119 1 7
2.4350965 -0.67760098 0.044119626 30 8
2.3799462 -0.66314983 0.1294792 1 9
2.3433211 -0.65338534 0.21283419 47 10
2.5349224 -0.70967108 -0.13795754 1 6
2.4434185 -0.68497378 -0.04429407 2 7
2.409621 -0.67958355 0.04370077 45 8
2.4237466 -0.68448079 0.13199131 1 9
2.3485794 -0.66413832 0.21353143 47 10
2.5207763 -0.71568418 -0.1373295 1 6
2.4910259 -0.70770746 -0.0452016 3 7
2.4150453 -0.68976688 0.04384039 45 8
2.4062214 -0.68770093 0.13115394 1 9
2.3464813 -0.67151326 0.21353143 43 10
2.5146761 -0.72249681 -0.13712016 2 6
2.4791808 -0.712767 -0.045027073 28 7
2.4281125 -0.70221615 0.044119626 45 8
2.3961325 -0.69387388 0.13073526 2 9
2.3575184 -0.68358397 0.21475165 26 10
2.5161021 -0.73194766 -0.1373295 5 6
2.4237278 -0.71012545 0.044084724 43 8
2.4090276 -0.70673168 0.13157263 2 9
2.4722261 -0.72949165 -0.044992164 43 7
2.4327364 -0.721995 0.044294152 43 8
2.3682559 -0.70375788 0.1294792 12 9
2.5222821 -0.75336319 -0.13795753 31 6
2.4869087 -0.74327052 -0.045306314 43 7
2.4300737 -0.73090672 0.044294152 43 8
2.5349307 -0.7667892 -0.13879491 15 6
2.4803398 -0.75122106 -0.045236502 43 7
2.4313333 -0.74055004 0.044363961 42 8
2.4032772 -0.73292124 0.1316773 42 9
2.4777024 -0.75987458 -0.045236502 42 7
2.4363773 -0.75138974 0.044503581 42 8
2.3912914 -0.73794216 0.13115394 39 9
2.4808986 -0.76986474 -0.045341212 30 7
2.4415081 -0.76184767 0.044643201 42 8
2.3906074 -0.74688053 0.13125862 38 9
2.4540882 -0.77518398 0.044922438 42 8
2.3917944 -0.75642508 0.13146797 38 9
2.5250106 -0.80292118 -0.046248734 1 7
2.4437485 -0.78130972 0.044782821 39 8
2.4062591 -0.77024966 0.13241002 34 9
2.5183856 -0.81050509 -0.046178926 1 7
2.4656005 -0.79826862 0.045236584 7 8
2.5153983 -0.81972998 -0.04617893 1 7
2.4684999 -0.80873799 0.045341294 3 8
2.5144203 -0.82913154 -0.046213828 5 7
2.492687 -0.83113986 -0.045864783 28 7
2.4534576 -0.82234424 0.045166768 42 8
2.5295615 -0.85325783 -0.046597779 40 7
2.4600413 -0.83411378 0.045341294 41 8
2.4590063 -0.84334475 0.0453762 45 8
2.4692719 -0.85651028 0.045620527 43 8
2.4700415 -0.86644846 0.045690343 39 8
2.4783099 -0.87907612 0.045899771 16 8
