# .PCD v0.7 - Point Cloud Data file format
VERSION 0.7
FIELDS x y z intensity ring
SIZE 4 4 4 4 2
TYPE F F F F U
COUNT 1 1 1 1 1
WIDTH 570
HEIGHT 1
VIEWPOINT 0 0 0 1 0 0 0
POINTS 570
DATA ascii
2.2807257 0.050563026 -0.19958675 1 5
2.260968 0.042228829 -0.19784361 6 5
2.2132897 0.033609677 -0.19366013 22 5
2.2253423 0.026413336 -0.19470601 31 5
2.2592905 0.018928451 -0.1976693 37 5
2.2613332 0.011445727 -0.19784361 58 5
2.2494049 0.0035327538 -0.19679773 36 5
2.3205693 -0.0040501617 -0.28493041 1 4
2.2593656 -0.0043376759 -0.1976693 11 5
2.3567598 -0.0053473273 -0.12351283 1 6
2.2927504 -0.012004923 -0.28151807 1 4
2.3047988 -0.013274834 -0.12079135 3 6
2.2748291 -0.01985213 -0.27932441 6 4
2.2811923 -0.020704009 -0.19958675 1 5
2.2627974 -0.020932026 -0.11859323 17 6
2.2628367 -0.027647141 -0.27786201 25 4
2.2850904 -0.028716806 -0.19993535 1 5
2.3088818 -0.037076969 -0.20202707 1 5
2.2965391 -0.037680622 -0.12037268 55 6
2.2744963 -0.043672565 -0.27932441 66 4
2.2967863 -0.044902589 -0.20098121 1 5
2.270442 -0.044783968 -0.11901194 33 6
2.256469 -0.05120644 -0.27713102 61 4
2.2926409 -0.052427653 -0.20063257 1 5
2.2802556 -0.052940801 -0.1195353 37 6
2.2542922 -0.059030723 -0.27688703 41 4
2.3043942 -0.060745154 -0.20167847 1 5
2.2760637 -0.0607934 -0.11932596 39 6
2.3607762 -0.063880727 -0.041222461 1 7
2.250104 -0.066781528 -0.27639955 41 4
2.304168 -0.068788618 -0.20167845 1 5
2.2758374 -0.068737984 -0.11932594 40 6
2.3605518 -0.071709 -0.041222464 2 7
2.2459023 -0.074111834 -0.27591237 41 4
2.3078966 -0.076964073 -0.20202707 1 5
2.2755973 -0.07628455 -0.11932596 39 6
2.2615004 -0.082530215 -0.27786204 41 4
2.2917001 -0.084032826 -0.20063257 2 5
2.2912846 -0.084818475 -0.12016334 40 6
2.3200276 -0.086693436 -0.040524367 69 7
2.2631812 -0.090503119 -0.27810597 44 4
2.299356 -0.092351682 -0.20132984 2 5
2.2949653 -0.092977732 -0.12037268 40 6
2.3177125 -0.094709687 -0.040489458 61 7
2.2787175 -0.099092498 -0.28005564 44 4
2.3149438 -0.10107262 -0.20272434 19 5
2.2906363 -0.10081246 -0.12016333 39 6
2.3233612 -0.10306528 -0.040594175 40 7
2.3955042 -0.11171206 -0.37982288 1 3
2.2624943 -0.10630078 -0.27810597 44 4
2.2862802 -0.1086181 -0.11995398 39 6
2.3082716 -0.11612421 -0.36605662 2 3
2.2640724 -0.11469297 -0.27834976 41 4
2.3101816 -0.11743297 -0.20237571 58 5
2.2978346 -0.11760955 -0.12058201 38 6
2.3465285 -0.12092309 -0.041013028 1 7
2.4022484 -0.12757824 0.041990437 1 8
2.3058798 -0.12407472 -0.36574376 7 3
2.2715867 -0.12302474 -0.27932441 42 4
2.2858841 -0.12419917 -0.20028396 45 5
2.3053873 -0.12606598 -0.12100069 39 6
2.3141451 -0.12735511 -0.040454552 1 7
2.3478827 -0.13291135 0.041048005 10 8
2.2790709 -0.13141038 -0.2802994 47 4
2.2914038 -0.13252276 -0.2008069 41 5
2.3129086 -0.13457657 -0.12141939 38 6
2.3416584 -0.13665946 -0.04094322 1 7
2.2754059 -0.13797396 -0.36105075 39 3
2.2865479 -0.1394507 -0.28127459 42 4
2.3068368 -0.1414963 -0.20220141 39 5
2.2965019 -0.14126472 -0.12058201 40 6
2.3571343 -0.14582032 -0.041222461 1 7
2.3469241 -0.14888968 0.041048009 49 8
2.2965946 -0.14730662 -0.3644923 57 3
2.2781236 -0.14692035 -0.2802994 42 4
2.3162956 -0.14978811 -0.20307295 23 5
2.2999809 -0.14953932 -0.12079135 38 6
2.348629 -0.15352561 -0.041082837 1 7
2.3384092 -0.1565468 0.040908393 48 8
2.3059208 -0.15598895 -0.36605662 59 3
2.2815578 -0.15514095 -0.28078714 30 4
2.3193705 -0.15893221 -0.12183807 29 6
2.3520689 -0.16199772 -0.041152645 1 7
2.3498168 -0.16555162 0.041117817 52 8
2.3132436 -0.16459797 -0.36730808 59 3
2.3469899 -0.16823435 -0.20586193 1 5
2.3514893 -0.17020699 -0.041152649 1 7
2.3452363 -0.17345802 0.041048009 45 8
2.304776 -0.17208338 -0.36605668 57 3
2.3021944 -0.17269878 -0.28346828 1 4
2.3265212 -0.174932 -0.20411885 1 5
2.3301542 -0.17602314 -0.12246611 2 6
2.3429048 -0.17780887 -0.041013028 1 7
2.3486037 -0.18195228 0.041117817 47 8
2.431335 -0.18878853 0.12780446 1 9
2.3041608 -0.1801275 -0.36605662 59 3
2.3134828 -0.18126251 -0.28493041 1 4
2.3338411 -0.18367729 -0.20481606 1 5
2.3295255 -0.18415587 -0.12246611 3 6
2.3582499 -0.18684076 -0.041292269 1 7
2.351974 -0.19006164 0.041187625 50 8
2.3789363 -0.19265839 0.12508298 10 9
2.3074889 -0.18808839 -0.36668241 57 3
2.304955 -0.18828681 -0.28395545 1 4
2.3292475 -0.19108976 -0.20446743 2 5
2.3735607 -0.19597632 -0.041571505 1 7
2.3593011 -0.19853073 0.041327246 50 8
2.3186619 -0.19674134 -0.3685596 57 3
2.3121951 -0.19700551 -0.28493065 1 4
2.3365417 -0.19949076 -0.20516469 2 5
2.3362129 -0.20028409 -0.1228848 32 6
2.3609078 -0.20323138 -0.041362073 2 7
2.3665621 -0.20746355 0.041466866 48 8
2.3675857 -0.20838609 0.12455963 42 9
2.3022192 -0.20344268 -0.36605659 21 3
2.3233576 -0.206128 -0.28639314 1 4
2.3576615 -0.20958617 -0.20708212 4 5
2.3454461 -0.20932546 -0.12340815 51 6
2.3601842 -0.21147129 -0.041362077 2 7
2.3618407 -0.21536 0.041397057 52 8
2.3767879 -0.21755952 0.12508295 39 9
2.3034625 -0.21165849 -0.36636952 32 3
2.3028569 -0.21241345 -0.28395545 1 4
2.3466897 -0.21769585 -0.12351283 47 6
2.3654046 -0.22026479 -0.041466787 28 7
2.3570926 -0.22322594 0.041327246 50 8
2.3160167 -0.22015162 -0.45221743 2 2
2.312542 -0.22063586 -0.36793387 51 3
2.325814 -0.22272138 -0.28688031 2 4
2.3482077 -0.22527944 -0.20638485 42 5
2.3339872 -0.22473742 -0.12288479 38 6
2.3682401 -0.23262528 0.041536674 50 8
2.3015578 -0.22688645 -0.4495461 8 2
2.3196208 -0.22948469 -0.36918533 57 3
2.317121 -0.23005417 -0.28590536 2 4
2.3394766 -0.23268606 -0.20568763 55 5
2.3292139 -0.23248644 -0.12267545 40 6
2.3777378 -0.23816805 -0.041711122 9 7
2.3793502 -0.24210514 0.041746106 54 8
2.3823276 -0.24324833 0.12550168 1 9
2.4676509 -0.25239545 0.21701768 1 10
2.3266656 -0.23838557 -0.37043679 59 3
2.3242025 -0.23895308 -0.28688031 2 4
2.3505418 -0.24207567 -0.20673352 55 5
2.340308 -0.24184732 -0.12330347 40 6
2.3784904 -0.25040916 0.041746106 54 8
2.3894083 -0.25240192 0.12592034 1 9
2.2862511 -0.24150503 -0.4468748 42 2
2.4092963 -0.25492796 0.21196264 7 10
2.3297486 -0.24692214 -0.37106258 59 3
2.3174326 -0.24643488 -0.28614911 11 4
2.337795 -0.2490129 -0.20568763 46 5
2.3434215 -0.25043949 -0.12351283 39 6
2.3799939 -0.25518826 -0.041780934 1 7
2.3776021 -0.25871012 0.041746106 54 8
2.3924839 -0.2611745 0.1261297 1 9
2.2814906 -0.24905793 -0.4461115 45 2
2.3249447 -0.25462285 -0.37043679 59 3
2.3329508 -0.25673592 -0.205339 44 5
2.3504739 -0.25949472 -0.1239315 39 6
2.3711383 -0.26261392 -0.041641314 1 7
2.3826461 -0.26767763 0.04185082 43 8
2.3994966 -0.27041891 0.12654838 1 9
2.2884107 -0.25789973 -0.44763798 51 2
2.4153769 -0.27263552 0.21265988 59 10
2.3279681 -0.2631807 -0.37106258 57 3
2.3334076 -0.26462066 -0.28834274 38 4
2.3478782 -0.26667672 -0.20673352 52 5
2.3436005 -0.26701954 -0.12361749 36 6
2.4218633 -0.27679285 -0.042548843 1 7
2.3916295 -0.27714396 0.042025346 27 8
2.4104414 -0.28017661 0.12717642 2 9
2.2952976 -0.26679292 -0.44916451 45 2
2.4124317 -0.28083473 0.21248558 42 10
2.3309588 -0.27176273 -0.37168828 57 3
2.3469326 -0.27487072 -0.20673349 46 5
2.4129384 -0.28430903 -0.042409219 1 7
2.3866758 -0.28501633 0.041955531 49 8
2.4134653 -0.28864276 0.12738577 2 9
2.2865543 -0.27386943 -0.44763798 45 2
2.4213278 -0.29044044 0.21335714 50 10
2.337841 -0.28084004 -0.37293974 57 3
2.3315034 -0.28090435 -0.28834274 1 4
2.3598051 -0.28473201 -0.20795368 48 5
2.4040415 -0.2913467 -0.042269599 1 7
2.3996115 -0.29463524 0.042199869 51 8
2.4124432 -0.29706562 0.12738578 2 9
2.281688 -0.28136882 -0.4468748 43 2
2.4044802 -0.29693711 0.21196264 49 10
2.3368969 -0.28859106 -0.37293974 57 3
2.529588 -0.31283528 0.31296045 1 11
2.3620799 -0.29253814 -0.29224259 1 4
2.3587968 -0.29296756 -0.20795368 35 5
2.3664927 -0.29434282 -0.12497824 1 6
2.4030099 -0.29973662 -0.042269599 1 7
2.3965845 -0.30275899 0.042164966 56 8
2.4055002 -0.3043119 0.12707175 8 9
2.3021669 -0.29164776 -0.4510726 47 2
2.4074352 -0.3054105 0.21231125 51 10
2.3358757 -0.29674661 -0.37293977 57 3
2.4969728 -0.31765503 0.30906063 1 11
2.357106 -0.30027983 -0.29175511 1 4
2.3812995 -0.30462909 -0.1258156 1 6
2.4178708 -0.30973637 -0.042548843 1 7
2.3955674 -0.31070474 0.042164966 57 8
2.3069751 -0.30044267 -0.45221743 42 2
2.4162333 -0.31510049 0.21318284 49 10
2.3309612 -0.30398023 -0.37231404 57 3
2.4526017 -0.32027858 0.30369839 8 11
2.3600338 -0.30860937 -0.29224259 1 4
2.3587236 -0.30927551 -0.20812802 2 5
2.3644342 -0.31044409 -0.12497824 2 6
2.3969491 -0.31556433 -0.04219979 2 7
2.4023411 -0.32054073 0.042304587 57 8
2.399302 -0.32098767 0.12686242 42 9
2.3234258 -0.31083664 -0.455652 15 2
2.4230175 -0.32459089 0.21388008 51 10
2.3396201 -0.31383458 -0.3738783 50 3
2.3156042 -0.311436 -0.28688031 1 4
2.369477 -0.31910253 -0.20917384 3 5
2.3830736 -0.32178062 -0.12602496 2 6
2.4195554 -0.32756671 -0.042618647 2 7
2.407151 -0.32973868 0.042409297 59 8
2.4060817 -0.33044785 0.12728111 41 9
2.4297647 -0.33413255 0.2145773 51 10
2.3326399 -0.32119104 -0.37293974 13 3
2.4836771 -0.34242985 0.30784196 71 11
2.3498993 -0.32440352 -0.2912679 1 4
2.3760004 -0.32927462 -0.12571092 4 6
2.4005713 -0.33353388 -0.042304505 22 7
2.4139063 -0.33925244 0.042548917 58 8
2.3291817 -0.32775974 -0.54303175 1 1
2.4088688 -0.33940187 0.12749043 12 9
2.3153665 -0.32622772 -0.45450708 1 2
2.4187193 -0.34122038 0.21370575 30 10
2.462811 -0.34831744 0.30540451 45 11
2.3526835 -0.33316088 -0.29175508 1 4
2.3934536 -0.34106505 -0.04219979 36 7
2.4047904 -0.34653559 0.042409297 61 8
2.3376675 -0.33727953 -0.54528129 7 1
2.3297586 -0.33655351 -0.45756009 1 2
2.3694406 -0.34313032 -0.37919715 2 3
2.3947253 -0.3476454 -0.29711735 1 4
2.3699486 -0.34447089 -0.20952247 49 5
2.3973608 -0.34930983 -0.126967 36 6
2.4120352 -0.35230783 -0.042548835 47 7
2.411479 -0.35609621 0.042548914 61 8
2.3094866 -0.3414472 -0.53898263 23 1
2.4637368 -0.36469179 0.13052592 2 9
2.3441062 -0.34698361 -0.46061298 1 2
2.4320452 -0.36043441 0.21510027 1 10
2.3565047 -0.34965953 -0.37731996 4 3
2.4603195 -0.36550257 0.30540454 2 11
2.3738618 -0.35308194 -0.29468024 1 4
2.3785851 -0.3542088 -0.21039402 48 5
2.3783481 -0.35502219 -0.12602495 38 6
2.4048581 -0.35983753 -0.042444125 57 7
2.4181297 -0.36570778 0.042688526 58 8
2.3198411 -0.35125721 -0.5416823 43 1
2.4506006 -0.37149355 0.12989789 1 9
2.3351169 -0.35398704 -0.4590866 1 2
2.4583497 -0.37310719 0.21754059 1 10
2.3490658 -0.35777941 -0.29175511 2 4
2.5484097 -0.38859594 0.40829408 1 12
2.3812737 -0.36311013 -0.21074267 48 5
2.3849919 -0.36452904 -0.12644364 47 6
2.4055636 -0.36853263 -0.042479027 42 7
2.4207909 -0.37475824 0.042758342 59 8
2.343636 -0.36323288 -0.54753107 63 1
2.4375129 -0.37778258 0.12926984 1 9
2.3338668 -0.36213595 -0.45908654 2 2
2.4727824 -0.38413283 0.21893537 2 10
2.3598616 -0.36701304 -0.37825853 48 3
2.3791847 -0.37086883 -0.29565516 2 4
2.5139263 -0.39187241 0.40297529 5 12
2.3878658 -0.37264892 -0.21143991 50 5
2.3817317 -0.37254333 -0.12633896 42 6
2.4023528 -0.37619838 -0.042444121 11 7
2.4313855 -0.38465869 0.04296777 58 8
2.3212466 -0.36764938 -0.54258192 59 1
2.4559054 -0.38941664 0.13031657 1 9
2.3287103 -0.36966479 -0.45832333 6 2
2.4438789 -0.38838416 0.21649501 2 10
2.3859441 -0.37917709 -0.38263866 69 3
2.4740694 -0.39362478 0.3075982 46 11
2.3720608 -0.37781978 -0.29492369 20 4
2.4774299 -0.39504623 0.39734364 29 12
2.3826156 -0.38035369 -0.21109128 50 5
2.3824553 -0.38075462 -0.12644364 35 6
2.412262 -0.39026919 0.042653628 27 8
2.3334143 -0.3779307 -0.54573143 57 1
2.4427023 -0.39606899 0.12968855 1 9
2.4563446 -0.39872104 0.21771494 4 10
2.3612084 -0.38370121 -0.37888426 63 3
2.4824772 -0.40385228 0.30881688 57 11
2.368768 -0.38577843 -0.29468024 30 4
2.4935822 -0.4065524 0.40015945 40 12
2.3813412 -0.38825268 -0.21109128 50 5
2.4490032 -0.40103963 -0.043316741 1 7
2.322468 -0.38448212 -0.54348165 47 1
2.4491863 -0.40589929 0.13010724 1 9
2.3435719 -0.38839597 -0.46175787 46 2
2.3676493 -0.39323556 -0.38013572 63 3
2.4693027 -0.41056171 0.30735442 53 11
2.3987377 -0.39925939 -0.29857975 36 4
2.5194273 -0.41979957 0.40453961 47 12
2.3878324 -0.39787257 -0.21178852 50 5
2.4594219 -0.41156608 -0.043526169 1 7
2.4153941 -0.40809968 0.042758346 16 8
2.3249547 -0.39323658 -0.54438144 47 1
2.4674468 -0.41778034 0.13115394 2 9
2.3363945 -0.39559099 -0.46061298 38 2
2.4436786 -0.41419473 0.21684363 34 10
2.3721051 -0.40248922 -0.38107437 59 3
2.4658976 -0.41884628 0.30711073 49 11
2.3503616 -0.39964396 -0.29273009 14 4
2.5491047 -0.43389505 0.40954557 68 12
2.3903573 -0.40687394 -0.21213713 50 5
2.3980258 -0.40904057 -0.12749034 1 6
2.4579704 -0.42014855 -0.043526169 1 7
2.3254886 -0.4016816 -0.5448314 45 1
2.4581015 -0.42502964 0.13073526 2 9
2.3427379 -0.40508217 -0.46213949 51 2
2.4677396 -0.42713976 0.2191094 47 10
2.3745782 -0.41144139 -0.38170007 59 3
2.4742002 -0.4291476 0.30832943 55 11
2.512543 -0.43670163 0.40391394 52 12
2.3987377 -0.41692126 -0.21300872 46 5
2.4201951 -0.42152116 -0.12874642 1 6
2.4564886 -0.4287259 -0.043526169 2 7
2.4459655 -0.43084949 0.043351728 42 8
2.3375058 -0.4121654 -0.54798067 47 1
2.4684038 -0.43569037 0.13136329 2 9
2.339376 -0.41291603 -0.46175781 50 2
2.4524999 -0.43332464 0.21788923 45 10
2.3789632 -0.4207598 -0.38263866 63 3
2.4883246 -0.44055012 0.31027934 53 11
2.3826976 -0.42227811 -0.29711735 1 4
2.5187831 -0.44684961 0.40516534 49 12
2.3874588 -0.42355174 -0.21213716 50 5
2.418709 -0.42996666 -0.12874642 1 6
2.4471025 -0.43589526 -0.043386552 2 7
2.4306693 -0.43690842 0.043107387 47 8
2.3418069 -0.42135757 -0.54933041 45 1
2.4590054 -0.44288793 0.13094459 12 9
2.345649 -0.42247152 -0.46328431 50 2
2.4588153 -0.44329679 0.21858647 47 10
2.3638723 -0.42660564 -0.38044861 32 3
2.494585 -0.45064485 0.31125423 53 11
2.4163702 -0.43695092 -0.30150494 1 4
2.5288706 -0.45775014 0.40704259 30 12
2.3879259 -0.4322378 -0.21231143 38 5
2.432915 -0.44125828 -0.12958379 1 6
2.4593384 -0.44693753 -0.043630887 4 7
2.4389641 -0.44719359 0.043281917 54 8
2.3364882 -0.42882583 -0.54843086 43 1
2.4201212 -0.444612 0.12895586 20 9
2.3441598 -0.43065682 -0.46328431 47 2
2.4631314 -0.45295811 0.2191094 57 10
2.4851885 -0.4579111 0.31027937 56 11
2.4148304 -0.44538295 -0.30150467 1 4
2.3922808 -0.44165576 -0.21283442 26 5
2.4235041 -0.44829497 -0.12916511 1 6
2.4413195 -0.4564395 0.043351725 54 8
2.342639 -0.4384129 -0.55023044 41 1
2.4578166 -0.46041188 0.13104928 5 9
2.3503613 -0.4402827 -0.46481082 47 2
2.4772012 -0.46449068 0.22050418 55 10
2.4151976 -0.45330098 -0.38920891 1 3
2.4855256 -0.4669497 0.31052306 37 11
2.4093592 -0.45307583 -0.30101714 1 4
2.4103043 -0.45368916 -0.21457751 58 5
2.4376259 -0.45971289 -0.13000248 2 6
2.4502633 -0.46298203 -0.043526169 47 7
2.4475687 -0.46645597 0.043491341 52 8
2.473933 -0.47192797 0.13199131 2 9
2.3410962 -0.4470115 -0.46328431 50 2
2.481436 -0.47425696 0.22102684 45 10
2.3864379 -0.45653251 -0.38482875 1 3
2.4155614 -0.46297798 -0.30199215 1 4
2.4087059 -0.46209997 -0.21457751 45 5
2.4438517 -0.46972701 -0.13042116 2 6
2.4546056 -0.4722383 -0.043630883 64 7
2.453861 -0.47609338 0.043630965 52 8
2.4957979 -0.48513401 0.13324741 1 9
2.3453033 -0.45630562 -0.46442923 44 2
2.4236903 -0.47199568 -0.39108619 1 3
2.5193095 -0.49107328 0.31515408 2 11
2.4140129 -0.47098577 -0.30199215 2 4
2.3973014 -0.46859404 -0.21370596 46 5
2.4265997 -0.47476059 -0.12958379 5 6
2.4372432 -0.4777264 -0.043351647 65 7
2.4561076 -0.48543146 0.04370077 50 8
2.4940896 -0.49384299 0.13324742 1 9
2.36111 -0.46751237 -0.46786377 20 2
2.3987758 -0.47584063 -0.38733169 1 3
2.5253685 -0.50141072 0.31612903 4 11
2.4143012 -0.47979629 -0.30223587 2 4
2.3996422 -0.47731861 -0.21405455 44 5
2.4453659 -0.48818851 -0.043526169 54 7
2.4543982 -0.49400201 0.04370077 50 8
2.5040972 -0.50491452 0.13387543 1 9
2.3613882 -0.4761394 -0.46824539 5 2
2.4920447 -0.50293702 0.2224216 2 10
2.4087183 -0.48655784 -0.38920897 2 3
2.418448 -0.48940197 -0.30296734 20 4
2.4096785 -0.48806515 -0.21510047 44 5
2.4427998 -0.49566135 -0.13063051 36 6
2.4534452 -0.49871311 -0.043700691 50 7
2.4624536 -0.50457335 0.043875296 41 8
2.490581 -0.51124287 0.13324742 1 9
2.3520188 -0.48280013 -0.46671885 26 2
2.5215003 -0.51804829 0.22521032 2 10
2.4186144 -0.4973501 -0.39108616 2 3
2.5179179 -0.51822841 0.31564158 41 11
2.415765 -0.49808273 -0.21579766 48 5
2.4430108 -0.50458938 -0.13073517 5 6
2.4575641 -0.50848973 -0.043805405 47 7
2.5005114 -0.52238399 0.13387543 1 9
2.3733807 -0.49582502 -0.47129831 42 2
2.4129968 -0.50498039 -0.39046043 2 3
2.5491233 -0.53393281 0.31978512 47 11
2.4130301 -0.50586665 -0.30272335 67 4
2.4218116 -0.50814879 -0.21649495 47 5
2.447947 -0.51541716 -0.043665789 25 7
2.5143015 -0.53443128 0.1347128 1 9
2.3620336 -0.50206572 -0.46939021 6 2
2.4788468 -0.52734727 0.22172409 34 10
2.5200632 -0.53703517 0.31637278 46 11
2.4073668 -0.51345849 -0.30223587 68 4
2.4122291 -0.51493573 -0.21579768 47 5
2.4648187 -0.52706164 -0.1320959 1 6
2.5019925 -0.54003572 0.044678103 1 8
2.4968035 -0.539828 0.13387543 1 9
2.5023062 -0.54147494 0.22399014 47 10
2.5278735 -0.54793119 0.31759149 38 11
2.4036195 -0.52143776 -0.30199212 47 4
2.4143112 -0.52419829 -0.21614632 46 5
2.4785774 -0.53905791 -0.1329333 1 6
2.4638274 -0.53675079 -0.044014834 1 7
2.4825132 -0.54490763 0.044363961 4 8
2.5144105 -0.55282891 0.13492215 2 9
2.4984548 -0.5497781 0.22381583 47 10
2.4210806 -0.53319514 -0.39265054 57 3
2.5220683 -0.55589718 0.31710401 34 11
2.4095387 -0.53153527 -0.30296707 46 4
2.4202487 -0.53434074 -0.21684356 46 5
2.4454782 -0.54080629 -0.13125855 1 6
2.4931769 -0.55226743 -0.044573307 2 7
2.5085671 -0.56073117 0.1347128 2 9
2.5023534 -0.55980086 0.22433874 49 10
2.4288425 -0.54380077 -0.39421484 57 3
2.4076684 -0.5399428 -0.30296734 43 4
2.4339211 -0.54627633 -0.21823806 38 5
2.482548 -0.55810064 -0.13335198 1 6
2.5029392 -0.56360269 -0.044782743 4 7
2.4630477 -0.55868661 0.044084724 39 8
2.5047462 -0.56860459 0.13460813 4 9
2.5198121 -0.57294977 0.22608188 48 10
2.4269295 -0.55227584 -0.39421484 45 3
2.4154463 -0.55054963 -0.30418602 32 4
2.4805846 -0.56676286 -0.13335198 1 6
2.4982061 -0.57537872 0.044747915 49 8
2.5139139 -0.58084494 0.22573352 48 10
2.405838 -0.55587369 -0.3910861 19 3
2.4552801 -0.56910336 -0.22050411 1 5
2.4709094 -0.57318044 -0.1329333 1 6
2.4747641 -0.5790838 0.044363961 47 8
2.5182171 -0.59017873 0.13555019 4 9
2.5158539 -0.59008819 0.22608188 49 10
2.4348319 -0.57242984 -0.30711091 2 4
2.4611371 -0.57906753 -0.22120135 2 5
2.4766695 -0.5836345 -0.13335198 1 6
2.491164 -0.58796817 -0.044678025 61 7
2.4844007 -0.59049326 0.044573385 43 8
2.5433428 -0.60544068 0.1370156 1 9
2.5254076 -0.60163695 0.22712773 51 10
2.4444039 -0.58369178 -0.30857304 2 4
2.4494116 -0.58533961 -0.22032979 3 5
2.4823866 -0.59413576 -0.13377066 2 6
2.481318 -0.59479576 -0.044538401 49 7
2.4920437 -0.60150784 0.044747915 45 8
2.5296726 -0.61105752 0.13638756 1 9
2.5271652 -0.61138552 0.22747634 47 10
2.4366674 -0.59039229 -0.30784187 4 4
2.4764159 -0.60185385 -0.13356131 2 6
2.4948764 -0.60680157 -0.044817641 50 7
2.5055742 -0.61357355 0.045027155 45 8
2.5276325 -0.61944294 0.13638756 1 9
2.5367339 -0.62261212 0.22852224 51 10
2.4647169 -0.60676116 -0.2220729 41 5
2.4705281 -0.60910642 -0.13335197 12 6
2.4889674 -0.61411345 -0.044747833 49 7
2.5151701 -0.62477148 0.045236588 29 8
2.5487132 -0.63404816 0.13764364 1 9
2.5269213 -0.62909544 0.22782497 46 10
2.4653349 -0.61513406 -0.3119857 40 4
2.4587183 -0.6143949 -0.2217243 61 5
2.4945679 -0.62474102 -0.044887453 49 7
2.5463719 -0.64338547 0.13764362 1 9
2.5323253 -0.64030653 0.22852223 48 10
2.4495938 -0.62075239 -0.31027925 11 4
2.4641743 -0.62536269 -0.22242153 55 5
2.4854634 -0.63168901 -0.13439868 15 6
2.5000136 -0.63585156 -0.045027073 48 7
2.5105221 -0.64319152 0.045236576 1 8
2.5363717 -0.65028602 0.13722493 1 9
2.5376804 -0.65156555 0.22921947 45 10
2.4658353 -0.63495421 -0.22277015 46 5
2.5074596 -0.64707261 -0.045201588 47 7
2.5316014 -0.65754592 0.045655437 1 8
2.5302207 -0.65812999 0.1370156 1 9
2.5450308 -0.66293085 0.23009102 32 10
2.463604 -0.64355773 -0.22277015 46 5
2.473377 -0.64657187 -0.13398002 1 6
2.4974482 -0.65379566 -0.045061979 32 7
2.5331581 -0.66739768 0.045725245 1 8
2.5279078 -0.66695821 0.1370156 2 9
2.4730127 -0.65478361 -0.22381605 45 5
2.4865499 -0.65929669 -0.13481739 1 6
2.5385408 -0.67830068 0.045864869 1 8
2.5602932 -0.68507075 0.13889968 2 9
2.4687874 -0.6628952 -0.22364172 41 5
2.5150931 -0.67627001 -0.13649213 1 6
2.5179245 -0.67797399 -0.045515735 22 7
2.5342276 -0.68663496 0.045829963 6 8
2.4722261 -0.67307907 -0.22416468 38 5
2.508863 -0.68399459 -0.13628279 1 6
2.5195212 -0.68737268 -0.045585547 40 7
2.4988809 -0.69018364 -0.13586411 1 6
2.5460162 -0.70415896 -0.046109118 52 7
2.5410545 -0.70708531 0.046039395 46 8
2.5455308 -0.70880973 0.13848098 39 9
2.5118427 -0.70320976 -0.13670149 1 6
2.522486 -0.70666414 -0.045725163 47 7
2.5444694 -0.71713531 0.046144102 50 8
2.5411189 -0.71714848 0.13837631 42 9
2.5517702 -0.72352141 -0.13900426 2 6
2.5200038 -0.71546483 -0.045725163 43 7
2.5496418 -0.72820944 0.046283726 53 8
2.550122 -0.72930944 0.13900435 42 9
2.5127568 -0.72194541 -0.13701551 10 6
2.5309436 -0.72812706 -0.045969497 45 7
2.5374799 -0.73432541 0.0461092 38 8
2.5590706 -0.74154192 0.13963237 42 9
2.5331044 -0.73785299 -0.13827157 33 6
2.5322261 -0.73807663 -0.046039309 50 7
2.5601683 -0.75204217 0.13984174 42 9
2.5209353 -0.74386448 -0.1377482 22 6
2.5314219 -0.74791926 -0.046074215 48 7
2.5934999 -0.77069199 0.04722615 1 8
2.5594418 -0.76154387 0.1399464 36 9
2.5402899 -0.76019078 -0.04628364 48 7
2.6137719 -0.78665614 0.04764501 1 8
2.562505 -0.77220201 0.14026041 12 9
2.5414481 -0.77021331 -0.046353448 48 7
2.6071844 -0.79460901 0.047575198 1 8
2.5368328 -0.77849329 -0.046318546 46 7
2.5930696 -0.79971433 0.047365773 1 8
2.5552447 -0.79342455 -0.0467025 45 7
2.6055329 -0.81352901 0.04764501 1 8
2.5600898 -0.80473769 -0.046842113 41 7
2.5988638 -0.82141382 0.047575198 1 8
2.5610766 -0.8148818 -0.046911929 6 7
2.5921717 -0.82926178 0.047505394 7 8
2.5474067 -0.8247543 0.046737485 25 8
2.5730169 -0.84298015 0.047261059 43 8
2.5852439 -0.8569904 0.0475403 40 8
2.5860283 -0.86728084 0.047610104 40 8
2.600028 -0.88208461 0.047924247 6 8
