# .PCD v0.7 - Point Cloud Data file format
VERSION 0.7
FIELDS x y z intensity ring
SIZE 4 4 4 4 2
TYPE F F F F U
COUNT 1 1 1 1 1
WIDTH 583
HEIGHT 1
VIEWPOINT 0 0 0 1 0 0 0
POINTS 583
DATA ascii
2.1023731 1.3126884 -0.21684356 4 5
2.0999405 1.3015116 -0.21614632 24 5
2.106168 1.2952167 -0.21632062 36 5
2.1140778 1.2899326 -0.21666925 41 5
2.1236811 1.2856401 -0.21719217 66 5
2.1110754 1.2679621 -0.21544906 50 5
2.1172006 1.2616048 -0.21562341 49 5
2.1250219 1.2562339 -0.21597202 48 5
2.1444123 1.2666868 -0.13052583 5 6
2.1190815 1.2427616 -0.21492612 42 5
2.1352458 1.2427427 -0.21614635 16 5
2.1702497 1.2621015 -0.13157254 36 6
2.1625319 1.2475326 -0.13083987 38 6
2.1547503 1.2345363 -0.30491725 1 4
2.1784475 1.2476099 -0.21963255 1 5
2.1193516 1.2044489 -0.29931128 8 4
2.1481421 1.220315 -0.21614635 1 5
2.176399 1.2353625 -0.13115385 2 6
2.13219 1.2019172 -0.30052969 30 4
2.1595438 1.2163448 -0.21684356 2 5
2.1737368 1.223838 -0.13073517 10 6
2.1363716 1.1944687 -0.30052969 36 4
2.1602981 1.2068553 -0.21649495 2 5
2.1851835 1.219757 -0.13115385 34 6
2.1407359 1.1866288 -0.30052969 60 4
2.1664495 1.1998949 -0.21666925 16 5
2.1824389 1.2082517 -0.13073517 36 6
2.2572653 1.24865 -0.04502707 1 7
2.1187711 1.1648058 -0.2968736 52 4
2.1461768 1.1788955 -0.21422887 29 5
2.1991084 1.206972 -0.13146789 65 6
2.2300532 1.2234493 -0.044398785 4 7
2.1173937 1.1549207 -0.29614264 44 4
2.1708612 1.1835927 -0.21632062 41 5
2.1765809 1.1857258 -0.1298978 57 6
2.1301429 1.1522444 -0.29736108 42 4
2.1767325 1.1769547 -0.21649495 66 5
2.187736 1.1819175 -0.1303165 42 6
2.2348094 1.2063429 -0.044328976 60 7
2.1341517 1.1448022 -0.29736108 42 4
2.1615124 1.1589934 -0.21457751 49 5
2.1883273 1.1723866 -0.13010713 42 6
2.2284291 1.1928713 -0.044119548 43 7
2.138135 1.1373461 -0.29736111 42 4
2.1690636 1.1533114 -0.21492615 44 5
2.1888781 1.1628684 -0.1298978 42 6
2.1473596 1.1326535 -0.29809231 32 4
2.1730757 1.1457332 -0.21492612 46 5
2.1858561 1.1514965 -0.12947911 42 6
2.250859 1.1847364 -0.044398788 1 7
2.2138844 1.1588682 -0.39577919 1 3
2.1770618 1.1381413 -0.21492615 46 5
2.1934028 1.1457094 -0.12968847 42 6
2.2443445 1.1713203 -0.04418936 1 7
2.1828506 1.1329328 -0.38952181 1 3
2.1761646 1.1289808 -0.30101717 2 4
2.1774838 1.1287006 -0.21457751 46 5
2.2009358 1.1398826 -0.1298978 42 6
2.2553194 1.167549 -0.044328976 1 7
2.1655197 1.1148384 -0.38576737 19 3
2.1728358 1.1181252 -0.30004221 1 4
2.1794426 1.1205629 -0.21440318 48 5
2.2153633 1.1380529 -0.13052583 39 6
2.2413902 1.1509289 -0.043979932 1 7
2.2983851 1.1756368 0.045062061 1 8
2.1979449 1.1213588 -0.30296707 1 4
2.1886663 1.1156625 -0.21492612 44 5
2.2632143 1.1521705 -0.044328976 1 7
2.2402506 1.1355613 0.04384039 15 8
2.167963 1.0970165 -0.38482878 69 3
2.1807814 1.1025481 -0.30004221 1 4
2.1980758 1.1103287 -0.21544906 21 5
2.2459974 1.13306 -0.043910123 1 7
2.1560762 1.0810949 -0.38201293 65 3
2.1635096 1.0838785 -0.29711735 1 4
2.2487872 1.1251283 -0.13178189 2 6
2.2608676 1.1301847 -0.044119552 1 7
2.2930708 1.1417845 0.044713005 49 8
2.1616063 1.0744408 -0.38232586 69 3
2.1815033 1.0833827 -0.29906753 1 4
2.212913 1.0984987 -0.21614635 2 5
2.2419655 1.1119466 -0.13115387 2 6
2.2576313 1.1187348 -0.043979932 1 7
2.2755241 1.123153 0.044294152 48 8
2.160027 1.0642713 -0.38138726 58 3
2.188834 1.0775154 -0.29955477 1 4
2.2095821 1.0872504 -0.21544906 4 5
2.2458334 1.1041132 -0.13115385 2 6
2.2685075 1.1147702 -0.044119552 1 7
2.2792358 1.1156013 0.044294152 52 8
2.1635449 1.0571018 -0.38138726 56 3
2.2066655 1.0772179 -0.30150494 1 4
2.1882942 1.0673027 -0.21300873 23 5
2.2297344 1.0870328 -0.13000248 13 6
2.26879 1.105093 -0.044049744 1 7
2.2795184 1.1058921 0.044224344 50 8
2.163666 1.0478206 -0.38076147 58 3
2.2104127 1.069508 -0.30150494 1 4
2.1989958 1.0635092 -0.21370596 31 5
2.2263215 1.0757674 -0.12958378 30 6
2.2870398 1.1041222 -0.044328976 2 7
2.2905738 1.1013941 0.044363964 52 8
2.1744332 1.0436811 -0.38201293 56 3
2.1926534 1.0514849 -0.29858002 1 4
2.2260511 1.0670229 -0.21597201 41 5
2.2426729 1.0740278 -0.1303165 36 6
2.280057 1.0909529 -0.044119548 2 7
2.301625 1.0968333 0.044503585 50 8
2.1780632 1.036085 -0.38201293 56 3
2.2070682 1.0489379 -0.30004224 2 4
2.2207637 1.0549719 -0.21510047 58 5
2.2608426 1.0730444 -0.13115385 61 6
2.2712038 1.0769893 -0.043875214 12 7
2.294591 1.0836682 0.044294156 48 8
2.3590052 1.1130823 0.13670157 2 9
2.1661458 1.0220828 -0.46557403 1 2
2.1780927 1.0267917 -0.3813872 54 3
2.2035329 1.0378435 -0.29906756 2 4
2.2154195 1.0429708 -0.21422888 49 5
2.2428873 1.0549445 -0.1298978 52 6
2.2983594 1.0756524 0.044294156 52 8
2.1697001 1.0145158 -0.46557403 1 2
2.1745052 1.0158376 -0.38013574 58 3
2.205343 1.0293061 -0.29882351 8 4
2.2244635 1.0377576 -0.21475182 48 5
2.2356939 1.0420469 -0.12926978 39 6
2.2877307 1.0653291 -0.044049744 10 7
2.3021002 1.0676224 0.044294152 54 8
2.1554148 0.99868268 -0.46175787 10 2
2.1816232 1.0099001 -0.38076147 54 3
2.1999142 1.0174348 -0.29760483 30 4
2.2226472 1.0274777 -0.21422888 44 5
2.2429447 1.0359108 -0.12947913 43 6
2.3094468 1.0612506 0.044363964 50 8
2.3305991 1.0699854 0.13439879 40 9
2.1923168 1.0055734 -0.38201293 58 3
2.2070613 1.0114039 -0.29809231 36 4
2.2298427 1.0213729 -0.21457751 46 5
2.2465465 1.0280756 -0.12947911 43 6
2.276926 1.0410168 -0.043700691 1 7
2.3204165 1.0564976 0.044503581 50 8
2.3415918 1.0651522 0.13481748 7 9
2.1551859 0.98035908 -0.46023136 50 2
2.2012091 1.0003657 -0.38295156 60 3
2.2015407 0.99959081 -0.29687363 24 4
2.2261376 1.0102891 -0.21388027 46 5
2.2555785 1.0227021 -0.12979315 41 6
2.2987614 1.0413132 -0.04404974 1 7
2.3222678 1.0475683 0.044468675 40 8
2.376251 1.0709219 0.13659692 1 9
2.1532259 0.97040969 -0.45908654 42 2
2.1956811 0.98862249 -0.3813872 54 3
2.2086372 0.99352795 -0.29736108 2 4
2.231467 1.0033306 -0.21405457 48 5
2.2755318 1.0221875 -0.13073517 11 6
2.316977 1.0398333 -0.044328973 1 7
2.3635614 1.0552919 0.13565485 2 9
2.1691489 0.96848977 -0.46175781 56 2
2.1955106 0.97934216 -0.38076147 54 3
2.2211578 0.98985291 -0.29857975 2 4
2.2385957 0.99715608 -0.21440318 48 5
2.3205929 1.0317386 -0.044328976 1 7
2.3364775 1.0353841 0.044608295 2 8
2.3595593 1.0446274 0.13523614 2 9
2.1703856 0.96087617 -0.46137628 59 2
2.2021897 0.97403854 -0.38138726 45 3
2.2387829 0.98928833 -0.30052972 1 4
2.2437134 0.99053121 -0.21457751 46 5
2.2895701 1.0102981 -0.13115385 1 6
2.3128438 1.0196035 -0.044119548 1 7
2.3364151 1.0256149 0.044538483 7 8
2.3430717 1.0275604 0.13408476 3 9
2.1649022 0.94897443 -0.45946819 53 2
2.2111738 0.96833616 -0.38232583 9 3
2.2313111 0.97669202 -0.29906756 1 4
2.2471576 0.98269248 -0.21457751 44 5
2.2859368 0.99870193 -0.13073519 1 6
2.3090587 1.0083225 -0.043979932 1 7
2.1645999 0.93984729 -0.45870492 53 2
2.4125571 1.0470086 0.23009102 1 10
2.238519 0.97008544 -0.29955477 1 4
2.25423 0.97642785 -0.21492615 32 5
2.3150711 1.0018207 -0.13220058 1 6
2.3164098 1.0014402 -0.04404974 1 7
2.3381846 1.0064979 0.044433776 49 8
2.1678672 0.93228614 -0.45870492 53 2
2.2305846 0.95833504 -0.38451594 2 3
2.2382429 0.96070015 -0.29906756 1 4
2.2466388 0.96383947 -0.21388027 21 5
2.3185539 0.99373394 -0.13220058 2 6
2.3235681 0.99492198 -0.044119548 1 7
2.3324864 0.99440813 0.044259254 51 8
2.3685782 1.0088197 0.13492215 47 9
2.178333 0.92779082 -0.46023136 26 2
2.2302804 0.9489966 -0.38389018 2 3
2.2561979 0.95909345 -0.30101714 1 4
2.2701604 0.96456236 -0.21579771 66 5
2.2962697 0.97470862 -0.13073517 2 6
2.3454363 0.9946124 -0.044468589 2 7
2.3377848 0.98703843 0.044294152 54 8
2.3592033 0.99511147 0.13418943 48 9
2.4087021 1.0154947 0.22869653 45 10
2.2445018 0.94580758 -0.38576737 2 3
2.2558727 0.94967204 -0.30052969 1 4
2.2624953 0.95199513 -0.21475185 52 5
2.2922933 0.96359175 -0.1303165 2 6
2.3488939 0.9864198 -0.044468593 2 7
2.3449056 0.98041511 0.044363961 54 8
2.2008131 0.91971695 -0.55068016 1 1
2.3680196 0.98959231 0.13450347 47 9
2.184757 0.9125607 -0.46023136 3 2
2.4103937 1.0063136 0.22852224 7 10
2.2368517 0.93340212 -0.38389018 2 3
2.2298582 0.92957014 -0.29663017 2 4
2.2676439 0.94485748 -0.21492615 44 5
2.2937989 0.9548161 -0.13021182 11 6
2.3336897 0.97094315 -0.044119548 11 7
2.3518395 0.97416383 0.044433776 54 8
2.1858449 0.90496081 -0.54618108 13 1
2.3788414 0.98437554 0.13492216 49 9
2.1843014 0.9034276 -0.45946819 7 2
2.2472365 0.92899948 -0.38514167 2 3
2.2476063 0.92823279 -0.29857975 2 4
2.2617185 0.93313712 -0.21405455 48 5
2.3024921 0.94948918 -0.13052584 34 6
2.357075 0.96670741 0.044468671 58 8
2.1781719 0.8928898 -0.54348165 41 1
2.3822625 0.97606635 0.13492215 45 9
2.4227188 0.99214846 0.22904517 1 10
2.2394965 0.91665918 -0.38326439 3 3
2.2508326 0.92038202 -0.29857975 3 4
2.2684891 0.92713988 -0.21440318 48 5
2.3168862 0.94597632 -0.13115385 36 6
2.3385599 0.95387197 -0.044084646 59 7
2.3604352 0.95847321 0.044468671 58 8
2.1686361 0.88015062 -0.54033238 43 1
2.3893566 0.96924686 0.13513149 47 9
2.192219 0.8892777 -0.4598498 49 2
2.4446313 0.991171 0.23078828 1 10
2.2536674 0.91328704 -0.38514164 22 3
2.2521915 0.91177404 -0.2983363 20 4
2.2754061 0.92070991 -0.21475185 50 5
2.3220263 0.93863112 -0.13125853 65 6
2.3418746 0.94570476 -0.044084646 61 7
2.3674779 0.95171911 0.044538483 58 8
2.1897769 0.87984109 -0.54483163 68 1
2.3816054 0.95643407 0.13450347 32 9
2.1953101 0.88161933 -0.4598498 42 2
2.4406803 0.9796623 0.23009102 1 10
2.2461479 0.90021384 -0.29711735 34 4
2.2767563 0.91202116 -0.21457751 46 5
2.2937658 0.91790462 -0.12947911 57 6
2.3488753 0.9390083 -0.044154454 39 7
2.3726432 0.9441902 0.044573389 57 8
2.1747277 0.86498928 -0.54033238 63 1
2.1965501 0.87322515 -0.45946822 56 2
2.4477878 0.97260988 0.23043966 1 10
2.2618244 0.89826041 -0.38545451 69 3
2.4852879 0.9865045 0.32831603 1 11
2.2603471 0.89676166 -0.29857975 36 4
2.2817786 0.90480208 -0.21475185 48 5
2.2969553 0.90989393 -0.12947911 42 6
2.3833668 0.93883342 0.044713005 57 8
2.1867993 0.8609637 -0.54258186 63 1
2.1995845 0.86555278 -0.45946819 56 2
2.4400432 0.95968342 0.22939408 1 10
2.2465618 0.88313448 -0.38232586 63 3
2.2708549 0.89176798 -0.29955474 60 4
2.2775042 0.89391923 -0.21405457 50 5
2.3112743 0.90624428 -0.13010713 18 6
2.3790152 0.92801714 0.044573385 52 8
2.1950898 0.85583049 -0.5439316 56 1
2.4192419 0.9427374 0.13607354 1 9
2.1989338 0.85644394 -0.45870492 56 2
2.4396651 0.94971526 0.22904517 1 10
2.2421148 0.87281269 -0.38107437 66 3
2.2571485 0.8777566 -0.29736108 52 4
2.2843244 0.88740832 -0.21440318 48 5
2.364013 0.91694129 -0.044259168 1 7
2.374778 0.9168281 0.044433776 54 8
2.1853371 0.84325135 -0.54078221 54 1
2.4225183 0.93428636 0.13607354 1 9
2.205425 0.85056072 -0.45946819 56 2
2.4502366 0.94448668 0.22974269 1 10
2.2414613 0.86355996 -0.38044861 52 3
2.480494 0.9551543 0.32636607 48 11
2.2676086 0.87272608 -0.29833603 39 4
2.2872548 0.87982768 -0.21440318 50 5
2.3434906 0.90052068 -0.13157256 1 6
2.3709333 0.91011637 -0.044328976 1 7
2.3891716 0.91281444 0.044643197 23 8
2.1882675 0.83561754 -0.54078221 54 1
2.4220326 0.92440069 0.1358642 2 9
2.2193856 0.84705776 -0.46175781 56 2
2.4646888 0.94018811 0.23078829 1 10
2.2481539 0.85713744 -0.38107437 38 3
2.480103 0.94507664 0.32587862 60 11
2.2650764 0.86268508 -0.29760483 10 4
2.2940366 0.87325549 -0.21475185 48 5
2.3428857 0.89091557 -0.13136321 1 6
2.3815725 0.90467554 -0.044468589 1 7
2.37925 0.89951938 0.044398867 47 8
2.1948166 0.82935327 -0.54168212 51 1
2.4177706 0.91311711 0.13544549 2 9
2.2149825 0.83653039 -0.46023136 56 2
2.4604993 0.92876375 0.23009102 1 10
2.4778144 0.93431175 0.32514736 45 11
2.3026643 0.8673498 -0.21527477 44 5
2.357197 0.88695151 -0.13199124 1 6
2.3772295 0.89354187 -0.044328976 2 7
2.3879945 0.89330995 0.044503581 50 8
2.1940477 0.82032132 -0.54078227 30 1
2.4172015 0.90327424 0.13523616 2 9
2.2160501 0.82810676 -0.4598498 59 2
2.4375956 0.91041052 0.22765067 2 10
2.4884999 0.92843306 0.32612234 48 11
2.2970839 0.85656089 -0.30101717 1 4
2.2944758 0.8551324 -0.21422888 39 5
2.3490486 0.87453747 -0.13136323 1 6
2.3728368 0.88244969 -0.044189356 2 7
2.3798463 0.8808037 0.044294156 50 8
2.2207685 0.82104647 -0.46023136 56 2
2.4594476 0.90880138 0.22939408 2 10
2.2773893 0.84107769 -0.38451594 2 3
2.4880013 0.91836554 0.32563487 48 11
2.2851608 0.84304017 -0.29906756 1 4
2.3030548 0.84918636 -0.21475182 7 5
2.3595834 0.869093 -0.13178189 1 6
2.383256 0.87734109 -0.044328976 2 7
2.3789983 0.87153178 0.044224344 50 8
2.2273085 0.81463873 -0.4609946 56 2
2.2987189 0.84030235 -0.38764459 2 3
2.4854395 0.90806681 0.32490364 51 11
2.3140483 0.84499061 -0.30247986 1 4
2.3134923 0.84387243 -0.21544906 11 5
2.3474407 0.85579139 -0.13094452 1 6
2.3900623 0.87038457 -0.044398788 2 7
2.3933065 0.86731076 0.044433773 52 8
2.4207408 0.87629557 0.13492215 47 9
2.2299981 0.8072477 -0.46099463 53 2
2.2719159 0.82152492 -0.38263866 2 3
2.4904611 0.90005946 0.32514739 46 11
2.2945797 0.82881588 -0.29955474 2 4
2.329396 0.84093094 -0.21666925 41 5
2.354171 0.84894747 -0.13115385 2 6
2.3930862 0.86203563 -0.044398788 11 7
2.3963196 0.85895067 0.044433776 50 8
2.4200239 0.86649424 0.1347128 51 9
2.2291052 0.7981354 -0.46023136 53 2
2.474303 0.8854419 0.229917 34 10
2.2896495 0.81891179 -0.38514167 2 3
2.4991956 0.8933658 0.32587862 51 11
2.2937205 0.81946492 -0.29906756 2 4
2.3248115 0.83011532 -0.21597198 61 5
2.3608832 0.84206623 -0.13136323 2 6
2.4030726 0.85191751 0.044503585 52 8
2.4380958 0.86337441 0.13555019 45 9
2.2207742 0.78641683 -0.45794168 35 2
2.2999427 0.81354988 -0.3863931 2 3
2.4966838 0.88265067 0.32514736 48 11
2.3003101 0.81277645 -0.29955474 2 4
2.3126655 0.81668812 -0.21457751 49 5
2.3713422 0.83647686 -0.13178189 2 6
2.3858438 0.84065598 -0.044154458 61 7
2.3984833 0.84087688 0.044363961 54 8
2.4335542 0.85221988 0.13513149 44 9
2.2346227 0.78255492 -0.46023136 53 2
2.2990398 0.80421156 -0.38576737 2 3
2.509119 0.87720782 0.3263661 49 11
2.2993853 0.80343193 -0.29906756 10 4
2.3173835 0.80926669 -0.21475182 50 5
2.3629324 0.82424784 -0.13115385 11 6
2.3982048 0.8356142 -0.044328976 69 7
2.4127402 0.83642882 0.044573385 55 8
2.4440637 0.84633356 0.13555019 19 9
2.2447617 0.77731901 -0.46175787 53 2
2.4853225 0.86013365 0.2300913 1 10
2.2906318 0.79230762 -0.38389018 2 3
2.5046611 0.8658489 0.32539111 51 11
2.3096812 0.79799283 -0.30004221 30 4
2.322077 0.80182338 -0.21492612 46 5
2.358243 0.81338918 -0.13073517 33 6
2.4011071 0.82723713 -0.044328976 60 7
2.4156446 0.82800341 0.044573385 54 8
2.2437468 0.76820624 -0.46099463 39 2
2.4807692 0.84887463 0.22939378 1 10
2.3083363 0.78941989 -0.3863931 2 3
2.50579 0.85645807 0.32514739 53 11
2.3086953 0.78864402 -0.29955477 36 4
2.3267479 0.79435599 -0.21510047 50 5
2.3610673 0.80515409 -0.13073517 36 6
2.4096589 0.82078433 -0.044433691 57 7
2.4223084 0.82084906 0.044643197 55 8
2.447876 0.82903695 0.13544551 1 9
2.4950416 0.84404016 0.23043968 1 10
2.2961078 0.77629566 -0.38389018 3 3
2.5125253 0.84897745 0.32563487 48 11
2.3188202 0.78352487 -0.30052969 60 4
2.3389459 0.78941453 -0.21597202 51 5
2.3638637 0.79690677 -0.13073517 24 6
2.4009974 0.80895746 -0.044224262 57 7
2.4363935 0.81662428 0.044852629 54 8
2.4657621 0.82599068 0.13628288 1 9
2.5016057 0.83702528 0.23078828 1 10
2.3061626 0.77118456 -0.38514167 22 3
2.5266232 0.8444168 0.3270973 55 11
2.304461 0.77016848 -0.29833603 52 4
2.3264308 0.77660835 -0.21457751 46 5
2.3884895 0.7959339 -0.043945018 33 7
2.4352918 0.80728257 0.044782821 52 8
2.4724224 0.81863332 0.13649221 2 9
2.4892352 0.82371813 0.22939378 1 10
2.5256398 0.83478683 0.32660976 48 11
2.3071353 0.76211923 -0.29833603 42 4
2.3366959 0.7709794 -0.21527475 46 5
2.4070327 0.7937209 -0.13282861 1 6
2.4323943 0.79690969 0.044678111 30 8
2.4714687 0.8087551 0.13628286 1 9
2.5187504 0.82325542 0.23183413 1 10
2.3171239 0.75690484 -0.38608024 69 3
2.5209908 0.82349944 0.32563487 43 11
2.3173299 0.75652581 -0.29931128 41 4
2.3431618 0.76405299 -0.21562338 49 5
2.3947337 0.77994454 -0.13199125 1 6
2.4111016 0.78481019 -0.044259168 2 7
2.4780777 0.80135262 0.13649222 1 9
2.5102339 0.81078357 0.23078829 1 10
2.3028328 0.7433511 -0.38326445 65 3
2.5183244 0.81242621 0.32490364 23 11
2.3087511 0.74437183 -0.29784882 42 4
2.3458145 0.75586957 -0.21562338 49 5
2.3974411 0.77158123 -0.13199124 1 6
2.4442847 0.78618628 -0.044817641 1 7
2.4512303 0.78417403 0.044922438 11 8
2.4732497 0.79026663 0.13607354 2 9
2.5130486 0.80201679 0.23078829 2 10
2.3146944 0.73871392 -0.38482878 69 3
2.3112073 0.73671103 -0.29784858 41 4
2.3522356 0.74888468 -0.21597198 47 5
2.419019 0.76968181 -0.13303795 1 6
2.416522 0.7679584 -0.044259168 1 7
2.4759929 0.78162915 0.13607354 2 9
2.5080938 0.79128015 0.23009102 5 10
2.3210268 0.73181695 -0.38545451 48 3
2.3251252 0.73221701 -0.29931128 32 4
2.3662386 0.74425775 -0.21701787 11 5
2.4064486 0.75644225 -0.1322006 1 6
2.4268196 0.76191497 -0.044398788 2 7
2.4490099 0.76465815 0.044782821 49 8
2.4939601 0.77773768 0.13691092 2 9
2.4053895 0.74643379 -0.13199125 1 6
2.4485633 0.75936288 -0.044747833 2 7
2.4365087 0.75096428 0.044503585 49 8
2.4871159 0.76608706 0.13638756 13 9
2.5308306 0.77858496 0.23166013 66 10
2.3549747 0.72313523 -0.30247959 2 4
2.3885193 0.73297948 -0.21858665 2 5
2.4156189 0.74037325 -0.13240993 1 6
2.4244313 0.74261135 -0.044259168 16 7
2.4504628 0.74637687 0.044713005 52 8
2.5240018 0.76684958 0.23078828 47 10
2.3383641 0.70955825 -0.30004221 2 4
2.3719959 0.71885949 -0.21684356 2 5
2.4104145 0.73004353 -0.13199124 1 6
2.453053 0.73781914 0.044713005 54 8
2.4771013 0.74410826 0.13555019 42 9
2.5303466 0.75962287 0.23113689 52 10
2.352236 0.70480961 -0.30150494 2 4
2.3668561 0.70828992 -0.21614632 4 5
2.4206026 0.72391361 -0.13240993 1 6
2.4353046 0.72738439 -0.044363882 57 7
2.4632814 0.73152834 0.044852629 54 8
2.4969163 0.74056995 0.13649222 39 9
2.5197415 0.74638182 0.22991672 55 10
2.354682 0.69659483 -0.30150494 7 4
2.4347332 0.71842879 -0.13303797 2 6
2.4474192 0.72170645 -0.044538401 69 7
2.4621081 0.72137111 0.044782825 54 8
2.5261562 0.73870057 0.23026536 51 10
2.3851318 0.69565517 -0.21736652 41 5
2.4333906 0.7088089 -0.13282861 2 6
2.4518433 0.71371967 -0.044573307 57 7
2.468328 0.71431476 0.044852629 55 8
2.5285919 0.7303201 0.23026536 55 10
2.3784423 0.68605256 -0.30394202 40 4
2.4008274 0.69160181 -0.21858667 70 5
2.4222922 0.69686961 -0.13209592 3 6
2.4580402 0.70668948 -0.044643119 57 7
2.4783745 0.70832288 0.044992249 54 8
2.50441 0.71481711 0.13649221 1 9
2.5348318 0.72302324 0.23061396 52 10
2.3540931 0.67013752 -0.30052969 42 4
2.3858604 0.67873067 -0.2170179 61 5
2.4624164 0.6986503 -0.044678029 54 7
2.4846816 0.7007525 0.045062061 54 8
2.5184245 0.70932013 0.13712025 1 9
2.5411761 0.71524936 0.23096257 52 10
2.3583293 0.66245234 -0.30077341 7 4
2.3939698 0.67201298 -0.2175408 54 5
2.4250562 0.67982626 -0.13199124 9 6
2.4609883 0.68897289 -0.044608217 54 7
2.4948177 0.69421983 0.04520167 47 8
2.524734 0.70159489 0.13732959 1 9
2.5398178 0.70530921 0.23061398 49 10
2.3791351 0.6584518 -0.21597202 51 5
2.4633782 0.68037868 -0.044608217 54 7
2.5010829 0.68656504 0.045271486 10 8
2.5156105 0.68961012 0.13670157 1 9
2.5404644 0.69546866 0.23043968 42 10
2.3852627 0.65119302 -0.21632062 49 5
2.4375665 0.66455686 -0.13240993 1 6
2.4676673 0.67230189 -0.044643119 48 7
2.5411389 0.68707979 0.13795763 1 9
2.5448 0.68711656 0.23061398 12 10
2.3913691 0.64389831 -0.21666925 49 5
2.4398715 0.65604478 -0.13240993 1 6
2.456481 0.66005105 -0.044398785 18 7
2.5135431 0.67115223 0.04541111 1 8
2.5203638 0.67202985 0.13670157 2 9
2.397454 0.6365689 -0.2170179 51 5
2.4613383 0.65307295 -0.13345666 1 6
2.5004001 0.65830052 0.045131866 2 8
2.5380304 0.6677354 0.13753895 1 9
2.4072611 0.63063526 -0.21771514 47 5
2.4520097 0.64144367 -0.13282862 1 6
2.488003 0.65039438 -0.044887457 2 7
2.5141823 0.65302074 0.045341294 5 8
2.5403457 0.65887117 0.13753894 2 9
2.401731 0.62023634 -0.2170179 48 5
2.469595 0.63730091 -0.13366601 1 6
2.4844482 0.64021033 -0.044782739 3 7
2.5582242 0.65351117 0.13837631 2 9
2.4136424 0.61388546 -0.21788944 40 5
2.4602993 0.62529379 -0.13303797 1 6
2.4935837 0.628658 0.044887535 46 8
2.5527427 0.64262635 0.13795763 3 9
2.4780746 0.62015158 -0.13387534 1 6
2.5172198 0.62481397 0.045271486 49 8
2.4724679 0.60958469 -0.13345668 1 6
2.5067644 0.61711365 -0.045061979 61 7
2.5213277 0.61649895 0.045306392 51 8
2.4784622 0.60189247 -0.13366599 2 6
2.499186 0.60600281 -0.044887453 54 7
2.5254085 0.60816288 0.045341298 54 8
2.5497303 0.61307847 0.13743429 42 9
2.4844329 0.59416819 -0.13387536 2 6
2.499341 0.5968101 -0.044852544 57 7
2.5236244 0.59842044 0.045271486 56 8
2.5537982 0.60463405 0.13753894 48 9
2.4864917 0.5854916 -0.13387534 10 6
2.5072494 0.58945566 -0.044957262 54 7
2.5256977 0.58960813 0.045271486 52 8
2.557734 0.59661615 0.13764362 47 9
2.5169826 0.58294207 -0.045096878 54 7
2.5276392 0.58122867 0.045271486 49 8
2.5558059 0.58723599 0.13743429 47 9
2.4767892 0.56544113 -0.13314264 57 6
2.5169523 0.57414824 -0.045061976 57 7
2.5471053 0.57681906 0.045585625 29 8
2.5519955 0.57699007 0.13712026 39 9
2.4786506 0.55722523 -0.13314264 37 6
2.5150387 0.56448227 -0.044992164 57 7
2.5656919 0.57067972 0.1377483 16 9
2.5150411 0.55526918 -0.044957258 54 7
2.5531211 0.55900532 0.045620527 1 8
2.5228269 0.54775894 -0.045061976 50 7
2.5666902 0.55306244 0.045829963 1 8
2.5266786 0.53936833 -0.045096878 54 7
2.5646923 0.54327261 0.045760155 1 8
2.5207181 0.52890217 -0.044957262 30 7
2.5665731 0.53431624 0.045760155 1 8
2.5049222 0.51646507 -0.044643119 15 7
2.5802693 0.52730852 0.045969579 2 8
2.5517876 0.5168488 -0.04544593 69 7
2.572201 0.51677895 0.045795057 9 8
2.530041 0.5032562 -0.04502707 43 7
2.5396326 0.49595526 -0.045166686 23 7
2.581636 0.4999496 0.045899771 49 8
2.5833654 0.49093425 0.045899771 49 8
2.5850637 0.48191425 0.045899775 54 8
2.5827954 0.47216901 0.045829959 52 8
2.5844283 0.46314985 0.045829963 48 8
2.5958767 0.45585555 0.046004485 33 8
