# .PCD v0.7 - Point Cloud Data file format
VERSION 0.7
FIELDS x y z intensity ring
SIZE 4 4 4 4 2
TYPE F F F F U
COUNT 1 1 1 1 1
WIDTH 1286
HEIGHT 1
VIEWPOINT 0 0 0 1 0 0 0
POINTS 1286
DATA ascii
9.1464739 -9.3629255 2.5442464 33 13
2.5340736 -2.5949492 -0.19008413 22 6
9.0783329 -9.2996645 3.0003972 55 14
2.5222919 -2.5846889 -0.063037902 24 7
9.0288124 -9.2553988 3.4645519 18 15
2.7269411 -2.802217 -1.0476995 3 0
2.5084686 -2.578614 0.062793687 22 8
3.5472877 -3.6477561 -1.1746942 7 1
2.4780617 -2.5491366 0.18631607 23 9
3.990449 -4.1049013 -1.1127982 3 2
2.4646332 -2.5362086 0.3094027 23 10
4.0576916 -4.1769905 -0.92233747 1 3
2.4519584 -2.5249288 0.43214867 24 11
2.4500864 -2.5247636 0.55721974 27 12
2.5835772 -2.662323 -0.32456809 4 5
9.1479092 -9.4300251 2.5537884 35 13
2.5444663 -2.6238518 -0.19154954 22 6
9.0851507 -9.3718739 3.0134444 55 14
2.5216043 -2.6020935 -0.06324733 22 7
9.0314007 -9.3229361 3.4780111 13 15
2.7037179 -2.797827 -1.042523 6 0
2.5175138 -2.606051 0.063247442 24 8
3.5372407 -3.6629195 -1.1755939 7 1
2.4857943 -2.5750144 0.18757214 25 9
3.9760957 -4.1188059 -1.1127982 3 2
2.464067 -2.5533986 0.31044859 23 10
2.458288 -2.54919 0.4348298 22 11
4.0201697 -4.1702847 -0.7112298 2 4
2.4535947 -2.546102 0.56003553 22 12
2.5715029 -2.6684558 -0.32421947 5 5
9.1598864 -9.5085592 2.5663803 31 13
2.5546877 -2.652859 -0.19301496 24 6
9.092927 -9.4456491 3.0269418 55 14
2.5333045 -2.632493 -0.063770898 19 7
2.7006235 -2.8142171 -1.0451113 6 0
2.5194762 -2.6263676 0.063526683 24 8
3.5352237 -3.686497 -1.1791931 7 1
2.4989045 -2.6067443 0.18924688 25 9
3.9752803 -4.1468329 -1.1166145 3 2
2.4689238 -2.5763693 0.31219169 23 10
2.4672225 -2.5763938 0.43799835 22 11
4.055007 -4.2359152 -0.72000378 2 4
2.4583497 -2.5689228 0.56316417 13 12
2.5663056 -2.6817341 -0.32474241 6 5
9.1646385 -9.5801973 2.5770657 35 13
2.5523138 -2.6689777 -0.19353832 20 6
9.1016445 -9.520998 3.0408883 49 14
2.5337713 -2.6514399 -0.064015232 19 7
2.7094417 -2.8432062 -1.0523583 6 0
2.5227063 -2.6481769 0.063840821 22 8
3.5142703 -3.6903472 -1.1764938 7 1
2.5035615 -2.6299174 0.19029361 25 9
3.9607816 -4.1606836 -1.1166145 3 2
2.4818916 -2.6080644 0.31498069 23 10
2.4664218 -2.5936215 0.43946078 20 11
2.4684184 -2.5975358 0.5675444 24 12
2.5884957 -2.7238941 -0.32875159 9 5
9.1798191 -9.663373 2.5908039 35 13
2.5539844 -2.6894572 -0.19437569 20 6
9.1112881 -9.5979376 3.0552852 51 14
2.5396416 -2.676224 -0.064399183 21 7
2.7194183 -2.8736942 -1.0601227 6 0
2.5313122 -2.6758518 0.064294584 24 8
3.5067232 -3.708256 -1.1782935 7 1
2.5067143 -2.6517034 0.19123566 24 9
3.9543252 -4.183044 -1.1189041 3 2
2.493299 -2.6384335 0.31759533 27 10
4.5415788 -4.8076243 -1.0474851 3 3
2.4709833 -2.6166477 0.4418982 20 11
2.4769609 -2.6248131 0.5716117 22 12
2.5981159 -2.7531996 -0.33119193 8 5
9.1810579 -9.7324867 2.6007276 33 13
2.561024 -2.7157924 -0.19563176 20 6
9.1111479 -9.6651344 3.0665329 47 14
2.5563416 -2.7127242 -0.065062374 22 7
5.0336847 -5.3434854 1.967025 0 15
2.7226002 -2.8972473 -1.0652993 6 0
2.5411243 -2.7050762 0.064783253 24 8
3.4964256 -3.723315 -1.1791931 7 1
2.5083785 -2.6720862 0.19207303 25 9
3.9423869 -4.1996841 -1.1196673 3 2
2.4977076 -2.6616495 0.31933844 27 10
4.5274725 -4.8263297 -1.0481108 3 3
2.4822023 -2.6469777 0.44555426 21 11
2.4745374 -2.6406507 0.57317603 15 12
2.6034753 -2.7782445 -0.33310938 6 5
9.1899805 -9.8103247 2.6129379 35 13
2.5679109 -2.7422097 -0.19688782 22 6
9.0573778 -9.675539 3.0597844 42 14
2.5495896 -2.7245505 -0.065132178 18 7
2.7309222 -2.9265068 -1.072546 6 0
2.5425789 -2.7256279 0.065062493 21 8
3.4887235 -3.7411976 -1.1809927 7 1
2.5185738 -2.7008393 0.19353844 24 9
3.922349 -4.2076764 -1.1181409 3 2
2.5033426 -2.6863859 0.32125586 25 10
4.5213695 -4.8536673 -1.0506138 3 3
2.4891813 -2.673059 0.44847915 21 11
5.2668772 -5.6579261 -0.94911808 4 4
2.4751885 -2.6589632 0.57536614 5 12
2.6059775 -2.8004422 -0.33467817 8 5
9.1998062 -9.88978 2.6255326 33 13
2.5828047 -2.7774837 -0.19877192 18 6
9.1283665 -9.8198547 3.0953269 47 14
2.5650473 -2.7593536 -0.065760463 19 7
4.9971972 -5.3776236 1.9670252 0 15
2.7456388 -2.962945 -1.0823812 6 0
2.5416815 -2.7428451 0.065271921 21 8
3.4868927 -3.764184 -1.1845921 7 1
2.5281289 -2.7301311 0.19500385 24 9
3.9183068 -4.2328677 -1.1211938 3 2
2.506129 -2.7082689 0.32282469 22 10
4.5106163 -4.874434 -1.0518653 3 3
2.4978271 -2.7002428 0.4516477 22 11
5.2453914 -5.6724448 -0.94863057 4 4
2.4900279 -2.693697 0.58099777 2 12
2.6083558 -2.8226912 -0.336247 6 5
9.2029352 -9.9591646 2.6358364 33 13
2.5925531 -2.8065727 -0.20023732 20 6
9.1301241 -9.8872948 3.1070242 9 14
2.5716767 -2.7859232 -0.066179328 19 7
4.9810147 -5.3978744 1.9680603 1 15
2.8286922 -3.0729487 -1.1191335 3 0
2.5537565 -2.7752445 0.065830395 21 8
3.465816 -3.7677269 -1.1818926 7 1
2.5321028 -2.7536407 0.19605057 22 9
3.9175377 -4.2602897 -1.1250101 3 2
2.5119662 -2.7326996 0.32474211 24 10
4.4882269 -4.8843307 -1.0506138 3 3
2.5004723 -2.7221026 0.45384139 21 11
5.233614 -5.6994929 -0.95009297 4 4
2.493968 -2.7169247 0.58412647 1 12
2.6178436 -2.8518741 -0.33868733 5 5
9.2092638 -10.036071 2.647665 31 13
2.5935414 -2.8273799 -0.20107469 22 6
7.8219676 -8.5302 2.6719687 1 14
2.5808532 -2.81552 -0.066667989 18 7
7.6285443 -8.3250952 3.0255952 5 15
3.0942693 -3.3850961 -1.2288729 6 0
2.5561938 -2.7974277 0.066144541 19 8
3.4605286 -3.788435 -1.184592 7 1
2.5332491 -2.7742615 0.19688794 22 9
3.8973467 -4.2681389 -1.1234834 3 2
2.5225601 -2.7635243 0.32735679 22 10
4.4804707 -4.910182 -1.0528039 3 3
2.501658 -2.7425473 0.45579132 21 11
5.2163625 -5.7206607 -0.95058048 4 4
2.5084221 -2.7518916 0.5897581 2 12
2.6441119 -2.9007514 -0.34339377 6 5
9.221777 -10.120397 2.6614046 33 13
2.5971055 -2.8511813 -0.20212141 20 6
7.7475348 -8.508462 2.6566722 1 14
2.5871623 -2.8422577 -0.067086838 16 7
7.6085386 -8.3616753 3.0292189 1 15
3.0902245 -3.4044595 -1.2319788 6 0
2.5732884 -2.8359516 0.066842631 19 8
3.4446654 -3.7976048 -1.1836923 7 1
2.5423319 -2.8038018 0.19835335 24 9
3.8850622 -4.284627 -1.1242468 3 2
2.5236027 -2.7841222 0.32875171 22 10
4.481873 -4.9462862 -1.0571841 3 3
2.5080612 -2.7689178 0.45871615 21 11
5.2016912 -5.7447209 -0.95155543 4 4
2.5094059 -2.7723475 0.59226108 2 12
2.6540251 -2.9321203 -0.34600839 6 5
9.2232771 -10.193288 2.6720884 10 13
2.6018751 -2.8765228 -0.20327279 20 6
7.6707363 -8.4834166 2.6404755 1 14
2.5852709 -2.860172 -0.067296274 15 7
3.0628014 -3.3980055 -1.2257671 4 0
2.5821135 -2.8657155 0.067331307 19 8
3.4470389 -3.8269808 -1.1890911 7 1
2.5512395 -2.8334389 0.19981878 24 9
3.8753364 -4.3039975 -1.1257732 3 2
2.5285311 -2.8092039 0.33066869 21 10
4.457974 -4.9545579 -1.0556197 3 3
2.5196207 -2.8012702 0.462616 19 11
5.2081523 -5.7923656 -0.9564302 4 4
9.3214359 -10.370688 2.2085423 2 12
2.6717441 -2.9724846 -0.34966898 6 5
9.2545605 -10.2999 2.6915512 18 13
2.6105027 -2.9063897 -0.2047382 18 6
7.6046228 -8.4695406 2.6278784 5 14
2.5926354 -2.888525 -0.067750037 15 7
2.7236691 -3.0430496 -1.094287 5 0
2.5800943 -2.8836524 0.067540728 19 8
3.4466507 -3.8535151 -1.19359 7 1
2.5573082 -2.8601937 0.20107482 26 9
3.8576722 -4.3145719 -1.12501 3 2
2.5333147 -2.8343537 0.33258611 22 10
4.4432845 -4.9730353 -1.0562454 3 3
2.5230505 -2.8248539 0.46505338 19 11
5.1931901 -5.816433 -0.95740521 4 4
9.3128014 -10.434112 2.2151127 10 12
2.6772718 -2.9996295 -0.35176066 5 5
9.257761 -10.37609 2.7029996 38 13
2.6242709 -2.9423141 -0.20662229 18 6
9.1960993 -10.314223 3.1902559 14 14
2.6064863 -2.924428 -0.068378314 16 7
2.7066128 -3.0453184 -1.0916988 5 0
2.5859516 -2.9105804 0.067959592 21 8
3.4176493 -3.848038 -1.1881912 7 1
2.5671995 -2.8915062 0.2026449 24 9
3.8504093 -4.3368201 -1.1272998 3 2
2.5445664 -2.8670216 0.3353751 22 10
4.4258986 -4.9885149 -1.0562454 3 3
2.5237119 -2.8455248 0.46700329 19 11
5.1675868 -5.8285842 -0.9564302 4 4
9.3365908 -10.534559 2.2295046 31 12
2.7011435 -3.0477242 -0.35629275 2 5
9.2579393 -10.449487 2.7136848 34 13
2.6245782 -2.9634178 -0.20745967 18 6
2.6227684 -2.9634578 -0.069076419 15 7
2.6870179 -3.0446086 -1.0880753 3 0
2.5916512 -2.937583 0.068378441 21 8
3.4041963 -3.8599446 -1.1881912 7 1
2.5702984 -2.915431 0.2036916 22 9
3.830054 -4.3443427 -1.1257732 3 2
2.558255 -2.902792 0.33851272 22 10
4.4215164 -5.0187559 -1.0593742 3 3
2.5308199 -2.8736835 0.47017193 18 11
5.1655731 -5.8674455 -0.9598434 4 4
9.3480501 -10.621952 2.2410808 24 12
2.7299774 -3.1020041 -0.36152211 1 5
9.2642002 -10.530381 2.7262797 30 13
2.6300457 -2.9905586 -0.20871574 21 6
9.1946354 -10.458669 3.2150006 42 14
2.6229684 -2.984611 -0.069355644 16 7
2.678921 -3.0568755 -1.0891106 1 0
2.6077352 -2.9766948 0.069076538 18 8
3.4048247 -3.8879302 -1.1931407 7 1
2.5758927 -2.9424188 0.20494767 22 9
3.817452 -4.360641 -1.1265365 2 2
2.5677886 -2.9341941 0.3411274 21 10
4.4039702 -5.0341592 -1.0593741 3 3
2.5442953 -2.9093974 0.47455919 18 11
5.1502872 -5.8914189 -0.96081841 4 4
9.3538113 -10.703604 2.2514055 29 12
5.9705558 -6.8321309 -0.79381478 4 5
9.2829247 -10.626232 2.7426894 36 13
2.6392968 -3.0222867 -0.21028581 17 6
9.2067709 -10.546486 3.2320969 40 14
2.6243672 -3.0073087 -0.069669783 16 7
2.706279 -3.1099274 -1.1046398 1 0
2.6157029 -3.0069017 0.069565207 19 8
3.3937902 -3.9027328 -1.1940399 7 1
2.5826402 -2.9709876 0.20630841 22 9
3.8150878 -4.3887568 -1.1303527 3 2
2.5601442 -2.9461472 0.34147599 21 10
4.3993254 -5.0644145 -1.0625029 3 3
2.5510442 -2.9377458 0.4777278 19 11
5.1322942 -5.9123597 -0.96130502 4 4
9.3565235 -10.782439 2.2611041 31 12
5.9440584 -6.8499212 -0.79346621 6 5
9.2882309 -10.707512 2.7552812 30 13
2.6549006 -3.0616601 -0.21237925 17 6
9.2247877 -10.641877 3.2514424 20 14
2.6308782 -3.0360982 -0.070123561 14 7
7.4740705 -8.6283035 3.0587239 28 15
2.652462 -3.0696559 -1.0870399 1 0
2.615648 -3.0281198 0.069844432 17 8
3.3903353 -3.9263551 -1.1976391 7 1
2.5918298 -3.0026641 0.2078785 21 9
3.8048756 -4.4079914 -1.1318791 3 2
2.5693688 -2.9776926 0.34409067 19 10
4.3790407 -5.0767479 -1.061877 3 3
2.5589225 -2.9676802 0.48114011 19 11
5.1297693 -5.9512887 -0.96471822 4 4
9.3343029 -10.832993 2.2648587 11 12
6.0449638 -7.0155268 -0.81020004 3 5
9.2930803 -10.788956 2.7678745 34 13
2.6650484 -3.095125 -0.214054 17 6
9.229538 -10.722754 3.2662897 47 14
2.6385238 -3.066484 -0.070612215 14 7
7.3909969 -8.5928259 3.0369833 37 15
2.6245906 -3.0599999 0.070368022 17 8
3.3360188 -3.8908253 -1.1832423 2 1
2.6034286 -3.0374722 0.20965791 22 9
3.7945769 -4.4272089 -1.1334057 3 2
2.5758114 -3.0063121 0.34635672 21 10
4.3715725 -5.1040053 -1.0643799 3 3
2.5640399 -2.994689 0.48406494 21 11
5.1270351 -5.990273 -0.96812963 4 4
9.3182631 -10.891026 2.2701776 6 12
6.1758709 -7.2182512 -0.83111733 1 5
9.3064041 -10.88101 2.7831409 17 13
2.6633132 -3.1150351 -0.21478668 17 6
9.2325668 -10.802308 3.2806861 32 14
2.6446903 -3.0954401 -0.071065977 13 7
7.3735037 -8.6332636 3.0421596 6 15
2.1097853 -2.476361 -0.87170255 1 0
2.6333416 -3.0919783 0.070891581 16 8
3.1960888 -3.7540643 -1.138252 2 1
2.5992823 -3.0541458 0.21018124 21 9
3.7790997 -4.4404268 -1.1334056 3 2
2.5924129 -3.0471523 0.35001722 21 10
4.3537288 -5.1192331 -1.0643799 3 3
2.5664294 -3.0187449 0.48650238 18 11
5.0906682 -5.9899817 -0.96520478 4 4
9.2635641 -10.903914 2.2661102 11 12
6.1222582 -7.2063613 -0.82728261 1 5
9.3204718 -10.974782 2.7987857 34 13
2.6705201 -3.1456287 -0.2162521 17 6
9.2465038 -10.895391 3.2991326 35 14
2.6636226 -3.1397254 -0.071868785 13 7
2.6431923 -3.1255822 0.071450055 14 8
2.1010089 -2.4853282 -0.75133675 1 1
2.607192 -3.0841029 0.21164669 19 9
3.7686458 -4.45959 -1.134932 3 2
2.5959046 -3.0729251 0.35193467 19 10
4.3409309 -5.1404371 -1.0656315 3 3
2.5802059 -3.0565057 0.49113342 15 11
5.0835819 -6.0219994 -0.96764219 4 4
9.2413683 -10.951181 2.269552 6 12
6.1304679 -7.2672834 -0.83181477 1 5
9.3377934 -11.073287 2.8155768 36 13
2.6852696 -3.1854725 -0.21834554 17 6
9.250514 -10.973669 3.313529 40 14
2.664794 -3.162303 -0.072182931 11 7
7.2958999 -8.6610909 3.034395 38 15
2.0692675 -2.462563 -0.86186743 56 0
2.6482475 -3.1527042 0.071868919 14 8
2.0877433 -2.4863124 -0.74953717 8 1
2.6175005 -3.1172047 0.21332146 17 9
2.385592 -2.8420305 -0.72125816 1 2
2.5959454 -3.0937266 0.35332918 17 10
4.3543282 -5.1911263 -1.0731403 2 3
2.5866363 -3.0848196 0.49430194 12 11
5.0737877 -6.050993 -0.96959209 2 4
9.14536 -10.910613 2.2548468 9 12
6.139606 -7.3272791 -0.83634686 1 5
9.3426247 -11.153857 2.8281701 34 13
2.6952066 -3.2188613 -0.22002029 17 6
9.2653666 -11.065545 3.3319752 42 14
2.6748288 -3.1956575 -0.072741404 11 7
7.2497816 -8.6644936 3.027148 46 15
2.0511866 -2.4575465 -0.85772634 61 0
2.6531518 -3.1798947 0.072287783 13 8
2.0919685 -2.5081868 -0.75403577 9 1
2.6270666 -3.1508663 0.21499617 17 9
2.6086323 -3.1298671 0.35646722 19 10
2.367065 -2.8410399 -0.58569062 10 3
2.6030715 -3.1254122 0.49942049 18 11
9.0440369 -10.866554 2.2392035 4 12
5.9865632 -7.1955047 -0.81891567 3 5
9.348278 -11.236092 2.8411458 34 13
2.7075055 -3.2554212 -0.22190435 17 6
9.2740269 -11.154763 3.3490715 42 14
2.6815515 -3.2265055 -0.073230073 11 7
7.1997418 -8.6659727 3.0188658 41 15
2.032306 -2.4531467 -0.85358524 53 0
2.6598957 -3.210695 0.072776452 13 8
2.101845 -2.5379875 -0.76078433 13 1
2.6364305 -3.1846328 0.21667093 16 9
2.3544278 -2.8450036 -0.71782362 39 2
2.6174638 -3.1639695 0.35925576 17 10
2.3641899 -2.8588302 -0.58756787 52 3
2.5959413 -3.1390691 0.50015169 18 11
2.3500199 -2.8427057 -0.45286632 35 4
9.0488348 -10.94983 2.2498412 2 12
2.3424356 -2.8355458 -0.3217791 1 5
9.3470345 -11.318722 2.8533573 36 13
2.6993697 -3.2699435 -0.22221836 14 6
9.2839346 -11.250303 3.3675175 36 14
2.6906374 -3.2605236 -0.073788546 11 7
7.1571536 -8.6761484 3.0136893 41 15
2.021276 -2.4572418 -0.85254991 53 0
2.6684308 -3.2451348 0.07333491 13 8
2.1024287 -2.5577171 -0.76438355 11 1
2.6367121 -3.2077022 0.21761295 16 9
2.3370042 -2.8441031 -0.71553385 37 2
2.6215787 -3.1915622 0.36134747 17 10
2.3353927 -2.8441658 -0.58287483 34 3
2.597013 -3.1639066 0.50258911 17 11
2.3446219 -2.8574378 -0.45384166 56 4
9.1108007 -11.103517 2.2748706 2 12
2.3249421 -2.8344626 -0.32073328 26 5
9.3634853 -11.419597 2.8705299 29 13
2.3055758 -2.8128548 -0.19060749 14 6
9.2952442 -11.344444 3.3859634 31 14
2.6881108 -3.2807231 -0.07403288 6 7
7.1170325 -8.6891241 3.0095484 45 15
2.0102425 -2.4612901 -0.8515147 55 0
2.6728346 -3.2725513 0.073753774 13 8
2.1173518 -2.5933564 -0.77293169 11 1
2.6406534 -3.2354541 0.21886903 17 9
2.3134103 -2.8355105 -0.71133608 42 2
2.626792 -3.2207656 0.36361352 14 10
2.3346875 -2.8626101 -0.58506489 39 3
2.6115942 -3.2032721 0.50746387 17 11
2.306289 -2.8298059 -0.44823527 40 4
9.1493435 -11.230204 2.2942684 2 12
2.3238409 -2.853375 -0.32195345 39 5
9.3813534 -11.519087 2.8877027 36 13
2.3138897 -2.8421686 -0.1920729 47 6
9.3006258 -11.428107 3.4017098 21 14
2.2892172 -2.8138695 -0.063317135 30 7
7.0647182 -8.6869364 3.000231 21 15
1.9923327 -2.4559407 -0.8473736 53 0
2.282275 -2.8143559 0.063247442 27 8
2.1181037 -2.6128416 -0.77653086 13 1
2.3381171 -2.8842449 0.19458516 7 9
2.2990506 -2.8370652 -0.7098096 39 2
2.6223686 -3.2371995 0.36448509 16 10
2.3110068 -2.8538551 -0.58162332 43 3
2.6191313 -3.2355125 0.5111199 16 11
2.2876563 -2.8270371 -0.44652912 40 4
9.0971394 -11.242055 2.290514 2 12
2.2905581 -2.8316338 -0.31864151 31 5
9.3954039 -11.618933 2.9044938 31 13
2.2851207 -2.8269296 -0.19050282 35 6
7.9023809 -9.7795496 2.9027689 10 14
2.2936985 -2.8385544 -0.063701086 48 7
7.021306 -8.6922817 2.9940193 37 15
1.9813243 -2.4598711 -0.84633827 55 0
2.2591317 -2.8047774 0.062863484 37 8
2.139981 -2.6577978 -0.78777879 28 1
2.2879024 -2.8435431 -0.70942795 37 2
2.2389367 -2.7836804 0.31254029 16 10
2.2928636 -2.8507283 -0.5794332 42 3
2.6121194 -3.248821 0.51185113 6 11
2.2770252 -2.8330603 -0.44628578 42 4
2.273174 -2.8302917 -0.31759563 37 5
9.378952 -11.677579 2.9113631 9 13
2.2757337 -2.8344915 -0.19050282 38 6
7.8516092 -9.7829027 2.8960199 12 14
2.2612514 -2.8184681 -0.063072808 36 7
6.982461 -8.7061892 2.990396 50 15
1.9698826 -2.4640987 -0.84530306 55 0
2.2433519 -2.8071826 0.062723868 43 8
2.1370585 -2.6751308 -0.79047793 50 1
2.2359011 -2.7998624 0.18778148 39 9
2.2713392 -2.8442392 -0.70751989 39 2
2.2274761 -2.7903109 0.31236598 34 10
2.2769723 -2.8533354 -0.57818174 42 3
2.2195854 -2.7824178 0.43702343 22 11
2.2648923 -2.8402305 -0.44604161 40 4
2.2323821 -2.8004644 0.5672316 6 12
2.2603016 -2.8354886 -0.31724703 38 5
2.2328782 -2.8020899 0.69645262 1 13
2.2536337 -2.8291492 -0.18956077 43 6
7.8042774 -9.8007822 2.8924208 18 14
2.249167 -2.8255656 -0.063037902 39 7
6.9273267 -8.7057238 2.9810779 45 15
1.961269 -2.4709599 -0.84530306 55 0
2.2285676 -2.8087301 0.062584244 42 8
2.1325512 -2.6886814 -0.79227751 66 1
2.2124643 -2.7904346 0.18663009 39 9
2.2626169 -2.8536887 -0.70790148 40 2
2.2115347 -2.7902622 0.31149444 37 10
2.2669983 -2.8612657 -0.57818174 42 3
2.2357419 -2.8228276 0.44214195 46 11
2.2414098 -2.8309994 -0.44336051 38 4
2.2250445 -2.8113372 0.56785721 28 12
2.246681 -2.8386748 -0.31672412 41 5
2.2263989 -2.8150671 -0.18809536 43 6
7.7494726 -9.8019781 2.8847725 26 14
2.2343304 -2.8271234 -0.062898271 42 7
6.8837237 -8.7131786 2.9753845 35 15
1.9526316 -2.4777911 -0.84530306 63 0
2.2199874 -2.8180633 0.062619157 40 8
2.1195359 -2.6915159 -0.79092777 57 1
2.1933136 -2.7852032 0.18579271 39 9
2.2404985 -2.8461435 -0.70408535 34 2
2.1993175 -2.7948334 0.31114584 37 10
2.2557759 -2.8676093 -0.57786894 42 3
2.1915169 -2.7869227 0.43531728 31 11
2.2290611 -2.835685 -0.44287306 38 4
2.214489 -2.817147 0.56754434 45 12
2.2330651 -2.8417995 -0.31620115 39 5
2.1962836 -2.7959955 0.69111001 30 13
2.2190261 -2.8259637 -0.18830472 42 6
7.7248368 -9.8412333 2.8883719 42 14
2.2101269 -2.8156416 -0.062479425 42 7
6.8464437 -8.725318 2.9717607 33 15
1.9344475 -2.47242 -0.84116197 61 0
2.2069337 -2.8206849 0.062514447 43 8
2.1117995 -2.7000647 -0.79137766 57 1
2.1848083 -2.7944157 0.1858974 39 9
2.2245054 -2.8462126 -0.70217729 39 2
2.1748285 -2.783653 0.30905408 41 10
2.2426054 -2.8704038 -0.57693028 45 3
2.1822631 -2.7941747 0.43531728 37 11
2.2208667 -2.8446262 -0.44311678 40 4
2.1864116 -2.8015015 0.56285137 34 12
2.2096512 -2.8322973 -0.31428376 41 5
2.179754 -2.7939756 0.6888203 35 13
2.2047296 -2.8270066 -0.18788601 45 6
7.6550169 -9.8191519 2.8744249 38 14
2.1953681 -2.8170302 -0.062339805 43 7
6.7945757 -8.7217331 2.9624434 33 15
1.9214964 -2.4727192 -0.83909136 63 0
2.1897135 -2.8188958 0.062305007 42 8
2.0963857 -2.6997237 -0.78912848 56 1
2.172591 -2.7988696 0.18568803 41 9
2.2210734 -2.8613276 -0.70408529 40 2
2.1631427 -2.7877018 0.30870545 38 10
2.2192543 -2.8610451 -0.57348871 43 3
2.1737127 -2.8033438 0.43556097 38 11
2.2084916 -2.8492227 -0.44262928 40 4
2.1754093 -2.8075547 0.56253844 42 12
2.1997507 -2.8399932 -0.31428373 41 5
2.1567633 -2.7844942 0.68462288 34 13
2.1924021 -2.8315275 -0.1876767 43 6
7.6099606 -9.8319435 2.8703759 42 14
2.1879685 -2.8278391 -0.06240961 43 7
6.7546329 -8.7331724 2.9583023 45 15
1.9147798 -2.4828053 -0.84012663 63 0
2.172533 -2.8170214 0.062095582 42 8
2.0786204 -2.6962216 -0.78597921 54 1
2.1640275 -2.8080184 0.18579271 44 9
2.2105713 -2.8694494 -0.70408535 40 2
2.1504793 -2.7924542 0.30835682 39 10
2.212368 -2.8738558 -0.57442731 45 3
2.1518049 -2.7951846 0.43312359 39 11
2.199743 -2.8584876 -0.44287303 43 4
2.1631868 -2.812 0.56191272 44 12
2.1873949 -2.8444955 -0.3139351 41 5
2.1405609 -2.7845981 0.68271446 41 13
2.1771419 -2.833209 -0.18725801 43 6
7.5608134 -9.8427687 2.8654265 46 14
2.1756482 -2.832288 -0.062339805 43 7
6.711165 -8.7398424 2.9526083 43 15
1.9061022 -2.4894738 -0.84012669 63 0
2.1597629 -2.8217893 0.062025774 42 8
2.063988 -2.6976316 -0.78417933 54 1
2.1403735 -2.79848 0.18464132 41 9
2.1993487 -2.8755887 -0.7037037 42 2
2.1407189 -2.7999439 0.30835685 39 10
2.1951256 -2.872144 -0.57255006 42 3
2.129494 -2.7872784 0.43068618 38 11
2.1784072 -2.8523324 -0.44067937 49 4
2.1516671 -2.8183391 0.56159985 44 12
2.1726162 -2.8457789 -0.31323785 41 5
2.1272542 -2.7873707 0.68156993 41 13
2.1611819 -2.8328514 -0.18673463 47 6
7.500412 -9.8350105 2.8555286 50 14
2.162828 -2.8370628 -0.062270001 42 7
1.8974005 -2.4961119 -0.84012663 63 0
2.1474802 -2.8261268 0.061955966 42 8
2.0557373 -2.7063715 -0.78462911 57 1
2.1269689 -2.8011625 0.1843273 42 9
2.1750512 -2.8644853 -0.69912434 45 2
2.1261137 -2.8010514 0.3076596 41 10
2.1850867 -2.8797886 -0.57255006 45 3
2.1245501 -2.8010216 0.43166119 39 11
2.1576438 -2.8456826 -0.43848574 50 4
2.1346569 -2.8163874 0.55972266 44 12
2.1602623 -2.8501704 -0.31288925 41 5
2.1246252 -2.8041682 0.68385923 45 13
2.1476624 -2.835602 -0.18642063 45 6
7.4495668 -9.8393812 2.8492303 58 14
2.1420505 -2.8302441 -0.061955851 45 7
1.8851848 -2.4980941 -0.83857375 65 0
2.1327851 -2.8272202 0.061816346 43 8
2.0521445 -2.7213101 -0.78687865 57 1
2.1164658 -2.8066061 0.18422265 39 9
2.1603115 -2.8657894 -0.69759786 45 2
2.112726 -2.8036821 0.30713665 41 10
2.1750209 -2.8873985 -0.57255006 46 3
2.1135659 -2.806834 0.43141741 40 11
2.1481948 -2.8528223 -0.43848574 49 4
2.1229298 -2.8202937 0.55909687 45 12
2.1431127 -2.8481414 -0.3118434 39 5
2.1101034 -2.8052919 0.68233281 45 13
2.1401522 -2.8462741 -0.18662998 43 6
7.4051871 -9.8484545 2.8447311 66 14
2.1266458 -2.8293397 -0.061781328 42 7
6.6355224 -8.8312626 2.9598551 1 15
1.8768903 -2.5043316 -0.83857375 65 0
2.1186018 -2.8278756 0.061676726 43 8
2.0419409 -2.726541 -0.78642875 56 1
2.1047528 -2.8104115 0.18401329 41 9
2.1531491 -2.8760808 -0.69836104 45 2
2.0962546 -2.8011017 0.30609077 42 10
2.1524181 -2.8771966 -0.56910861 42 3
2.1006796 -2.8090584 0.43068618 39 11
2.1446669 -2.8678789 -0.43970442 49 4
2.1100178 -2.8225722 0.55815834 45 12
2.1288853 -2.8488483 -0.31114611 41 5
2.0925641 -2.8012638 0.67966145 44 13
2.1271164 -2.8485544 -0.18631595 45 6
7.3596606 -9.8557816 2.839782 68 14
2.1208405 -2.8411839 -0.061886046 46 7
6.5391903 -8.7634172 2.929832 1 15
1.867422 -2.5089924 -0.83805615 63 0
2.1044383 -2.8284683 0.061537113 45 8
2.0235841 -2.7207878 -0.78282952 56 1
2.0949297 -2.8177416 0.18401331 41 9
2.1430972 -2.8835788 -0.69836098 45 2
2.0869541 -2.808038 0.30609077 42 10
2.1393309 -2.8795612 -0.56816995 45 3
2.0807014 -2.8016665 0.42849258 38 11
2.13346 -2.873754 -0.43946069 49 4
2.1013293 -2.8315065 0.55847114 45 12
2.1213019 -2.8594623 -0.31149471 41 5
2.075757 -2.7990897 0.67737174 44 13
2.1040766 -2.8383129 -0.18516456 42 6
7.3136082 -9.865756 2.8352833 70 14
2.107338 -2.8437495 -0.061781328 43 7
6.5522575 -8.8451777 2.9495022 1 15
1.8570657 -2.5142658 -0.83753842 65 0
2.0964329 -2.8393798 0.061606921 45 8
2.0031831 -2.7140751 -0.7787804 50 1
2.0751016 -2.8125434 0.18317592 41 9
2.1278524 -2.8850942 -0.69683456 45 2
2.0742834 -2.8124609 0.30574214 44 10
2.1287622 -2.887383 -0.56816995 45 3
2.0645299 -2.8012836 0.42727387 39 11
2.1170254 -2.8735631 -0.43824199 52 4
2.086252 -2.8328273 0.5572198 45 12
2.1084449 -2.8640094 -0.31114611 41 5
2.0654836 -2.8066788 0.67737174 44 13
2.0912924 -2.8427882 -0.18495522 42 6
7.2589226 -9.8673792 2.8280847 70 14
2.0957167 -2.849843 -0.061746426 46 7
6.4763136 -8.8099861 2.929832 1 15
1.850122 -2.5241718 -0.83857375 65 0
2.0801022 -2.8389792 0.061432395 46 8
1.9978282 -2.7276874 -0.78058004 52 1
2.0640912 -2.8181581 0.18307123 44 9
2.1154492 -2.8893363 -0.69607139 43 2
2.0663145 -2.8232601 0.30609116 44 10
2.1169989 -2.8935714 -0.56785709 42 3
2.0565927 -2.8120363 0.42776135 40 11
2.0964355 -2.8665144 -0.43604836 49 4
2.071687 -2.8337131 0.55596823 45 12
2.0984349 -2.8713517 -0.31114611 42 5
2.0475671 -2.8027747 0.6747005 44 13
2.0872462 -2.8581352 -0.18547858 47 6
7.2094936 -9.8721991 2.8222358 74 14
2.0786815 -2.847451 -0.061537001 46 7
6.4569101 -8.8481445 2.9350085 1 15
1.8349204 -2.5209219 -0.83546799 66 0
2.0683234 -2.842628 0.061362591 45 8
1.989918 -2.7358735 -0.78102988 56 1
2.0512099 -2.820142 0.18275721 45 9
2.101238 -2.8899839 -0.69454485 46 2
2.0452268 -2.8139801 0.30434766 45 10
2.1097143 -2.9037724 -0.56848288 42 3
2.0449231 -2.8156281 0.42727387 39 11
2.0915842 -2.8798752 -0.4370237 49 4
2.0599575 -2.8373704 0.5553425 48 12
2.0795395 -2.8653944 -0.3097516 41 5
2.0405674 -2.8127267 0.67546403 42 13
2.0730667 -2.8585739 -0.18505991 43 6
7.1664205 -9.8818541 2.8181868 70 14
2.0598381 -2.8413761 -0.061257757 46 7
5.8992739 -8.1405506 2.6937892 1 15
1.8242871 -2.5238614 -0.83443266 65 0
2.0518587 -2.8397455 0.061153155 46 8
1.9819757 -2.7440372 -0.78147984 54 1
2.0401845 -2.8256657 0.18265256 44 9
2.0893443 -2.8937526 -0.69378167 43 2
2.03122 -2.8142848 0.30365044 45 10
2.0919826 -2.8995388 -0.56629276 42 3
2.0332525 -2.8191736 0.42678636 39 11
2.0815187 -2.8871586 -0.4370237 49 4
2.0431111 -2.8349288 0.55346531 45 12
2.0665314 -2.8674257 -0.30922866 44 5
2.0220482 -2.806735 0.67241073 44 13
2.0612414 -2.8621914 -0.18485056 43 6
7.115943 -9.8846684 2.8118882 72 14
2.053411 -2.8534181 -0.061362475 46 7
5.7963657 -8.0575905 2.6596253 1 15
1.815466 -2.5302141 -0.83443266 66 0
2.0372717 -2.8403909 0.061013542 48 8
1.9678429 -2.7446039 -0.77968019 48 1
2.0279815 -2.8295231 0.1824432 44 9
2.0792303 -2.9010277 -0.69378155 45 2
2.0190635 -2.8181186 0.30330181 45 10
2.0783982 -2.9020054 -0.56535417 42 3
2.0141549 -2.8133419 0.42483652 39 11
2.0714281 -2.8944073 -0.43702328 50 4
2.0320535 -2.8404365 0.55315238 45 12
2.0576689 -2.8762422 -0.309403 39 5
2.0088122 -2.8089855 0.67126626 46 13
2.0465918 -2.8628697 -0.18443187 45 6
7.0723314 -9.8967628 2.8082891 72 14
2.0480881 -2.8670774 -0.061502095 48 7
5.7861671 -8.1029272 2.6679072 1 15
1.8077437 -2.5381091 -0.83495027 76 0
2.029664 -2.8507431 0.06108335 49 8
1.9559907 -2.7482808 -0.7787804 48 1
2.0146186 -2.8317029 0.1821292 45 9
2.064539 -2.9018698 -0.6922552 43 2
2.0115235 -2.828397 0.30365044 45 10
2.0636768 -2.9028027 -0.56410265 42 3
2.0020223 -2.8171194 0.42434904 39 11
2.0509653 -2.8870559 -0.43482965 49 4
2.0232697 -2.8491228 0.55346525 45 12
2.0459602 -2.8821402 -0.30922869 44 5
1.9989948 -2.8159807 0.67126584 44 13
2.0296512 -2.8602233 -0.18380383 42 6
7.0163202 -9.8911886 2.7997408 69 14
2.0322838 -2.8660526 -0.061327565 54 7
5.7444401 -8.1041622 2.6616955 1 15
1.8006586 -2.547873 -0.8359856 60 0
2.0139301 -2.8496454 0.060908824 54 8
1.9418879 -2.7487252 -0.77698082 48 1
1.9978093 -2.8289292 0.18150117 48 9
2.0493603 -2.9030013 -0.69072872 40 2
1.9965479 -2.8292389 0.30295357 44 10
2.0564404 -2.9151893 -0.5650413 40 3
1.9898881 -2.8208461 0.42386153 38 11
2.0385873 -2.8909526 -0.43434218 45 4
1.9996548 -2.8367932 0.54971081 44 12
2.035887 -2.8892641 -0.30922866 35 5
1.984138 -2.8168678 0.66973978 44 13
2.0203042 -2.8692758 -0.18390849 17 6
6.9676824 -9.8993111 2.7947922 73 14
2.0165124 -2.864953 -0.061153043 36 7
5.709446 -8.114686 2.6585896 1 15
1.8095052 -2.579447 -0.84426773 14 0
2.0080643 -2.8635559 0.061048433 49 8
1.929563 -2.7526326 -0.77608103 48 1
1.9902151 -2.8391566 0.18171053 49 9
2.033581 -2.9020982 -0.68882054 40 2
1.9752295 -2.8198719 0.30121005 45 10
2.0428524 -2.9174957 -0.56410265 42 3
1.9772592 -2.824868 0.42337406 39 11
1.9874758 -2.8405192 0.54908514 45 12
1.9720436 -2.8205588 0.66897619 44 13
1.4839658 -2.1232638 -0.13575943 2 6
6.9281178 -9.9127769 2.7920926 71 14
5.6788745 -8.1313982 2.6575544 1 15
1.8119833 -2.6012855 -0.84944415 13 0
1.9204243 -2.7590165 -0.77608109 48 1
1.979648 -2.8441014 0.18160583 44 9
2.0172186 -2.8991568 -0.68653095 36 2
1.9624544 -2.8214998 0.30068713 50 10
2.0241454 -2.911279 -0.56159973 39 3
1.9690135 -2.8330388 0.42361778 41 11
1.1147925 -1.6039761 -0.239839 1 4
1.9814265 -2.8519614 0.55002373 46 12
1.2047035 -1.7346326 -0.18477024 1 5
1.9582008 -2.820632 0.66744971 44 13
1.4712234 -2.1199694 -0.13523607 4 6
6.8796539 -9.9132853 2.785794 71 14
1.6538788 -2.3840563 -0.05064673 1 7
5.6893067 -8.2041597 2.675154 1 15
1.9055482 -2.7550418 -0.89758456 40 0
1.9105594 -2.7633178 0.058640011 2 8
1.9046164 -2.7557504 -0.77338195 48 1
1.9752309 -2.858988 -0.67546397 22 2
1.9564841 -2.8329105 0.30121008 28 10
1.9909124 -2.8838372 -0.55502945 22 3
1.9494604 -2.8248489 0.42142415 39 11
1.0359172 -1.5016474 -0.22399597 4 4
1.9703377 -2.8572338 0.54971081 49 12
1.1285319 -1.6371223 -0.17396292 1 5
1.9488367 -2.8271101 0.66744971 44 13
6.836165 -9.9243994 2.7821946 69 14
5.6474915 -8.204874 2.6689427 1 15
1.9052752 -2.7763429 -0.9022432 50 0
1.8883712 -2.7527404 -0.77068216 50 1
1.9179516 -2.7969067 0.17773296 2 9
1.9935997 -2.9083109 -0.68538606 28 2
1.595837 -2.3289168 0.24699923 7 10
1.9769803 -2.8862257 -0.55409086 31 3
1.9407097 -2.8332741 0.4216679 10 11
1.0295478 -1.5036166 -0.22375202 2 4
1.9480788 -2.846163 0.54626924 45 12
1.0384309 -1.5177262 -0.16088957 3 5
1.9318116 -2.8245111 0.66516 41 13
1.0573463 -1.5465304 -0.098182239 1 6
6.7865491 -9.9300823 2.7767961 71 14
5.6493301 -8.2692013 2.6834364 1 15
1.8759966 -2.7542365 -0.89292568 39 0
1.8826554 -2.7660871 -0.7724818 48 1
1.9537505 -2.8716214 0.18202451 1 9
1.9790179 -2.9087591 -0.68385959 39 2
1.7804178 -2.6178391 0.27698082 12 10
1.9879949 -2.9241476 -0.56003541 34 3
1.0485709 -1.5435044 -0.22911449 1 4
1.0362183 -1.5264674 -0.16141251 2 5
1.9230431 -2.8328614 0.66554159 44 13
1.0194186 -1.5022838 -0.095146738 5 6
6.738718 -9.9343586 2.7713971 71 14
1.0313598 -1.5210236 -0.032077424 3 7
5.6645083 -8.3570147 2.7051771 1 15
1.8518276 -2.7402856 -0.88619643 14 0
1.0334479 -1.5292689 0.0322171 1 8
1.8697158 -2.7677975 -0.77113205 47 1
1.9606546 -2.9046023 -0.68118823 37 2
1.9684268 -2.9183128 -0.55753237 40 3
1.4819162 -2.1970308 0.32539108 1 11
1.0476156 -1.553739 -0.23008923 1 4
1.7333506 -2.5717337 0.49120432 28 12
1.0464692 -1.5532082 -0.16385286 1 5
1.910454 -2.8366339 0.66477835 44 13
1.0284059 -1.5275482 -0.096507482 2 6
6.6935568 -9.9460564 2.7677979 71 14
1.013763 -1.5063655 -0.031693473 15 7
6.3976731 -9.5099831 3.0711472 7 15
1.8879373 -2.8137887 -0.90793723 21 0
0.99580133 -1.4847057 0.031204866 15 8
1.8567871 -2.7694516 -0.76978236 29 1
1.0129732 -1.5114486 0.095356151 4 9
1.9422679 -2.8980412 -0.67813528 40 2
1.1765809 -1.7562288 0.18494441 1 10
1.9488461 -2.910053 -0.55471665 39 3
1.9490864 -2.9115105 0.43019876 1 11
1.0708901 -1.6002805 -0.23642644 1 4
1.9297488 -2.8848023 0.54971081 17 12
1.0299941 -1.5409129 -0.097135507 1 6
6.6421323 -9.9406528 2.7601495 50 14
6.3558569 -9.5194035 3.0670059 10 15
1.9519861 -2.9313109 -0.9436543 35 0
1.0072336 -1.5131419 0.031728435 3 8
1.9043248 -2.8619025 -0.7936275 31 1
0.99552339 -1.4966824 0.094204754 13 9
1.9321399 -2.9048033 -0.67813528 39 2
0.98842317 -1.4865704 0.156183 8 10
1.9353958 -2.9119022 -0.55377799 42 3
1.068873 -1.6087832 0.23715773 1 11
1.0290257 -1.5511563 -0.097554199 1 6
6.6020074 -9.955657 2.7579 63 14
1.0308436 -1.5550748 -0.032566093 1 7
6.3097849 -9.5222063 3.0607944 10 15
1.9396116 -2.9348834 -0.94261903 42 0
1.0063546 -1.5233225 0.031868055 1 8
1.92654 -2.9173172 -0.80712426 38 1
0.99495745 -1.506642 0.094623446 1 9
1.9176624 -2.9049764 -0.6766088 40 2
0.9931041 -1.5049781 0.1577518 35 10
1.9284828 -2.9235873 -0.55471665 43 3
0.97910875 -1.4848962 0.21838985 15 11
1.920555 -2.9137812 -0.42849246 1 4
1.0077593 -1.5289279 0.29002956 2 12
1.1948485 -1.8134601 -0.18999958 1 5
1.0787957 -1.6379448 0.38123628 1 13
1.1334337 -1.7215561 -0.10802138 1 6
6.553288 -9.9574804 2.7520514 69 14
1.0388731 -1.5785294 -0.032984946 1 7
1.9304148 -2.9432514 -0.94313663 40 0
1.018845 -1.5534053 0.032426532 2 8
1.9179236 -2.9253194 -0.80757409 47 1
0.99297643 -1.5151174 0.094937466 1 9
1.8999792 -2.9001575 -0.67393756 40 2
1.9122841 -2.9200511 -0.5528394 43 3
0.99374974 -1.5180304 0.22277713 6 11
1.8924036 -2.891896 -0.42434889 11 4
0.9797079 -1.4977208 0.28345934 26 12
1.265928 -1.9360152 -0.2023757 3 5
0.98847806 -1.511704 0.35108846 4 13
1.1801704 -1.8055519 -0.11304563 1 6
1.1164628 -1.7093878 -0.035637707 1 7
5.6565652 -8.663928 2.7724702 2 15
1.9132651 -2.9383039 -0.93951315 39 0
1.0199617 -1.5670083 0.032635964 1 8
1.9034498 -2.9254632 -0.80577457 49 1
1.8839289 -2.8965673 -0.67164779 40 2
1.0023854 -1.54177 0.1608894 1 10
1.8999264 -2.9233956 -0.55221361 43 3
1.8909465 -2.9118028 -0.4262988 37 4
0.98415405 -1.5160434 0.28627515 3 12
1.2746888 -1.9635986 -0.20481606 3 5
0.98426372 -1.5167919 0.35147008 9 13
1.181469 -1.8213899 -0.11377834 4 6
5.790915 -8.9308701 2.4573653 11 14
1.2301303 -1.8978581 -0.039477222 2 7
1.1533669 -1.7855657 0.037103768 1 8
1.8889978 -2.9255407 -0.80397493 47 1
1.0841866 -1.6797516 0.10477662 1 9
1.8727421 -2.9014761 -0.6712662 40 2
1.8800745 -2.9150693 -0.54939783 45 3
1.8926002 -2.9367399 -0.42897993 48 4
1.0066705 -1.5626459 0.29440972 1 12
1.2753797 -1.9797605 -0.20603624 3 5
0.96620786 -1.500411 0.34689066 2 13
1.2540209 -1.9480989 -0.12141939 3 6
1.2505425 -1.9441861 -0.040349837 4 7
6.1465516 -9.5595512 3.0452652 12 15
1.84995 -2.8849149 -0.91829002 1 0
1.2302208 -1.9192117 0.039791435 4 8
1.8766714 -2.9288349 -0.80307549 45 1
1.2273098 -1.9154061 0.11922135 2 9
1.8636612 -2.9096489 -0.67164779 43 2
1.0710973 -1.6728972 0.17378846 1 10
1.8709525 -2.9232776 -0.54971069 43 3
1.8620168 -2.9115539 -0.42434886 37 4
1.0248973 -1.602587 0.30129284 1 12
1.2684613 -1.9842006 -0.20603625 1 5
0.97787929 -1.5302436 0.35299656 1 13
1.2536643 -1.9625634 -0.12204742 3 6
5.699059 -8.9250927 2.4447682 6 14
1.2537745 -1.9634913 -0.040663987 4 7
6.0971479 -9.5521984 3.0364654 11 15
1.6946702 -2.6631758 -0.84582067 1 0
1.2410265 -1.9502743 0.040349916 4 8
1.863811 -2.9301095 -0.80172539 50 1
1.2163297 -1.9129369 0.11880267 4 9
1.8513873 -2.9128225 -0.67088455 42 2
1.1614121 -1.8279762 0.18947646 1 10
1.8580701 -2.9244642 -0.5487721 45 3
1.8379612 -2.8939297 0.42093667 1 11
1.8395839 -2.8976021 -0.42142403 21 4
1.8300773 -2.8837397 0.54095048 1 12
1.8378597 -2.8971212 -0.30016449 23 5
0.96859264 -1.5268468 0.35147008 2 13
1.241801 -1.958276 -0.12152404 3 6
5.6308293 -8.8830433 2.4281218 1 14
1.2511941 -1.9746122 -0.0408036 4 7
6.0616999 -9.5701599 3.0354302 11 15
1.2363467 -1.9579762 0.040419724 4 8
1.8421303 -2.9184704 -0.79677653 14 1
1.2266971 -1.9441972 0.1204774 4 9
1.8312417 -2.9023423 -0.66706842 43 2
1.2138019 -1.9245039 0.1990636 3 10
1.8415296 -2.9209063 -0.54689485 13 3
1.8035051 -2.8617015 0.41533068 24 11
1.8336904 -2.9107242 -0.42239895 17 4
1.8042104 -2.8650372 0.53625745 10 12
1.8394113 -2.922066 -0.30208188 36 5
1.239213 -1.9693608 -0.12194275 3 6
5.5811105 -8.8729506 2.4200234 1 14
1.2432293 -1.9772749 -0.040768698 4 7
6.0241451 -9.5847187 3.0333598 22 15
1.3170322 -2.1019735 -0.66464728 1 0
1.2273808 -1.9588906 0.040349912 4 8
1.2188436 -1.9467746 0.12037275 4 9
1.8205917 -2.9090347 -0.66706842 40 2
1.2141372 -1.9407632 0.20028377 4 10
1.8370956 -2.9376853 -0.54877204 15 3
1.779822 -2.8460994 0.4121621 22 11
1.8182577 -2.9086907 -0.42118028 40 4
1.786871 -2.8595912 0.53406739 26 12
1.8175895 -2.9098811 -0.30016449 30 5
1.7832314 -2.8559847 0.65447509 30 13
1.2383316 -1.9840554 -0.12257078 3 6
5.5464897 -8.8900423 2.4191239 1 14
1.2352616 -1.9799058 -0.040733796 4 7
6.0233641 -9.6581411 3.0499239 30 15
1.291327 -2.0770268 -0.65532976 1 0
1.220193 -1.9633759 0.040349912 4 8
1.284403 -2.0674987 -0.56192791 3 1
1.2180218 -1.961409 0.12100077 4 9
1.8124977 -2.9187076 -0.66783166 40 2
1.8237052 -2.9390445 -0.54783344 21 3
1.7934444 -2.891403 0.41776806 46 11
1.8075849 -2.9153352 -0.42118028 45 4
1.8034346 -2.9097762 0.54220194 52 12
1.8074208 -2.916208 -0.30016449 40 5
1.7887607 -2.8872256 0.66019893 60 13
1.2292951 -1.9849699 -0.12236143 3 6
5.5010629 -8.8861513 2.4128253 1 14
1.2290488 -1.9861207 -0.040768702 4 7
6.0204453 -9.7327261 3.0664883 35 15
1.2374125 -2.0058899 -0.63151848 1 0
1.2112331 -1.9642195 0.040280107 4 8
1.2741104 -2.0669928 -0.56057793 4 1
1.214311 -1.9707502 0.12131479 4 9
1.7992088 -2.9200025 -0.66668677 7 2
1.7626997 -2.8618684 0.29406366 34 10
1.7979004 -2.9201605 -0.54314041 3 3
1.7594106 -2.8587625 0.4121621 37 11
1.7932369 -2.9148643 -0.42020532 11 4
1.772571 -2.8824003 0.53594452 37 12
1.7909684 -2.9123166 -0.29911864 40 5
1.7529682 -2.8516393 0.65065849 42 13
1.2171304 -1.9807405 -0.12183807 3 6
1.2200155 -1.9869903 -0.04069889 4 7
6.0298891 -9.824482 3.0887468 30 15
1.2243519 -2.0003109 -0.6284126 1 0
1.211675 -1.9803755 0.040524438 4 8
1.264854 -2.0681033 -0.5596782 4 1
1.1959647 -1.9562325 0.12016341 4 9
1.7651666 -2.8884051 0.29615504 49 10
1.1945437 -1.9554414 -0.36292797 1 3
1.7463173 -2.8598042 0.4114309 41 11
1.7594122 -2.8835113 0.53500599 41 12
1.7440259 -2.8594167 0.65104008 44 13
1.2247649 -2.0088513 -0.12330349 1 6
5.4003534 -8.861105 2.3957288 31 14
1.2193145 -2.0014834 -0.040908314 4 7
6.03374 -9.9081707 3.1084173 23 15
1.2053289 -1.9847579 -0.62220097 1 0
1.2057924 -1.9863023 0.04055934 4 8
1.2566162 -2.0708394 -0.55922848 2 1
1.1922362 -1.965518 0.1204774 2 9
1.2035015 -1.9840899 -0.45107251 1 2
1.7426775 -2.8741045 0.29406366 49 10
1.7424955 -2.8760691 0.4128933 41 11
1.765645 -2.9154265 -0.41849956 32 4
1.7431984 -2.8794963 0.5331288 42 12
1.2010317 -1.9839202 -0.20289864 1 5
1.7309848 -2.8604481 0.64989525 44 13
1.7676947 -2.9222624 -0.17898892 14 6
5.3693891 -8.8799019 2.3957288 31 14
1.2102518 -2.0023043 -0.040838506 4 7
6.0610585 -10.031689 3.140511 31 15
1.1924115 -1.9790251 -0.61909521 2 0
1.1967881 -1.9870732 0.040489532 4 8
1.2152057 -2.0184495 -0.54393184 1 1
1.3059 -2.1699491 -0.49228731 1 2
1.7274992 -2.871634 0.29319173 46 10
1.7743484 -2.9506783 -0.54533058 12 3
1.7324456 -2.882134 0.4128933 41 11
1.7769279 -2.9573047 -0.42361808 48 4
1.7295702 -2.8784883 0.53187728 42 12
1.7480628 -2.9104156 -0.2970269 28 5
1.7260422 -2.8748891 0.65180337 44 13
5.337359 -8.8969193 2.3952789 48 14
1.197433 -1.9960181 -0.040629078 4 7
6.0605445 -10.106406 3.157593 27 15
1.1914433 -1.9931242 -0.62220097 1 0
1.1860878 -1.9841652 0.040349912 4 8
1.2085055 -2.0224686 -0.5439316 1 1
1.7195966 -2.8789349 0.17574422 36 9
1.2802012 -2.1441524 -0.48541814 1 2
1.7154227 -2.8742251 0.29284313 45 10
1.7167761 -2.8776348 0.41143087 42 11
1.7467767 -2.9290824 -0.4187429 11 4
1.7215354 -2.887902 0.53250313 41 12
1.7491115 -2.9353268 -0.29894429 36 5
1.7084593 -2.8671048 0.64875042 45 13
1.2224119 -2.052243 -0.12518758 1 6
1.1894356 -1.9984677 -0.040594179 3 7
6.0736289 -10.208852 3.1829574 31 15
1.192713 -2.0103562 -0.62634212 1 0
1.1852748 -1.9986134 0.04055934 4 8
1.1855383 -1.9998534 -0.53673309 1 1
1.7146277 -2.8935111 0.17626756 40 9
1.1770022 -1.986244 -0.44878286 1 2
1.7038511 -2.8764696 0.29249451 46 10
1.2479843 -2.1077065 -0.38795751 1 3
1.7036878 -2.8784847 0.41069964 41 11
1.7114443 -2.8938935 0.53250307 42 12
1.7383542 -2.9393959 -0.29877001 3 5
1.6964424 -2.8696709 0.64798713 45 13
1.1702516 -1.9819441 -0.040175315 2 7
6.0801802 -10.301527 3.2052157 30 15
1.1680498 -1.984539 -0.61702454 2 0
1.1914736 -2.0251443 0.041013103 1 8
1.1745992 -1.9972605 -0.53493357 2 1
1.6954072 -2.8839824 0.17532551 42 9
1.1700616 -1.9903404 -0.44878286 1 2
1.6958188 -2.8858354 0.29284313 46 10
1.1885931 -2.0234799 -0.37168828 1 3
1.6896092 -2.8775671 0.40972471 41 11
1.1997581 -2.0441206 -0.29102415 1 4
1.6993325 -2.8964419 0.53187728 42 12
1.6844292 -2.8721881 0.64722395 45 13
5.2385659 -8.9396391 2.3921299 1 14
1.1794976 -2.0136242 -0.040733792 1 7
6.0900621 -10.401043 3.2295446 31 15
1.1728048 -2.0086238 -0.62323624 1 0
1.1803653 -2.022383 0.04087349 2 8
1.1735122 -2.0114477 -0.53763294 2 1
1.6843237 -2.8881578 0.17522085 41 9
1.1591506 -1.9876286 -0.44725639 3 2
1.685735 -2.8917367 0.2928431 45 10
1.1735663 -2.0139627 -0.36918533 2 3
1.6785549 -2.8817317 0.40948093 40 11
1.1626505 -1.9968314 -0.283712 1 4
1.6852369 -2.8955269 0.53062576 42 12
1.2126763 -2.0835865 -0.21091698 1 5
1.6743931 -2.8780503 0.64722395 44 13
1.2370002 -2.1270866 -0.12895577 1 6
5.2092857 -8.9612389 2.3930292 1 14
6.0993214 -10.500751 3.2538733 30 15
1.1657861 -2.0127056 -0.62323624 1 0
1.1742929 -2.0290248 -0.54123217 1 1
1.6742321 -2.8940194 0.17522085 40 9
1.146307 -1.9814663 -0.44496664 2 2
1.6676514 -2.8838053 0.29144862 46 10
1.1625749 -2.0112062 -0.36793387 3 3
1.6694788 -2.8892927 0.40972471 40 11
1.1576589 -2.0043156 -0.28419921 2 4
1.6711687 -2.8945494 0.52937436 42 12
1.1655478 -2.0187883 -0.20394453 1 5
1.666299 -2.8872783 0.64798719 45 13
1.203619 -2.086411 -0.12623429 1 6
5.1507163 -8.9320993 2.3804321 3 14
6.1021743 -10.590608 3.2750971 27 15
1.1587534 -2.0167627 -0.62323624 2 0
1.2234771 -2.1311336 -0.56732649 1 1
1.6621317 -2.8963816 0.1750115 41 9
1.1589271 -2.0195119 -0.45259911 1 2
1.6555922 -2.886153 0.29110003 45 10
1.1634079 -2.0289607 -0.37043673 2 3
1.657409 -2.8916581 0.40923724 39 11
1.1368396 -1.9842305 -0.28078714 3 4
1.661055 -2.9003651 0.52937436 42 12
1.140671 -1.9917237 -0.2008069 2 5
1.6464568 -2.876039 0.644171 45 13
1.1506978 -2.0108585 -0.12141939 1 6
5.1282134 -8.9652481 2.384481 7 14
6.1111817 -10.69235 3.2999437 32 15
1.1497933 -2.0174384 -0.62220097 2 0
1.1749603 -2.0624328 0.04143196 1 8
1.2189234 -2.1404712 -0.56867617 5 1
1.6520112 -2.9021659 0.1750115 40 9
1.1926616 -2.0952048 -0.46862698 2 2
1.6435372 -2.8884506 0.29075137 44 10
1.1602252 -2.0398779 -0.37168828 1 3
1.6423995 -2.8887978 0.40801856 40 11
1.1397145 -2.005445 -0.28322449 2 4
1.6548234 -2.9130158 0.53062582 41 12
1.1386323 -2.0043552 -0.20167847 3 5
1.6402853 -2.8885977 0.64569747 48 13
1.1200094 -1.9731765 -0.11890727 3 6
5.0930414 -8.9763155 2.3826814 3 14
1.1275917 -1.9881505 -0.039896082 1 7
6.1090741 -10.775798 3.3190961 4 15
1.15035 -2.0348935 -0.62634212 2 0
1.1224995 -1.986437 0.039826337 1 8
1.2152784 -2.1515002 -0.57047582 5 1
1.6359791 -2.8974798 0.17438348 38 9
1.6334445 -2.89417 0.29075137 45 10
1.6772326 -2.9729679 -0.54063743 23 3
1.6264548 -2.8841381 0.40655607 40 11
1.1327072 -2.0094116 -0.28322425 1 4
1.6388266 -2.9084487 0.52874857 42 12
1.1482559 -2.0378261 -0.20464174 2 5
1.626338 -2.8874631 0.64417136 48 13
1.1219336 -1.9927374 -0.11984932 3 6
5.0664568 -9.0025301 2.3849313 3 14
1.1059381 -1.9659315 -0.039372507 4 7
1.147019 -2.0456367 -0.62841266 1 0
1.1018709 -1.965922 0.039337676 4 8
1.2049035 -2.1506293 -0.56912613 2 1
1.6219512 -2.8962021 0.17396477 40 9
1.4638734 -2.6139338 -0.58234918 32 2
1.6194391 -2.8929005 0.29005417 44 10
1.6610572 -2.9684615 -0.53876024 31 3
1.6154088 -2.8880656 0.40631235 39 11
1.6400921 -2.9333966 -0.41264942 13 4
1.6267369 -2.9107029 0.52812284 42 12
1.1489117 -2.0557353 -0.20603625 1 5
1.6172065 -2.8948367 0.64455259 46 13
1.1198395 -2.0053604 -0.12037268 2 6
5.0577965 -9.0609989 2.3957288 1 14
1.0971203 -1.9662877 -0.039302699 11 7
4.4612832 -7.998909 2.4541223 30 15
1.1286041 -2.0293682 -0.62220097 1 0
1.6479477 -2.9656477 -0.78327942 26 1
1.609892 -2.8983541 0.17375542 41 9
1.4518801 -2.6138787 -0.58120435 27 2
1.6035281 -2.8880842 0.28900826 48 10
1.656437 -2.9846046 -0.54063743 48 3
1.6072438 -2.8971589 0.40679988 39 11
1.6471711 -2.9703519 -0.41703671 48 4
1.6136935 -2.9111803 0.52718425 41 12
1.6285572 -2.9379952 -0.29388925 13 5
1.6023346 -2.8918777 0.64264452 45 13
1.1263801 -2.0337176 -0.12183807 1 6
5.0157542 -9.059845 2.39078 6 14
1.0921865 -1.9736048 -0.039372511 2 7
4.4155679 -7.9823155 2.4442873 17 15
1.4350148 -2.6016705 -0.79612738 6 0
1.0881196 -1.9735665 0.039337676 4 8
1.6319419 -2.9611421 -0.78058004 19 1
1.5978376 -2.9004574 0.17354609 41 9
1.4436942 -2.6206505 -0.58158594 32 2
1.5915148 -2.8901734 0.28865966 46 10
1.6269577 -2.9557576 -0.53438008 37 3
1.593293 -2.8957944 0.40582487 39 11
1.6186167 -2.9430356 -0.4124057 34 4
1.6025704 -2.9150646 0.52687138 42 12
1.6211716 -2.9489 -0.29441223 36 5
1.5875025 -2.8888502 0.64073682 44 13
1.6135246 -2.937418 -0.17563941 21 6
5.0037942 -9.1131687 2.4002275 1 14
1.1497539 -2.0948572 -0.041711122 1 7
4.3811727 -7.9858241 2.4406641 18 15
1.4268515 -2.6083586 -0.79664499 6 0
1.1157618 -2.0405159 0.040594246 1 8
1.6215956 -2.9668205 -0.78058004 22 1
1.5843787 -2.8987296 0.1731274 40 9
1.4335967 -2.623951 -0.58120435 31 2
1.5795068 -2.8922138 0.288311 48 10
1.6175767 -2.9631531 -0.534693 39 3
1.576519 -2.8891404 0.40411872 40 11
1.6111852 -2.9538958 -0.4131369 45 4
1.5910028 -2.9168942 0.52624565 42 12
1.607053 -2.9475436 -0.29371494 35 5
1.5745904 -2.8892028 0.63959157 48 13
1.6023057 -2.9412785 -0.17553475 40 6
4.3445086 -7.9816446 2.4349701 17 15
1.4149745 -2.6082294 -0.79509217 6 0
1.6052457 -2.9601896 -0.77743101 19 1
1.5694919 -2.8954628 0.17260404 43 9
1.4421989 -2.6617362 -0.58845508 32 2
1.5675037 -2.8942058 0.28796241 46 10
1.6039789 -2.9615526 -0.53344148 38 3
1.5659842 -2.8926065 0.40387493 41 11
1.5909888 -2.9400182 -0.41045579 46 4
1.5798714 -2.9206927 0.52593273 43 12
1.5920163 -2.9443727 -0.2928434 42 5
1.5687358 -2.9013162 0.64111805 49 13
1.5877948 -2.9377906 -0.17501138 42 6
5.0379801 -9.3253279 2.4470174 1 14
4.3074441 -7.9797611 2.4297936 14 15
1.4081484 -2.6163094 -0.79612738 6 0
1.5949028 -2.965775 -0.77743101 21 1
1.557484 -2.8974056 0.17239471 43 9
1.5765146 -2.9328084 -0.64722419 23 2
1.5597836 -2.9028983 0.28831103 48 10
1.5926965 -2.9653933 -0.53312862 42 3
1.5549392 -2.8963068 0.40363127 42 11
1.5788389 -2.9420555 -0.40996829 46 4
1.5677994 -2.9227083 0.52530706 46 12
1.5794182 -2.9443681 -0.29232046 38 5
1.5604541 -2.9102349 0.64188129 49 13
1.5728133 -2.9345133 -0.17448804 46 6
5.0514121 -9.4287453 2.4695127 1 14
1.5737058 -2.9386427 -0.058186144 1 7
4.273181 -7.9828262 2.4261701 14 15
1.39264 -2.6092792 -0.79250395 6 0
1.5822662 -2.9658117 0.05867492 1 8
1.4717524 -2.7598243 -0.72209281 21 1
1.5492395 -2.9063494 0.17260404 43 9
1.5699615 -2.9452236 -0.64875066 23 2
1.5421456 -2.894258 0.28691691 45 10
1.5804785 -2.9674482 -0.53250295 42 3
1.5457524 -2.9034686 0.40387493 45 11
1.5666945 -2.9440439 -0.40948084 46 4
1.5473831 -2.9089792 0.52186549 48 12
1.5607097 -2.9340322 -0.29075164 41 5
1.5530514 -2.9208646 0.64302611 48 13
1.5588107 -2.9329309 -0.17406933 45 6
5.0477257 -9.5013914 2.4839096 1 14
4.2344213 -7.9772162 2.4199584 16 15
1.3835236 -2.6141241 -0.79250389 4 0
1.5316943 -2.8953102 0.057174012 16 8
1.4047188 -2.656414 -0.69374895 39 1
1.5390849 -2.9117396 0.17260404 43 9
1.5220556 -2.8795226 -0.63310438 15 2
1.531103 -2.897862 0.28674221 46 10
1.5627303 -2.9589729 -0.52999997 45 3
1.5346812 -2.9070914 0.40363124 42 11
1.5536289 -2.9442277 -0.40874961 49 4
1.5427489 -2.9248462 0.52374274 48 12
1.5485995 -2.9359381 -0.29040304 40 5
1.5364366 -2.9141111 0.64035481 48 13
1.551357 -2.9436553 -0.17438337 43 6
5.0980897 -9.6775732 2.5253005 1 14
1.5596741 -2.9619431 -0.058430474 52 7
4.1975517 -7.9748545 2.4147823 11 15
1.3797764 -2.6292014 -0.79560977 4 0
1.513218 -2.8847015 0.056859866 34 8
1.3918176 -2.6543977 -0.69194931 45 1
1.5252035 -2.9100184 0.17218536 43 9
1.3862236 -2.6448512 -0.58044106 40 2
1.5228275 -2.906719 0.28709087 45 10
1.4845781 -2.8349135 -0.50684762 38 3
1.5226829 -2.9089134 0.40314373 49 11
1.5433422 -2.9496326 -0.40874997 49 4
1.5306988 -2.9267125 0.52311695 47 12
1.5383416 -2.9413259 -0.29040304 40 5
1.5289838 -2.9246764 0.6414997 50 13
1.5327469 -2.933121 -0.17344131 43 6
5.2681837 -10.085678 2.6269784 8 14
1.5363681 -2.9425523 -0.057941806 52 7
4.1857777 -8.0202856 2.4240997 22 15
1.3732653 -2.6391428 -0.79716271 4 0
1.5225167 -2.9272218 0.057592869 48 8
1.3789477 -2.6523237 -0.69014966 46 1
1.5095103 -2.9046915 0.17155734 45 9
1.3778881 -2.6514161 -0.58082271 43 2
1.5117532 -2.9102488 0.28691655 47 10
1.3754514 -2.6489866 -0.47274491 77 3
1.5097766 -2.9089248 0.40241253 45 11
1.4937282 -2.8792329 -0.39826885 34 4
1.5213828 -2.9337919 0.52342987 45 12
1.5198102 -2.9307594 -0.28883424 42 5
1.5196692 -2.9317384 0.64188129 56 13
1.5188242 -2.9313602 -0.17302263 43 6
5.2338424 -10.105739 2.6274285 21 14
1.5297648 -2.9550011 -0.058081433 50 7
4.1950445 -8.1069088 2.4458404 26 15
1.3817594 -2.6782568 -0.80751544 3 0
1.5104568 -2.9289639 0.057523061 38 8
1.3705739 -2.6588533 -0.69059998 48 1
1.497532 -2.9063919 0.17134799 45 9
1.3614306 -2.6422479 -0.57776976 46 2
1.5015852 -2.915508 0.28691655 48 10
1.3671005 -2.6555281 -0.47305781 70 3
1.5032464 -2.9212377 0.40338749 47 11
1.3538249 -2.6319976 -0.36341456 51 4
1.5048103 -2.9267876 0.52123982 45 12
1.4968165 -2.9112399 -0.28639388 37 5
1.5076312 -2.9335327 0.64111841 56 13
1.5049317 -2.9295375 -0.17260392 43 6
