# .PCD v0.7 - Point Cloud Data file format
VERSION 0.7
FIELDS x y z intensity ring
SIZE 4 4 4 4 2
TYPE F F F F U
COUNT 1 1 1 1 1
WIDTH 1255
HEIGHT 1
VIEWPOINT 0 0 0 1 0 0 0
POINTS 1255
DATA ascii
1.5671068 -2.937397 -0.29127461 38 5
1.5510757 -2.9085712 0.64073646 46 13
1.5652113 -2.9363122 -0.17438337 43 6
5.0446687 -9.4677 2.4767113 3 14
1.5576339 -2.9245558 -0.057837091 15 7
4.2450709 -7.973742 2.4204757 15 15
1.3839991 -2.6073127 -0.79095107 4 0
1.5511637 -2.9234664 0.057767391 9 8
1.4088759 -2.6564176 -0.69419885 39 1
1.5388994 -2.9027989 0.17218536 43 9
1.5540793 -2.9314322 -0.64493448 20 2
1.5355749 -2.8977497 0.28691691 45 10
1.567269 -2.9588068 -0.53031278 45 3
1.5400896 -2.9087229 0.40411872 41 11
1.5600106 -2.9475908 -0.4094812 48 4
1.5444739 -2.919467 0.52311695 48 12
1.5479476 -2.9272692 -0.28970578 41 5
1.5363249 -2.9052896 0.63882875 46 13
1.5512184 -2.9346945 -0.17396466 45 6
5.0898819 -9.6334305 2.5154028 1 14
1.5595561 -2.9529626 -0.058290858 53 7
4.2081928 -7.9714284 2.4152999 9 15
1.3825287 -2.6277549 -0.79560977 4 0
1.5195342 -2.88816 0.056964584 33 8
1.3923385 -2.6475208 -0.69059998 45 1
1.5324745 -2.9152243 0.17260405 43 9
1.3917319 -2.6486118 -0.58158594 37 2
1.5249438 -2.9033587 0.28691655 45 10
1.5472313 -2.9470413 -0.52718413 44 3
1.5243903 -2.9035356 0.40265626 42 11
1.5450997 -2.9442298 -0.40826213 46 4
1.5370263 -2.9300883 0.52405554 48 12
1.5414211 -2.9397132 -0.29040304 41 5
1.5256661 -2.9109013 0.6388284 48 13
1.5367448 -2.933284 -0.17354599 43 6
5.2715106 -10.066345 2.6233792 7 14
1.5538775 -2.9672458 -0.05846538 52 7
4.1893001 -8.0031834 2.4204757 21 15
1.3733479 -2.6325648 -0.79560977 4 0
1.5246568 -2.9238524 0.057557963 48 8
1.3817247 -2.6508784 -0.69014972 48 1
1.5167506 -2.9099295 0.17197603 45 9
1.3797566 -2.6482306 -0.58044106 45 2
1.5129595 -2.9051294 0.2865679 45 10
1.3773127 -2.6457932 -0.47243211 72 3
1.5155706 -2.9126251 0.40314373 49 11
1.5233063 -2.9287398 -0.40533727 45 4
1.5249661 -2.931931 0.52342987 46 12
1.5265547 -2.9362366 -0.28953147 42 5
1.519117 -2.9231772 0.64035481 52 13
1.520972 -2.9279957 -0.17291795 43 6
5.2435241 -10.09852 2.6269784 14 14
1.5278449 -2.9424818 -0.057872001 52 7
4.1880374 -8.0691977 2.4360051 22 15
1.3783507 -2.6647971 -0.80389202 3 0
1.5149523 -2.9288921 0.057557959 38 8
1.3711364 -2.6519835 -0.68924987 44 1
1.5047499 -2.9116576 0.17176668 46 9
1.3696032 -2.6512861 -0.58005941 46 2
1.5046377 -2.913934 0.28691655 47 10
1.3694378 -2.652101 -0.47274494 72 3
1.5022621 -2.9105792 0.40216881 42 11
1.367961 -2.6515117 -0.36633945 53 4
1.5111012 -2.9302137 0.52217841 45 12
1.5135574 -2.936235 -0.28900853 40 5
1.5139127 -2.9369242 0.64226294 55 13
1.5103393 -2.9312482 -0.1728133 43 6
5.2073307 -10.110658 2.6256287 24 14
1.5093267 -2.9317956 -0.057557862 48 7
4.211998 -8.1851168 2.4665461 28 15
1.3642151 -2.6590402 -0.80078614 3 0
1.5074569 -2.9395008 0.057662673 48 8
1.3592039 -2.651551 -0.68790054 42 1
1.4927554 -2.9133372 0.17155732 46 9
1.3536416 -2.6418359 -0.57700658 45 2
1.4877005 -2.904721 0.28552207 47 10
1.3646727 -2.6656566 -0.4743093 81 3
1.4929974 -2.9175723 0.40241253 47 11
1.3514657 -2.642132 -0.36438921 62 4
1.5035611 -2.9407465 0.52311695 43 12
1.3527876 -2.646996 -0.26007286 65 5
1.4991845 -2.9334502 0.64035487 53 13
1.4973722 -2.9311664 -0.17249925 45 6
5.1870737 -10.158278 2.6332774 36 14
1.4954472 -2.9299221 -0.057418242 49 7
4.3958631 -8.6162119 2.5918145 38 15
1.3527089 -2.6605783 -0.7997508 3 0
1.4908428 -2.9322672 0.057418339 52 8
1.3543546 -2.6649654 -0.69014966 44 1
1.4852904 -2.923872 0.17187133 48 9
1.3457273 -2.6502802 -0.57776976 46 2
1.4770441 -2.9101541 0.28552207 48 10
1.3423811 -2.6459777 -0.46992916 77 3
1.4881927 -2.933388 0.40387496 45 11
1.3467237 -2.6556859 -0.36560789 70 4
1.4986454 -2.9565487 0.52499419 43 12
1.3381368 -2.6410379 -0.25902697 71 5
1.4884229 -2.9389248 0.64035481 52 13
1.3431895 -2.6533067 -0.15585645 46 6
5.2025967 -10.28155 2.6602714 31 14
1.4193017 -2.804873 -0.054870203 27 7
4.3596573 -8.6194353 2.588191 42 15
1.3373272 -2.6532083 -0.79612744 4 0
1.4746875 -2.9269967 0.057208914 52 8
1.3393186 -2.6594689 -0.68745029 44 1
1.4750751 -2.9290392 0.17187135 47 9
1.3329369 -2.6479471 -0.57624328 46 2
1.4722501 -2.9259706 0.2865679 47 10
1.3313615 -2.6471179 -0.46930337 77 3
1.4702982 -2.924634 0.40192506 45 11
1.3329871 -2.6515024 -0.36438954 62 4
1.4821073 -2.9494066 0.52280408 42 12
1.3306984 -2.6492538 -0.2593756 73 5
1.4763932 -2.9405937 0.63959157 53 13
1.3231691 -2.6365581 -0.15460037 50 6
5.1492434 -10.260426 2.6503732 22 14
1.3234258 -2.6382177 -0.051519342 58 7
4.3156886 -8.6069708 2.5799086 32 15
1.3362956 -2.6731801 -0.80078614 6 0
1.365759 -2.7333124 0.053334493 45 8
1.3270093 -2.6569219 -0.68565065 44 1
1.4599997 -2.9231937 0.17124331 47 9
1.3276565 -2.6593788 -0.57776976 50 2
1.4598705 -2.9254889 0.28604501 46 10
1.3243397 -2.6550536 -0.46992916 77 3
1.4605916 -2.9294934 0.40192506 41 11
1.3197582 -2.6470256 -0.36317083 70 4
1.4793673 -2.9684494 0.52530706 46 12
1.3201288 -2.650085 -0.25902697 71 5
1.4675088 -2.9472308 0.63997316 55 13
1.3117489 -2.6355674 -0.15428635 56 6
5.1968112 -10.44144 2.6926644 26 14
1.3209047 -2.6551247 -0.051763676 87 7
4.2948647 -8.6368036 2.5845678 45 15
1.2998629 -2.6231534 0.051100589 65 8
1.3190563 -2.6630545 -0.68610066 44 1
1.3257217 -2.6776862 0.15658922 47 9
1.3083771 -2.6426537 -0.57319033 48 2
1.4536957 -2.9374564 0.28674221 46 10
1.3172796 -2.662972 -0.47055489 77 3
1.4543886 -2.9414389 0.40290001 45 11
1.3087516 -2.648057 -0.362683 70 4
1.464622 -2.9647396 0.52374268 45 12
1.3113337 -2.6544478 -0.25902694 73 5
1.4577276 -2.952081 0.63997316 50 13
1.3021177 -2.6381118 -0.15418169 52 6
5.1491237 -10.436795 2.6868153 18 14
1.3089751 -2.6543391 -0.051658962 82 7
4.2527323 -8.6274843 2.5773206 27 15
1.2984726 -2.6423361 -0.78888047 78 0
1.2986327 -2.6438279 0.051414724 70 8
1.3088934 -2.6658931 -0.68565065 44 1
1.2838101 -2.6159577 0.15271638 55 9
1.2991449 -2.6472046 -0.57319033 48 2
1.3162004 -2.6831424 0.26146707 48 10
1.3053666 -2.6622324 -0.46961617 83 3
1.4432385 -2.9447153 0.40265626 41 11
1.3003734 -2.6543922 -0.36292675 66 4
1.4525267 -2.9662859 0.52311695 45 12
1.2968026 -2.648273 -0.25798109 61 5
1.4482769 -2.9589145 0.64035481 46 13
1.293779 -2.6444349 -0.15428635 56 6
1.2909201 -2.6409261 -0.05130991 73 7
4.2505774 -8.6995554 2.5944028 10 15
1.2977009 -2.6642203 -0.79405683 71 0
1.2806425 -2.6303658 0.051065676 75 8
1.2978747 -2.6669414 -0.68475091 45 1
1.2772918 -2.6258111 0.1530304 58 9
1.2898965 -2.6517234 -0.57319033 47 2
1.2702352 -2.6124642 0.25414598 56 10
1.2943389 -2.6632197 -0.4689905 81 3
1.2872272 -2.6497619 0.36170819 44 11
1.2893656 -2.6553438 -0.3624396 66 4
1.4473387 -2.9820008 0.52499419 45 12
1.2858105 -2.6491988 -0.25763246 61 5
1.4276567 -2.9427555 0.6357758 49 13
1.2836688 -2.6471379 -0.15418169 52 6
1.279078 -2.6400182 -0.05120521 68 7
1.2875535 -2.6669943 -0.79353923 60 0
1.2714533 -2.6348197 0.051065676 73 8
1.2834775 -2.6609242 -0.68205148 45 1
1.2681178 -2.6302536 0.1530304 58 9
1.2772216 -2.6491361 -0.57166392 48 2
1.2619734 -2.6186769 0.25432062 67 10
1.2798915 -2.6570437 -0.46711332 83 3
1.2650521 -2.6274107 0.3580521 68 11
1.28095 -2.6616168 -0.362683 70 4
1.2802129 -2.661274 0.46773919 42 12
1.2748282 -2.6500802 -0.25728387 63 5
1.4114201 -2.9353361 0.63310409 45 13
1.2692295 -2.6408017 -0.15355365 52 6
4.6395578 -9.6575375 2.473562 13 14
1.2733173 -2.6516771 -0.051344823 68 7
1.2824048 -2.680186 -0.79612744 55 0
1.2622485 -2.6392419 0.051065676 73 8
1.2699788 -2.6565969 -0.67980194 46 1
1.2520403 -2.6202476 0.15219302 60 9
1.2696596 -2.6571212 -0.57242715 50 2
1.2545422 -2.626662 0.25466895 67 10
1.272311 -2.6650608 -0.46773908 83 3
1.2507436 -2.6210608 0.35658967 71 11
1.2673783 -2.6571136 -0.36146432 59 4
1.2632641 -2.6496785 0.46492332 75 12
1.2698566 -2.6635063 -0.25815541 65 5
1.2567415 -2.6371815 0.56784743 56 13
1.2574269 -2.6398065 -0.15323964 56 6
1.2616155 -2.6497912 0.67755258 2 14
1.2640538 -2.656106 -0.051344827 68 7
1.3227924 -2.7807825 0.82511526 1 15
1.2697306 -2.6776636 -0.79405683 53 0
1.2513149 -2.6400182 0.050995868 75 8
1.2623664 -2.6645362 -0.68070215 45 1
1.2403221 -2.6191866 0.15187901 62 9
1.2553355 -2.6508904 -0.57013738 46 2
1.2436608 -2.6274233 0.25432062 67 10
1.2630002 -2.6694853 -0.46773905 81 3
1.2432843 -2.6289999 0.35707712 74 11
1.2547021 -2.6543427 -0.36048937 59 4
1.250632 -2.6469278 0.46367189 76 12
1.2597008 -2.6661215 -0.25798112 60 5
1.2450129 -2.6362269 0.5667026 77 13
1.2482048 -2.6441798 -0.15323964 56 6
1.2462441 -2.6424158 -0.050995775 71 7
1.262828 -2.6787903 0.79353935 9 15
1.2570893 -2.675086 -0.79198635 56 0
1.2437924 -2.64799 0.05106568 75 8
1.2530581 -2.6689265 -0.68070215 45 1
1.233717 -2.6289248 0.15219304 60 9
1.2427378 -2.6481471 -0.56861091 48 2
1.2294054 -2.6209257 0.25327477 72 10
1.2545133 -2.6756663 -0.46805191 77 3
1.2340995 -2.6333239 0.35707712 74 11
1.246271 -2.6605036 -0.36073345 63 4
1.2380342 -2.6441212 0.4624204 79 12
1.2431639 -2.6562841 -0.25658661 63 5
1.2308103 -2.6298878 0.56441289 70 13
1.2406598 -2.6521389 -0.15344898 56 6
1.2370129 -2.6467495 -0.050995771 68 7
1.2472764 -2.6796753 -0.79198635 53 0
1.2277908 -2.6378121 0.050786443 75 8
1.245378 -2.6768179 -0.68160194 45 1
1.2220064 -2.6277819 0.151879 62 9
1.2379891 -2.6633663 -0.57090062 50 2
1.2181118 -2.6218007 0.25292581 69 10
1.2380416 -2.6659133 -0.46554893 86 3
1.223228 -2.6340146 0.35658967 74 11
1.2361407 -2.6630375 -0.36048937 59 4
1.2304596 -2.6520102 0.4630461 76 12
1.2338843 -2.6606071 -0.25658661 63 5
1.2178602 -2.6272564 0.56288642 70 13
1.2309309 -2.6566684 -0.15344898 56 6
1.2218684 -2.6383164 0.67125398 77 14
1.2286068 -2.6528661 -0.051030681 73 7
1.2189382 -2.6331942 0.77749252 44 15
1.2395332 -2.6875215 -0.79302156 56 0
1.2164401 -2.6386623 0.050716627 77 8
1.2298495 -2.6689756 -0.67845225 45 1
1.2165446 -2.6413136 0.15240237 60 9
1.2286847 -2.6676714 -0.57090062 52 2
1.2106191 -2.6296561 0.25327477 67 10
1.2262508 -2.6648357 -0.46461034 83 3
1.2102475 -2.6312661 0.35561469 71 11
1.2238845 -2.6621389 -0.35975847 63 4
1.2166072 -2.6475279 0.46148178 74 12
1.2224609 -2.6614907 -0.25623795 60 5
1.2062236 -2.6261394 0.56174189 77 13
1.2141503 -2.644613 -0.15250695 52 6
1.2159024 -2.6496499 0.67305356 71 14
1.2180417 -2.6555338 -0.050995775 68 7
1.2197456 -2.6604733 0.78422183 63 15
1.2280694 -2.6885319 -0.79198635 55 0
1.2088839 -2.6465302 0.050786443 73 8
1.2221445 -2.6767976 -0.67935205 48 1
1.2006835 -2.6310079 0.15156497 60 9
1.218084 -2.6703706 -0.57051897 58 2
1.1993197 -2.63045 0.25292581 72 10
1.218114 -2.6729071 -0.46523613 83 3
1.1969393 -2.6264434 0.35439602 77 11
1.2104696 -2.6573625 -0.35853979 59 4
1.2098141 -2.6571519 0.4624204 76 12
1.2131633 -2.6657414 -0.25623795 61 5
1.1998416 -2.637691 0.56326801 77 13
1.2036223 -2.647227 -0.15240227 56 6
1.1957016 -2.6310248 0.6672048 61 14
1.2071102 -2.6561284 -0.05092597 68 7
1.1984663 -2.6383317 0.77645731 63 15
1.219617 -2.6923766 -0.79198635 55 0
1.200101 -2.6505246 0.050786443 75 8
1.2100471 -2.6737342 -0.67755246 48 1
1.1894829 -2.6295156 0.15125096 64 9
1.2048341 -2.6634517 -0.56822932 62 2
1.1910499 -2.6342049 0.25292581 72 10
1.2088971 -2.6749206 -0.4649232 86 3
1.1890404 -2.6322069 0.35463974 71 11
1.2016511 -2.6613622 -0.35853982 66 4
1.1944952 -2.646745 0.45991746 79 12
1.2047824 -2.6695395 -0.25623792 60 5
1.1907421 -2.6396575 0.56288671 70 13
1.1977626 -2.6564574 -0.15271628 52 6
1.1890315 -2.6383219 0.66810465 68 14
1.1933671 -2.6491773 -0.050716538 67 7
1.1920902 -2.6475759 0.77801019 61 15
1.2038834 -2.6825178 -0.78784519 56 0
1.1892047 -2.6510487 0.050716631 77 8
1.2015042 -2.6797199 -0.67800242 46 1
1.1819302 -2.6372974 0.1514603 62 9
1.1915146 -2.6586835 -0.56632119 50 2
1.1777751 -2.6292546 0.25205424 74 10
1.2019745 -2.6845326 -0.4658618 93 3
1.1806556 -2.6381533 0.35488346 68 11
1.1923537 -2.6655402 -0.35853979 66 4
1.1852493 -2.6508985 0.45991746 76 12
1.1922041 -2.6664534 -0.25554073 63 5
1.1823217 -2.6455905 0.56326801 83 13
1.1835951 -2.6496809 -0.15208825 52 6
1.1758425 -2.633559 0.66585517 57 14
1.1841128 -2.6533265 -0.050716538 67 7
1.1781192 -2.641135 0.77490431 70 15
1.1952971 -2.6884689 -0.78836286 60 0
1.1783193 -2.6515288 0.050646823 77 8
1.1945161 -2.6892402 -0.67935205 48 1
1.1710964 -2.6377561 0.15125097 64 9
1.1814301 -2.661032 -0.56593961 56 2
1.1693983 -2.6351709 0.25222859 72 10
1.1877903 -2.6778777 -0.46398458 76 3
1.173049 -2.6458881 0.35537097 77 11
1.1798255 -2.6624272 -0.35756454 57 4
1.1735883 -2.6496012 0.45897883 72 12
1.1812751 -2.6669555 -0.2551921 60 5
1.1651323 -2.6317496 0.55945188 77 13
1.17838 -2.6629281 -0.15261161 56 6
1.1690069 -2.6429942 0.6672048 66 14
1.1756523 -2.6592729 -0.050751444 73 7
1.1673312 -2.6416976 0.7738691 70 15
1.187463 -2.6961608 -0.78939813 60 0
1.1650281 -2.6464748 0.0504723 82 8
1.1804123 -2.6826911 -0.67665297 48 1
1.1634899 -2.6454842 0.1514603 64 9
1.1752958 -2.672328 -0.56746602 62 2
1.1585889 -2.6355889 0.25187993 72 10
1.176052 -2.6765821 -0.46304601 78 3
1.1582184 -2.6372442 0.35366482 74 11
1.1721203 -2.6701643 -0.35805199 57 4
1.1667136 -2.6591084 0.45991746 76 12
1.1719587 -2.6710627 -0.2551921 61 5
1.1559383 -2.6358006 0.55945188 79 13
1.1610587 -2.6487331 -0.1515649 56 6
1.1613386 -2.6506288 0.66810471 71 14
1.1631536 -2.6560333 -0.05061182 65 7
1.159652 -2.6492956 0.77490431 70 15
1.1757265 -2.6949775 -0.78784519 56 0
1.1565825 -2.6523581 0.050507203 77 8
1.171041 -2.686795 -0.67665297 48 1
1.149923 -2.6383424 0.15083228 62 9
1.1667446 -2.6782146 -0.56784767 70 2
1.1493819 -2.639617 0.25187993 72 10
1.1651255 -2.6770484 -0.46242028 82 3
1.1482136 -2.6394506 0.35342106 77 11
1.15646 -2.6596758 -0.35610244 58 4
1.1555263 -2.6575284 0.45897886 74 12
1.1610391 -2.6714828 -0.25484347 63 5
1.1467308 -2.6398194 0.55945182 77 13
1.1510105 -2.6509376 -0.1514602 50 6
1.145872 -2.6403651 0.66450542 56 14
1.157524 -2.6672139 -0.050751448 73 7
1.1508603 -2.6531265 0.77490431 70 15
1.1678449 -2.7026117 -0.78888047 56 0
1.1485736 -2.6580143 0.050542101 80 8
1.1590341 -2.6835079 -0.67485303 48 1
1.1391228 -2.6386735 0.15062295 64 9
1.1496109 -2.6642447 -0.56403148 63 2
1.1409502 -2.6454425 0.25205424 74 10
1.1593708 -2.688153 -0.46367177 82 3
1.1410261 -2.6468897 0.35390857 77 11
1.146063 -2.6598499 -0.35561493 60 4
1.143899 -2.6561029 0.45804027 76 12
1.1548581 -2.6828394 -0.25554073 60 5
1.136418 -2.6400011 0.55868894 79 13
1.1422133 -2.6547401 -0.15146022 52 6
1.1340306 -2.6369894 0.66270578 61 14
1.1458375 -2.6657262 -0.05064673 71 7
1.1408296 -2.6553524 0.77438664 73 15
1.1535535 -2.6940384 -0.7852571 60 0
1.1385016 -2.6601694 0.050507203 75 8
1.1519592 -2.6929126 -0.67620283 50 1
1.131476 -2.6463065 0.1508323 64 9
1.1415414 -2.6698477 -0.56441313 66 2
1.1282566 -2.6400516 0.25118273 72 10
1.1468762 -2.684917 -0.46242023 82 3
1.13178 -2.6508563 0.35390854 77 11
1.1367714 -2.6638343 -0.3556146 58 4
1.1315199 -2.6528115 0.45678878 76 12
1.136575 -2.6646628 -0.25344902 67 5
1.1287359 -2.6475639 0.55945188 86 13
1.1321566 -2.6568737 -0.15135555 56 6
1.1278734 -2.6481035 0.66450542 64 14
1.1333927 -2.6623499 -0.05050711 67 7
1.1255027 -2.6450977 0.77024555 77 15
1.1418799 -2.6927128 -0.7837041 56 0
1.1276481 -2.6604447 0.050437391 77 8
1.1402715 -2.6915345 -0.67485309 48 1
1.122232 -2.6502397 0.15083228 68 9
1.1299186 -2.6683924 -0.56326824 59 2
1.1167043 -2.6384692 0.25065979 76 10
1.1359578 -2.6852653 -0.4617945 82 3
1.1209732 -2.651134 0.35342103 77 11
1.1274658 -2.6677864 -0.3556146 60 4
1.1245592 -2.6622038 0.45772734 72 12
1.1272669 -2.6686139 -0.25344902 63 5
1.1164322 -2.644253 0.5579257 77 13
1.1220992 -2.6589692 -0.15125087 52 6
1.1178658 -2.6502285 0.66405553 59 14
1.1256458 -2.6699755 -0.050576918 71 7
1.117763 -2.6525712 0.77128088 73 15
1.1317253 -2.6949015 -0.7831865 43 0
1.1160331 -2.6588335 0.05033268 80 8
1.1286079 -2.6901069 -0.67350334 50 1
1.1129736 -2.6541407 0.15083228 66 9
1.1213561 -2.6741309 -0.56364989 66 2
1.1090279 -2.6460261 0.25100839 76 10
1.1242881 -2.6837482 -0.4608559 85 3
1.1071124 -2.6440446 0.35195863 80 11
1.1181465 -2.6717052 -0.35561493 57 4
1.116022 -2.6679361 0.4580403 76 12
1.1194823 -2.6762085 -0.25379762 63 5
1.1071956 -2.648134 0.5579254 79 13
1.1112705 -2.6591845 -0.15104154 52 6
1.1108608 -2.6595092 0.66540521 64 14
1.1132375 -2.666507 -0.050437298 68 7
1.109985 -2.6600218 0.7723161 73 15
1.1052101 -2.6590197 0.050262872 80 8
1.1192106 -2.69403 -0.67350334 49 1
1.0991067 -2.6469421 0.15020424 66 9
1.1135209 -2.6816552 -0.56441313 69 2
1.0982575 -2.6462009 0.25065979 76 10
1.114156 -2.6858323 -0.46054304 82 3
1.0971164 -2.6460595 0.35171491 74 11
1.1042539 -2.6645894 -0.35415217 57 4
1.106702 -2.6718149 0.45804024 76 12
1.1078464 -2.6745777 -0.25327468 65 5
1.0964429 -2.6483545 0.5571624 79 13
1.0973994 -2.6519742 -0.1504135 52 6
1.0933779 -2.6435618 0.6604563 59 14
1.1054507 -2.6740727 -0.05050711 68 7
1.0977422 -2.6567388 0.77024555 73 15
1.1195043 -2.7188134 -0.78784519 6 0
1.0974437 -2.6665599 0.05033268 80 8
1.1097999 -2.6979206 -0.67350334 49 1
1.0883411 -2.6470683 0.14999489 68 9
1.0951941 -2.6637363 -0.55983371 64 2
1.0890138 -2.6500185 0.25065979 76 10
1.1040237 -2.6878777 -0.4602302 73 3
1.0878726 -2.6498728 0.35171488 74 11
1.0934391 -2.6647546 -0.3536647 57 4
1.0913727 -2.6610408 0.45553729 79 12
1.1007719 -2.6839585 -0.25379762 61 5
1.0871917 -2.6521657 0.5571624 83 13
1.0911645 -2.6631818 -0.15083221 52 6
1.0848824 -2.6491659 0.66090626 61 14
1.0923222 -2.6686621 -0.050332587 73 7
1.0913877 -2.6677067 0.77231622 73 15
1.0954202 -2.6869271 -0.77749246 4 0
1.0903926 -2.67593 0.050437391 73 8
1.1018459 -2.7053874 -0.67440313 49 1
1.0790948 -2.6508512 0.14999489 68 9
1.0873699 -2.6711798 -0.56059688 64 2
1.0782548 -2.6501124 0.25031114 76 10
1.0953785 -2.6935451 -0.46054304 82 3
1.0793638 -2.6554928 0.3519586 77 11
1.0856251 -2.6722338 -0.3541522 57 4
1.0820768 -2.664834 0.45553726 79 12
1.0846497 -2.6711702 -0.25222877 65 5
1.080881 -2.6632218 0.55868864 79 13
1.0803603 -2.6632724 -0.15062284 42 6
1.0741637 -2.6493249 0.6600064 66 14
1.0807474 -2.6668987 -0.050227873 71 7
1.0748163 -2.6535943 0.76713973 77 15
1.0896503 -2.6996911 -0.78008056 4 0
1.0750602 -2.6648836 0.050158147 71 8
1.0887512 -2.700181 -0.67215365 48 1
1.0690887 -2.6527495 0.14989024 58 9
1.0787734 -2.67678 -0.56097853 60 2
1.0675088 -2.6501641 0.24996252 74 10
1.0830185 -2.6900222 -0.45929155 82 3
1.0678648 -2.6537199 0.35122743 74 11
1.0762904 -2.6760068 -0.35415217 58 4
1.0735053 -2.670428 0.45585015 74 12
1.0745761 -2.6730919 -0.25205448 67 5
1.0627944 -2.6451178 0.55410922 79 13
1.0725456 -2.6707339 -0.15083218 50 6
1.0670872 -2.6584835 0.66135615 59 14
1.0714313 -2.6706553 -0.050227877 71 7
1.06339 -2.6519508 0.76558685 80 15
1.0701842 -2.6783633 -0.7728337 3 0
1.0635267 -2.6630492 0.05005344 57 8
1.0771524 -2.698535 -0.67080396 50 1
1.059822 -2.6564651 0.14989023 56 9
1.0708778 -2.6841767 -0.56174183 55 2
1.0575135 -2.6520236 0.24978821 65 10
1.0728909 -2.6919513 -0.45897871 85 3
1.0563911 -2.6518989 0.35049623 77 11
1.0669428 -2.6797473 -0.35415217 60 4
1.0649077 -2.6759939 0.45616299 79 12
1.0667124 -2.6805289 -0.25240314 63 5
1.056457 -2.6561086 0.55563599 86 13
1.0595274 -2.6651821 -0.15030885 47 6
1.0570807 -2.6603813 0.6609062 61 14
1.0621027 -2.6743789 -0.050227877 71 7
1.0584031 -2.66642 0.76869273 90 15
1.0523024 -2.6605253 -0.76662207 3 0
1.0520189 -2.6611664 0.049948726 46 8
1.0612812 -2.6859672 -0.66675484 22 1
1.0476085 -2.6527178 0.14947157 51 9
1.0586172 -2.6805937 -0.56021529 60 2
1.0489814 -2.6575518 0.24996251 63 10
1.0634874 -2.6956804 -0.45897874 85 3
1.047128 -2.65557 0.3504962 77 11
1.054671 -2.6760681 -0.35317758 57 4
1.0541121 -2.6760197 0.45553729 76 12
1.0588093 -2.6879439 -0.25275177 67 5
1.0457406 -2.6561267 0.55487245 86 13
1.0480238 -2.6632884 -0.14999482 61 6
1.0435085 -2.6531737 0.65820676 61 14
1.0542239 -2.6817918 -0.050297681 71 7
1.0469697 -2.6647041 0.76713973 77 15
1.0486435 -2.6785736 -0.77076316 3 0
1.0485528 -2.6797206 0.05022797 45 8
1.0526085 -2.6914697 -0.66720468 20 1
1.0368881 -2.6526382 0.1492622 32 9
1.0478244 -2.6806161 -0.55945212 60 2
1.0382483 -2.6574852 0.24961421 51 10
1.0533528 -2.697536 -0.45866585 82 3
1.0364085 -2.6555107 0.35000873 80 11
1.0438806 -2.6760347 -0.35268974 60 4
1.041177 -2.6704805 0.45397297 86 12
1.047249 -2.6860542 -0.2522288 65 5
1.0350368 -2.6561022 0.55410922 79 13
1.0387203 -2.6669304 -0.14999481 61 6
1.0342411 -2.6568 0.65820676 61 14
1.0412307 -2.6761377 -0.050123159 73 7
1.0376617 -2.6683424 0.76713973 77 15
1.0392866 -2.6822178 -0.77076316 3 0
1.0363035 -2.6759052 0.050088346 47 8
1.041097 -2.6896756 -0.66585535 20 1
1.0290636 -2.6599669 0.14947157 42 9
1.0356274 -2.6769333 -0.55792564 61 2
1.0232171 -2.6462271 0.24821973 58 10
1.0460668 -2.7067237 -0.45960444 85 3
1.0271326 -2.6591125 0.35000873 80 11
1.0316732 -2.6722543 -0.35171479 58 4
1.0297151 -2.6685696 0.45303431 79 12
1.0328453 -2.6766818 -0.2510086 69 5
1.0285851 -2.667026 0.55563569 83 13
1.0308416 -2.6742671 -0.15020414 63 6
1.0249604 -2.6603942 0.65820676 61 14
1.0282902 -2.6704249 -0.049948636 76 7
1.0227902 -2.6575248 0.7629987 77 15
1.0236927 -2.6695952 -0.76610446 4 0
1.0248097 -2.6739039 0.049983624 52 8
1.0337929 -2.6987526 -0.66720468 20 1
1.0183442 -2.659812 0.14926219 39 9
1.0262771 -2.680532 -0.55792564 60 2
1.0153984 -2.6535048 0.24856806 63 10
1.0302608 -2.6937535 -0.4567886 82 3
1.0192618 -2.6663897 0.3504962 77 11
1.0265902 -2.6869657 -0.35317758 58 4
1.022508 -2.6776838 0.45397294 86 12
1.0220746 -2.6765485 -0.25066003 69 5
1.0136685 -2.6559262 0.55258304 79 13
1.0236357 -2.6834471 -0.15051816 61 6
1.0128911 -2.6566722 0.65640718 64 14
1.0210986 -2.6796041 -0.050053351 73 7
1.0148823 -2.6646898 0.76403391 73 15
1.0157385 -2.6767645 -0.76713973 4 0
1.0140517 -2.6737258 0.049913824 50 8
1.0202223 -2.6914115 -0.6645056 23 1
1.011642 -2.6687772 0.14957622 45 9
1.0183051 -2.6877699 -0.55868888 58 2
1.0054237 -2.6551695 0.24839371 65 10
1.0194534 -2.6936383 -0.45616287 82 3
1.0057342 -2.6587915 0.34903377 77 11
1.0176737 -2.6903553 -0.35317758 60 4
1.0150201 -2.6847556 0.4545987 83 12
1.0127257 -2.6801 -0.25066003 67 5
1.0057787 -2.6631217 0.55334592 86 13
1.0093254 -2.6739244 -0.14978547 63 6
1.0068283 -2.6673093 0.65820682 61 14
1.0122069 -2.6829755 -0.050053351 73 7
1.0067221 -2.6698482 0.76455158 80 15
1.0075361 -2.6819265 -0.76765728 4 0
1.0051795 -2.677074 0.049913824 53 8
1.0064985 -2.6820087 -0.66135603 43 1
0.99997908 -2.6646376 0.14915754 45 9
1.0107656 -2.694808 -0.55945212 57 2
0.99801219 -2.66222 0.24874233 65 10
1.0105152 -2.6970041 -0.45616287 82 3
0.9969117 -2.6621122 0.34903377 77 11
1.0031772 -2.678843 -0.35122731 63 4
1.0047269 -2.6844065 0.45397297 86 12
1.0066243 -2.6909077 -0.25135726 67 5
0.99419171 -2.6590869 0.5518195 83 13
0.99835521 -2.671644 -0.14947146 61 6
0.99252039 -2.6560297 0.65460759 61 14
1.0054034 -2.691937 -0.050158061 71 7
0.99921399 -2.6767912 0.76558679 80 15
1.0006571 -2.6906853 -0.76921028 6 0
0.99629641 -2.6803925 0.049913824 52 8
0.99624193 -2.6816778 -0.66045618 35 1
0.98719621 -2.6587501 0.14863418 56 9
0.99772328 -2.6871021 -0.55716234 60 2
0.99056488 -2.669251 0.24909097 67 10
1.0029399 -2.7040448 -0.45678863 82 3
0.98945886 -2.6691256 0.34952125 80 11
0.992441 -2.6786056 -0.35074019 60 4
0.99123436 -2.6767826 0.45209569 83 12
0.9963119 -2.6904941 -0.25100863 69 5
0.98673147 -2.6660514 0.55258304 77 13
0.99018335 -2.6768131 -0.14957611 63 6
0.98324335 -2.6594782 0.65460759 61 14
0.99114847 -2.6823001 -0.049913727 73 7
0.98517954 -2.6675773 0.76196337 73 15
0.98392087 -2.6742184 -0.76351625 6 0
0.98831457 -2.6876073 0.049983628 53 8
0.98620272 -2.68331 -0.66000658 40 1
0.97928643 -2.6659298 0.14884353 45 9
0.98495245 -2.6813545 -0.55525428 64 2
0.97712159 -2.6614702 0.2480451 65 10
0.99621689 -2.7149472 -0.45804012 92 3
0.98013544 -2.6725633 0.34952125 80 11
0.98581779 -2.6895084 -0.35171509 58 4
0.98052555 -2.676517 0.45146996 83 12
0.98417276 -2.6864727 -0.2503114 69 5
0.97809416 -2.6713231 0.55296433 88 13
0.98289257 -2.6858802 -0.14989015 58 6
0.97328466 -2.6610641 0.65415776 59 14
0.98040676 -2.6819875 -0.049843922 73 7
0.97652483 -2.6728148 0.76248103 80 15
0.97524071 -2.6794517 -0.76403379 6 0
0.97209084 -2.6722484 0.04963458 56 8
0.98015946 -2.6958935 -0.66225582 23 1
0.96861064 -2.6655772 0.14863418 54 9
0.97893953 -2.6940019 -0.55716234 60 2
0.96578461 -2.6592469 0.24752216 63 10
0.98066801 -2.7016962 -0.45522428 85 3
0.96944666 -2.672236 0.34903377 77 11
0.97371674 -2.6854689 -0.35074019 60 4
0.97252285 -2.6836376 0.45209575 83 12
0.97343147 -2.6861451 -0.24996276 69 5
0.96408379 -2.6617997 0.55029303 79 13
0.97283125 -2.6874168 -0.14978547 65 6
0.96597874 -2.6699424 0.65550739 61 14
0.97035915 -2.6835127 -0.049809016 78 7
0.96587574 -2.6725733 0.7614457 80 15
0.97242606 -2.7010162 -0.76921028 6 0
0.96411109 -2.6793888 0.049704388 60 8
0.96810514 -2.6919634 -0.66045618 20 1
0.96065146 -2.6727011 0.14884351 56 9
0.96952999 -2.6974027 -0.55716234 61 2
0.95649642 -2.6626017 0.24752216 63 10
0.97123128 -2.7051029 -0.45522428 88 3
0.95608968 -2.6643932 0.34757131 77 11
0.96701753 -2.6963253 -0.35171479 60 4
0.96381599 -2.6888754 0.45240858 90 12
0.9653939 -2.6932776 -0.25031137 72 5
0.95478612 -2.6651487 0.55029303 83 13
0.96142495 -2.6851549 -0.14947146 58 6
0.95665318 -2.6732981 0.65550739 61 14
0.96367937 -2.6944153 -0.04994864 76 7
0.95719093 -2.677748 0.76196337 77 15
0.96169519 -2.7007544 -0.76817495 9 0
0.95475256 -2.6827378 0.049704388 62 8
0.9600088 -2.698998 -0.66135627 21 1
0.94863969 -2.6685104 0.14842482 58 9
0.95747769 -2.6933715 -0.55563593 60 2
0.94919777 -2.6715565 0.2480451 65 10
0.96376586 -2.7140613 -0.4561629 88 3
0.94678366 -2.6677141 0.34757131 80 11
0.95229053 -2.6847172 -0.34976518 60 4
0.95508403 -2.6940849 0.45272139 86 12
0.95465529 -2.6928754 -0.24996276 67 5
0.94678873 -2.6721663 0.55105627 83 13
0.94737905 -2.6753156 -0.14873874 63 6
0.94341427 -2.6655986 0.65280795 61 14
0.95360142 -2.6958771 -0.049913727 73 7
0.9471941 -2.6792512 0.7614457 80 15
0.9522621 -2.7040946 -0.76817489 12 0
0.94604582 -2.6879406 0.049739294 70 8
0.95058173 -2.702333 -0.66135597 21 1
0.9379946 -2.6680377 0.1482155 56 9
0.94546586 -2.6892889 -0.55410945 61 2
0.93656373 -2.6654551 0.24717353 63 10
0.95297706 -2.7136817 -0.45553717 85 3
0.93680865 -2.6691296 0.34732759 74 11
0.94159925 -2.684279 -0.34927741 63 4
0.94175303 -2.686218 0.45084429 86 12
0.94656789 -2.6999519 -0.2503114 67 5
0.93615723 -2.6717494 0.55029303 83 13
0.93935496 -2.6823764 -0.1489481 65 6
0.93152916 -2.6615183 0.65100837 64 14
0.93824255 -2.6822019 -0.049599588 78 7
0.93783617 -2.6825411 0.7614457 80 15
0.93455845 -2.6836853 -0.76144564 4 0
0.93797225 -2.6950035 0.049809106 71 8
0.94242346 -2.709316 -0.66225582 21 1
0.93064272 -2.6769547 0.1485295 62 9
0.93542761 -2.6907184 -0.55372781 64 2
0.92463845 -2.66118 0.24647631 63 10
0.94479483 -2.7207232 -0.45616287 88 3
0.92878735 -2.6761343 0.34781507 83 11
0.93352485 -2.6912999 -0.34976518 63 4
0.93172371 -2.6876221 0.45053136 79 12
0.93322206 -2.6919444 -0.24926551 72 5
0.92939585 -2.682421 0.5518198 83 13
0.92867875 -2.6818643 -0.14873874 63 6
0.92605698 -2.6758032 0.6537078 61 14
0.92887449 -2.6854606 -0.049599588 83 7
0.92720425 -2.682147 0.76041049 80 15
0.9226687 -2.6796246 -0.7593751 6 0
0.92335343 -2.6831341 0.049529865 68 8
0.9323265 -2.7107463 -0.66180587 21 1
0.91999441 -2.676409 0.14832014 62 9
0.92666799 -2.6958237 -0.55410939 61 2
0.91534346 -2.6643913 0.24647628 60 10
0.93080157 -2.7109268 -0.45397282 82 3
0.92008477 -2.6812377 0.34805882 73 11
0.92541271 -2.6982977 -0.35025233 60 4
0.92169577 -2.6889901 0.45021856 76 12
0.92252743 -2.6914165 -0.24891691 72 5
0.91493696 -2.6707902 0.54876685 83 13
0.91995865 -2.6869798 -0.14884344 61 6
0.91292554 -2.6679568 0.65100837 66 14
0.92014205 -2.6905782 -0.04963449 81 7
0.91471219 -2.6762273 0.75782228 77 15
0.91704512 -2.6938016 -0.76248091 6 0
0.91269374 -2.6825552 0.049460061 71 8
0.92097634 -2.7084494 -0.66045618 22 1
0.9100042 -2.6777136 0.1482155 60 9
0.91914761 -2.7046185 -0.55525428 64 2
0.90731889 -2.6713436 0.24682492 63 10
0.92069793 -2.7122886 -0.45365992 88 3
0.90816873 -2.6769133 0.34708381 69 11
0.91598821 -2.7015116 -0.35025233 60 4
0.91230404 -2.6921911 0.45021856 90 12
0.91440606 -2.6983941 -0.24926551 74 5
0.90497851 -2.6721087 0.5483849 88 13
0.90737206 -2.6807146 -0.14832005 63 6
0.90610516 -2.6785109 0.65280795 61 14
0.91202515 -2.6975627 -0.049704298 81 7
0.90536475 -2.679404 0.75782228 77 15
0.91503024 -2.7189581 -0.76869261 17 0
0.90459943 -2.6895151 0.049529865 71 8
0.91027492 -2.7079532 -0.65955639 22 1
0.89937901 -2.6770871 0.14800614 60 9
0.9090755 -2.7059495 -0.55487269 60 2
0.89672053 -2.6707165 0.24647628 60 10
0.91373867 -2.7229769 -0.45491141 85 3
0.8962943 -2.6725392 0.34610891 71 11
0.90087473 -2.6877532 -0.34805906 65 4
0.90352857 -2.6972315 0.45053136 83 12
0.90371597 -2.6977911 -0.24891691 72 5
0.89876223 -2.6845596 0.55029303 79 13
0.89927655 -2.687654 -0.1485294 63 6
0.89304125 -2.6705687 0.65010852 66 14
0.90260351 -2.7007298 -0.049704298 81 7
0.89784265 -2.688045 0.75937521 80 15
0.91041231 -2.7368002 -0.77283376 34 0
0.89520568 -2.6926563 0.049529865 68 8
0.90573257 -2.7259088 -0.66315562 26 1
0.88814068 -2.6745236 0.14769211 62 9
0.89529365 -2.6960638 -0.55220133 64 2
0.89053029 -2.6832852 0.24734783 65 10
0.90298402 -2.7224002 -0.45428571 85 3
0.88820928 -2.6794198 0.34659636 69 11
0.89148718 -2.6908815 -0.34805906 65 4
0.89100313 -2.6909933 0.44896704 79 12
0.89429301 -2.7009294 -0.24891691 76 5
0.88691896 -2.6802249 0.54876685 86 13
0.89114356 -2.6945691 -0.14873874 63 6
0.88249099 -2.6699691 0.64920872 66 14
0.88878006 -2.6905725 -0.049459968 78 7
0.88966531 -2.6948314 0.76041049 84 15
0.89844018 -2.7326205 -0.77076316 43 0
0.88580102 -2.6957648 0.049529865 73 8
0.89681983 -2.7309053 -0.66360551 57 1
0.87942225 -2.6795053 0.14779679 60 9
0.88465255 -2.6954415 -0.55143803 64 2
0.8755697 -2.6693394 0.24577907 58 10
0.89470643 -2.7292898 -0.45491141 88 3
0.87885064 -2.6825042 0.34659636 73 11
0.8833245 -2.6977501 -0.34854621 67 4
0.87914711 -2.6865773 0.44771555 76 12
0.88238102 -2.6964598 -0.24821962 74 5
0.87999862 -2.690769 0.55029303 83 13
0.88297319 -2.7014604 -0.14894809 63 6
0.87498128 -2.6785908 0.65055853 68 14
0.87876213 -2.6917577 -0.049425066 81 7
0.87665772 -2.6869011 0.75730467 84 15
0.89008969 -2.7394147 -0.77179843 55 0
0.87329751 -2.6893306 0.049355336 85 8
0.88788354 -2.7358727 -0.66405541 48 1
0.87067974 -2.6844587 0.14790148 64 9
0.87523824 -2.698513 -0.55143803 66 2
0.86624652 -2.6723793 0.24577905 63 10
0.88152152 -2.7211206 -0.45303419 85 3
0.86948186 -2.6855557 0.34659636 73 11
0.87451321 -2.7027054 -0.34878993 63 4
0.87158686 -2.6952684 0.44865417 83 12
0.87173688 -2.6957324 -0.24787103 78 5
0.86456335 -2.6751428 0.54647708 77 13
0.8692413 -2.6912222 -0.1482154 59 6
0.86622405 -2.6834829 0.65100831 64 14
0.87181687 -2.7024209 -0.049564682 78 7
0.86430967 -2.6807516 0.75471646 77 15
0.87875044 -2.7369866 -0.77024549 55 0
0.862683 -2.6885545 0.049285531 85 8
0.87475711 -2.7278209 -0.66135627 51 1
0.8619138 -2.6893833 0.14800614 74 9
0.8646152 -2.6978126 -0.55067486 68 2
0.85873604 -2.6810791 0.24630198 65 10
0.87141496 -2.7222996 -0.4527213 92 3
0.85647297 -2.6772299 0.34513393 75 11
0.86507356 -2.7057414 -0.34879023 63 4
0.86337596 -2.7020576 0.44927984 86 12
0.86232197 -2.6987588 -0.24787103 78 5
0.85522014 -2.6781447 0.54647714 79 13
0.85802001 -2.6885314 -0.14790137 65 6
0.85566765 -2.6827769 0.65010852 66 14
0.85994911 -2.6978271 -0.049425066 78 7
0.85729194 -2.6911151 0.75678706 77 15
0.86977535 -2.741879 -0.77076316 65 0
0.85450161 -2.6953621 0.049355343 85 8
0.86640745 -2.7345736 -0.66225582 51 1
0.84769708 -2.6771431 0.14716876 72 9
0.85637772 -2.7045577 -0.55143803 64 2
0.84877127 -2.6821606 0.24612767 82 10
0.86131179 -2.7234416 -0.45240846 88 3
0.84712243 -2.6802034 0.34513396 75 11
0.85203588 -2.6973875 -0.3473275 69 4
0.85393906 -2.7050548 0.4492799 86 12
0.85409606 -2.7055521 -0.24821965 74 5
0.84704775 -2.6848581 0.54724008 83 13
0.8474288 -2.6877005 -0.14769202 65 6
0.84336895 -2.6764543 0.64785898 68 14
0.85292917 -2.7084417 -0.049564682 78 7
0.84789318 -2.6940911 0.75678706 77 15
0.86250973 -2.7522719 -0.7728337 65 0
0.84628308 -2.7021449 0.049425155 88 8
0.85627496 -2.7357216 -0.66180593 55 1
0.8383472 -2.6800859 0.14716877 72 9
0.8434155 -2.6962886 -0.54914844 68 2
0.84059244 -2.6889107 0.24647631 78 10
0.85238838 -2.7283168 -0.45272127 97 3
0.84012842 -2.6907237 0.34610891 69 11
0.84202397 -2.6984499 -0.34708405 65 4
0.83978641 -2.6929331 0.44677699 83 12
0.84464633 -2.7085171 -0.24821965 74 5
0.83767086 -2.6877985 0.54724008 79 13
0.8404178 -2.6982701 -0.14811072 67 6
0.83402163 -2.6793823 0.6478591 68 14
0.83871776 -2.6961269 -0.049285442 76 7
0.84020442 -2.7025688 0.75833988 80 15
0.84718496 -2.7368114 -0.76765728 61 0
0.8380276 -2.7089036 0.049494963 88 8
0.84787107 -2.7424173 -0.66270566 55 1
0.83063483 -2.6866672 0.1473781 79 9
0.8339985 -2.6992161 -0.54914844 68 2
0.82884991 -2.6842136 0.24577907 83 10
0.8434425 -2.7331636 -0.45303422 85 3
0.82956088 -2.689846 0.34562144 73 11
0.83318418 -2.7032697 -0.3473275 69 4
0.82968819 -2.691927 0.44615117 83 12
0.83284086 -2.7038324 -0.24752238 76 5
0.82943881 -2.6944587 0.54800332 86 13
0.82981902 -2.6973691 -0.14790137 63 6
0.82523668 -2.6841397 0.64830899 66 14
0.83036035 -2.7008047 -0.049320351 81 7
0.82783329 -2.6942604 0.75523412 84 15
0.83593178 -2.73421 -0.76610452 58 0
0.82436258 -2.6963689 0.049215723 82 8
0.83877206 -2.745214 -0.66270566 57 1
0.82125187 -2.6895502 0.1473781 73 9
0.82457137 -2.702111 -0.54914844 70 2
0.8183127 -2.6832788 0.24543042 83 10
0.83091694 -2.7246087 -0.451157 85 3
0.82063657 -2.6925819 0.34562141 75 11
0.82479352 -2.7079167 -0.34757155 65 4
0.82258755 -2.7023661 0.44740272 86 12
0.82223755 -2.7029109 -0.24717377 76 5
0.81592751 -2.6821682 0.54495066 77 13
0.82319367 -2.7077498 -0.14832006 69 6
0.81519812 -2.6831324 0.64740914 66 14
0.82034636 -2.7017734 -0.049285442 86 7
0.81617993 -2.6897388 0.75316352 80 15
0.82797801 -2.7406652 -0.76713961 58 0
0.81378978 -2.6954014 0.049145918 88 8
0.82637006 -2.7387967 -0.66045618 51 1
0.81185812 -2.6924007 0.1473781 75 9
0.81673968 -2.7085896 -0.54991168 68 2
0.80941021 -2.6859775 0.24543074 83 10
0.82026213 -2.7237093 -0.45053121 88 3
0.80894393 -2.6878269 0.34464645 75 11
0.81476414 -2.7088783 -0.3473278 69 4
0.81314969 -2.7052209 0.44740272 83 12
0.81441742 -2.7094388 -0.24752238 72 5
0.80769002 -2.6887608 0.5457136 83 13
0.80856866 -2.6933906 -0.14737801 61 6
0.80862713 -2.6952944 0.64965868 68 14
0.81033635 -2.7027051 -0.049250543 81 7
0.80955839 -2.7018244 0.75575173 77 15
0.82006258 -2.7490926 -0.76869261 65 0
0.80608988 -2.7039747 0.049250629 91 8
0.8151356 -2.7360618 -0.65910649 55 1
0.80131549 -2.69139 0.14716877 75 9
0.80615985 -2.7076609 -0.54914844 73 2
0.80116594 -2.6926062 0.24577907 81 10
0.81074959 -2.7265561 -0.45053127 88 3
0.79955703 -2.690634 0.34464645 73 11
0.80247819 -2.7021914 -0.34610879 65 4
0.80651164 -2.7175121 0.44896707 90 12
0.80382079 -2.7084453 -0.24717379 74 5
0.79829979 -2.6915636 0.5457136 83 13
0.79859406 -2.6942816 -0.14727335 65 6
0.79699981 -2.6906266 0.64785904 68 14
0.80203229 -2.7093523 -0.049320351 81 7
0.79793012 -2.6972239 0.75368118 77 15
0.80882436 -2.7463787 -0.76713961 57 0
0.79721087 -2.7086902 0.049285531 88 8
0.80612975 -2.7407598 -0.65955639 51 1
0.78853655 -2.6826732 0.14654073 75 9
0.7955963 -2.706691 -0.54838514 68 2
0.79176205 -2.6953864 0.24577907 83 10
0.80345273 -2.7369511 -0.45178273 88 3
0.79071885 -2.6953137 0.34489021 78 11
0.79248226 -2.7030709 -0.34586504 69 4
0.79202223 -2.7032492 0.44615126 86 12
0.79660261 -2.7188826 -0.24787103 74 5
0.79000258 -2.698102 0.54647708 86 13
0.79142821 -2.7047203 -0.14769202 63 6
0.7876032 -2.693392 0.64785904 68 14
0.79144806 -2.7082961 -0.049250536 81 7
0.79013479 -2.7055559 0.75523406 84 15
0.79815382 -2.7454755 -0.76610446 40 0
0.78719318 -2.7095361 0.049250629 91 8
0.79601473 -2.7416859 -0.65910649 55 1
0.78139329 -2.6930823 0.14695942 73 9
0.786143 -2.7094522 -0.5483852 66 2
0.78012908 -2.6904793 0.24508181 78 10
0.79279476 -2.7359443 -0.45115694 88 3
0.78075337 -2.6961503 0.34464645 75 11
0.78359383 -2.7077279 -0.34610879 67 4
0.78203237 -2.7040997 0.44583833 79 12
0.78267884 -2.7063351 -0.24647653 76 5
0.78057986 -2.7008431 0.54647708 83 13
0.78087378 -2.703629 -0.14748269 67 6
0.77819639 -2.6961253 0.6478591 73 14
0.78143573 -2.7091215 -0.049215641 86 7
0.77961594 -2.7045851 0.75419885 84 15
0.80721414 -2.813237 -0.78422171 9 0
0.77607679 -2.706501 0.049145918 85 8
0.78643912 -2.7444475 -0.65910643 41 1
0.77198809 -2.6957932 0.14695941 75 9
0.77776164 -2.7159543 -0.54914844 68 2
0.76963669 -2.6893549 0.24473317 81 10
0.78106678 -2.7310984 -0.44990554 85 3
0.77133751 -2.6988592 0.34464645 71 11
0.77577275 -2.7161729 -0.34684002 69 4
0.77258855 -2.7068131 0.44583833 79 12
0.77322721 -2.7090507 -0.24647653 72 5
0.77007025 -2.6997755 0.5457139 86 13
0.77252644 -2.7101796 -0.14769202 65 6
0.77091616 -2.706322 0.64965868 76 14
0.77197427 -2.7118323 -0.049215633 86 7
0.7675274 -2.6979995 0.75161064 77 15
0.81896907 -2.8922472 -0.8054449 6 0
0.76444656 -2.7014966 0.049006294 88 8
0.79011172 -2.7940567 -0.67035407 8 1
0.76474583 -2.7061596 0.1473781 72 9
0.76667464 -2.712985 -0.54800355 60 2
0.76024425 -2.6920252 0.24473317 77 10
0.76991928 -2.7281048 -0.44896692 82 3
0.75975627 -2.6938932 0.34367153 75 11
0.76574808 -2.7169535 -0.34659657 67 4
0.76420653 -2.7132962 0.44646409 86 12
0.76268595 -2.7078974 -0.24612789 72 5
0.75851387 -2.6948879 0.54418743 79 13
0.76089823 -2.7051692 -0.14727335 65 6
0.76041013 -2.7052441 0.64875883 74 14
0.7614218 -2.7106602 -0.049145825 83 7
0.75810486 -2.7006619 0.75161058 73 15
0.79379249 -2.8411307 -0.79043335 1 0
0.75662512 -2.7099268 0.049111009 91 8
0.82068098 -2.9413295 -0.70499647 13 1
0.75100338 -2.6934214 0.14654073 70 9
0.75191224 -2.6985011 0.24508181 77 10
0.75986212 -2.7288725 -0.44865403 73 3
0.75141275 -2.7003534 0.34415895 75 11
0.75306892 -2.7081349 -0.34513384 67 4
0.75578809 -2.7197537 0.44708982 83 12
0.75536245 -2.7182221 -0.24682516 78 5
0.75015324 -2.7013025 0.54495037 79 13
0.7503829 -2.7039597 -0.147064 67 6
0.74887896 -2.7003706 0.64695925 76 14
0.75409132 -2.7210097 -0.049285442 86 7
0.75022018 -2.7088771 0.75316352 80 15
0.79721743 -2.892307 -0.80389208 1 0
0.74769241 -2.7144792 0.049145915 85 8
0.82333779 -2.991148 -0.71624404 3 1
0.74265671 -2.699878 0.14675006 73 9
0.79718202 -2.8981011 -0.5842573 10 2
0.74248803 -2.7011092 0.24508213 83 10
0.7425077 -2.7048748 0.34440273 78 11
0.74413615 -2.7126613 -0.34537789 63 4
0.74106759 -2.7033243 0.44396108 83 12
0.74797672 -2.728528 -0.24752238 76 5
0.74071932 -2.7039046 0.54495037 83 13
0.74093968 -2.7065625 -0.147064 67 6
0.73739171 -2.6954496 0.64515966 76 14
0.74247962 -2.7159097 -0.049145825 83 7
0.74177772 -2.7152066 0.75419885 80 15
0.73643285 -2.7086542 -0.75212818 3 0
0.73821259 -2.717073 0.049145918 85 8
0.80778581 -2.9751973 -0.71174502 1 1
0.73322755 -2.7024541 0.14675008 77 9
0.81122243 -2.9899197 -0.60219336 5 2
0.73096931 -2.6959927 0.24438456 77 10
0.79400134 -2.9304938 -0.48087952 13 3
0.73306143 -2.7074502 0.34440276 84 11
0.73317367 -2.7116153 0.44489971 79 12
0.7353279 -2.7195826 -0.24647653 72 5
0.7317884 -2.708369 0.54533231 88 13
0.73356992 -2.7168453 -0.14748268 65 6
0.7289933 -2.7017703 0.64605951 70 14
0.73195356 -2.7146237 -0.049076017 86 7
0.72927999 -2.7065873 0.75109297 80 15
0.72747362 -2.7130742 -0.75264585 6 0
0.72665328 -2.7119067 0.049006294 85 8
0.81150824 -3.0307069 -0.72434229 1 1
0.7248224 -2.7088556 0.14695941 75 9
0.72155434 -2.6985278 0.24438456 78 10
0.80161452 -3.0000429 -0.49182999 5 3
0.72309417 -2.7080741 0.34415898 73 11
0.7717517 -2.8923275 -0.36755779 10 4
0.72472137 -2.7179754 0.44552544 79 12
0.73506951 -2.7567847 -0.24961412 18 5
0.71980256 -2.7014217 0.54342419 83 13
0.72459608 -2.7213194 -0.14758736 61 6
0.72056037 -2.7080648 0.6469593 77 14
0.72350091 -2.7210271 -0.049145825 83 7
0.71982771 -2.7091165 0.75109297 80 15
0.77774996 -2.9415851 -0.81527996 1 0
0.71616083 -2.7105601 0.048936486 88 8
0.71536231 -2.7113695 0.14695942 77 9
0.78231591 -2.9651372 -0.5960874 1 2
0.71213025 -2.70103 0.24438456 83 10
0.77603966 -2.9455168 -0.4824439 1 3
0.71212053 -2.7048228 0.34342778 81 11
0.78185368 -2.9717941 -0.37730736 5 4
0.71472752 -2.7185781 0.4452126 83 12
0.74925226 -2.8498986 -0.25780678 25 5
0.71036869 -2.7039177 0.54342419 79 13
0.71407765 -2.7199686 -0.14737801 28 6
0.71110332 -2.7105637 0.6469593 77 14
0.71653384 -2.7332079 -0.049320355 83 7
0.70987707 -2.7097437 0.75057536 73 15
0.74165058 -2.8452053 -0.78784525 11 0
0.70770288 -2.7169135 0.049006294 85 8
0.77756774 -2.9872646 -0.71264511 1 1
0.70388234 -2.7061181 0.14654073 70 9
0.77393758 -2.9754498 -0.59761387 1 2
0.70269746 -2.7034996 0.24438456 81 10
0.77071935 -2.9673266 -0.48557255 1 3
0.7021758 -2.7053707 0.34318405 75 11
0.76998025 -2.9687407 -0.37657648 1 4
0.70622438 -2.7248812 0.44583833 86 12
0.7507962 -2.8968563 -0.26181594 16 5
0.69994146 -2.7025802 0.54266065 83 13
0.73110098 -2.8249228 -0.15292561 36 6
0.69968516 -2.7054825 0.64515966 77 14
0.71949768 -2.7840946 -0.050192971 55 7
0.70186347 -2.7178168 0.75212824 80 15
0.74036825 -2.8814554 -0.79716265 6 0
0.69821501 -2.7193673 0.049006294 85 8
0.71579909 -2.7898753 -0.6649552 5 1
0.69344014 -2.7046893 0.14633138 75 9
0.76257181 -2.9743299 -0.59685069 1 2
0.6942454 -2.709796 0.24473317 83 10
0.76525557 -2.9891357 -0.48870122 1 3
0.69321996 -2.7097285 0.34342778 81 11
0.75371307 -2.9483314 -0.37365127 1 4
0.69377506 -2.7158458 0.44396108 83 12
0.78013027 -3.0538912 -0.27576086 3 5
0.69147444 -2.7088113 0.54342419 77 13
0.72518492 -2.8429403 -0.153763 20 6
0.68831199 -2.7003551 0.64336008 74 14
0.72655678 -2.8524749 -0.051379729 53 7
0.69141871 -2.7165058 0.75109297 67 15
0.78199601 -3.0881512 -0.85358524 1 0
0.71513301 -2.828253 -0.67350334 24 1
0.68399471 -2.7070932 0.14633138 70 9
0.76853645 -3.0416899 -0.60982555 1 2
0.6818555 -2.7006125 0.24368733 78 10
0.77994555 -3.0913875 -0.50497043 1 3
0.683272 -2.7102067 0.34318405 75 11
0.75214535 -2.9855933 -0.37803891 1 4
0.68525559 -2.7220826 0.44458687 83 12
0.78113908 -3.1029663 -0.27994436 2 5
0.68393034 -2.7188239 0.54495066 79 13
0.68173015 -2.7140813 0.64605945 73 14
0.72000289 -2.8685701 -0.051624056 78 7
0.67817271 -2.7039125 0.74695194 70 15
0.77308232 -3.0983598 -0.85565579 1 0
0.72613895 -2.9123843 0.052392058 11 8
0.72834098 -2.923388 -0.69554853 4 1
0.742737 -2.9833913 -0.59761387 2 2
0.67338669 -2.7068431 0.24403596 74 10
0.7596184 -3.0557506 -0.49871305 1 3
0.67476445 -2.7164285 0.34367153 73 11
0.74458873 -2.9997604 -0.37950099 2 4
0.67622495 -2.72434 0.44458687 83 12
0.77989525 -3.1443501 -0.28343058 2 5
0.67160189 -2.7097611 0.54266095 77 13
0.71348238 -2.8808911 -0.15554242 3 6
0.67131573 -2.712661 0.64515966 76 14
0.7071237 -2.8573544 -0.051379729 62 7
0.67059356 -2.7117722 0.74850476 73 15
0.7770189 -3.1610715 -0.87222016 1 0
0.75848281 -3.0856628 0.055463683 24 8
0.76977491 -3.133961 -0.74503815 1 1
0.70982713 -2.8920774 0.15606587 10 9
0.75136238 -3.0659268 -0.49996451 1 3
0.66386396 -2.7109385 0.34269655 73 11
0.7516228 -3.0716286 -0.38827556 1 4
0.66671103 -2.7266839 0.44458687 86 12
0.7698608 -3.1509244 -0.28377923 3 5
0.66168064 -2.7081592 0.54189742 77 13
0.70439869 -2.8851814 -0.15564708 3 6
0.66231644 -2.7148724 0.64515966 73 14
0.69714564 -2.8598053 -0.051379729 56 7
0.66249549 -2.7197275 0.75005776 80 15
0.78745824 -3.2499971 -0.89603156 17 0
0.76982301 -3.1796379 0.0571042 39 8
0.78082532 -3.2275457 -0.76663303 9 1
0.73821062 -3.0537279 0.16464899 18 9
0.69050068 -2.8585522 0.25728363 10 10
0.69940472 -2.8976302 -0.47211918 5 3
0.73066401 -3.0317767 -0.38291368 1 4
0.65765142 -2.7309148 0.44489971 76 12
0.76687092 -3.1844518 -0.28656816 2 5
0.65268266 -2.7123613 0.54227906 70 13
0.65192538 -2.7133777 0.64425981 79 14
0.68995959 -2.8738878 -0.051589154 47 7
0.65209639 -2.718266 0.74902236 70 15
0.78104055 -3.273396 -0.90172553 29 0
0.76521194 -3.2095382 0.057592869 85 8
0.75483531 -3.1709208 0.17082463 52 9
0.72247422 -3.0373309 0.27314591 18 10
0.69019961 -2.9038978 -0.47274491 33 3
0.68161732 -2.8700168 0.36219564 10 11
0.71732658 -3.0227206 -0.38145092 1 4
0.64857084 -2.7351158 0.4452126 19 12
0.75667018 -3.1909864 -0.28691679 1 5
0.6450212 -2.7222643 0.54380548 68 13
0.76062363 -3.2126548 -0.17302263 48 6
0.63886112 -2.7004657 0.64066058 74 14
0.68222362 -2.8860087 -0.051763672 52 7
0.64304793 -2.7224059 0.74954003 77 15
0.75446075 -3.2141366 0.057627775 88 8
0.75693953 -3.2272263 -0.76528335 4 1
0.75059801 -3.2027049 0.17239471 85 9
0.73957902 -3.1581693 0.28377897 42 10
0.7579211 -3.2390418 -0.52687132 48 3
0.71317446 -3.050211 0.38461959 20 11
0.71219051 -3.0484021 -0.38437611 2 4
0.67045373 -2.8720195 0.46711344 10 12
0.73501241 -3.1510518 -0.28308195 2 5
0.64086682 -2.7474427 0.54838496 14 13
0.75575209 -3.2425218 -0.17448804 88 6
0.63164055 -2.7121694 0.64291012 65 14
0.69072801 -2.9682267 -0.053194769 59 7
0.63179123 -2.7171078 0.74746954 73 15
0.73802662 -3.1941996 -0.87843186 1 0
0.74278688 -3.2148023 0.057592873 90 8
0.74479258 -3.2260513 -0.76438355 8 1
0.73986316 -3.2072515 0.17249937 90 9
0.73425913 -3.1880405 0.2862193 53 10
0.74471551 -3.2360225 -0.52593267 9 3
0.73591268 -3.1977713 0.40290001 52 11
0.66729093 -2.9019053 -0.36560789 28 4
0.70156294 -3.0533869 0.49621028 18 12
0.72400862 -3.1535983 -0.28308195 1 5
0.65844703 -2.8703268 0.57242686 12 13
0.71039546 -3.0992625 -0.16663764 48 6
0.73080951 -3.1908824 -0.057139002 74 7
0.62230253 -2.7192967 0.74746954 65 15
0.71316576 -3.1364758 -0.86186743 1 0
0.72966987 -3.211653 0.057488155 82 8
0.73037505 -3.2173574 -0.76168418 4 1
0.72822064 -3.2078671 0.17239471 80 9
0.72526044 -3.197412 -0.63730216 5 2
0.72488815 -3.1983562 0.28691655 73 10
0.72948831 -3.2212625 -0.52311683 5 3
0.72374916 -3.1985111 0.40265626 65 11
0.72270113 -3.1964691 0.51904964 45 12
0.68646479 -3.0411336 0.60600919 16 13
0.71714938 -3.179656 -0.17082451 87 6
0.65591609 -2.9105284 0.68880022 10 14
0.72186518 -3.2031677 -0.057313524 49 7
0.62171876 -2.7610297 0.75833982 12 15
0.72032523 -3.2199092 0.057592869 88 8
0.72182727 -3.2292707 -0.76393366 1 1
0.71614826 -3.206491 0.17218536 82 9
0.7217921 -3.2344143 -0.6441713 9 2
0.71545333 -3.2086458 0.28761381 82 10
0.72052181 -3.2313769 -0.52436841 5 3
0.71486551 -3.2086437 0.40363124 86 11
0.72250104 -3.2455838 -0.40826213 90 4
0.71840096 -3.2298248 0.5240556 63 12
0.70586503 -3.1760802 -0.28465077 17 5
0.71352941 -3.213213 -0.17249927 63 6
0.67074341 -3.0230308 0.71489447 11 14
0.70678437 -3.1880977 -0.056999389 55 7
0.64048755 -2.8914402 0.79353929 10 15
0.69761682 -3.1676705 -0.8691144 1 0
0.70865136 -3.2204511 0.057557963 85 8
0.70323694 -3.2011683 0.17176668 80 9
0.70438218 -3.209054 0.28743982 80 10
0.702811 -3.2072415 0.40314376 86 11
0.71031785 -3.2442081 -0.40777469 99 4
0.70712256 -3.2323124 0.52405554 90 12
0.65019447 -2.9720895 -0.26617372 10 5
0.70222217 -3.2125995 0.63920999 78 13
0.70273447 -3.2176349 -0.17260392 67 6
0.69010133 -3.162437 0.74728745 41 14
0.69139141 -3.1710074 -0.056650341 46 7
0.66246521 -3.0408895 0.833915 12 15
0.67837703 -3.1323247 -0.85876161 1 0
0.69825143 -3.2268143 0.057627775 82 8
0.69290185 -3.2075081 0.17197603 82 9
0.69934487 -3.2373333 -0.64378965 63 2
0.69191509 -3.2056508 0.28691691 82 10
0.70335901 -3.2614305 -0.52843565 59 3
0.69412005 -3.221318 0.40460616 90 11
0.69815385 -3.2427864 -0.40728718 75 4
0.692927 -3.2212431 0.52186549 88 12
0.69260985 -3.2197685 -0.28813702 46 5
0.69389182 -3.228467 0.64188129 97 13
0.66466087 -3.0950933 -0.16590494 28 6
0.68846071 -3.2086504 0.75763518 77 14
0.68786335 -3.2085962 -0.057278622 74 7
0.68704903 -3.2075272 0.8789497 67 15
0.68490326 -3.2194521 0.057453252 90 8
0.65231699 -3.0689106 -0.72434229 1 1
0.68170154 -3.2099071 0.17197601 85 9
0.68844825 -3.2416751 -0.64417124 61 2
0.67989427 -3.2041485 0.2865679 82 10
