# .PCD v0.7 - Point Cloud Data file format
VERSION 0.7
FIELDS x y z intensity ring
SIZE 4 4 4 4 1
TYPE F F F F U
COUNT 1 1 1 1 1
WIDTH 1355
HEIGHT 1
VIEWPOINT 0 0 0 1 0 0 0
POINTS 1355
DATA ascii
1.6079909 3.0086908 -0.33810106 102 40
1.6197858 2.986536 -0.33656719 116 40
1.5987747 2.9051383 -0.32758322 82 40
0 0 -0 59 40
0 0 -0 66 40
0 0 -0 67 40
1.5950048 2.7370753 -0.31125864 62 40
1.5495529 2.6219919 -0.29778266 130 40
0 0 -0 160 40
0 0 -0 140 40
0 0 -0 153 40
0 0 -0 167 40
0 0 -0 147 40
0 0 -0 168 40
0 0 -0 158 40
0 0 -0 147 40
0 0 -0 149 40
0 0 -0 148 40
0 0 -0 143 40
0 0 -0 126 40
0 0 -0 148 40
0 0 -0 144 40
0 0 -0 128 40
0 0 -0 142 40
0 0 -0 130 40
1.9216564 2.5583971 -0.31476459 161 40
1.9445413 2.5560498 -0.31607932 126 40
0 0 -0 144 40
0 0 -0 205 40
0 0 -0 136 40
0 0 -0 158 40
0 0 -0 122 40
0 0 -0 115 40
2.1153977 2.545876 -0.32692584 126 40
2.1412191 2.5450165 -0.32867882 109 40
2.1658199 2.5424225 -0.33021268 108 40
2.1911185 2.5403745 -0.33185607 121 40
2.2145114 2.5358655 -0.3331708 134 40
2.2359557 2.5289311 -0.33415687 105 40
2.2620394 2.5270123 -0.33590984 117 40
2.2908537 2.5278141 -0.33810106 150 40
2.3204343 2.5290892 -0.34040183 130 40
2.3501165 2.5300958 -0.3427026 132 40
2.3758118 2.5264888 -0.34434602 145 40
2.4077199 2.5291398 -0.34697548 132 40
2.439749 2.5314937 -0.34960493 76 40
2.8939824 2.9660661 -0.41884738 163 40
2.9274957 2.9638093 -0.42125773 196 40
2.9561698 2.9563329 -0.42290112 184 40
3.1708541 3.1323154 -0.45335904 17 40
3.2376823 3.1593068 -0.46069962 85 40
3.265595 3.1476581 -0.46201435 93 40
3.2949262 3.1371565 -0.46354821 116 40
3.3256993 3.1277747 -0.46530119 108 40
3.3615792 3.1228683 -0.46782106 146 40
3.4011853 3.1209984 -0.47088876 132 40
3.4357386 3.1140873 -0.47318956 136 40
3.4784813 3.1141613 -0.47669551 130 40
3.5198641 3.1125104 -0.47998232 146 40
3.5748332 3.1222367 -0.48524123 95 40
3.6044612 3.1093318 -0.4867751 113 40
3.6416318 3.1026261 -0.48940456 111 40
3.6780944 3.0949409 -0.49192446 100 40
3.7222445 3.093277 -0.49553996 122 40
3.7611327 3.0867729 -0.49838856 109 40
3.7877245 3.069895 -0.49948415 96 40
3.7948484 3.0372806 -0.49784073 6 40
0 0 -0 5 40
0 0 -0 6 40
3.8359392 2.9559953 -0.49586865 7 40
3.846885 2.9269865 -0.49488261 20 40
3.8592088 2.8991487 -0.49411568 11 40
3.8777235 2.8760066 -0.49422523 143 40
3.9113379 2.8639021 -0.49641645 144 40
3.9562278 2.8596442 -0.5001415 133 40
4.0052576 2.8578286 -0.50441438 146 40
4.0544128 2.8555183 -0.50868726 145 40
4.1110349 2.8578172 -0.51394618 160 40
4.1522632 2.8488443 -0.51712346 159 40
4.202589 2.8456023 -0.52150589 164 40
4.2406325 2.8335664 -0.5242449 175 40
4.2944536 2.8315649 -0.52906561 189 40
4.3459086 2.8273828 -0.53355759 189 40
4.4008188 2.8248227 -0.53848779 175 40
4.4525008 2.8195672 -0.54297978 223 40
4.5009103 2.8116767 -0.54703355 216 40
4.5536208 2.8059044 -0.55163509 210 40
4.6038804 2.7980421 -0.55590796 208 40
4.6610341 2.7937551 -0.56105733 180 40
4.7106056 2.7843201 -0.56522065 164 40
4.7722592 2.7813873 -0.57091784 221 40
4.8392234 2.7807729 -0.57727236 249 40
4.8760872 2.7622948 -0.57979226 383 40
4.8747191 2.7221479 -0.57749146 282 40
4.8713012 2.6811638 -0.57497156 264 40
4.8675647 2.6403246 -0.57245165 292 40
4.8652639 2.6005695 -0.57015091 240 40
4.864419 2.5618687 -0.56806922 193 40
4.8800468 2.5319729 -0.56806922 331 40
4.874248 2.491127 -0.56543976 226 40
4.8850021 2.4589381 -0.56489199 269 40
4.8919826 2.4249454 -0.56390589 223 40
4.921062 2.4018579 -0.56565887 149 40
4.9831924 2.3944302 -0.57146561 343 40
5.0031819 2.3663583 -0.57212299 367 40
5.0140028 2.3339372 -0.57168472 332 40
5.0155773 2.297334 -0.57015091 297 40
5.015985 2.260391 -0.56850749 320 40
5.0188556 2.2247381 -0.56719273 304 40
5.0269446 2.1915181 -0.56653535 338 40
4.8785887 2.091326 -0.5471431 216 40
5.0131559 2.1126831 -0.56171471 309 40
5.0306163 2.0837848 -0.56226254 286 40
5.0350213 2.0495062 -0.56127644 334 40
5.0327353 2.0126688 -0.55952346 322 40
5.0237107 1.9733937 -0.55700362 331 40
5.0245957 1.9382396 -0.55568886 326 40
5.0270982 1.9038531 -0.55459327 281 40
5.0247097 1.8677776 -0.55294985 271 40
5.0230021 1.8321439 -0.55141598 191 40
5.0191751 1.7959321 -0.54966301 286 40
4.9860172 1.7496357 -0.54451364 201 40
5.0098181 1.7235352 -0.54604751 320 40
5.020299 1.6927631 -0.54604751 339 40
5.0315351 1.662239 -0.54615706 356 40
5.004756 1.6194034 -0.54188418 41 40
5.0060701 1.5859631 -0.54089814 29 40
5.015707 1.5552166 -0.54089814 59 40
5.0165944 1.5218152 -0.5399121 60 40
5.0182142 1.4887443 -0.53903562 49 40
5.0205717 1.4559876 -0.53826869 45 40
5.0265422 1.4243418 -0.53794003 44 40
5.0332713 1.3929425 -0.53772086 48 40
5.0407639 1.3617736 -0.53761131 28 40
5.0480633 1.3305652 -0.53750175 31 40
5.04458 1.2965975 -0.53618705 21 40
5.0447273 1.2636884 -0.53531057 27 40
5.0388665 1.2294133 -0.5337767 22 40
5.0366445 1.1961762 -0.53268111 28 40
5.0371099 1.1636838 -0.53191417 20 40
5.0363965 1.131013 -0.53103769 20 40
5.040328 1.0994537 -0.53070897 23 40
5.0411444 1.0672712 -0.53005165 27 40
5.0427299 1.0353202 -0.52950382 19 40
5.0489874 1.004359 -0.52950382 38 40
5.0452943 0.9714815 -0.52840823 27 40
5.039434 0.93832338 -0.52709347 24 40
5.0392265 0.9063291 -0.52643609 32 40
5.0348992 0.87369323 -0.5253405 28 40
5.0352635 0.84196395 -0.52479273 31 40
5.0334654 0.80994743 -0.5240258 44 40
5.0393229 0.77919918 -0.52413535 29 40
5.041059 0.74782652 -0.52380663 35 40
5.0337439 0.71520412 -0.52249193 64 40
5.0380373 0.68430418 -0.52249193 58 40
5.0421414 0.65337849 -0.52249193 46 40
5.0401363 0.6216985 -0.52183455 43 40
3.6380258 0.42621252 -0.36581993 126 40
3.6425483 0.40410098 -0.36603907 99 40
3.6696737 0.38432887 -0.36877808 35 40
5.0479403 0.49723595 -0.52117717 101 40
5.0508962 0.46625301 -0.52117717 140 40
5.0635653 0.43610469 -0.52227283 166 40
5.0701094 0.40534356 -0.52271104 218 40
5.0794401 0.37473774 -0.52347797 302 40
5.0459418 0.34115279 -0.51953381 418 40
5.0598454 0.31091568 -0.52084851 560 40
5.0497484 0.27920562 -0.51953381 805 40
5.0603013 0.24865407 -0.52051985 1072 40
5.0587525 0.21747212 -0.52019113 1173 40
5.0440989 0.18584378 -0.51843816 1016 40
5.0670013 0.15555961 -0.52084851 775 40
5.0708418 0.12453914 -0.52117717 613 40
5.0734982 0.093459159 -0.52139634 556 40
5.0779514 0.062375531 -0.52183455 472 40
5.069293 0.031162327 -0.52084851 373 40
5.0842986 5.6166286e-05 -0.52249193 285 40
5.069294 -0.031048045 -0.52084851 236 40
5.0620503 -0.062066223 -0.52008158 165 40
5.0605807 -0.093106851 -0.51997203 147 40
5.0559392 -0.1240584 -0.51953381 112 40
5.0550828 -0.15507872 -0.51953381 89 40
5.0609894 -0.18634976 -0.52030069 78 40
5.0746465 -0.21804108 -0.52194411 67 40
5.0811553 -0.24956512 -0.52282059 50 40
0 -0 -0 50 40
0 -0 -0 47 40
5.0935516 -0.34425813 -0.52479273 47 40
5.100265 -0.37616378 -0.52577877 43 40
5.1028152 -0.40784767 -0.52632654 38 40
5.1061583 -0.43966237 -0.52698392 42 40
5.1073236 -0.47135058 -0.52742219 34 40
5.1013675 -0.50238717 -0.52709347 27 40
5.1021433 -0.53409332 -0.52753174 27 40
5.1027217 -0.56582797 -0.52796996 28 40
5.1050773 -0.59782112 -0.52862734 25 40
5.1072321 -0.62986445 -0.52928472 30 40
5.1101713 -0.66208452 -0.53005165 26 40
5.109952 -0.69396281 -0.53048986 28 40
5.1105185 -0.72600317 -0.53103769 31 40
5.1138334 -0.75851434 -0.53191417 28 40
5.1149764 -0.7907896 -0.53257155 33 40
5.1139536 -0.82279152 -0.53300977 24 40
5.11273 -0.8548106 -0.53344804 23 40
5.1093473 -0.8865056 -0.53366715 41 40
5.1087031 -0.91871929 -0.53421491 45 40
5.1088328 -0.95114046 -0.53487229 47 40
5.1116848 -0.98416167 -0.53585833 35 40
5.1094494 -1.0162838 -0.53629661 31 40
5.1157751 -1.0502151 -0.53772086 31 40
5.1228485 -1.0844681 -0.53925472 39 40
5.1267805 -1.1182117 -0.54045993 44 40
5.1266112 -1.151173 -0.5412268 33 40
5.1262307 -1.1841741 -0.54199374 39 40
5.1275721 -1.2176733 -0.54297978 34 40
5.1315913 -1.2519405 -0.54429454 30 40
5.134419 -1.2860612 -0.54549968 35 40
5.1331701 -1.3192737 -0.54626662 35 40
5.1336288 -1.3530259 -0.54725266 30 40
5.1300278 -1.3857962 -0.54780048 24 40
5.1300497 -1.4196339 -0.54878652 42 40
5.1327186 -1.4543371 -0.55010128 46 40
5.137063 -1.4896802 -0.55163509 42 40
5.1630836 -1.5316346 -0.55568886 191 40
5.1507349 -1.56242 -0.5553602 420 40
5.0366201 -1.5616076 -0.5433085 207 40
4.9738808 -1.5756683 -0.53717309 216 40
4.8686047 -1.575246 -0.52610743 220 40
4.8116579 -1.5894967 -0.52062941 224 40
4.7679076 -1.6075555 -0.51668519 409 40
4.728817 -1.6267548 -0.5132888 133 40
4.7196846 -1.6560688 -0.51339841 218 40
4.7113061 -1.6856669 -0.51361752 264 40
4.7148809 -1.7196531 -0.51526093 215 40
4.7200789 -1.7544392 -0.51712346 273 40
4.7185202 -1.786889 -0.51821905 300 40
4.7232323 -1.82189 -0.52008158 325 40
4.7387938 -1.8613777 -0.52325886 283 40
4.7448182 -1.897433 -0.5253405 277 40
4.7404513 -1.9295094 -0.52621698 349 40
4.7276044 -1.9581795 -0.52610743 239 40
4.7713728 -2.0107007 -0.53279066 100 40
4.7607727 -2.0407228 -0.53300977 42 40
4.7672954 -2.0782387 -0.53531057 36 40
4.7671752 -2.1130912 -0.53684437 64 40
4.7541199 -2.1423023 -0.53684437 73 40
4.7743211 -2.1867502 -0.54089814 60 40
4.7770333 -2.2235548 -0.54287022 64 40
4.7713866 -2.2566497 -0.54385626 50 40
4.7690969 -2.291481 -0.54528058 49 40
4.7701321 -2.3281131 -0.5471431 42 40
4.7717872 -2.3652854 -0.54911524 51 40
4.7784915 -2.4052472 -0.5517447 47 40
4.7831149 -2.4444749 -0.55415499 39 40
4.7865534 -2.483392 -0.55645579 34 40
4.7861757 -2.5205898 -0.55831832 35 40
4.790781 -2.560688 -0.56083822 31 40
4.7933264 -2.5999892 -0.56313902 24 40
4.7938271 -2.638459 -0.56522065 24 40
4.7983751 -2.6794558 -0.56785011 14 40
4.8025994 -2.7206073 -0.57047957 13 40
4.8039136 -2.7604253 -0.57278037 21 40
4.8049188 -2.8003614 -0.57508111 16 40
4.8004804 -2.8373785 -0.57672453 15 40
4.8025885 -2.8785346 -0.57924443 11 40
4.7975764 -2.9156928 -0.58088785 12 40
4.7965198 -2.9555051 -0.58307904 13 40
4.7900968 -2.9922538 -0.58461291 10 40
4.7943192 -3.0359483 -0.58757108 11 40
4.7931662 -3.0765851 -0.58987182 18 40
4.7991924 -3.1222003 -0.59315866 14 40
4.8015199 -3.1658161 -0.59600723 15 40
4.8142347 -3.2167568 -0.60028011 23 40
4.8125134 -3.2584975 -0.60269046 18 40
4.8194752 -3.3065236 -0.60630596 18 40
4.8350053 -3.3609986 -0.61112666 30 40
4.8419209 -3.410064 -0.61485171 34 40
4.8370881 -3.4512565 -0.6170429 38 40
4.8343477 -3.4942648 -0.6195628 41 40
4.836875 -3.5414798 -0.62284964 28 40
4.8382053 -3.5882645 -0.62602693 36 40
4.8383484 -3.6346011 -0.6290946 22 40
4.835731 -3.6792681 -0.63183361 26 40
4.8366833 -3.7270732 -0.63512045 19 40
4.834096 -3.7725813 -0.63796902 23 40
4.8241134 -3.8126502 -0.6398316 19 40
4.8316684 -3.8670244 -0.64421403 24 40
4.8294706 -3.9141235 -0.64728171 11 40
4.8268762 -3.9613404 -0.65034944 14 40
4.8429937 -4.0245552 -0.65615612 18 40
4.8509107 -4.0817156 -0.66086727 17 40
4.8530111 -4.1346111 -0.66481143 23 40
4.8576546 -4.1902828 -0.66919386 17 40
4.8558078 -4.2409344 -0.67269981 19 40
4.8564992 -4.2943544 -0.67664403 33 40
4.8596792 -4.350594 -0.68102646 36 40
4.8682427 -4.4123735 -0.68628538 26 40
4.8835526 -4.4811416 -0.69263989 46 40
4.8850932 -4.538084 -0.69702232 49 40
4.879601 -4.5890841 -0.70041871 45 40
4.8765454 -4.6429286 -0.70425338 30 40
4.8680029 -4.6920791 -0.70732105 39 40
4.8668647 -4.7489347 -0.71159393 32 40
4.8574328 -4.7982678 -0.7146616 21 40
4.860229 -4.8603153 -0.71970141 17 40
4.87851 -4.9388418 -0.72726113 14 40
4.8869853 -5.0085254 -0.73339653 20 40
4.9009948 -5.084938 -0.74051797 24 40
4.9190469 -5.1667495 -0.74840635 15 40
4.9110837 -5.2221794 -0.75224102 26 40
4.9053302 -5.2806182 -0.75651383 37 40
4.9104671 -5.3516331 -0.7626493 38 40
4.9229255 -5.4317465 -0.7700994 44 40
4.9160218 -5.4914756 -0.77448183 68 40
4.9243703 -5.5691953 -0.78149372 37 40
4.9195266 -5.632997 -0.78642398 37 40
4.9257698 -5.7104964 -0.79332632 35 40
4.9286671 -5.7852559 -0.79979038 33 40
4.9365902 -5.8671098 -0.80724055 28 40
4.9430575 -5.9485121 -0.8145811 33 40
4.9499712 -6.0317497 -0.82214081 34 40
4.9641833 -6.1253333 -0.83112478 32 40
4.943274 -6.1766315 -0.83408296 46 40
4.9632115 -6.2801547 -0.84438163 68 40
4.9569921 -6.3520231 -0.85018837 93 40
4.9561429 -6.4319239 -0.85709071 46 40
4.9671364 -6.5286646 -0.86629379 54 40
4.9502649 -6.5900149 -0.87056667 47 40
5.0074263 -6.7520032 -0.88864422 301 40
5.015223 -6.8499713 -0.89784735 435 40
5.0010443 -6.9192848 -0.90310627 468 40
5.0069847 -7.0178113 -0.91230935 245 40
5.0216308 -7.1304841 -0.92337501 75 40
5.0157933 -7.215847 -0.93071556 53 40
5.0130315 -7.3071427 -0.9388231 91 40
5.025496 -7.4225435 -0.95010787 82 40
5.0323138 -7.5317569 -0.96051615 46 40
5.0418086 -7.64714 -0.97169131 25 40
5.0311046 -7.7337575 -0.97903192 8 40
5.0554962 -7.8765764 -0.99371308 24 40
5.0607753 -7.9922681 -1.0047787 20 40
5.0653496 -8.1091604 -1.0159539 27 40
5.0691991 -8.2272539 -1.0272387 68 40
5.0475278 -8.3057718 -1.0333741 35 40
5.065959 -8.4525404 -1.0482744 19 40
5.0792365 -8.593853 -1.0624077 14 40
5.0939713 -8.7407951 -1.0771984 21 40
5.0808468 -8.8425589 -1.0861824 17 40
5.1014447 -9.0058947 -1.1029452 53 40
5.0693483 -9.0786848 -1.1082041 59 40
5.1074753 -9.2803011 -1.129678 24 40
5.1181998 -9.4364119 -1.1453452 17 40
5.1103325 -9.5614395 -1.1570683 25 40
5.111773 -9.7069511 -1.1713111 32 40
5.1322155 -9.8925409 -1.1904843 67 40
5.1365485 -10.051303 -1.206261 29 40
5.1145473 -10.161652 -1.216012 15 40
5.151413 -10.393228 -1.2406632 21 40
5.1921649 -10.639031 -1.2669578 61 40
5.1405606 -10.69936 -1.2704637 55 40
5.1453509 -10.879864 -1.2886509 24 40
5.1711841 -11.110388 -1.3128637 19 40
5.2187967 -11.394951 -1.3435408 88 40
5.2112517 -11.565413 -1.3603036 113 40
5.1619377 -11.646243 -1.3662199 2388 40
5.0951467 -11.688631 -1.3675346 5574 40
5.1004682 -11.899654 -1.3891181 123 40
5.2512064 -12.462002 -1.4526634 19 40
4.9076576 -11.849311 -1.3757517 64 40
4.8281155 -11.862629 -1.3737795 68 40
5.2866278 -13.221066 -1.5315472 18 40
5.2635412 -13.401284 -1.5490769 33 40
5.2631197 -13.645703 -1.5741663 46 40
0 -0 -0 1181 40
3.1292038 -8.4189615 -0.95207995 26 40
3.0907679 -8.4744234 -0.95635283 71 40
3.00791 -8.4071255 -0.94627321 180 40
2.9424481 -8.3860302 -0.94167167 232 40
2.8718629 -8.3484707 -0.93520761 305 40
2.8170907 -8.3555737 -0.9340024 332 40
2.7511175 -8.3283415 -0.92885303 406 40
2.6923156 -8.3214226 -0.92611402 396 40
2.6322019 -8.3093576 -0.92282718 474 40
2.5723379 -8.2968702 -0.91954041 513 40
2.5158999 -8.294425 -0.91745871 477 40
2.4550667 -8.2763529 -0.91362411 524 40
2.4000859 -8.2769403 -0.91198069 512 40
2.3432944 -8.2704716 -0.90957034 527 40
2.2898531 -8.275115 -0.90847474 530 40
2.2341108 -8.2707767 -0.90639305 533 40
2.1797745 -8.2708731 -0.90485924 560 40
2.1228001 -8.2600241 -0.90212023 585 40
2.0662827 -8.249753 -0.89949077 674 40
2.0170374 -8.2680702 -0.90014809 498 40
1.9593794 -8.2512779 -0.89686131 122 40
1.8870181 -8.1692019 -0.88623387 9 40
1.8290194 -8.1457119 -0.88228971 6 40
1.7836627 -8.1781473 -0.88470006 7 40
1.6939352 -8.0022287 -0.86366433 77 40
1.8168564 -8.8508158 -0.95799625 28 40
1.7493327 -8.7955036 -0.95054609 13 40
0 -0 -0 4 40
0 -0 -0 6 40
0 -0 -0 5 40
0 -0 -0 4 40
0 -0 -0 7 40
0 -0 -0 6 40
0 -0 -0 6 40
0 -0 -0 5 40
1.1650499 -8.2015848 -0.87516826 5 40
0 -0 -0 11 40
1.0631672 -8.2063923 -0.87418222 41 40
1.0120641 -8.2068424 -0.87352484 59 40
0.96284431 -8.2227707 -0.87462044 32 40
0.91105831 -8.2166681 -0.87330574 53 40
0.86817503 -8.2942705 -0.88130367 14 40
0.81940794 -8.3212042 -0.88371396 12 40
0.76879102 -8.3310242 -0.88426179 13 40
0.72081137 -8.3722258 -0.88831556 8 40
0.66539073 -8.3259592 -0.88272792 11 40
0.71408671 -9.6839895 -1.0323881 47 40
0.65652865 -9.7159567 -1.0354557 11 40
0 -0 -0 5 40
0.5376879 -9.7312222 -1.0363322 11 40
0.40437135 -8.2342386 -0.87078583 7 40
0.35332802 -8.2246475 -0.86947107 12 40
0.30274633 -8.2236805 -0.86914241 8 40
0.25149003 -8.1995525 -0.86629379 34 40
0.20127109 -8.204916 -0.86673206 21 40
0.15086819 -8.2030144 -0.8664034 19 40
0.10070246 -8.217701 -0.86793721 24 40
0.050325967 -8.2261152 -0.86881369 41 40
-0.00014778379 -8.2004261 -0.86596513 79 40
-0.050550945 -8.2141867 -0.86749899 73 40
-0.10070604 -8.1938438 -0.86530775 147 40
-0.15142128 -8.2169228 -0.86793721 211 40
-0.20154302 -8.2039146 -0.86662251 357 40
-0.25187752 -8.2025232 -0.86662251 644 40
-0.30238575 -8.2057905 -0.86717027 939 40
-0.35277259 -8.2047739 -0.86727989 961 40
-0.40340251 -8.2084112 -0.86793721 914 40
-0.45376077 -8.205781 -0.86793721 926 40
-0.50410199 -8.2028427 -0.86793721 946 40
-0.55462551 -8.20257 -0.86826593 896 40
-0.60538417 -8.2049608 -0.86892325 936 40
-0.65666872 -8.2129812 -0.87023801 871 40
-0.70764768 -8.2157297 -0.87100494 906 40
-0.75996494 -8.2320175 -0.87330574 812 40
-0.8110463 -8.2331352 -0.87396306 828 40
-0.86496603 -8.2606268 -0.87757856 693 40
-0.91530716 -8.2522001 -0.8772499 98 40
-1.0234189 -8.7370796 -0.93170166 45 40
-2.0236468 -16.401636 -1.7836467 178 40
-2.1388152 -16.501284 -1.7961366 143 40
-2.2890084 -16.848333 -1.8362359 535 40
-2.3930442 -16.838892 -1.8367836 564 40
-2.4976337 -16.832739 -1.8377697 565 40
-2.6036055 -16.83478 -1.8397418 516 40
-2.7104859 -16.841057 -1.8422617 491 40
-2.8175414 -16.846657 -1.8447816 493 40
-2.9251075 -16.853537 -1.8475206 444 40
-2.2320514 -12.408582 -1.3517579 581 40
-2.2045879 -11.838639 -1.2894177 1324 40
-2.278127 -11.82977 -1.2899655 3296 40
-2.3716199 -11.920855 -1.3017981 410 40
-2.3439417 -11.415354 -1.2465794 207 40
-2.3879938 -11.278233 -1.2327747 351 40
-2.4594817 -11.27405 -1.2339799 355 40
-2.5301366 -11.265535 -1.2347469 351 40
-2.6039126 -11.270137 -1.2370477 384 40
-2.6801374 -11.283926 -1.2404441 366 40
-2.7540371 -11.286582 -1.2426353 360 40
-2.8290362 -11.292611 -1.2452648 276 40
-2.9012432 -11.286592 -1.2465794 50 40
-5.259099 -19.949583 -2.2361329 7 40
-5.406559 -20.010015 -2.2467604 15 40
-5.5358658 -20.000414 -2.2494993 17 40
-5.6652579 -19.989979 -2.2522383 24 40
-5.7905765 -19.964386 -2.253334 17 40
-5.922863 -19.961832 -2.2571685 19 40
-6.0472555 -19.931772 -2.2579355 14 40
-6.1812177 -19.932268 -2.2623179 12 40
-6.3061056 -19.902493 -2.263304 20 40
-2.3149889 -7.1543312 -0.79091597 794 40
-2.3519826 -7.1192288 -0.78850561 1482 40
-2.3981624 -7.1121979 -0.7893821 1385 40
-2.4501655 -7.1217866 -0.79223067 892 40
-2.4862468 -7.0850468 -0.78971082 790 40
-0 -0 -0 847 40
-0 -0 -0 1267 40
-2.5795217 -6.9393258 -0.77809733 1227 40
-2.6069119 -6.8833976 -0.77338624 530 40
-2.6773641 -6.9405332 -0.78204155 1088 40
-2.7093592 -6.8971453 -0.77886426 825 40
-2.7294798 -6.8250175 -0.77229065 1379 40
-2.7825499 -6.8357596 -0.77557743 1161 40
-0 -0 -0 1174 40
-2.9268382 -6.9449015 -0.79277849 1303 40
-2.9760547 -6.9423428 -0.79464102 1244 40
-3.0479946 -6.991375 -0.80274856 270 40
-5.3766704 -12.128391 -1.4243966 23 40
-5.4166794 -12.019053 -1.4151936 25 40
-5.4365077 -11.868114 -1.4009507 22 40
-5.4567866 -11.721893 -1.3872555 29 40
-5.474628 -11.574079 -1.3733413 17 40
-5.499474 -11.444408 -1.3616183 27 40
-5.5368896 -11.343455 -1.3534013 11 40
-5.6068287 -11.310159 -1.3535109 39 40
-5.6573486 -11.238255 -1.3489093 35 40
-5.7112694 -11.174124 -1.3452938 37 40
-0 -0 -0 12 40
-5.7173324 -10.855194 -1.3143976 8 40
-0 -0 -0 17 40
-0 -0 -0 79 40
-0 -0 -0 20 40
-5.8133445 -10.409617 -1.2762704 9 40
-0 -0 -0 33 40
-5.8376298 -10.158241 -1.2534817 15 40
-0 -0 -0 6 40
-0 -0 -0 10 40
-5.8708124 -9.7941618 -1.2207232 11 40
-5.5570073 -9.1430035 -1.1414011 31 40
-5.5535536 -9.0122681 -1.1289111 86 40
-5.5697742 -8.9156418 -1.1208036 52 40
-5.5818276 -8.8141203 -1.1120387 42 40
-5.5869408 -8.7035875 -1.1020688 51 40
-5.6028347 -8.6116562 -1.094509 63 40
-5.628757 -8.5364552 -1.0891405 64 40
-5.636847 -8.4356432 -1.0803757 112 40
-5.6678796 -8.3704453 -1.076322 444 40
-5.7303805 -8.351902 -1.0785131 587 40
-5.7457728 -8.2651682 -1.0716108 25 40
-5.7986684 -8.2330074 -1.072049 651 40
-5.8421478 -8.1875629 -1.0707344 533 40
-5.944685 -8.224061 -1.0805948 785 40
-6.0232229 -8.2259245 -1.0858537 634 40
-6.0605555 -8.1712484 -1.0834434 55 40
-6.1774492 -8.2229118 -1.0957142 44 40
-6.2645044 -8.2331047 -1.1023974 840 40
-6.3246121 -8.2071085 -1.1041504 672 40
-6.4194961 -8.2253466 -1.1121483 745 40
-6.3619795 -8.0493383 -1.0929751 404 40
-6.609396 -8.2576933 -1.127925 815 40
-6.6837239 -8.2463264 -1.1320884 879 40
-6.7682505 -8.2466497 -1.1380047 796 40
-6.8631964 -8.2584753 -1.145674 699 40
-6.9502206 -8.2595577 -1.1519189 780 40
-7.0381598 -8.2606373 -1.1582735 777 40
-7.132216 -8.2677212 -1.165614 679 40
-7.2226992 -8.2694683 -1.1722972 599 40
-7.3174214 -8.2748823 -1.1796378 660 40
-7.4051871 -8.2712975 -1.1857733 712 40
-7.5218887 -8.2986126 -1.1966197 508 40
-7.605598 -8.288188 -1.2019882 565 40
-7.7036686 -8.2923384 -1.2096574 592 40
-7.7469134 -8.236949 -1.2084523 397 40
-7.0419574 -7.3959937 -1.0877162 17 40
-7.0878954 -7.3533616 -1.0878258 30 40
-7.1675925 -7.3453012 -1.0933038 15 40
-7.2237043 -7.3124971 -1.0950568 23 40
-7.2916327 -7.2912283 -1.0986724 17 40
-7.8312702 -7.7352848 -1.175365 116 40
-7.8849888 -7.6933346 -1.176351 166 40
-8.2591267 -7.9600229 -1.2264203 66 40
-8.291255 -7.8934331 -1.2239003 34 40
-8.289567 -7.7954273 -1.2163407 20 40
-8.2913609 -7.7017999 -1.2094383 16 40
-8.8064814 -8.0801725 -1.2794477 177 40
-8.9111347 -8.0760441 -1.2876648 486 40
-9.0190296 -8.0735865 -1.2963201 150 40
-9.0795689 -8.0279703 -1.2979635 92 40
-2.677896 -2.3389869 -0.35398737 85 40
-2.6854231 -2.316669 -0.35300133 129 40
-2.7063973 -2.305949 -0.35398737 290 40
-2.6946349 -2.2675426 -0.35026231 118 40
-2.7115555 -2.2535069 -0.35070056 307 40
-2.7030482 -2.2185414 -0.34752327 124 40
-2.7027094 -2.1906497 -0.34555119 102 40
-2.7036829 -2.1640882 -0.34379822 117 40
-2.7044327 -2.1375976 -0.34204525 130 40
-2.7033923 -2.1099567 -0.34007314 115 40
-2.7068393 -2.0860493 -0.33875841 309 40
-2.7116773 -2.0633831 -0.33766282 123 40
-2.7107759 -2.0365577 -0.33580026 124 40
-2.7120433 -2.0115974 -0.33426642 107 40
-0 -0 -0 93 40
-2.7236345 -1.9688495 -0.33251345 131 40
-2.730809 -1.948637 -0.33185607 137 40
-2.745965 -1.9341335 -0.33229432 120 40
-2.7732885 -1.9280267 -0.33437598 87 40
-2.805558 -1.9250307 -0.33711499 66 40
-2.8346021 -1.9194818 -0.33941579 85 40
-2.8810394 -1.925244 -0.34401733 101 40
-2.9135451 -1.9212073 -0.34675637 303 40
-2.9594402 -1.9255154 -0.35124835 117 40
-2.994622 -1.9223527 -0.35431606 182 40
-3.0634675 -1.9400989 -0.36176619 75 40
-3.0963902 -1.9344293 -0.3645052 75 40
-3.1293581 -1.9284282 -0.36724424 67 40
-3.1632173 -1.922611 -0.37009281 64 40
-3.1868911 -1.910319 -0.37162668 8 40
-10.070822 -5.9520941 -1.2515097 75 40
-10.120035 -5.8976951 -1.2531531 400 40
-9.5673828 -5.4972863 -1.178323 13 40
-10.015211 -5.6731281 -1.2308027 82 40
-10.076736 -5.6265907 -1.234199 509 40
-10.078851 -5.5469236 -1.2301453 384 40
-9.6810627 -5.2508841 -1.1760223 12 40
-9.6920595 -5.1801391 -1.1733928 21 40
-9.7122288 -5.114552 -1.1719686 22 40
-9.7407808 -5.0534892 -1.1716398 15 40
-9.7680645 -4.991817 -1.1712016 15 40
-9.9512253 -5.0086446 -1.1900461 214 40
-9.9862232 -4.949698 -1.1905938 579 40
-9.8699055 -4.8168397 -1.1726259 378 40
-9.6699123 -4.645999 -1.1445783 306 40
-9.6802654 -4.5780797 -1.1423872 266 40
-9.636982 -4.4854636 -1.1337318 391 40
-9.6607084 -4.4245925 -1.1332935 446 40
-9.7483931 -4.3925891 -1.1406342 293 40
-9.8405914 -4.3616886 -1.1485225 343 40
-9.9318628 -4.3294244 -1.1563014 811 40
-9.9079924 -4.2468662 -1.1502755 674 40
-9.7057819 -4.089891 -1.1229949 154 40
-0 -0 -0 7 40
-1.5024527 -0.61186814 -0.14089155 22 40
-1.5154082 -0.60632795 -0.14198716 106 40
-1.5135489 -0.59483808 -0.1413298 114 40
-1.5134606 -0.58410925 -0.14089155 121 40
-1.5142274 -0.57375592 -0.14056288 125 40
-1.509334 -0.56133765 -0.13957682 128 40
-1.5062131 -0.54968226 -0.1388099 140 40
-1.504878 -0.53875595 -0.13826209 153 40
-1.5025278 -0.5275377 -0.13760473 145 40
-1.499157 -0.51604545 -0.13683781 157 40
-1.4966437 -0.50493193 -0.13618045 180 40
-1.4931068 -0.4935571 -0.13541351 171 40
-1.4923242 -0.48316252 -0.13497527 148 40
-1.4876801 -0.4715957 -0.13409878 181 40
-1.4782034 -0.45863262 -0.1326745 212 40
-1.4809897 -0.44955391 -0.1326745 161 40
-1.4732378 -0.43734929 -0.13146932 169 40
-1.4644376 -0.42498007 -0.13015459 109 40
-1.4641486 -0.41517371 -0.12982592 48 40
-1.4695425 -0.40697718 -0.13015459 26 40
-1.4153956 -0.38266203 -0.12369051 5 40
-1.367736 -0.36080018 -0.11799334 5 40
-0 -0 -0 4 40
-1.4029151 -0.35171533 -0.12149929 6 40
-0 -0 -0 5 40
-0 -0 -0 4 40
-0 -0 -0 6 40
-1.4402194 -0.32371169 -0.12478612 5 40
-0 -0 -0 5 40
-0 -0 -0 5 40
-1.4693024 -0.30194303 -0.12741557 9 40
-1.4740521 -0.29350343 -0.12774426 7 40
-0 -0 -0 5 40
-1.4511585 -0.27048185 -0.12478612 7 40
-0 -0 -0 4 40
-1.4426161 -0.25061512 -0.12347139 4 40
-0 -0 -0 5 40
-1.426937 -0.22989422 -0.12138973 11 40
-1.4135859 -0.21885717 -0.11974632 9 40
-0 -0 -0 6 40
-1.4132129 -0.20107459 -0.11941764 9 40
-0 -0 -0 6 40
-1.4136025 -0.18346183 -0.11919852 11 40
-1.4235802 -0.17587915 -0.12018456 12 40
-1.418709 -0.16644759 -0.1195272 14 40
-1.4226675 -0.15806791 -0.11985588 13 40
-1.4206449 -0.14902532 -0.1195272 7 40
-0 -0 -0 4 40
-1.4490907 -0.13404545 -0.12248534 13 40
-1.443944 -0.12464018 -0.12182797 13 40
-0 -0 -0 4 40
-1.4483386 -0.10713056 -0.12215666 8 40
-0 -0 -0 4 40
-1.4733549 -0.090810426 -0.12478612 4 40
-1.4848015 -0.08237116 -0.12599128 12 40
-1.4832934 -0.073161617 -0.12577216 8 40
-0 -0 -0 6 40
-0 -0 -0 4 40
-0 -0 -0 5 40
-0 -0 -0 5 40
-0 -0 -0 5 40
-1.4253469 -0.017788175 -0.11919852 7 40
-1.4144956 -0.0089757033 -0.11799334 5 40
-1.421482 -0.00029589707 -0.11876027 13 40
-1.419469 0.0084138298 -0.11854114 13 40
-0 0 -0 5 40
-0 0 -0 7 40
-1.424574 -0.10419509 -0.13701718 6 41
-1.4360797 -0.096190616 -0.13835584 11 41
-1.4178199 -0.086217053 -0.13604361 4 41
-1.4163401 -0.077405892 -0.13580021 9 41
-1.4326502 -0.069496296 -0.13774735 15 41
-0 -0 -0 5 41
-1.4443059 -0.052314255 -0.13908601 7 41
-1.4445997 -0.043451179 -0.13908601 7 41
-0 -0 -0 6 41
-0 -0 -0 5 41
-0 -0 -0 5 41
-0 -0 -0 4 41
-1.4462453 0.00088188698 -0.13920771 3 41
-0 0 -0 3 41
-0 0 -0 4 41
-0 0 -0 4 41
-0 0 -0 4 41
-0 0 -0 4 41
-0 0 -0 3 41
-0 0 -0 3 41
-0 0 -0 4 41
-0 0 -0 4 41
-0 0 -0 4 41
-1.43398 0.097819597 -0.13811244 5 41
-0 0 -0 5 41
-1.4000205 0.11280581 -0.13409647 5 41
-0 0 -0 4 41
-1.4044611 0.13052391 -0.13482665 5 41
-0 0 -0 5 41
-0 0 -0 3 41
-0 0 -0 4 41
-0 0 -0 4 41
-0 0 -0 4 41
-0 0 -0 3 41
-0 0 -0 3 41
-0 0 -0 4 41
-0 0 -0 3 41
-1.4889656 0.23109335 -0.14663117 4 41
-0 0 -0 4 41
-0 0 -0 6 41
-0 0 -0 6 41
-0 0 -0 5 41
-0 0 -0 4 41
-0 0 -0 4 41
-0 0 -0 3 41
-0 0 -0 4 41
-0 0 -0 3 41
-0 0 -0 3 41
-0 0 -0 3 41
-0 0 -0 4 41
-0 0 -0 3 41
-0 0 -0 4 41
-0 0 -0 3 41
-0 0 -0 5 41
-0 0 -0 5 41
-0 0 -0 3 41
-0 0 -0 3 41
-0 0 -0 4 41
-0 0 -0 3 41
-0 0 -0 4 41
-0 0 -0 5 41
-0 0 -0 5 41
-0 0 -0 3 41
-0 0 -0 6 41
-1.4323536 0.47410154 -0.14687456 7 41
-1.4896163 0.50316572 -0.15466312 30 41
-1.4883782 0.51294178 -0.1549065 58 41
-1.489886 0.52370691 -0.15551499 115 41
-1.4885138 0.53350723 -0.15575838 187 41
-1.4945377 0.54602987 -0.15697533 169 41
-1.501394 0.55899197 -0.15831399 117 41
-1.5007207 0.5692479 -0.15867908 139 41
-1.5027564 0.58058769 -0.15940925 122 41
-1.5028614 0.59124833 -0.15989605 148 41
-1.502892 0.60193211 -0.16038282 135 41
-1.5037673 0.61301243 -0.16099131 98 41
-1.5027288 0.62336683 -0.16135639 107 41
-1.5025346 0.63411677 -0.16184318 83 41
-1.4986155 0.64332426 -0.16184318 33 41
-4.6703429 2.0362062 -0.58656257 145 41
-4.6822639 2.07568 -0.5898484 456 41
-4.6757746 2.107224 -0.59070027 451 41
-4.6699767 2.1391797 -0.59167385 512 41
-4.6693621 2.1736555 -0.59337759 506 41
-4.6622186 2.2052345 -0.59422946 487 41
-4.7962308 2.3047001 -0.61430931 193 41
-8.5795851 4.1866517 -1.1323696 279 41
-8.5804167 4.2524357 -1.1360205 735 41
-8.5133762 4.2844834 -1.1304225 312 41
-7.3634658 3.7627485 -0.97574675 28 41
-8.2918615 4.3013573 -1.1071786 279 41
-8.0501261 4.2388806 -1.077363 126 41
-7.8033504 4.1703296 -1.0466956 290 41
-7.7924485 4.2261739 -1.0487645 286 41
-7.7707186 4.2763004 -1.0493729 206 41
-7.7842016 4.3461528 -1.054971 354 41
-7.7478867 4.388454 -1.0536323 157 41
-7.7216744 4.4364061 -1.053754 220 41
-7.8675532 4.5846267 -1.0783366 36 41
-7.8632021 4.6469512 -1.0817441 33 41
-7.8694506 4.7160263 -1.0867336 12 41
-8.8150711 5.3563371 -1.2265625 151 41
-8.8589458 5.4576921 -1.2376368 716 41
-8.8345528 5.5177293 -1.2389754 617 41
-0 0 -0 4 41
-2.7111588 1.7408533 -0.35692203 12 41
-2.7179 1.7688192 -0.35947767 30 41
-2.7127969 1.789286 -0.36032954 41 41
-2.7133226 1.8136157 -0.36203328 44 41
-2.7144735 1.8385751 -0.36385873 37 41
-2.7129638 1.8619326 -0.36531907 51 41
-2.7161603 1.8887389 -0.3675096 36 41
-2.715071 1.9127971 -0.36909166 37 41
-2.7145967 1.9374893 -0.3707954 43 41
-2.7098982 1.9593408 -0.37189066 37 41
-2.7050335 1.9812075 -0.37298593 45 41
-2.6928263 1.9977679 -0.37298593 31 41
-2.6781363 2.0124652 -0.37262085 39 41
-2.653887 2.0198472 -0.3707954 26 41
-2.6335802 2.0300362 -0.36957845 24 41
-2.6015093 2.0308948 -0.36653602 26 41
-2.5687492 2.0308213 -0.36337194 31 41
-2.5337632 2.0285628 -0.35984275 30 41
-2.5027587 2.0290761 -0.35692203 49 41
-2.4672399 2.0255089 -0.35327116 25 41
-2.4349139 2.0241196 -0.35010707 30 41
-2.4064965 2.025605 -0.34755144 31 41
-2.3758862 2.0248878 -0.34463075 40 41
-2.3468795 2.0251679 -0.34195343 37 41
-2.3194547 2.0264747 -0.3395195 23 41
-2.2906156 2.0262067 -0.33684218 45 41
-2.2611279 2.0249999 -0.33404317 43 41
-2.2332129 2.0248411 -0.33148757 44 41
-2.2090433 2.0277708 -0.32954043 26 41
-2.18274 2.0284545 -0.32722819 31 41
-2.1659136 2.0377302 -0.326498 21 41
-2.1361134 2.034559 -0.32357731 41 41
-2.1142972 2.0386751 -0.32199526 42 41
-2.0925112 2.0426002 -0.3204132 34 41
-2.0714633 2.0470324 -0.31895286 32 41
-2.0553541 2.0561955 -0.31834438 35 41
-2.0308383 2.056766 -0.31627554 39 41
-1.9862871 2.0365157 -0.31067753 28 41
-1.912437 1.9850731 -0.29984656 8 41
-0 0 -0 3 41
-1.8920139 2.0127296 -0.30057675 22 41
-1.8654391 2.0090322 -0.29802114 43 41
-1.8524055 2.0197093 -0.29789943 37 41
-1.8453116 2.0369201 -0.29887301 35 41
-1.8407248 2.0570769 -0.30033335 35 41
-1.8359598 2.0772541 -0.30179369 37 41
-1.8349346 2.1019344 -0.30398422 36 41
-1.8343238 2.1274314 -0.30629647 27 41
-1.8321809 2.1514888 -0.30836529 27 41
-0 0 -0 38 41
-0 0 -0 33 41
-0 0 -0 26 41
-0 0 -0 24 41
-1.8267385 2.2833846 -0.3204132 25 41
-1.8243899 2.3093436 -0.32272545 37 41
-1.825456 2.3400536 -0.32576784 31 41
-1.8256074 2.3700767 -0.32868853 36 41
-0 0 -0 31 41
-0 0 -0 33 41
-0 0 -0 41 41
-0 0 -0 33 41
-0 0 -0 42 41
-1.8069098 2.5334189 -0.34341377 34 41
-1.853645 2.6329002 -0.35667866 29 41
-2.4030199 3.4574831 -0.47813135 54 41
-2.3851299 3.4770727 -0.47886154 82 41
-2.3370306 3.4521966 -0.47302014 168 41
-2.3571746 3.5283601 -0.48214734 13 41
-2.3382134 3.5468998 -0.48275581 16 41
-2.3580964 3.6252353 -0.49212644 73 41
-2.3427801 3.6504936 -0.49370846 75 41
-2.3272426 3.6756999 -0.49529052 62 41
-2.3519878 3.7656648 -0.50624317 125 41
-2.3147748 3.7572124 -0.5029574 74 41
-2.0426126 3.3617101 -0.44417816 99 41
-2.0132692 3.3597088 -0.44210932 119 41
-1.9405794 3.2839987 -0.42957461 19 41
-0 0 -0 5 41
-0 0 -0 6 41
-1.8636526 3.2906656 -0.42555866 81 41
-1.8308399 3.2795095 -0.42239454 152 41
-1.8049375 3.2802482 -0.4209342 138 41
-1.7757812 3.2746859 -0.41862196 148 41
-1.7509739 3.2767675 -0.41740501 141 41
-1.7484171 3.3208187 -0.42202947 329 41
-1.7170331 3.3103414 -0.41910875 212 41
-1.4707516 2.8789437 -0.35826069 59 41
-0 0 -0 82 41
-0 0 -0 85 41
-0 0 -0 93 41
-1.3807336 2.8748097 -0.35290608 124 41
-1.3605208 2.8778446 -0.35217589 158 41
-0 0 -0 96 41
-0 0 -0 96 41
-0 0 -0 104 41
-0 0 -0 98 41
-0 0 -0 89 41
-0 0 -0 88 41
-1.2106299 2.8741605 -0.34426564 94 41
-0 0 -0 65 41
-0 0 -0 69 41
-0 0 -0 81 41
-1.055133 2.6877649 -0.31591046 94 41
-1.0364769 2.6886327 -0.31518027 87 41
-1.0167948 2.6865883 -0.31408501 108 41
-0.99786901 2.6862645 -0.31323314 84 41
-0.97966611 2.6876748 -0.31262466 71 41
-0.96114898 2.6880283 -0.31189448 92 41
-0 0 -0 109 41
-0 0 -0 101 41
-0.90230632 2.6779907 -0.30836529 135 41
-0.88211906 2.6721678 -0.30690494 102 41
-0.86478907 2.6746972 -0.30653986 82 41
-0.84866112 2.6808991 -0.30666155 113 41
-0.83219546 2.6860559 -0.30666155 93 41
-0.8139686 2.6854131 -0.30593136 28 41
-0.8084926 2.7274663 -0.31067753 139 41
-0.78344285 2.7037785 -0.30702662 128 41
-0.7579022 2.6770225 -0.30301067 70 41
-0.73934269 2.67397 -0.30203709 71 41
-0.71566838 2.6516275 -0.29862961 80 41
-0.69381535 2.6348546 -0.29595229 89 41
-0.67615151 2.6332946 -0.2952221 82 41
-0.65853298 2.6316171 -0.29449195 88 41
-0.64025426 2.6269302 -0.29339668 84 41
-0.62687802 2.6423972 -0.29485703 71 41
-0.60483915 2.6210506 -0.29169294 82 41
-0.58787465 2.6208386 -0.29120615 94 41
-0.574323 2.6360333 -0.29266649 64 41
-0.55443406 2.6220295 -0.29047596 86 41
-0.54013336 2.6341324 -0.29157123 71 41
-0.52396047 2.6373968 -0.29157123 73 41
-0.50720429 2.6376383 -0.29120615 77 41
-0.49155611 2.6436281 -0.29157123 79 41
-0.47479823 2.6436639 -0.29120615 75 41
-0.45737889 2.6396821 -0.29035428 78 41
-0.44035408 2.6375439 -0.28974578 75 41
-0.42416215 2.6401963 -0.28974578 64 41
-0.40658751 2.6339214 -0.28865051 73 41
-0.38866845 2.6245849 -0.28719017 84 41
-0.373256 2.6318338 -0.28779864 80 41
-0.35616395 2.6271899 -0.28694677 90 41
-0.3418254 2.6431062 -0.28865051 74 41
-0.32645303 2.6520493 -0.28950241 39 41
-0.31109941 2.6618891 -0.29047596 122 41
-0.29015744 2.6223149 -0.28536472 73 41
-0.27281925 2.6122 -0.28390437 49 41
-0.25113198 2.5565343 -0.27684599 79 41
-0.23544066 2.558027 -0.27684599 97 41
-0.21922834 2.5534902 -0.27611583 102 41
-0.20363557 2.5557766 -0.27623752 69 41
-0.18853548 2.5648968 -0.2772111 88 41
-0.17326398 2.5729375 -0.27806297 82 41
-0.15802301 2.5828683 -0.27915823 147 41
-0.14250173 2.5897357 -0.27988839 79 41
-0 0 -0 39 41
-0 0 -0 4 41
-0 0 -0 11 41
-0 0 -0 3 41
-0 0 -0 3 41
-0.045699332 2.5187962 -0.27076119 14 41
-0.030070178 2.5051343 -0.26905745 8 41
-0.014616689 2.4923687 -0.2674754 15 41
0.00067803188 2.4844708 -0.26650184 8 41
0.01590476 2.4814422 -0.26613674 14 41
0.031082362 2.4773281 -0.26564997 13 41
0.046210073 2.4731209 -0.26516318 16 41
0.06126317 2.4678295 -0.26455471 13 41
0.076434582 2.4683993 -0.26467639 22 41
0.091397263 2.4629242 -0.26406792 6 41
0.10718656 2.4781837 -0.26601505 9 41
0.12243889 2.4784708 -0.26613674 19 41
0.13742584 2.4737086 -0.26564997 18 41
0.15272298 2.4748001 -0.26589334 12 41
0.16783845 2.4728262 -0.26577166 15 41
0.18322673 2.4747195 -0.26613674 16 41
0.1980923 2.4695909 -0.26564997 15 41
0.21307176 2.466351 -0.26540658 18 41
0 0 -0 15 41
0 0 -0 6 41
0 0 -0 8 41
0 0 -0 16 41
0 0 -0 16 41
0.30115947 2.4361496 -0.26285094 15 41
0.31635642 2.4362247 -0.26309434 12 41
0.33289951 2.4460404 -0.26455471 16 41
0.34999317 2.4586926 -0.26638013 19 41
0.36681819 2.468281 -0.2678405 19 41
0.38286519 2.4718695 -0.26857066 10 41
0.40243468 2.4969137 -0.27197817 7 41
0.41905582 2.5022295 -0.27295172 13 41
0.54745728 3.1519289 -0.35412303 34 41
0.56468087 3.1367872 -0.35266268 39 41
0.46867245 2.5136087 -0.27538565 29 41
0.48033741 2.4911916 -0.27295172 51 41
0.49522713 2.4862504 -0.27270833 56 41
0.51147026 2.4880266 -0.27331683 41 41
0.52487844 2.4761016 -0.27222157 68 41
0.53900492 2.4679854 -0.27161306 69 41
0.55326891 2.4607577 -0.2711263 72 41
0.56835747 2.4573166 -0.2711263 60 41
0.58296627 2.4518514 -0.2708829 56 41
0.59988016 2.4559429 -0.27185646 120 41
0.61349231 2.4464386 -0.2711263 97 41
0.62923253 2.4455123 -0.27149138 122 41
0.64877611 2.4588826 -0.27368191 224 41
0.66152334 2.4462309 -0.27258664 210 41
0.67784339 2.4469092 -0.27319512 166 41
0.69338536 2.4446139 -0.27343851 171 41
0.71141106 2.4508004 -0.27477717 137 41
0.72953868 2.456857 -0.27611583 135 41
0.74517584 2.4542341 -0.27635923 195 41
0.76080823 2.4515119 -0.2766026 198 41
0.7854225 2.4770784 -0.2804969 78 41
0.8030498 2.4797678 -0.28147045 67 41
0.82571822 2.4974146 -0.28439116 42 41
1.0670066 3.1629522 -0.37116048 130 41
1.0873622 3.1591616 -0.37152559 136 41
1.110339 3.1627333 -0.37286425 18 41
0 0 -0 5 41
0 0 -0 4 41
1.1735512 3.1557164 -0.37468967 63 41
1.1932435 3.1493845 -0.37481138 166 41
1.2132595 3.1438558 -0.37505478 175 41
1.2339778 3.140048 -0.37554154 182 41
1.2558001 3.138869 -0.37639341 185 41
1.2772804 3.136621 -0.37712359 196 41
1.2987803 3.134227 -0.37785378 190 41
1.3222251 3.1362612 -0.37919244 174 41
1.344962 3.1363003 -0.38028771 172 41
1.3665595 3.1334484 -0.38101786 169 41
1.3869663 3.1277268 -0.38138297 221 41
1.4085773 3.1245878 -0.38211313 218 41
1.4302019 3.1213009 -0.38284332 188 41
1.4530951 3.1205661 -0.38393858 196 41
1.4773055 3.1223595 -0.38539892 203 41
1.5093272 3.1400783 -0.38904983 292 41
1.5207326 3.1147006 -0.3868593 220 41
1.5411373 3.1079791 -0.38722438 210 41
1.562409 3.1028979 -0.38783285 224 41
1.5823218 3.0950205 -0.38807625 657 41
1.5926007 3.0685117 -0.38576403 109 41
1.5896688 3.0174012 -0.38004431 81 41
1.5927185 2.9787004 -0.37602833 75 41
1.580688 2.913027 -0.36823979 74 41
0 0 -0 68 41
0 0 -0 60 41
0 0 -0 67 41
0 0 -0 65 41
0 0 -0 79 41
0 0 -0 143 41
0 0 -0 135 41
0 0 -0 166 41
0 0 -0 151 41
0 0 -0 148 41
0 0 -0 171 41
0 0 -0 157 41
0 0 -0 147 41
0 0 -0 152 41
0 0 -0 135 41
0 0 -0 125 41
0 0 -0 123 41
0 0 -0 128 41
0 0 -0 118 41
0 0 -0 139 41
0 0 -0 132 41
0 0 -0 149 41
0 0 -0 151 41
1.9302176 2.5686042 -0.35582677 141 41
1.9507488 2.5630326 -0.35680035 155 41
1.9761297 2.563596 -0.35874748 176 41
0 0 -0 193 41
0 0 -0 136 41
0 0 -0 130 41
0 0 -0 147 41
0 0 -0 127 41
2.1173506 2.5471499 -0.36799639 114 41
0 0 -0 110 41
0 0 -0 133 41
0 0 -0 133 41
0 0 -0 115 41
2.241159 2.5338047 -0.3766368 121 41
2.2646067 2.5288811 -0.37809718 136 41
2.2900774 2.5259719 -0.3799226 118 41
0 0 -0 108 41
0 0 -0 116 41
0 0 -0 134 41
0 0 -0 141 41
0 0 -0 82 41
2.9130659 2.9849584 -0.47326353 115 41
2.9243524 2.9599652 -0.47204655 165 41
2.9522834 2.9517939 -0.47375029 189 41
3.1517837 3.1129246 -0.50502622 22 41
3.2375906 3.1586998 -0.51646566 94 41
3.2669144 3.1484201 -0.5181694 67 41
3.294796 3.1365302 -0.51962972 73 41
3.325546 3.1271367 -0.52157688 89 41
3.3621209 3.122889 -0.52449757 89 41
3.4082742 3.1270354 -0.52900034 71 41
3.4340148 3.1120644 -0.53009558 100 41
3.4877968 3.1220577 -0.5358153 96 41
3.534395 3.1249309 -0.54031807 101 41
3.5774214 3.1240835 -0.54421234 87 41
3.6175637 3.1202312 -0.54761982 77 41
3.6585481 3.1166468 -0.55114901 94 41
3.688993 3.1037276 -0.55297446 84 41
3.7224696 3.0930901 -0.55528671 96 41
3.7582555 3.0840473 -0.55796403 113 41
3.789444 3.0709307 -0.55991113 106 41
3.7648261 3.0128808 -0.55309618 4 41
3.7567694 2.9687932 -0.54895848 5 41
0 0 -0 4 41
0 0 -0 4 41
3.8163073 2.9033484 -0.54981035 19 41
3.8308761 2.8774922 -0.54932362 4 41
3.8795476 2.8769979 -0.55406976 167 41
3.9123416 2.8642833 -0.55638194 182 41
3.957994 2.8605797 -0.56064135 219 41
4.0045552 2.8569996 -0.56502241 177 41
4.0512204 2.8529551 -0.56940347 210 41
4.0955405 2.8467448 -0.57341939 165 41
4.1448464 2.8434672 -0.57816559 138 41
4.1794729 2.8296711 -0.5807212 143 41
4.2536945 2.8420336 -0.58911824 146 41
4.3157945 2.8453925 -0.59568983 151 41
4.358129 2.8351009 -0.59934068 141 41
4.4080153 2.8292229 -0.60408682 122 41
4.4630232 2.826026 -0.60956317 124 41
4.5080562 2.8159473 -0.61357915 155 41
4.5582013 2.8085468 -0.61832529 156 41
4.6084247 2.8006361 -0.62307143 186 41
4.6663823 2.7968082 -0.62891287 152 41
4.7287369 2.7948997 -0.63536274 126 41
4.7740932 2.7823308 -0.63937873 138 41
4.8409848 2.7816772 -0.64643711 199 41
4.8648696 2.7558365 -0.64741063 339 41
4.8660903 2.7172205 -0.6452201 242 41
4.8731074 2.6820452 -0.64388144 246 41
4.8816209 2.6478331 -0.6427862 281 41
4.8898983 2.6136177 -0.64169091 290 41
4.8794994 2.569684 -0.63804007 211 41
4.8881269 2.5360372 -0.63706648 325 41
4.8938746 2.5010259 -0.63572782 267 41
4.8922849 2.4624681 -0.63341558 298 41
4.8948531 2.4262292 -0.63171184 286 41
4.9390812 2.410522 -0.63572782 168 41
4.9895616 2.397373 -0.64059567 326 41
4.9996915 2.3645897 -0.63998717 310 41
5.0033092 2.3288391 -0.63852686 261 41
5.008481 2.2939606 -0.63730991 241 41
5.0170331 2.2607379 -0.63657969 255 41
5.0181079 2.2242777 -0.63487595 278 41
5.0143752 2.1859057 -0.63256371 281 41
4.9355607 2.1155813 -0.6202724 214 41
4.9667401 2.0929701 -0.62270635 246 41
5.0152497 2.0772762 -0.62745249 321 41
5.0223856 2.0442178 -0.62672234 315 41
5.0265403 2.0100439 -0.62562704 322 41
5.0138373 1.9693607 -0.62234128 409 41
5.0249004 1.9382019 -0.62221956 340 41
5.0320578 1.9055747 -0.62161106 405 41
5.0324917 1.8705105 -0.62015074 369 41
5.0121722 1.8280264 -0.61601305 263 41
5.027967 1.7989107 -0.61662155 277 41
5.0361009 1.7670393 -0.61625648 205 41
5.0271392 1.7293205 -0.61370081 264 41
5.0376558 1.698442 -0.61370081 303 41
5.0357308 1.6634496 -0.61211878 199 41
4.9957948 1.616315 -0.6056689 17 41
5.0008874 1.5841312 -0.6050604 21 41
5.0086174 1.5528283 -0.60481703 30 41
5.0123525 1.5203369 -0.60408682 15 41
5.0187321 1.4887056 -0.60372174 22 41
5.023006 1.4565001 -0.60311329 18 41
5.0299387 1.4251105 -0.60286987 19 41
5.0261531 1.3907766 -0.60128784 8 41
5.0365081 1.3604286 -0.60153121 21 41
5.0390024 1.3279806 -0.60080105 15 41
5.0384045 1.2948115 -0.59970576 21 41
5.0375896 1.2616998 -0.59861052 29 41
5.032701 1.2277051 -0.59702849 21 41
5.0266204 1.1935885 -0.5953247 26 41
5.0212774 1.1598164 -0.59374267 14 41
5.0205522 1.1272433 -0.59276909 38 41
5.0186467 1.0945112 -0.59167385 24 41
5.0165291 1.0618448 -0.59057856 24 41
5.0171165 1.0298451 -0.5898484 24 41
5.0184741 0.99807221 -0.5892399 16 41
5.0186558 0.96613348 -0.58850974 25 41
5.0205865 0.93459392 -0.58802295 17 41
5.0232959 0.90324295 -0.58765787 18 41
5.0287433 0.87240356 -0.58765787 28 41
5.0281281 0.8405481 -0.58692771 15 41
5.0292711 0.80904877 -0.58644092 20 41
5.0331597 0.77802265 -0.58631921 22 41
5.0319481 0.74625015 -0.58558905 20 41
5.0334845 0.7149412 -0.58522397 19 41
5.0367928 0.68390912 -0.58510226 23 41
3.6697454 0.47505438 -0.41557956 29 41
3.6558449 0.45045948 -0.41351074 116 41
3.6486819 0.42686269 -0.41229376 102 41
3.6374214 0.40293241 -0.41059002 7 41
3.6506839 0.38174498 -0.41192868 52 41
3.6361656 0.35768041 -0.40985984 108 41
3.6442218 0.33591112 -0.41059002 58 41
5.0652723 0.43602696 -0.58522397 26 41
5.0688419 0.40501809 -0.58534563 47 41
5.0742011 0.37412828 -0.5857107 39 41
5.0773916 0.34305367 -0.58583242 42 41
5.0764289 0.31170973 -0.58546734 38 41
5.0732908 0.28028059 -0.58485883 34 41
5.0709496 0.2489506 -0.58437204 31 41
0 0 -0 38 41
0 0 -0 36 41
5.0657439 0.15529305 -0.58327681 37 41
5.0735474 0.12437918 -0.58412868 26 41
5.0732226 0.09322767 -0.58400697 24 41
5.0786614 0.06215908 -0.58461547 23 41
5.0829177 0.031020971 -0.58510226 37 41
5.079042 -0.00016858902 -0.58461547 30 41
5.0839081 -0.031362478 -0.58522397 23 41
5.0776649 -0.062484249 -0.58449376 17 41
5.080163 -0.093693264 -0.58485883 29 41
5.0854464 -0.12500778 -0.58558905 39 41
5.0855756 -0.15623939 -0.5857107 29 41
5.0884891 -0.18758631 -0.5861975 32 41
5.0902171 -0.21893243 -0.58656257 23 41
5.0917521 -0.25030681 -0.58692771 18 41
5.0950756 -0.28181747 -0.58753616 23 41
5.0962229 -0.31325698 -0.58790123 23 41
5.0961852 -0.34465441 -0.58814466 24 41
5.0979342 -0.37620881 -0.58863145 22 41
5.0955296 -0.40748206 -0.58863145 30 41
5.0919447 -0.43865502 -0.58850974 22 41
5.0881691 -0.46979931 -0.58838803 30 41
5.0851903 -0.50101089 -0.58838803 22 41
5.0820208 -0.53220361 -0.58838803 26 41
5.0845785 -0.56403154 -0.58911824 19 41
5.0859513 -0.59579557 -0.58972669 24 41
5.098947 -0.62905341 -0.59179556 16 41
5.0999131 -0.66096485 -0.59240401 18 41
5.105597 -0.69357878 -0.59362096 21 41
5.109107 -0.72600842 -0.59459454 20 41
5.1094656 -0.75807089 -0.59520304 19 41
5.1145272 -0.7909224 -0.59641999 16 41
5.1125178 -0.82276213 -0.59678507 27 41
5.1103106 -0.85460693 -0.59715015 23 41
5.1088824 -0.88662511 -0.59763694 25 41
5.1092076 -0.91900891 -0.59836709 22 41
5.1083517 -0.95124859 -0.5989756 24 41
5.1092415 -0.98388726 -0.59982747 26 41
5.1118703 -1.0169594 -0.60092276 22 41
5.1162295 -1.0504998 -0.60226142 24 41
5.1203694 -1.0841318 -0.60360008 28 41
5.1262283 -1.1182767 -0.60518211 36 41
5.1250815 -1.1510134 -0.60591227 22 41
5.1266265 -1.1844475 -0.60700756 22 41
5.1347146 -1.2195481 -0.60895467 29 41
5.1464214 -1.2557325 -0.61138862 48 41
5.1501741 -1.2901787 -0.61284894 49 41
5.153697 -1.3247179 -0.61430931 46 41
5.1569901 -1.3593488 -0.61576968 53 41
5.1428022 -1.389414 -0.61503947 62 41
5.1370502 -1.4217371 -0.61540461 66 41
5.1406455 -1.4567459 -0.61698663 60 41
5.1430502 -1.4915761 -0.61844701 45 41
5.1671085 -1.5329789 -0.62270635 180 41
5.1671038 -1.5675342 -0.6239233 407 41
5.039824 -1.5627828 -0.60883301 192 41
4.9591689 -1.571209 -0.59970576 181 41
4.8701034 -1.5759567 -0.58948332 144 41
4.8037901 -1.5871395 -0.58218151 159 41
4.7760897 -1.6105632 -0.57986933 303 41
4.7238784 -1.6253166 -0.57439297 151 41
4.7175636 -1.6555849 -0.57487977 209 41
4.7157278 -1.6875081 -0.57597506 211 41
4.7183399 -1.7211705 -0.5776788 221 41
4.7644472 -1.7711737 -0.58510226 301 41
4.7609162 -1.8031852 -0.58607584 365 41
4.7645807 -1.8380764 -0.58802295 421 41
4.772615 -1.8748937 -0.59057856 488 41
4.780376 -1.9118785 -0.59313416 490 41
4.7740717 -1.9434185 -0.59386438 475 41
4.7739792 -1.9776106 -0.59544641 382 41
4.7526073 -2.0030131 -0.59422946 148 41
4.7566504 -2.0391729 -0.59641999 61 41
4.7476883 -2.0699067 -0.59690678 63 41
4.7775507 -2.1178954 -0.6026265 35 41
4.7644653 -2.1471701 -0.6026265 51 41
4.7629333 -2.1817348 -0.60420853 57 41
4.7701554 -2.2205484 -0.60700756 42 41
4.7716956 -2.2569871 -0.60907638 52 41
4.7801256 -2.2969656 -0.61211878 48 41
4.7855673 -2.3358266 -0.6147961 53 41
4.7907114 -2.3748407 -0.61747342 46 41
4.7946696 -2.4135592 -0.62002903 39 41
4.7974486 -2.4519639 -0.62246293 39 41
4.7981734 -2.4895792 -0.62465346 35 41
4.7933474 -2.5245216 -0.62611383 34 41
4.7926497 -2.5618367 -0.62818265 25 41
4.7925467 -2.5997112 -0.63037318 16 41
4.7886801 -2.6357667 -0.63207692 30 41
4.7897511 -2.6747749 -0.63451087 16 41
4.7931142 -2.7153625 -0.63730991 22 41
4.7944374 -2.7551029 -0.63986552 14 41
4.7971683 -2.7959604 -0.64266449 15 41
4.7978683 -2.8359451 -0.6452201 12 41
4.7974057 -2.8755333 -0.64765406 15 41
4.796638 -2.9152222 -0.65008795 18 41
4.7964077 -2.9555299 -0.65264356 21 41
4.7975469 -2.9969954 -0.6554426 14 41
4.7991958 -3.0391169 -0.65836328 18 41
4.801343 -3.0819068 -0.66140568 14 41
4.7998161 -3.1226726 -0.66396135 14 41
4.7979698 -3.1635351 -0.66651696 24 41
4.8007541 -3.2077999 -0.66980273 18 41
4.8064628 -3.2544427 -0.67357534 16 41
4.8027749 -3.2951007 -0.67600924 27 41
4.8411541 -3.3652871 -0.68477136 5 41
4.8204141 -3.3949285 -0.68477136 20 41
4.8205028 -3.4394269 -0.68793547 25 41
4.8290763 -3.4904478 -0.69243824 25 41
4.8323984 -3.5381854 -0.6962108 32 41
4.8321261 -3.58373 -0.69949657 32 41
4.8354445 -3.6323836 -0.7033909 17 41
4.8391371 -3.6818132 -0.70740682 20 41
4.8329678 -3.7241559 -0.70996243 23 41
4.8288083 -3.7683923 -0.71288317 27 41
4.8336334 -3.8201013 -0.71726424 22 41
4.8287044 -3.8645694 -0.72018492 17 41
4.8372927 -3.9203668 -0.72529614 17 41
4.8438425 -3.9751554 -0.73016399 15 41
4.8605895 -4.0390496 -0.73673558 19 41
4.8676186 -4.0956316 -0.74184686 19 41
4.8658223 -4.1453714 -0.74561942 23 41
4.8703637 -4.2010765 -0.75048727 21 41
4.8646827 -4.2485061 -0.75377303 20 41
4.8600903 -4.297338 -0.75730222 22 41
4.8624773 -4.3528924 -0.76204836 23 41
4.8606863 -4.4053044 -0.76618606 27 41
4.8701377 -4.4685922 -0.77227086 44 41
4.8622656 -4.5166264 -0.77555668 37 41
4.8677273 -4.5776486 -0.78115469 30 41
4.8762164 -4.6423283 -0.7873612 32 41
4.8647947 -4.6886892 -0.79028189 15 41
4.8764353 -4.7579541 -0.79721856 26 41
4.8810506 -4.8212609 -0.80306 13 41
4.9285946 -4.928308 -0.81644654 10 41
4.9073319 -4.9676347 -0.81802863 23 41
4.9377713 -5.0601563 -0.82873785 23 41
4.9355659 -5.120368 -0.83384907 21 41
4.9293838 -5.1771488 -0.83835185 26 41
4.930171 -5.2419977 -0.84419328 37 41
4.9377794 -5.3150473 -0.85137331 49 41
4.931251 -5.3737621 -0.85611951 50 41
4.9221873 -5.4303899 -0.86050057 34 41
4.9099641 -5.4841499 -0.86439484 18 41
4.9117341 -5.5543194 -0.87096643 16 41
