# .PCD v0.7 - Point Cloud Data file format
VERSION 0.7
FIELDS x y z intensity ring
SIZE 4 4 4 4 1
TYPE F F F F U
COUNT 1 1 1 1 1
WIDTH 456
HEIGHT 1
VIEWPOINT 0 0 0 1 0 0 0
POINTS 456
DATA ascii
3.6280494 0.13378039 -1.2573632 38 60
3.6184502 0.11119957 -1.253657 23 60
3.6063631 0.066545479 -1.24894 27 60
3.593523 0.044255108 -1.2442229 62 60
3.5852532 0.022153392 -1.2411906 57 60
3.544836 0.00015692388 -1.2267026 19 60
3.592427 0.088977978 -1.2886958 15 61
3.5957181 0.066986904 -1.2897376 48 61
3.5876222 0.044814557 -1.2866122 46 61
3.4747713 -0.25679755 -0.81832945 15 51
3.5625401 0.15264432 -0.83842319 14 51
3.5692315 0.13099769 -0.83985847 97 51
3.568027 0.10903489 -0.83938003 93 51
3.5628049 0.086995713 -0.83794481 90 51
3.5632715 0.065133117 -0.83794481 9 51
3.5606914 0.043231752 -0.83722717 5 51
3.5453546 0.021284571 -0.83339977 91 51
3.5376506 -0.00047124049 -0.83148611 107 51
3.5249588 -0.022102876 -0.82837635 86 51
3.5131061 -0.043590505 -0.82550579 97 51
3.5001519 -0.064915836 -0.82239604 66 51
3.4890103 -0.086131126 -0.81976473 58 51
3.4913278 -0.10762645 -0.82048237 103 51
3.4847796 -0.12883352 -0.81904709 118 51
3.5856712 0.13284619 -0.88901782 121 52
3.5748074 0.11048482 -0.88600922 91 52
3.5657406 0.088309504 -0.88350201 100 52
3.5575042 0.06626755 -0.88124555 78 52
3.5607479 0.044473823 -0.8819977 9 52
3.5541773 0.02258233 -0.88024271 24 52
3.5290794 0.00077113789 -0.87372404 107 52
3.5203054 -0.020830393 -0.87146759 129 52
3.5172074 -0.042394865 -0.87071544 115 52
3.5226884 -0.064081527 -0.87221974 19 52
3.5251322 -0.085766084 -0.87297189 7 52
3.518734 -0.10721674 -0.87146759 14 52
3.4889874 -0.12773947 -0.86394602 68 52
3.4823351 -0.14889634 -0.86244172 131 52
3.4784551 -0.17011856 -0.86168957 97 52
3.4763792 -0.19140542 -0.86143887 94 52
3.473207 -0.21261397 -0.86093742 73 52
3.5670533 0.13153771 -0.928011 5 53
3.5668285 0.10961824 -0.92774916 28 53
3.5751524 0.087922871 -0.92984396 69 53
3.5206232 0.064951517 -0.91491836 7 53
3.5057137 0.021642687 -0.91072875 5 53
3.5134361 -0.021423953 -0.91282356 26 53
3.5064833 -0.042901192 -0.9109906 24 53
3.4984343 -0.064276509 -0.90889579 4 53
3.5076225 -0.085974559 -0.91151428 7 53
3.5111256 -0.12918784 -0.91282356 9 53
3.4871252 -0.14974329 -0.90653908 62 53
3.4871047 -0.17118406 -0.90680099 84 53
3.4763522 -0.19204819 -0.90418243 45 53
3.5788071 0.13259263 -0.97543281 11 54
3.5920537 0.11101598 -0.9789812 70 54
3.5868969 0.088831171 -0.9773435 103 54
3.5739083 0.06657134 -0.97352219 117 54
3.563668 0.044509981 -0.97051966 82 54
3.5090396 0.022300441 -0.95496142 8 54
3.5475914 0.00077315723 -0.9658795 60 54
3.5427194 -0.020965479 -0.96451473 79 54
3.5367522 -0.042632598 -0.96287704 121 54
3.5287292 -0.064192079 -0.96069342 96 54
3.512881 -0.085466675 -0.95632619 93 54
3.5026746 -0.10672565 -0.95359665 61 54
3.4923401 -0.1278626 -0.95086718 101 54
3.4905286 -0.14924759 -0.95059419 84 54
3.4626427 -0.16934347 -0.94295156 25 54
3.57686 0.13190255 -1.0180323 25 55
3.5785606 0.10998264 -1.0183159 76 55
3.5772507 0.087975159 -1.0177486 94 55
3.5796406 0.066059917 -1.0183159 111 55
3.5703902 0.043973178 -1.0154792 103 55
3.5437436 0.021890145 -1.0075361 37 55
3.5706611 0.00015568784 -1.0154792 11 55
3.5418277 -0.021587634 -1.0069687 91 55
3.5272458 -0.043148298 -1.0027136 85 55
3.5182858 -0.064634606 -1.0001605 82 55
3.5063193 -0.085943051 -0.99675626 111 55
3.5009336 -0.10731051 -0.99533784 69 55
3.4992509 -0.12875487 -0.99505413 80 55
3.5385084 0.13171962 -1.0516685 5 56
3.5613515 0.066957831 -1.0581558 24 56
3.5416307 0.044852596 -1.0519633 13 56
3.5313287 0.023053238 -1.0487198 5 56
3.5371368 0.0013866058 -1.0504889 5 56
3.5063126 -0.041653052 -1.0410531 13 56
3.5145893 -0.063322455 -1.0437069 92 56
3.5064926 -0.084700942 -1.0413479 107 56
3.5211885 -0.10667942 -1.0460659 43 56
3.5917854 0.13308284 -1.1120577 4 57
3.5893407 0.088900529 -1.1108356 43 57
3.5707784 0.066514157 -1.104725 67 57
3.5663588 0.044542 -1.1031973 69 57
3.5618041 0.022626588 -1.1016697 65 57
3.5390234 0.00075887912 -1.094337 16 57
3.5237269 -0.020871004 -1.0894486 18 57
3.5273409 -0.042536456 -1.0906707 68 57
3.5193973 -0.064042956 -1.0882264 80 57
3.5256014 -0.085796304 -1.0903652 17 57
3.6283171 0.13379022 -1.167766 77 58
3.6053617 0.11079875 -1.1598665 16 58
3.6277888 0.089208685 -1.167134 36 58
3.5779917 0.066025026 -1.150387 76 58
3.5754833 0.044034898 -1.1494391 71 58
3.5709424 0.022066517 -1.1478592 72 58
3.5624716 0.00015576961 -1.1450155 95 58
3.5633545 -0.021709032 -1.1453314 85 58
3.5593593 -0.043526135 -1.1440675 71 58
3.6344488 0.13404506 -1.2149276 10 59
3.6333134 0.11168329 -1.2142744 4 59
3.6235366 0.089128591 -1.2106823 4 59
3.6183453 0.066786818 -1.2087229 3 59
3.6054554 0.044416524 -1.204151 31 59
3.568799 0.022053177 -1.1914153 77 59
3.5669768 0.00015432142 -1.1907622 68 59
3.564075 -0.021715892 -1.1897825 52 59
3.574487 0.15377884 -0.5330835 72 44
3.7095683 0.13677756 -0.55454612 7 44
3.5684865 0.15227985 -0.57548648 100 45
3.5585201 0.12998191 -0.57362175 118 45
3.5484149 0.10781201 -0.57175702 92 45
3.5312757 0.085601583 -0.56870562 28 45
3.5785396 0.15395273 -0.62152964 140 46
3.5686066 0.13159488 -0.61953449 142 46
3.5732787 0.10981625 -0.62026 31 46
3.5630708 0.087624185 -0.61826485 46 46
3.5546923 0.065597609 -0.61663246 102 46
3.5510945 0.043737181 -0.61590695 90 46
3.5729306 0.022078587 -0.61989725 19 46
3.5734463 0.15249312 -0.66438419 76 47
3.573334 0.13052785 -0.66419113 15 47
3.5599535 0.086306207 -0.66129559 8 47
3.5623779 0.064497285 -0.66168165 6 47
3.5646689 0.042661853 -0.66206771 13 47
3.5354283 0.020607395 -0.65627664 81 47
3.5315635 -0.0010860587 -0.65550452 101 47
3.5354149 -0.022779301 -0.65627664 63 47
3.5748096 0.15317036 -0.70802081 102 48
3.5727475 0.13112548 -0.7074073 108 48
3.571528 0.10914146 -0.70699835 92 48
3.5691946 0.087153561 -0.70638484 16 48
3.5530243 0.064949445 -0.7029084 40 48
3.5416102 0.043005947 -0.70045447 90 48
3.5300612 0.021204969 -0.69800049 97 48
3.5242517 -0.00045406903 -0.69677353 116 48
3.5163519 -0.022028534 -0.69513756 126 48
3.5083201 -0.043506071 -0.69350159 119 48
3.502115 -0.064922385 -0.69227463 90 48
3.4918652 -0.086167164 -0.69022965 46 48
3.5721002 0.13234702 -0.75278437 87 49
3.5660143 0.11021318 -0.75126928 79 49
3.5578394 0.088110022 -0.74932134 63 49
3.5758834 0.066610925 -0.75321728 17 49
3.5440097 0.044255532 -0.74607474 82 49
3.5315228 0.022424266 -0.74326104 102 49
3.5276887 0.000752697 -0.74239528 102 49
3.5217693 -0.020860061 -0.74109662 80 49
3.5489094 -0.042789388 -0.74715698 9 49
3.5139565 -0.085516796 -0.73958158 25 49
3.4704282 -0.10578214 -0.73005819 84 49
3.4658113 -0.12693268 -0.72919244 76 49
3.4786229 -0.14877555 -0.73222262 17 49
3.6082621 0.13368073 -0.80568087 47 50
3.5866308 0.11084896 -0.80043662 36 50
3.5638828 0.088263698 -0.79496437 4 50
3.5964825 0.066989392 -0.80248874 7 50
3.575407 0.044655327 -0.79747248 5 50
3.5872974 0.022789169 -0.80020863 4 50
3.5289502 0.00077112374 -0.78652799 53 50
3.5181785 -0.020817574 -0.78401983 28 50
3.5247996 -0.042487212 -0.78561592 5 50
3.4772911 -0.084596872 -0.77467138 7 50
3.4951975 -0.10649699 -0.77900362 44 50
3.4789102 -0.1273694 -0.77535546 90 50
3.4780631 -0.1487132 -0.77535546 95 50
3.4741676 -0.16990839 -0.77467138 93 50
3.4701433 -0.19106138 -0.77398735 81 50
3.4781032 -0.14996429 -0.81761181 110 51
3.4742081 -0.17116036 -0.81689417 96 51
3.4672754 -0.19215405 -0.81545889 82 51
3.4582779 -0.21295044 -0.81354523 92 51
3.4472184 -0.23351306 -0.81115311 97 51
3.6530712 0.2021286 -1.2224383 21 59
3.7125773 0.52825159 -0.83828646 93 50
3.7061009 0.50415027 -0.83600634 86 50
3.6985033 0.48002321 -0.83349824 119 50
3.7091095 0.4582749 -0.83532232 63 50
3.6751044 0.43119991 -0.82665789 8 50
3.6752772 0.38556084 -0.82551783 95 50
3.6630394 0.3615694 -0.82209766 99 50
3.6564634 0.33828026 -0.82004559 39 50
3.7088039 0.54971468 -0.88363415 7 51
3.7063394 0.52612698 -0.88219887 7 51
3.7075737 0.50311369 -0.88172048 15 51
3.6980731 0.47873053 -0.87861073 34 51
3.6949904 0.43229526 -0.87645781 5 51
3.6869578 0.40843576 -0.8738265 9 51
3.671047 0.38388085 -0.86928147 8 51
3.6723671 0.36125314 -0.86904228 64 51
3.6455092 0.33603022 -0.86186594 6 51
3.6077402 0.28793386 -0.85157984 6 51
3.5958824 0.26478907 -0.8482309 14 51
3.6100333 0.24357398 -0.85134065 122 51
3.6182437 0.22183676 -0.85301512 81 51
3.5730019 0.19704986 -0.84153295 7 51
3.5692947 0.17488346 -0.84033692 8 51
3.720073 0.52931732 -0.93289346 8 52
3.716536 0.50556874 -0.93113846 80 52
3.7080479 0.48126099 -0.92812979 110 52
3.7042058 0.45766953 -0.92637479 115 52
3.6954064 0.43357983 -0.92336619 74 52
3.6941488 0.41046986 -0.92236328 24 52
3.6917839 0.38729075 -0.92110974 93 52
3.6883104 0.36406115 -0.91960543 99 52
3.6837273 0.34079972 -0.91785038 95 52
3.681891 0.31785771 -0.91684753 98 52
3.6654375 0.29379246 -0.91208386 54 52
3.655586 0.2704404 -0.90907526 71 52
3.6494498 0.24748188 -0.9070695 86 52
3.6412373 0.22448994 -0.90456235 99 52
3.629014 0.20139398 -0.9010523 98 52
3.6311483 0.17917058 -0.90130299 67 52
3.6012301 0.15555339 -0.89328003 48 52
3.7441707 0.53217322 -0.98561853 44 53
3.7225022 0.50580317 -0.97881037 81 53
3.7197933 0.48220655 -0.97723925 103 53
3.7121463 0.45806983 -0.97435886 76 53
3.7005093 0.43359467 -0.97043109 62 53
3.6484263 0.40479687 -0.95550549 6 53
3.6729174 0.38472235 -0.96152812 15 53
3.6713672 0.3617987 -0.96048069 78 53
3.6696742 0.33890858 -0.95943326 86 53
3.6620693 0.3155539 -0.95681477 63 53
3.6697087 0.29354146 -0.95838588 5 53
3.6550789 0.269806 -0.95393437 6 53
3.6200757 0.24488677 -0.94398397 32 53
3.6128409 0.22213395 -0.94162732 99 53
3.5900455 0.19862112 -0.93508101 46 53
3.5873408 0.17639843 -0.93403357 7 53
3.7012706 0.45730719 -1.0174674 82 54
3.7164283 0.4360441 -1.0210158 19 54
3.7314639 0.41461214 -1.0245641 3 54
3.7071476 0.38890088 -1.0169215 7 54
3.670449 0.3395727 -1.0051845 61 54
3.6686296 0.31671426 -1.0040928 67 54
3.6283097 0.29082051 -0.99208289 6 54
3.6133685 0.24503891 -0.98689681 15 54
3.64169 0.22451781 -0.99453944 58 54
3.6314723 0.20153014 -0.99126405 110 54
3.6105406 0.17815593 -0.98498613 41 54
3.5923431 0.15517047 -0.97952712 3 54
3.7013736 0.41068849 -1.060868 54 55
3.7076385 0.38837036 -1.0620028 34 55
3.6870494 0.36334914 -1.0551945 67 55
3.6767967 0.33956864 -1.0515066 78 55
3.6721234 0.31642348 -1.0495209 94 55
3.667305 0.29334843 -1.0475351 92 55
3.6575603 0.26999 -1.0441309 77 55
3.6447976 0.24656712 -1.0398757 70 55
3.6357138 0.2235477 -1.0367552 70 55
3.6303151 0.2008622 -1.0347694 89 55
3.6238172 0.17820396 -1.0325 97 55
3.6152623 0.15554999 -1.0296632 86 55
3.6628551 0.33951294 -1.0941304 90 56
3.6620135 0.31678492 -1.0932457 77 56
3.6581736 0.29385081 -1.0914766 57 56
3.6370375 0.26970562 -1.0843996 12 56
3.6329038 0.24699581 -1.0826303 5 56
3.6095541 0.2231696 -1.0749636 8 56
3.6280286 0.2019718 -1.0802714 42 56
3.6263366 0.17956536 -1.0793867 42 56
3.5815473 0.15532881 -1.0652328 5 56
3.6748431 0.31730208 -1.1423051 16 57
3.6520438 0.29276156 -1.1343614 50 57
3.641427 0.26943019 -1.1303895 16 57
3.6372132 0.20188011 -1.1276397 46 57
3.6212652 0.17870846 -1.1221402 85 57
3.633709 0.15698229 -1.1258066 53 57
3.6423845 0.24636763 -1.1744016 31 58
3.6457214 0.22412999 -1.1750336 70 58
3.6441863 0.20159912 -1.1740856 79 58
3.6406164 0.17900257 -1.1725057 74 58
3.6359589 0.15641673 -1.1706098 70 58
3.6268661 0.17835487 -1.2129681 61 59
3.6269479 0.15605655 -1.2126416 57 59
3.6492805 0.49578094 -0.4583149 41 42
3.6640477 0.47490743 -0.45991856 115 42
3.6836135 0.45447752 -0.46219045 90 42
3.6193998 0.42403242 -0.45310292 11 42
3.6144743 0.37855363 -0.45176652 4 42
3.6267424 0.33489814 -0.45283562 65 42
3.6129308 0.31127915 -0.45069739 130 42
3.6137848 0.28902587 -0.45056376 98 42
3.6154902 0.26684666 -0.45056376 70 42
3.7582884 0.53418428 -0.52137184 49 43
3.6732731 0.49909845 -0.50823987 119 43
3.6674368 0.47540289 -0.50692672 100 43
3.6653757 0.45228365 -0.50619715 110 43
3.6641519 0.42932305 -0.50561351 114 43
3.649019 0.40486282 -0.50298709 71 43
3.6878381 0.38629001 -0.50838578 11 43
3.60941 0.35567325 -0.49642113 75 43
3.6115246 0.33351964 -0.49642113 89 43
3.6075892 0.31084201 -0.49554569 107 43
3.6035118 0.28822523 -0.49467021 101 43
3.6032393 0.26596278 -0.49437839 110 43
3.6028295 0.24371453 -0.49408656 108 43
3.6022823 0.22148134 -0.49379477 79 43
3.7197526 0.55191755 -0.56227899 72 44
3.7152479 0.52797252 -0.56101644 98 44
3.7105896 0.5041036 -0.55975395 43 44
3.6901097 0.47828263 -0.55596644 76 44
3.6645536 0.45212796 -0.55138987 104 44
3.6603935 0.42883059 -0.55028516 117 44
3.6570671 0.4057101 -0.54933828 118 44
3.6310065 0.3802833 -0.54476166 23 44
3.6263924 0.35731962 -0.543657 14 44
3.6275332 0.3349711 -0.54349917 81 44
3.6226335 0.31211406 -0.54239446 113 44
3.61759 0.2893298 -0.54128981 82 44
3.6005862 0.26574823 -0.53829134 17 44
3.6370871 0.22360007 -0.543657 7 44
3.5999379 0.199156 -0.53750229 54 44
3.5774212 0.17590213 -0.53371477 96 44
3.7321053 0.55251288 -0.61006892 100 45
3.7051775 0.52530479 -0.60481375 38 45
3.6790345 0.49858072 -0.59972811 6 45
3.6830018 0.47612387 -0.59989762 10 45
3.6653135 0.45098257 -0.59633768 5 45
3.6454985 0.42584702 -0.59243864 38 45
3.6529403 0.4040139 -0.59328628 7 45
3.6377075 0.37974483 -0.59023488 5 45
3.6380076 0.35722387 -0.58989584 6 45
3.6391497 0.33480415 -0.58972633 4 45
3.627389 0.31128436 -0.58735299 31 45
3.6311955 0.28917837 -0.58769208 86 45
3.6378157 0.26725495 -0.58853966 11 45
3.6393871 0.24492869 -0.58853966 5 45
3.6359031 0.22229095 -0.58769208 6 45
3.5840614 0.19703873 -0.57853788 49 45
3.573391 0.17446308 -0.57650363 96 45
3.7331579 0.53051585 -0.65635413 96 46
3.7158787 0.50482166 -0.65254521 47 46
3.692574 0.47860175 -0.64764798 7 46
3.7071536 0.45737934 -0.64982456 45 46
3.6776576 0.43085131 -0.64383906 111 46
3.6772997 0.40795255 -0.64329493 119 46
3.6856019 0.38599536 -0.64438319 120 46
3.6653914 0.36115813 -0.64021152 38 46
3.6606836 0.33802867 -0.63894188 62 46
3.623497 0.31218836 -0.63168681 142 46
3.6243641 0.28987083 -0.63150543 92 46
3.6221514 0.26733756 -0.63077992 109 46
3.6158743 0.24457735 -0.62932891 114 46
3.6074913 0.22178377 -0.62751514 91 46
3.5940554 0.19883122 -0.62479442 129 46
3.5893142 0.17648561 -0.62370616 135 46
3.727406 0.55181575 -0.70202613 105 47
3.7132359 0.5264498 -0.69855148 102 47
3.70084 0.50154275 -0.69546294 104 47
3.6882789 0.47680777 -0.69237435 71 47
3.640497 0.44792119 -0.68233651 33 47
3.6753364 0.42934212 -0.6887067 119 47
3.6749759 0.40645808 -0.68812758 91 47
3.674473 0.38359463 -0.68754846 107 47
3.5908287 0.35257614 -0.67056131 32 47
3.5929298 0.30831617 -0.67017525 40 47
3.6319206 0.28923637 -0.67751062 92 47
3.6355841 0.26709026 -0.67789668 96 47
3.6068068 0.24272563 -0.67191255 20 47
3.601373 0.22016878 -0.67056131 5 47
3.5918794 0.19747107 -0.6684379 5 47
3.5871434 0.175139 -0.66727972 24 47
3.6982329 0.54807001 -0.74155813 7 48
3.7160637 0.52742952 -0.74462557 39 48
3.7153502 0.50409228 -0.74380761 45 48
3.7057531 0.47965366 -0.74114919 6 48
3.698911 0.45571065 -0.73910421 7 48
3.6925497 0.4089931 -0.73665023 15 48
3.6842804 0.38520977 -0.73440081 25 48
3.6680653 0.36077768 -0.73051536 6 48
3.6517355 0.31397894 -0.72622097 7 48
3.6311505 0.28977785 -0.72151756 27 48
3.6201692 0.26655897 -0.71885908 124 48
3.6012268 0.24295954 -0.71456468 46 48
3.62903 0.22247261 -0.7200861 5 48
3.6156659 0.1993942 -0.7170186 7 48
3.5904233 0.17591463 -0.71149725 24 48
3.6535571 0.54280645 -0.77919 8 49
3.726408 0.53030372 -0.79477364 83 49
3.724755 0.5067693 -0.79369146 96 49
3.7181129 0.4826453 -0.79152709 86 49
3.7093778 0.45838186 -0.78892982 11 49
3.7159989 0.43606928 -0.78979558 17 49
3.6739714 0.40828577 -0.77983934 94 49
3.6657271 0.38461098 -0.77745849 108 49
3.6495588 0.36028302 -0.77334613 93 49
3.6371191 0.33652905 -0.77009958 79 49
3.6507874 0.31521732 -0.77269685 26 49
3.6098342 0.28936428 -0.76317346 83 49
3.610568 0.26713696 -0.76295704 126 49
3.608243 0.2447124 -0.76209128 102 49
3.6018813 0.22208485 -0.76035976 84 49
3.5944033 0.19949017 -0.75841182 63 49
3.5867836 0.17699564 -0.75646389 97 49
3.5790238 0.15460214 -0.75451589 94 49
3.6351016 0.40391511 -0.81662542 28 50
3.6313086 0.31349626 -0.81366128 6 50
3.6147232 0.28973296 -0.80932909 7 50
3.6106067 0.26711759 -0.80796099 81 50
3.625778 0.24587911 -0.81115317 118 50
3.6155565 0.22290939 -0.80841702 39 50
3.5458879 0.19678971 -0.79177225 4 50
3.5246615 0.17392758 -0.78652799 6 50
3.7726183 0.70322508 -0.85880744 28 50
3.790278 0.68247771 -0.86199963 102 50
3.7790451 0.65654314 -0.85835141 98 50
3.7705185 0.63125426 -0.85538727 92 50
3.7550952 0.60501134 -0.8508271 110 50
3.745266 0.57987481 -0.84763491 87 50
3.7526059 0.55745524 -0.84854698 36 50
3.7429848 0.64904326 -0.89583397 21 51
3.7574308 0.62782794 -0.89846528 106 51
3.762171 0.60491538 -0.89870447 83 51
3.7197542 0.57468939 -0.88722235 14 51
3.7601745 0.58218151 -0.94517863 65 52
3.772294 0.5603779 -0.94743508 30 52
3.7228012 0.57449859 -0.60905176 72 45
3.7470338 0.60304517 -0.66088855 83 46
3.744832 0.57914126 -0.65980029 110 46
3.7385874 0.55471015 -0.65798652 99 46
3.749521 0.62583393 -0.70858938 97 47
3.7494156 0.60219193 -0.7078172 88 47
3.7414041 0.57737529 -0.70550078 86 47
3.742305 0.67250174 -0.75485039 31 48
3.7646866 0.65270197 -0.75873584 93 48
3.7531724 0.62701088 -0.7554639 86 48
3.6776981 0.59123796 -0.7386952 11 48
3.6977026 0.5711996 -0.74217165 7 48
3.7932923 0.70720488 -0.8157683 42 49
3.7821875 0.68114305 -0.81230527 82 49
3.7814865 0.65708596 -0.81122309 101 49
3.7815959 0.63322473 -0.81035733 105 49
3.7507129 0.60440713 -0.80256552 49 49
3.6380258 0.42621252 -0.36581993 126 40
3.6425483 0.40410098 -0.36603907 99 40
3.6696737 0.38432887 -0.36877808 35 40
3.6697454 0.47505438 -0.41557956 29 41
3.6558449 0.45045948 -0.41351074 116 41
3.6486819 0.42686269 -0.41229376 102 41
3.6374214 0.40293241 -0.41059002 7 41
3.6506839 0.38174498 -0.41192868 52 41
3.6361656 0.35768041 -0.40985984 108 41
3.6442218 0.33591112 -0.41059002 58 41
