# .PCD v0.7 - Point Cloud Data file format
VERSION 0.7
FIELDS x y z intensity ring
SIZE 4 4 4 4 1
TYPE F F F F U
COUNT 1 1 1 1 1
WIDTH 1288
HEIGHT 1
VIEWPOINT 0 0 0 1 0 0 0
POINTS 1288
DATA ascii
3.8576581 2.8986692 0.16128296 27 29
3.8753715 2.8749447 0.16128296 173 29
3.9098723 2.8635197 0.16182901 167 29
3.951668 2.8570523 0.16260907 175 29
3.9919033 2.8490171 0.16333714 188 29
4.0444446 2.8492341 0.16445525 172 29
4.0995994 2.8506253 0.16565137 169 29
4.1466808 2.8457875 0.16658746 142 29
4.1996489 2.8444037 0.16770557 147 29
4.2452765 2.8374751 0.16858965 134 29
4.2984853 2.8350482 0.16970775 138 29
4.3543358 2.8337107 0.17090386 144 29
4.4036016 2.827471 0.17189196 116 29
4.4630861 2.8271544 0.17319208 127 29
4.5117121 2.8193238 0.17415418 140 29
4.5544524 2.8073292 0.17493425 159 29
4.6031928 2.7985523 0.17589635 170 29
4.6751418 2.8031666 0.17756049 155 29
4.7309709 2.7973318 0.17873061 154 29
4.7730875 2.7828574 0.17948468 167 29
4.8386006 2.7814271 0.18094082 268 29
4.8529673 2.7502065 0.18086281 272 29
4.8549161 2.7120864 0.18042077 237 29
4.8592076 2.6754935 0.18005674 271 29
4.8553262 2.6346574 0.17945868 253 29
4.8608232 2.5991571 0.17914665 255 29
4.8501501 2.5552983 0.17836657 341 29
4.860415 2.5227261 0.17821056 341 29
4.8571129 2.4832952 0.1776645 295 29
4.8552966 2.4448998 0.17717046 237 29
4.8657293 2.4128406 0.17704046 219 29
4.9262509 2.4053185 0.17836657 212 29
4.9760518 2.3919444 0.17938067 330 29
4.9933453 2.3626502 0.17945868 356 29
4.9787521 2.3184569 0.1786266 252 29
4.9856143 2.2845311 0.17841858 303 29
4.9676447 2.2395105 0.17750849 282 29
4.9739823 2.2057438 0.17730047 328 29
4.9892554 2.1759822 0.17735247 321 29
4.9970012 2.1429625 0.17719646 409 29
4.9990034 2.1075985 0.17688444 389 29
5.0063004 2.0745881 0.17672843 385 29
5.0050492 2.0381727 0.17633839 413 29
4.9970441 1.9992502 0.17576633 380 29
4.9906106 1.9612346 0.17524628 408 29
5.0072136 1.9323764 0.1753763 507 29
5.0086942 1.8977181 0.17509027 428 29
4.985579 1.8540496 0.17412817 293 29
4.9949832 1.8227379 0.17407617 328 29
4.9947801 1.7880094 0.17376414 367 29
5.0009413 1.7556717 0.17363413 337 29
5.0106745 1.7246279 0.17360812 380 29
5.018321 1.6928912 0.17353012 397 29
5.0257664 1.6611258 0.17345211 293 29
4.9502745 1.6025281 0.17111188 34 29
4.9714489 1.5757507 0.17142391 56 29
4.9762502 1.5437348 0.1712939 54 29
4.9760637 1.5102667 0.17103387 37 29
4.9852366 1.4797057 0.17103387 59 29
4.9913421 1.4482527 0.17095587 50 29
4.9943643 1.4159617 0.17079985 37 29
4.9971786 1.3836883 0.17064384 42 29
4.9997845 1.3514339 0.17048782 45 29
4.9934845 1.3169032 0.17009778 39 29
4.9975986 1.2852422 0.16999377 39 29
5.0005426 1.253337 0.16986376 64 29
5.0023122 1.2212068 0.16970775 66 29
5.0126286 1.1911843 0.16978575 48 29
5.0198431 1.1604049 0.16978575 54 29
5.0171161 1.127388 0.16952574 48 29
5.021986 1.0961555 0.16947374 42 29
5.0168824 1.0628318 0.16916171 40 29
5.0174341 1.0308204 0.16900569 41 29
5.023665 1.0000145 0.16900569 23 29
5.0326509 0.9697392 0.1690837 35 29
5.0394893 0.93902451 0.1691097 47 29
5.038269 0.9068439 0.16892768 37 29
5.0378294 0.87488502 0.16877167 24 29
5.0401449 0.84346133 0.16869366 39 29
5.0373302 0.81124634 0.16848564 41 29
5.0352979 0.7792508 0.16830362 40 29
5.0310855 0.74701667 0.1680696 39 29
5.0197396 0.71387684 0.16765356 36 29
5.015111 0.6818487 0.16741954 30 29
5.0231657 0.65157902 0.16752355 41 29
5.0270691 0.62074518 0.16752355 39 29
5.0307832 0.58988798 0.16752355 36 29
5.0372887 0.55934024 0.16760156 37 29
5.0436082 0.52873486 0.16767956 44 29
5.0447679 0.49758121 0.16762756 32 29
0 0 0 54 29
5.0425267 0.43494758 0.16741954 53 29
5.0401182 0.4035989 0.16728953 60 29
5.0345244 0.37207446 0.16708151 67 29
5.0357151 0.34110838 0.1670555 72 29
5.0177584 0.30897 0.16653545 81 29
5.0235519 0.27839798 0.16663946 78 29
5.0331535 0.24796417 0.16684748 95 29
5.0405726 0.21733643 0.1670035 103 29
5.041811 0.18640396 0.1670035 94 29
5.0568485 0.15589897 0.16736753 66 29
5.0507145 0.12469348 0.16718552 80 29
5.0483861 0.093644217 0.16710751 66 29
5.044867 0.062615581 0.1670035 60 29
5.0421576 0.031640168 0.16692549 56 29
5.0422568 0.00070147688 0.16692549 55 29
5.0481639 -0.030271821 0.16708151 53 29
5.0548801 -0.06132948 0.16726352 59 29
5.0564079 -0.092380546 0.16731553 49 29
5.0637407 -0.12359764 0.16752355 62 29
5.0628872 -0.15466584 0.16752355 50 29
5.0658388 -0.18587393 0.16762756 60 29
5.0685978 -0.21712403 0.16773157 41 29
5.0741596 -0.24856104 0.16791359 38 29
5.0765314 -0.27991006 0.1680176 31 29
5.0807052 -0.31141937 0.16817361 33 29
5.0826883 -0.34285635 0.16827762 32 29
5.078495 -0.37389034 0.16822562 39 29
5.0820847 -0.40552008 0.16838163 36 29
5.0854764 -0.43720791 0.16853765 42 29
5.0886712 -0.46895263 0.16869366 41 29
5.0896773 -0.50055778 0.16879767 52 29
5.0865102 -0.53177804 0.16879767 42 29
5.0851388 -0.56319785 0.16884968 36 29
5.0845661 -0.59473681 0.16892768 43 29
5.0857821 -0.62653393 0.1690577 38 29
5.0858078 -0.65824026 0.16916171 33 29
5.0905886 -0.69064134 0.16939573 22 29
5.0882344 -0.72214407 0.16944773 25 29
5.0846968 -0.7534976 0.16947374 25 29
5.0819535 -0.78498727 0.16952574 22 29
5.0839505 -0.8172639 0.16970775 43 29
5.0837703 -0.84926546 0.16983776 22 29
5.0883136 -0.88214833 0.17009778 32 29
5.0965805 -0.91582513 0.17046182 35 29
5.101676 -0.94908863 0.17074785 28 29
5.1095004 -0.98301506 0.17111188 42 29
5.1121974 -1.0160998 0.1713459 32 29
5.1166391 -1.0496559 0.17163193 46 29
5.1081457 -1.0806179 0.17157993 60 29
5.1150942 -1.114918 0.17194396 38 29
5.1198621 -1.1489067 0.17225599 22 29
5.1136904 -1.1805246 0.172282 50 29
5.1180229 -1.2146468 0.17259403 28 29
5.119215 -1.2481568 0.17282805 34 29
5.1230974 -1.2824546 0.17314008 28 29
5.124815 -1.3163501 0.1734001 32 29
5.1272759 -1.3505692 0.17368613 41 29
5.1391606 -1.3874714 0.17423218 47 29
5.1401863 -1.4216413 0.17449221 64 29
5.1448331 -1.4569645 0.17485625 65 29
5.1578813 -1.4949008 0.1754543 64 29
5.1409435 -1.5242492 0.17524628 234 29
5.1458449 -1.5601122 0.17563632 614 29
5.0530968 -1.5659316 0.1733741 245 29
4.9728642 -1.5745926 0.17144991 179 29
4.8727427 -1.5758735 0.16897969 170 29
4.799377 -1.5847565 0.16723752 185 29
4.7526145 -1.6017324 0.16622342 354 29
4.7304068 -1.6266407 0.16588539 448 29
4.7335443 -1.6602644 0.16624942 403 29
4.7270336 -1.6906233 0.16635343 486 29
4.7409921 -1.7284931 0.1670295 501 29
4.7368569 -1.7599864 0.16721152 518 29
4.7343836 -1.7922013 0.16744554 457 29
4.7456851 -1.8298435 0.1680696 423 29
4.7483273 -1.8644052 0.16845964 526 29
4.7525797 -1.8998097 0.16890168 444 29
4.7639837 -1.9383487 0.16955175 470 29
4.7686276 -1.9744232 0.17001978 485 29
4.761951 -2.0059731 0.17017579 516 29
4.7394447 -2.0308254 0.16988976 66 29
4.7663045 -2.0770311 0.17100787 42 29
4.7333612 -2.0973327 0.17043582 77 29
4.7304301 -2.1308506 0.17072184 83 29
4.7327199 -2.1669071 0.17116389 78 29
4.7401834 -2.2056007 0.17176194 80 29
4.7446375 -2.243186 0.172282 74 29
4.7497096 -2.2813411 0.17282805 81 29
4.7491002 -2.317014 0.17321809 80 29
4.7509184 -2.3540957 0.17368613 65 29
4.7462087 -2.3881428 0.17397216 70 29
4.7430401 -2.4231298 0.17431019 53 29
4.749383 -2.4632282 0.17493425 45 29
4.7527575 -2.502099 0.17548031 51 29
4.7584786 -2.542516 0.17610437 41 29
4.7717919 -2.587384 0.17696245 38 29
4.7750974 -2.6272118 0.17753449 33 29
4.7824574 -2.6696124 0.17823656 20 29
4.7781668 -2.7058005 0.17860059 27 29
4.7796798 -2.7455204 0.17914665 35 29
4.7713823 -2.7798266 0.17940667 26 29
4.7662868 -2.8161678 0.17977071 31 29
4.7703581 -2.8582003 0.18042077 31 29
4.7758012 -2.9014263 0.18112284 26 29
4.7808924 -2.9448259 0.18182491 30 29
4.7830858 -2.986809 0.18244897 35 29
4.7900124 -3.0321364 0.18322904 27 29
4.7906709 -3.0738828 0.1838271 25 29
4.802731 -3.1233788 0.18478918 14 29
4.8051805 -3.1670878 0.18546525 12 29
4.808105 -3.2114992 0.18616731 12 29
4.8090081 -3.254945 0.18681738 27 29
4.8103833 -3.2990873 0.18749344 17 29
4.8081126 -3.3410873 0.1880655 11 29
4.8071423 -3.3843338 0.18868956 20 29
4.804193 -3.4265332 0.18926162 22 29
4.8098211 -3.4752617 0.1901197 20 29
4.8174515 -3.5259581 0.19105579 18 29
4.8198204 -3.573307 0.19183587 20 29
4.8265862 -3.6244178 0.19277194 26 29
4.8265386 -3.6709054 0.19350001 13 29
4.8205566 -3.7132587 0.19404607 20 29
4.821331 -3.7612092 0.19482614 12 29
4.8248358 -3.8117864 0.19571023 19 29
4.8216543 -3.8575528 0.19638629 21 29
4.8281918 -3.9116015 0.19740039 16 29
4.829608 -3.9620717 0.19825847 32 29
4.8259716 -4.0088739 0.19896054 10 29
4.8250022 -4.0583529 0.19976661 13 29
4.8198009 -4.1047306 0.20044267 30 29
4.8263259 -4.1616392 0.20153478 19 29
4.8263078 -4.2135234 0.20241886 18 29
4.8265829 -4.2662244 0.20332895 19 29
4.8383126 -4.329751 0.20465508 25 29
4.8316603 -4.3774753 0.20535715 14 29
4.8452344 -4.4441967 0.20678729 13 29
4.8567052 -4.5098882 0.20816541 20 29
4.8668222 -4.575202 0.20951754 9 29
4.8473487 -4.6132464 0.20982957 21 29
4.8657522 -4.6879778 0.21151973 17 29
4.8712516 -4.7512431 0.21276785 14 29
4.8697534 -4.8084311 0.21378195 13 29
4.8741002 -4.872138 0.21503006 18 29
4.8764415 -4.9346561 0.21622618 18 29
4.8677216 -4.9866567 0.21703225 21 29
4.8731208 -5.0538445 0.21838439 24 29
4.8951163 -5.139379 0.22038658 8 29
4.8826733 -5.1897011 0.22111465 19 29
4.9045086 -5.2774029 0.22316884 8 29
4.897728 -5.3353772 0.22415693 20 29
4.893106 -5.3964276 0.22524904 15 29
4.8905864 -5.4605989 0.22644515 12 29
4.8775253 -5.5137124 0.22725123 15 29
4.8935995 -5.6007404 0.22922742 16 29
4.8904972 -5.6669841 0.23047553 19 29
4.8997364 -5.7486124 0.2322437 17 29
4.9197464 -5.8443303 0.23447992 21 29
4.9042478 -5.8990026 0.235312 29 29
4.9212551 -5.9938745 0.2374962 32 29
4.9259458 -6.0752001 0.23921236 34 29
4.9460707 -6.177093 0.2416046 15 29
4.9217186 -6.2245746 0.24217665 34 29
4.9258895 -6.3090181 0.24397083 22 29
4.9328704 -6.3984952 0.245921 31 29
4.9316702 -6.4787488 0.24755916 40 29
4.9152522 -6.5400496 0.24857326 47 29
4.9858484 -6.7193909 0.25340971 135 29
4.9799767 -6.7982383 0.25496987 386 29
4.9662929 -6.8675451 0.25621799 312 29
4.9746013 -6.968667 0.25848019 438 29
4.9490261 -7.0235724 0.25926027 85 29
4.9966087 -7.1842842 0.26339468 42 29
5.0390072 -7.3408952 0.26737306 19 29
5.0320024 -7.4279494 0.26914123 20 29
5.026896 -7.5193472 0.2710394 22 29
5.0236092 -7.6151314 0.27306759 21 29
5.0215158 -7.7145071 0.2751998 24 29
5.0513492 -7.8654461 0.27891815 16 29
5.0318894 -7.9418888 0.28032228 13 29
5.0185704 -8.0294056 0.28206444 11 29
5.0148597 -8.1340742 0.28432667 20 29
4.9918694 -8.2091036 0.2856788 14 29
4.9897442 -8.3201599 0.28812301 16 29
5.0576997 -8.5519505 0.2942076 41 29
5.0560031 -8.6700354 0.29683384 34 29
5.050056 -8.7832193 0.2993041 31 29
5.0660815 -8.9375257 0.30299643 40 29
5.0701594 -9.074029 0.30614275 43 29
5.0606918 -9.1890249 0.30863899 63 29
5.0566797 -9.3165426 0.31149924 53 29
5.0758128 -9.4901896 0.31571165 65 29
5.0920701 -9.6626472 0.31987205 42 29
5.1289744 -9.8791285 0.32530656 19 29
5.1110549 -9.994071 0.3277508 26 29
5.117105 -10.159157 0.33165115 27 29
5.1066566 -10.295137 0.33469346 25 29
5.1355391 -10.514901 0.34015396 14 29
5.1471815 -10.704769 0.34473041 19 29
5.1434245 -10.867162 0.34850076 14 29
5.1522207 -11.060714 0.35315523 27 29
5.1334186 -11.199347 0.35622349 26 29
5.0983095 -11.305356 0.3583557 25 29
5.1666956 -11.647101 0.36719656 59 29
5.1854944 -11.88565 0.3730731 341 29
5.1593776 -12.026564 0.37616742 139 29
5.1670837 -12.251417 0.38162792 57 29
4.8597775 -11.723295 0.36587042 268 29
4.7817178 -11.738082 0.36545438 309 29
4.7382126 -11.838661 0.36745659 180 29
5.2866697 -13.447189 0.41160879 22 29
5.2980509 -13.722768 0.41839543 12 29
5.2973857 -13.975616 0.424532 11 29
5.2882361 -14.213973 0.43025255 9 29
5.2691569 -14.433018 0.43542704 13 29
5.2782645 -14.737996 0.44296777 15 29
5.3080125 -15.11247 0.45240664 19 29
5.3180585 -15.443427 0.46062344 32 29
5.3207216 -15.764647 0.4685542 44 29
5.350718 -16.180429 0.47905919 38 29
5.4177094 -16.726496 0.49310052 126 29
5.3234386 -16.786104 0.49382859 406 29
5.2164874 -16.806042 0.49349058 125 29
5.0908976 -16.764082 0.49148837 14 29
4.9905014 -16.803627 0.4917224 27 29
4.879775 -16.808012 0.49102032 23 29
4.7683649 -16.808786 0.49024025 11 29
4.6605997 -16.821352 0.48979822 13 29
4.548944 -16.818752 0.48896614 23 29
4.4423437 -16.833782 0.48862812 15 29
4.3369761 -16.852978 0.4884201 8 29
4.2232695 -16.838549 0.48732799 97 29
4.1158366 -16.847637 0.48688594 490 29
4.008914 -16.857986 0.48649591 501 29
3.9013431 -16.864737 0.48602787 519 29
3.79406 -16.871777 0.48558581 530 29
3.6836364 -16.863487 0.48475373 377 29
3.5753243 -16.863281 0.48415568 520 29
3.4701748 -16.877068 0.48394766 578 29
3.3644044 -16.887259 0.48366162 539 29
3.2569354 -16.887953 0.48314157 482 29
3.2564735 -17.460882 0.49778098 106 29
3.285625 -18.237085 0.51777691 235 29
3.1719499 -18.247053 0.51751685 430 29
3.0551367 -18.237581 0.51676279 462 29
2.9358537 -18.210587 0.51556665 510 29
2.8185484 -18.192694 0.51463056 522 29
2.7001028 -18.164162 0.51343447 531 29
2.5826778 -18.138823 0.51234233 532 29
2.46661 -18.119659 0.51143229 491 29
2.3515186 -18.104713 0.51065218 486 29
2.2363355 -18.086061 0.50979412 554 29
2.1199536 -18.053772 0.50859803 575 29
2.0048263 -18.027693 0.50758392 579 29
1.8907257 -18.006847 0.50672585 521 29
1.7777433 -17.993238 0.50607574 602 29
1.6650915 -17.979919 0.50545168 512 29
1.5519811 -17.957926 0.5046196 552 29
1.438323 -17.924263 0.50350153 554 29
1.3262453 -17.904839 0.50277346 635 29
1.2141889 -17.880722 0.50194138 586 29
1.102602 -17.857904 0.50116128 566 29
0.99195176 -17.845369 0.50066727 590 29
0.88139814 -17.830153 0.50012118 585 29
0.77076554 -17.807261 0.49939314 581 29
0.66063297 -17.788679 0.49879506 578 29
0.55094361 -17.775412 0.49835303 570 29
0.44134241 -17.757471 0.49780697 622 29
0.33170056 -17.723862 0.49687091 602 29
0.22267734 -17.704573 0.49632484 669 29
0.11390984 -17.685614 0.49580479 663 29
0.0053793187 -17.654989 0.49499872 675 29
-0.10285755 -17.638697 0.49458268 589 29
-0.21066824 -17.602747 0.49367258 628 29
-0.31829408 -17.580133 0.49312654 590 29
-0.4259403 -17.568855 0.4928925 586 29
-0.53349042 -17.557917 0.49268448 570 29
-0.64033955 -17.530338 0.49206042 586 29
-0.74695545 -17.504107 0.49148837 636 29
-0.85366303 -17.485214 0.49112433 711 29
-0.95978326 -17.458687 0.49057829 696 29
-1.0662804 -17.44249 0.49031827 652 29
-1.1726819 -17.426643 0.49008423 736 29
-1.2789292 -17.410147 0.48985022 716 29
-1.3854146 -17.397985 0.48974621 695 29
-1.0075018 -11.736814 0.34218216 130 29
-1.0784005 -11.718466 0.34187013 305 29
-1.7011249 -17.325762 0.4886021 322 29
-1.8064682 -17.306049 0.48836809 701 29
-1.9119633 -17.288677 0.48821208 738 29
-2.0158064 -17.257755 0.48771802 389 29
-2.0716395 -16.838264 0.47705701 694 29
-2.1768394 -16.840107 0.47744703 784 29
-2.2807982 -16.831387 0.47757706 718 29
-2.3864148 -16.8339 0.47801909 738 29
-2.4925871 -16.838718 0.47853914 682 29
-2.5961654 -16.825085 0.47859114 211 29
-2.0293174 -12.634703 0.36862668 56 29
-2.1071332 -12.623985 0.36867869 107 29
-2.1842117 -12.608849 0.36862668 51 29
-2.2604778 -12.589305 0.36847067 27 29
-2.2757757 -12.242015 0.35965583 527 29
-0 -0 0 761 29
-2.3761942 -11.963132 0.3530252 1159 29
-2.4491525 -11.946368 0.35297319 955 29
-2.5317085 -11.975128 0.35414329 1141 29
-2.6085417 -11.974998 0.35455933 1077 29
-2.6861243 -11.9773 0.3550534 1052 29
-2.7611377 -11.967411 0.3552354 969 29
-2.8384368 -11.96678 0.35567746 415 29
-3.0707941 -12.601827 0.37315112 17 29
-3.1611569 -12.635117 0.37455526 47 29
-6.5342727 -25.45787 0.7194261 318 29
-6.7035861 -25.467567 0.72077823 238 29
-6.8743052 -25.480005 0.72223437 145 29
-7.0454292 -25.491304 0.72369045 232 29
-7.2166777 -25.5005 0.7251206 290 29
-7.3858013 -25.499908 0.72631675 278 29
-7.5648432 -25.530788 0.72839695 248 29
-7.7346869 -25.527901 0.72959304 248 29
-7.9050756 -25.524841 0.73081517 271 29
-8.0805416 -25.535902 0.73245329 269 29
-2.3176124 -7.1680541 0.23172365 366 29
-2.3537204 -7.1299658 0.23107359 1358 29
-2.3951914 -7.1087575 0.23089157 1532 29
-2.4524086 -7.1336341 0.23198368 1070 29
-2.506053 -7.1467543 0.23276375 942 29
-2.5182333 -7.0427556 0.23031951 723 29
-2.5353925 -6.9557872 0.22834334 1558 29
-2.5776768 -6.9391623 0.22831734 1661 29
-2.6240966 -6.9335003 0.22860336 1520 29
-2.6802487 -6.9527154 0.22959146 1653 29
-2.7257805 -6.9435835 0.22979946 1551 29
-2.7497919 -6.8803115 0.22849935 1341 29
-2.7735066 -6.8179336 0.22722523 1731 29
-2.8366923 -6.8525152 0.22868137 1257 29
-2.9310479 -6.959362 0.2321917 1553 29
-2.9760556 -6.9467602 0.23234771 1618 29
-3.0254097 -6.9439497 0.23278975 940 29
-5.4277415 -12.254171 0.38438419 44 29
-5.468359 -12.144067 0.38219997 38 29
-5.4928565 -12.001204 0.37907967 31 29
-5.479136 -11.779639 0.37369716 32 29
-5.5051875 -11.648184 0.37088889 32 29
-5.5276704 -11.512349 0.36795062 37 29
-5.5872512 -11.455751 0.36730057 21 29
-5.5864549 -11.277921 0.36314017 74 29
-5.6627359 -11.25772 0.36355621 65 29
-5.7221589 -11.204065 0.36301014 106 29
-5.7852774 -11.158094 0.36269811 193 29
-5.7879992 -10.997647 0.35903177 36 29
-5.810163 -10.877274 0.35653552 30 29
-5.8077297 -10.713979 0.35276517 187 29
-5.9061155 -10.737706 0.35453334 121 29
-5.855969 -10.493496 0.34834474 32 29
-5.8641114 -10.35819 0.34538049 27 29
-5.8902273 -10.256992 0.34343028 179 29
-5.8806133 -10.096261 0.33968592 31 29
-5.8916178 -9.9739113 0.33708569 28 29
-5.8751507 -9.8080711 0.3331593 34 29
-5.8158827 -9.5753117 0.32717875 27 29
-5.5925622 -9.0814667 0.31318942 91 29
-5.6153626 -8.9944029 0.31157726 78 29
-5.6185985 -8.8778362 0.309055 71 29
-5.6222367 -8.7640953 0.30661079 74 29
-5.6383128 -8.6716013 0.3048166 59 29
-5.643568 -8.5642157 0.3025544 65 29
-5.6588206 -8.4737225 0.30081224 71 29
-5.693903 -8.4140024 0.30003217 159 29
-5.7578583 -8.3970461 0.30060422 158 29
-5.737988 -8.2589293 0.29735389 83 29
-5.8081164 -8.2513618 0.29823798 33 29
-5.8580561 -8.2147541 0.29821199 58 29
-5.8586001 -8.1097708 0.29600176 268 29
-5.8533564 -7.9986391 0.29358354 37 29
-5.826139 -7.8597689 0.29025522 19 29
-5.8268471 -7.7607126 0.28820103 32 29
-5.9082365 -7.7693782 0.28965718 8 29
-5.9259133 -7.6941686 0.28838304 41 29
-5.9951425 -7.6860418 0.28931913 28 29
-6.0638747 -7.6765699 0.29022923 23 29
-6.15769 -7.6977711 0.29217941 47 29
-6.2180185 -7.6761575 0.29272547 27 29
-6.3131776 -7.6966066 0.29470164 66 29
-6.3749723 -7.6754136 0.29529971 42 29
-6.4508977 -7.6705847 0.29646981 54 29
-6.5354271 -7.6750073 0.29797795 54 29
-6.6163359 -7.6741362 0.29933009 38 29
-6.6961641 -7.6710534 0.30063021 44 29
-7.5261512 -8.5160418 0.33139113 51 29
-7.6109214 -8.5062094 0.33266526 57 29
-0 -0 0 15 29
-7.1357508 -7.7807178 0.31038114 10 29
-7.1935596 -7.747777 0.31077117 18 29
-7.2074194 -7.6677971 0.30949706 25 29
-7.357688 -7.7320676 0.31339744 6 29
-0 -0 0 8 29
-8.1966505 -8.4048977 0.34114206 22 29
-8.4657669 -8.574996 0.34920284 73 29
-8.5486059 -8.5532961 0.35032094 77 29
-8.681263 -8.5800962 0.35325924 56 29
-8.8066988 -8.5979052 0.35591146 43 29
-8.0268259 -7.7407441 0.32582662 13 29
-9.0295162 -8.6015863 0.36014989 79 29
-9.1425457 -8.6028862 0.36230808 57 29
-9.2493391 -8.5969934 0.36423227 80 29
-9.3762836 -8.6083689 0.36685851 70 29
-9.4822388 -8.5990305 0.36873069 59 29
-9.5847092 -8.5853796 0.37047285 38 29
-6.3544321 -5.6214786 0.25645199 179 29
-2.7164395 -2.3726666 0.12958594 73 29
-2.6840308 -2.3154538 0.12797378 164 29
-2.7065554 -2.3060756 0.12825981 377 29
-2.6870086 -2.2610936 0.1271157 157 29
-2.7100551 -2.2522342 0.12742773 326 29
-2.7176435 -2.2304873 0.12721971 186 29
-2.7087629 -2.1955087 0.12646563 126 29
-2.7104797 -2.1694727 0.1260756 150 29
-2.706491 -2.1391575 0.12550354 160 29
-2.7077479 -2.1132808 0.1251135 138 29
-2.7222471 -2.0978475 0.12516551 310 29
-2.712003 -2.0635421 0.12441144 159 29
-2.7158241 -2.0402551 0.12412541 142 29
-2.7242782 -2.0205736 0.1239954 119 29
-2.7293677 -1.998502 0.12376138 121 29
-2.7294295 -1.9729288 0.12337134 130 29
-2.7366023 -1.9526587 0.12321533 164 29
-2.7501664 -1.9369823 0.12326733 141 29
-2.7792325 -1.9320599 0.12381338 96 29
-2.814934 -1.9313799 0.12456746 78 29
-2.8416278 -1.9241655 0.12503549 93 29
-2.8824651 -1.9261426 0.12594558 133 29
-2.9184265 -1.9243867 0.12669966 370 29
-2.9636889 -1.9282614 0.12773976 121 29
-2.9931271 -1.9213866 0.12828581 353 29
-3.068188 -1.9431196 0.130236 78 29
-3.1071773 -1.941215 0.13106808 69 29
-3.1530647 -1.9431024 0.13210817 72 29
-3.1956749 -1.9424208 0.13304426 87 29
-3.3712676 -2.020997 0.13801074 51 29
-3.4464128 -2.0374286 0.13990891 33 29
-3.5581512 -2.0741677 0.1428992 8 29
-0 -0 0 5 29
-0 -0 0 4 29
-0 -0 0 6 29
-3.6824079 -2.027221 0.14510942 5 29
-10.34004 -5.6123428 0.34179214 68 29
-10.390148 -5.5572801 0.34226018 538 29
-10.393985 -5.4775739 0.3413761 602 29
-10.377717 -5.3878942 0.33991995 645 29
-10.358962 -5.2977114 0.33841181 645 29
-10.344851 -5.2106614 0.33705968 583 29
-10.347972 -5.1328707 0.3362276 627 29
-10.318193 -5.0394416 0.33445942 780 29
-10.317389 -4.9608707 0.33354935 696 29
-10.311494 -4.8803611 0.33250925 704 29
-10.306812 -4.8009558 0.33152115 694 29
-10.290641 -4.7167926 0.33022103 660 29
-10.287495 -4.6391749 0.32931095 715 29
-10.27282 -4.5569091 0.32808882 686 29
-10.263939 -4.4777975 0.32704872 729 29
-9.0207186 -3.8695567 0.2910873 72 29
-10.231536 -4.3149815 0.32460448 723 29
-10.23381 -4.2421656 0.32392842 698 29
-10.217063 -4.1619401 0.32273233 826 29
-10.208998 -4.0857954 0.32179624 816 29
-10.194802 -4.0077124 0.32070413 900 29
-10.181899 -3.9306781 0.31966403 865 29
-10.141329 -3.8436761 0.31786984 781 29
-10.037305 -3.7339616 0.31433353 899 29
-10.029039 -3.6609881 0.31347543 901 29
-10.020258 -3.5882571 0.31261736 828 29
-10.022281 -3.519748 0.31207129 826 29
-9.3801813 -3.2296495 0.29381755 112 29
-9.9567432 -3.3600433 0.30910701 357 29
-10.03222 -3.3170943 0.31061515 713 29
-10.048581 -3.2542429 0.31051114 636 29
-8.3436613 -2.6454391 0.26344669 956 29
-8.3463707 -2.590044 0.26308265 1008 29
-8.3554106 -2.5367491 0.26290062 1016 29
-8.3679438 -2.4845796 0.26282263 1040 29
-8.3705511 -2.4295638 0.26248458 1053 29
-8.3641434 -2.3721538 0.26191252 975 29
-8.3766146 -2.3202538 0.26186052 1001 29
-8.3829737 -2.2667236 0.2616525 920 29
-8.4005909 -2.2162645 0.26175651 772 29
-6.2338653 -1.6034738 0.20319894 273 29
-8.7878513 -2.2035015 0.27142942 304 29
-9.9937019 -2.4409475 0.30336046 961 29
-6.3284554 -1.5041882 0.20496711 257 29
-9.1979876 -2.127238 0.28133637 94 29
-9.9394093 -2.2346437 0.30076024 563 29
-9.9480505 -2.1725476 0.30063021 910 29
-9.9162102 -2.1019261 0.2994341 352 29
-9.7526712 -2.0047898 0.29475364 146 29
-9.8706694 -1.9660127 0.29756191 991 29
-9.8619347 -1.9014336 0.29701588 1037 29
-9.8685026 -1.8399694 0.29688585 969 29
-9.8894444 -1.7811559 0.29714587 1035 29
-9.8932934 -1.719243 0.29696387 1080 29
-9.8829517 -1.6550368 0.2964178 1045 29
-9.8751564 -1.5914999 0.29594976 1095 29
-9.8630028 -1.5275087 0.2953777 1057 29
-9.8484583 -1.4634326 0.29475364 1017 29
-9.8513145 -1.4021301 0.29459763 1038 29
-9.8428936 -1.3393639 0.2941556 1031 29
-9.8241606 -1.2754656 0.29345354 997 29
-9.8149366 -1.2130752 0.29301149 944 29
-9.8082952 -1.1511959 0.29264745 965 29
-9.8092127 -1.0903283 0.29249144 957 29
-8.6157312 -0.90404224 0.26110646 101 29
-9.7949944 -0.96721661 0.29178938 1123 29
-9.786809 -0.90580601 0.29142535 1146 29
-9.7712679 -0.84392929 0.29087928 1147 29
-9.7573299 -0.78243756 0.29038525 1228 29
-9.5723457 0.23188789 0.1629875 296 30
-8.7851753 0.26673287 0.1525619 590 30
-8.7773781 0.32041353 0.15248232 526 30
-8.7842379 0.37464833 0.15260169 541 30
-8.7697887 0.427955 0.15244253 318 30
-8.7580118 0.48126319 0.15232316 562 30
-8.7089844 0.53218478 0.151713 488 30
-8.6955776 0.58494055 0.15158036 506 30
-9.5594101 0.70203406 0.16312014 310 30
-8.7405729 0.6958124 0.15228336 297 30
-8.7062521 0.74686527 0.15188543 470 30
-8.7134533 0.80137116 0.15204461 496 30
-8.6964312 0.85364813 0.15188543 556 30
-8.6870518 0.90657705 0.15183237 556 30
-8.6743679 0.95909321 0.15173952 405 30
-8.6504431 1.0102116 0.15150078 576 30
-9.4757357 1.1656059 0.1626161 167 30
-8.6056623 1.1121871 0.15107632 172 30
-8.5857944 1.1632239 0.1509039 190 30
-8.6319561 1.2234632 0.15162015 315 30
-8.6232977 1.2762583 0.15160689 506 30
-8.605422 1.3276209 0.15147425 517 30
-8.560585 1.3745309 0.15098347 193 30
-8.5539627 1.427361 0.15101001 449 30
-9.4386559 1.6346155 0.16304055 1225 30
-9.4304171 1.6928527 0.16306709 1127 30
-8.5291901 1.5851178 0.15104979 962 30
-8.531086 1.6396874 0.15120897 736 30
-8.5502872 1.6978462 0.15160689 1147 30
-8.55832 1.7540932 0.15185891 1329 30
-8.5141344 1.7995412 0.15140793 1053 30
-8.4804611 1.8468544 0.15110286 947 30
-8.4572611 1.8962291 0.15094368 600 30
-9.3535309 2.1575885 0.16330583 360 30
-8.4255714 1.9980239 0.15083757 497 30
-8.4403543 2.056313 0.15120897 322 30
-8.4285488 2.1083059 0.15122223 528 30
-8.4115791 2.1589882 0.15116917 463 30
-8.4088106 2.2133605 0.15131508 361 30
-8.3661098 2.2570994 0.15091716 458 30
-8.3839073 2.3171821 0.15135486 183 30
-8.3589478 2.3655856 0.15120897 252 30
-8.3490782 2.4182217 0.15127529 162 30
-9.2812777 2.7501063 0.16438022 1219 30
-9.2699709 2.8087435 0.16445981 1203 30
-9.2649794 2.8694162 0.16463225 1239 30
-9.256731 2.9292281 0.16476488 1253 30
-9.2461948 2.9884315 0.16487101 1268 30
-9.2371798 3.0482428 0.16500364 1211 30
-9.2306204 3.1090133 0.16517608 1241 30
-9.2198811 3.1685178 0.16529545 1289 30
-9.2078142 3.2276769 0.16540156 1279 30
-9.2076092 3.2911828 0.16568011 1181 30
-9.2097893 3.3558342 0.16599844 1186 30
-9.1983986 3.4157624 0.16613109 1211 30
-9.1987762 3.4802775 0.16643617 1097 30
-9.1865788 3.5402505 0.1665688 1029 30
-9.1739912 3.6002049 0.16670145 1070 30
-9.1192293 3.6434419 0.16623721 677 30
-8.9309053 3.6318965 0.16386293 834 30
-8.924159 3.6931276 0.16408841 1060 30
-8.9050169 3.749368 0.16414148 1159 30
-8.8983879 3.8110242 0.16438022 1099 30
-8.8913374 3.8727398 0.16461898 1083 30
-8.8811207 3.9332974 0.16481794 1086 30
-8.8677597 3.9926434 0.16497712 1122 30
-8.8576422 4.053638 0.16518934 1123 30
-8.8452959 4.1138148 0.16537504 1109 30
-8.8361597 4.1757021 0.16561379 1078 30
-8.8311033 4.2397952 0.16591887 987 30
-8.8246946 4.3035455 0.16621068 964 30
-8.8169384 4.3669319 0.16648923 970 30
-8.8078432 4.4299359 0.1667545 973 30
-8.7956343 4.4916277 0.16698 968 30
-8.7847748 4.5542569 0.16723201 1035 30
-8.7823257 4.6215787 0.16761667 1063 30
-8.7670326 4.6824455 0.16781564 1112 30
-8.7486849 4.741869 0.1679748 1135 30
-8.6712379 4.7689562 0.16724528 505 30
-8.6112528 4.8050184 0.16678104 92 30
-8.7417145 4.9484053 0.16922162 1075 30
-8.7016497 4.9964728 0.16907573 397 30
-7.9735479 4.6436491 0.15837158 128 30
-8.7731247 5.1817031 0.17113166 563 30
-8.8638306 5.3089123 0.17302842 642 30
-8.8721113 5.3881149 0.17366511 745 30
-8.8814545 5.4686666 0.17432831 883 30
-8.8799639 5.5431809 0.17483234 545 30
-2.7158103 1.7182353 0.078601211 6 30
-2.7161574 1.7418853 0.07877364 25 30
-2.7213461 1.7688743 0.079025656 51 30
-2.7162859 1.7893901 0.079118505 60 30
-2.715234 1.8126866 0.079277679 40 30
-2.7173104 1.8382789 0.079489902 56 30
-2.7183502 1.8633991 0.079688862 25 30
-2.7216468 1.8903124 0.079927616 43 30
-2.724715 1.9173361 0.08016637 52 30
-2.7202263 1.9392433 0.08028575 40 30
-2.7147605 1.9605819 0.080391861 48 30
-2.7067142 1.9801549 0.080458187 46 30
-2.7001364 2.0008936 0.080551036 31 30
-2.7006025 2.027029 0.080763258 17 30
-2.6698074 2.0296412 0.080458187 41 30
-2.6406672 2.0331724 0.080179639 37 30
-2.6092193 2.0345781 0.079861298 37 30
-2.5684383 2.0282376 0.07938379 53 30
-2.5411088 2.0320919 0.079131775 53 30
-2.5130525 2.0350583 0.078866489 49 30
-2.4835095 2.0364892 0.07857468 43 30
-2.4548135 2.0382736 0.078296132 33 30
-2.4269552 2.0404265 0.078030854 35 30
-2.4014471 2.0442595 0.077805363 42 30
-2.3699255 2.0426335 0.07747376 37 30
-2.3415279 2.0433285 0.077195212 31 30
-2.3154597 2.0457387 0.076956458 34 30
-2.2887051 2.0472398 0.076704443 34 30
-2.2612789 2.0478187 0.076439157 42 30
-2.2390909 2.0528693 0.076266721 35 30
-2.2139952 2.0550036 0.076041237 62 30
-2.1838582 2.0521142 0.075722896 33 30
-2.1603599 2.0551364 0.075523935 52 30
-2.1333063 2.0544794 0.07525865 41 30
-2.1077745 2.0549643 0.075019896 40 30
-2.0844524 2.0573213 0.074820936 52 30
-2.0647171 2.0630043 0.074688293 42 30
-2.0330417 2.0564327 0.074330166 41 30
-1.9910477 2.0388186 0.073773071 30 30
-1.9070065 1.9768637 0.072406866 6 30
-1.9079448 2.0022833 0.072658882 8 30
-1.8915117 2.0095835 0.072579302 39 30
-1.8709766 2.012363 0.072420128 51 30
-1.8646798 2.0304341 0.072539508 47 30
-1.8602468 2.0507257 0.072698675 47 30
-1.8556346 2.071039 0.072857849 32 30
-1.8574685 2.0988615 0.073149659 53 30
-1.8544246 2.1215131 0.073348619 45 30
-1.8511723 2.144206 0.073547579 36 30
-1.8451163 2.1638949 0.073693484 48 30
-1.845328 2.1912386 0.073972031 33 30
-1.8433552 2.2163596 0.074210785 45 30
-1.8405086 2.2407653 0.074436277 42 30
-1.8399507 2.2683258 0.074714825 41 30
-1.8384985 2.2951827 0.074980102 36 30
-1.8374056 2.322891 0.07525865 49 30
-1.8335798 2.3475189 0.075484142 34 30
-1.8319628 2.3753545 0.075762689 52 30
-1.8306785 2.4040537 0.076054499 39 30
-1.8279088 2.4312272 0.076319784 38 30
-1.8236824 2.4568508 0.076558538 36 30
-1.818619 2.4817066 0.076784022 41 30
-1.8174207 2.512264 0.077102363 44 30
-1.7961617 2.5152302 0.07696972 22 30
-2.7719724 3.9328625 0.099797264 7 30
-2.6901214 3.8668892 0.098457582 167 30
-2.6703053 3.8890934 0.098550431 161 30
-2.6088152 3.8499413 0.097661741 83 30
-2.5868106 3.8683698 0.097701535 60 30
-2.567982 3.8916812 0.097820908 87 30
-2.5396905 3.9006608 0.097714797 93 30
-2.5081437 3.904392 0.097529098 85 30
-2.4745061 3.904505 0.097290345 86 30
-2.4467919 3.9136794 0.097197495 104 30
-2.3964927 3.8860624 0.096534289 60 30
-2.0395699 3.3530648 0.088031992 146 30
-2.0225577 3.3715189 0.088124841 86 30
-0 0 0 6 30
-0 0 0 19 30
-0 0 0 7 30
-0 0 0 6 30
-0 0 0 5 30
-1.7427262 3.1634049 0.083880328 8 30
-1.7738458 3.2671914 0.085286319 15 30
-1.7716863 3.3115189 0.085790358 14 30
-1.754131 3.327635 0.085869938 108 30
-1.7087995 3.2904141 0.085153677 48 30
-1.6858459 3.2954957 0.085074097 61 30
-1.6655934 3.3057778 0.085074097 83 30
-1.6372801 3.2998118 0.084835343 73 30
-1.5700469 3.2136595 0.083416082 24 30
-1.5485655 3.2196281 0.083363026 29 30
-1.5202255 3.2109935 0.083097741 17 30
-1.5076724 3.2356696 0.083323233 56 30
-1.4861237 3.2412238 0.083270177 16 30
-1.5171801 3.3633087 0.084914923 6 30
-0 0 0 5 30
-1.5177771 3.4779046 0.08630766 4 30
-1.4727553 3.4320166 0.085511811 5 30
-1.4652692 3.4732349 0.085976057 5 30
-0 0 0 21 30
-0 0 0 27 30
-0 0 0 30 30
-1.2987387 3.30249 0.083044685 23 30
-1.3065406 3.3831558 0.084079288 45 30
-1.2846942 3.3883038 0.084039494 49 30
-1.2631824 3.3942485 0.084012963 56 30
-1.2406174 3.397239 0.083946645 62 30
-1.2180634 3.4000804 0.083880328 73 30
-0 0 0 176 30
-0 0 0 220 30
-0 0 0 129 30
-0 0 0 147 30
-0 0 0 153 30
-0 0 0 135 30
-0.85398483 2.7502058 0.074170992 101 30
-0 0 0 124 30
-0 0 0 29 30
-0 0 0 33 30
-0 0 0 6 30
-0.78870916 2.8454514 0.075139277 9 30
-0.77932739 2.8801596 0.075550459 7 30
-0.78587651 2.9767349 0.076810554 16 30
-0.76784605 2.9824693 0.076823816 10 30
-0.79161096 3.1549134 0.079118505 30 30
-0.81945622 3.3530102 0.081758067 83 30
-0.79100245 3.3249002 0.081307083 137 30
-0.77306509 3.3404071 0.081452996 172 30
-0.75145739 3.34021 0.08138667 166 30
-0.73009461 3.3408504 0.081333615 149 30
-0.70958185 3.3452673 0.081333615 131 30
-0.68803549 3.3446612 0.081267297 147 30
-0.66554654 3.3390136 0.081134655 128 30
-0.64391023 3.3371434 0.081055067 113 30
-0.62342179 3.3410316 0.081055067 63 30
-0.60184628 3.3388894 0.08097548 60 30
-0.57929319 3.3306978 0.080816314 153 30
-0.55901068 3.3351758 0.080829576 168 30
-0.53789937 3.3345942 0.08077652 174 30
-0.51666325 3.3328912 0.080710202 150 30
-0.4956153 3.3320427 0.080657147 147 30
-0.47473818 3.332051 0.080617353 155 30
-0.45387959 3.331929 0.08057756 155 30
-0.43226781 3.325727 0.080458187 134 30
-0.41099462 3.3213701 0.080365337 157 30
-0.38979122 3.3168778 0.080272488 123 30
-0.36921093 3.3172195 0.080245957 140 30
-0.3486411 3.3174336 0.080219433 140 30
-0.32788599 3.3155301 0.08016637 184 30
-0.30744392 3.316484 0.080153108 136 30
-0.2866582 3.3133268 0.08008679 150 30
-0.26584285 3.3090432 0.080007203 161 30
-0.24523859 3.3066235 0.079954147 167 30
-0.22467403 3.3040755 0.079901092 163 30
-0.20402679 3.2994037 0.079821505 170 30
-0.1833344 3.2926066 0.079715393 166 30
-0.16283181 3.2876773 0.079635806 168 30
-0.14248307 3.2846186 0.079582751 157 30
-0.12236343 3.2864301 0.079596013 170 30
-0.10235075 3.2921164 0.079662338 152 30
-0.082074307 3.2896836 0.079622544 164 30
-0.061775513 3.2841268 0.079542957 158 30
-0.041560557 3.2794449 0.07947664 177 30
-0.021450318 3.2816379 0.079503164 180 30
-0.0013150128 3.2847075 0.079542957 112 30
0.014772626 2.5897267 0.070324399 132 30
0.030578705 2.5825884 0.070231549 104 30
0.046370231 2.5793531 0.070191763 144 30
0.062123202 2.5760212 0.07015197 154 30
0.077776261 2.5705941 0.070085645 154 30
0.093401581 2.5660715 0.070032589 144 30
0.10901698 2.5624533 0.069992796 154 30
0 0 0 162 30
0 0 0 184 30
0 0 0 199 30
0 0 0 211 30
0.18764171 2.5589004 0.070006065 186 30
0.20349808 2.5596945 0.070032589 145 30
0.21868719 2.5524201 0.069953009 209 30
0.23489414 2.5570045 0.070032589 176 30
0.25028604 2.5525296 0.069992796 191 30
0.26594335 2.550946 0.069992796 153 30
0.28115094 2.5452907 0.06993974 133 30
0.29618311 2.5385518 0.069873422 148 30
0.31175381 2.5366867 0.069873422 159 30
0.32821018 2.5416677 0.069966272 119 30
0.34433654 2.5435693 0.070019327 133 30
0.36077929 2.5473487 0.070098914 128 30
0.37728137 2.5510221 0.070178494 115 30
0.39399457 2.5555766 0.070271343 95 30
0.40935072 2.5511363 0.070244819 89 30
0.42598423 2.5544941 0.070324399 197 30
0.42355955 2.447397 0.068918407 55 30
0.44333968 2.4713247 0.069276534 90 30
0.45191628 2.4331672 0.068799026 112 30
0.46513844 2.4215112 0.068679653 119 30
0 0 0 147 30
0 0 0 145 30
0 0 0 127 30
0 0 0 147 30
0.54160577 2.416836 0.068825558 107 30
0.5566498 2.4144416 0.06883882 132 30
0.57214636 2.4138994 0.068878613 123 30
0.58718371 2.411315 0.068891875 120 30
0.60293895 2.4115467 0.068944931 126 30
0.61797321 2.4087701 0.068958201 140 30
0.63325065 2.406867 0.068984725 124 30
0.64826745 2.4039016 0.068997987 134 30
0.6643374 2.4046974 0.069064312 111 30
0.68370938 2.4169319 0.069289804 43 30
0.68962336 2.3819575 0.068865351 59 30
0.71189678 2.4035661 0.069223478 107 30
0.72895128 2.4068081 0.06932959 124 30
0.74429721 2.4042006 0.069356121 137 30
0.75994021 2.4024482 0.069395915 143 30
0.7755897 2.4005945 0.069435708 143 30
0.79218519 2.4014874 0.069515288 139 30
0.80786312 2.3994243 0.069555081 106 30
0.82939577 2.4142802 0.069833629 49 30
0.84915608 2.4232996 0.070032589 36 30
0.90440035 2.5310304 0.071624286 6 30
1.0876719 2.9857757 0.078123696 22 30
1.172115 3.1571431 0.080643885 186 30
1.1928803 3.1536326 0.08069694 207 30
1.2132869 3.1490529 0.080736727 201 30
1.2347782 3.1471338 0.080816314 194 30
0 0 0 223 30
1.2789561 3.1456378 0.081015274 201 30
1.3016747 3.1460462 0.081134655 186 30
1.3232824 3.1435292 0.081214242 178 30
1.3445143 3.1399462 0.081280559 186 30
1.3653526 3.1353042 0.081333615 212 30
0 0 0 226 30
0 0 0 204 30
0 0 0 211 30
0 0 0 183 30
1.4715664 3.1145477 0.081665218 187 30
1.4962757 3.1171777 0.081837654 240 30
1.5210723 3.1196215 0.082010083 232 30
0 0 0 203 30
0 0 0 224 30
0 0 0 635 30
0 0 0 63 30
0 0 0 49 30
1.6226175 3.0385897 0.081665218 55 30
1.6340837 3.0153902 0.081466258 51 30
1.6274966 2.9597483 0.08077652 52 30
0 0 0 43 30
0 0 0 60 30
0 0 0 49 30
0 0 0 82 30
0 0 0 101 30
0 0 0 87 30
0 0 0 79 30
0 0 0 55 30
0 0 0 64 30
0 0 0 78 30
0 0 0 86 30
0 0 0 98 30
1.7332724 2.6311216 0.077765569 89 30
0 0 0 80 30
1.7755166 2.6245599 0.078004323 92 30
0 0 0 95 30
0 0 0 176 30
0 0 0 192 30
0 0 0 224 30
0 0 0 138 30
0 0 0 271 30
0 0 0 264 30
1.909363 2.5438735 0.07816349 299 30
1.9285674 2.5368857 0.078243077 355 30
0 0 0 135 30
0 0 0 176 30
0 0 0 159 30
0 0 0 167 30
0 0 0 120 30
0 0 0 221 30
2.078521 2.5032742 0.079131775 159 30
2.208395 2.6266937 0.081492782 43 30
2.2516968 2.6450694 0.082049876 24 30
2.4709363 2.8667321 0.086175017 54 30
2.4641509 2.8236446 0.085684247 95 30
2.4966595 2.8257046 0.085989319 79 30
2.4839478 2.776799 0.08539243 28 30
2.6727893 2.951221 0.088788047 76 30
2.7536991 3.0033014 0.09002161 129 30
2.7775178 2.9922106 0.090127721 120 30
2.8067825 2.9867694 0.090339951 156 30
2.8381522 2.9832542 0.090591967 129 30
2.865422 2.9751453 0.090764403 151 30
2.8899062 2.9639502 0.090883777 152 30
2.9248979 2.9632399 0.091202118 215 30
2.9826083 2.984843 0.091944903 29 30
3.1864822 3.1499414 0.095406838 60 30
3.2286448 3.1526828 0.09583129 82 30
3.2616038 3.1460009 0.096083306 65 30
3.2982216 3.1424813 0.096401647 77 30
3.3341901 3.1379449 0.096706726 88 30
3.3687618 3.1317234 0.096985266 100 30
3.3996992 3.121814 0.097197495 74 30
3.4424925 3.1223898 0.097621948 71 30
3.4906337 3.1272273 0.098139249 112 30
3.5299761 3.1236396 0.098497376 100 30
3.5746758 3.1242921 0.098948359 76 30
3.606647 3.1134059 0.099173844 81 30
3.6454673 3.108083 0.099518716 58 30
3.7011855 3.1165679 0.10015539 101 30
3.7271585 3.0995526 0.10027477 77 30
3.7538345 3.0829706 0.10040741 81 30
3.7750103 3.0617688 0.1004472 59 30
3.8038723 3.0466735 0.10061964 4 30
0 0 0 5 30
3.8228471 2.9856105 0.10031456 5 30
3.8315921 2.954771 0.10015539 8 30
3.8424897 2.9257541 0.10003602 7 30
3.8491793 2.8937109 0.099850319 26 30
3.8949661 2.8908939 0.10031456 150 30
3.92715 2.8775773 0.10055332 126 30
3.9633677 2.866904 0.10085839 151 30
4.0150638 2.8669331 0.10141549 156 30
4.0718122 2.8698907 0.10205216 125 30
4.1147914 2.8625522 0.10246335 124 30
4.1528873 2.8513985 0.10279495 145 30
4.2017617 2.8471754 0.10329898 148 30
4.2565584 2.8463492 0.10389587 124 30
4.3115015 2.8449569 0.10449275 139 30
4.353179 2.8342683 0.10487742 154 30
4.3990927 2.8258767 0.1053284 141 30
4.4501343 2.8202388 0.10585896 146 30
4.4978795 2.8119602 0.10633647 115 30
4.5601587 2.8121223 0.10703947 130 30
4.6055207 2.801234 0.10747718 153 30
4.6817899 2.8084092 0.10839241 114 30
4.7342205 2.8004997 0.10893624 147 30
4.7720451 2.783488 0.10925458 153 30
4.8488455 2.7885466 0.1101698 270 30
4.8623848 2.7567697 0.11011674 260 30
4.8661156 2.7195663 0.10991778 242 30
4.8660693 2.6804919 0.10966576 227 30
4.8692431 2.6434288 0.1094668 248 30
4.871264 2.6059561 0.10925458 242 30
4.8730087 2.5685587 0.10904235 221 30
4.8709288 2.5293951 0.10877707 254 30
4.8703327 2.4912646 0.10853831 251 30
4.8703456 2.453687 0.10831282 208 30
4.8915801 2.4268672 0.10840567 204 30
4.9432163 2.4147995 0.1089495 185 30
4.9849744 2.3974223 0.10934743 279 30
4.9977832 2.3659344 0.10932089 278 30
4.9877338 2.3238242 0.10896277 170 30
4.9873548 2.2865098 0.10875054 253 30
4.9757686 2.2443552 0.10837914 232 30
4.9803057 2.2097275 0.1082465 223 30
4.9928541 2.1787274 0.10823324 236 30
4.9996963 2.1452913 0.10814039 343 30
5.0072374 2.112242 0.10806081 309 30
5.009943 2.0772662 0.10791489 338 30
5.0087042 2.0408282 0.10771593 364 30
5.006279 2.0041122 0.10750371 324 30
4.9952173 1.9642104 0.10717211 337 30
5.0081081 1.9338834 0.10718537 460 30
5.0095949 1.8992195 0.10703947 338 30
5.0070968 1.8632157 0.10684051 228 30
5.014678 1.831086 0.10678745 334 30
5.0051088 1.7928653 0.10649564 266 30
5.0141287 1.761458 0.10646911 292 30
5.0172787 1.7280544 0.106363 335 30
5.0221033 1.695318 0.10628341 344 30
5.029563 1.6635293 0.10624362 279 30
4.9892583 1.6163082 0.10554062 194 30
4.97716 1.5787126 0.10523555 100 30
4.9963026 1.5511075 0.10536819 30 30
4.9980717 1.5180973 0.10526208 20 30
5.0025001 1.4859779 0.10519575 19 30
5.0086427 1.4544188 0.10515596 30 30
5.0097771 1.421476 0.10504985 37 30
5.0106955 1.3885741 0.10494374 28 30
5.009469 1.3551925 0.10481109 33 30
5.012856 1.3231539 0.10474478 26 30
5.0131335 1.2903773 0.10463867 24 30
5.0161071 1.2583767 0.10457234 28 30
5.0179062 1.2261511 0.10449275 20 30
5.0233893 1.1948762 0.10446623 18 30
5.0247812 1.1626787 0.10438664 29 30
5.0454788 1.1348963 0.10457234 11 30
5.0298791 1.099009 0.10426727 28 30
5.0326152 1.0672961 0.10421421 26 30
5.0331926 1.0351883 0.10413463 19 30
5.0306239 1.0025275 0.10401525 28 30
5.0258803 0.96955872 0.10386934 23 30
5.0278029 0.93796903 0.10381629 29 30
5.0305114 0.90656954 0.10377649 25 30
5.0300684 0.87465847 0.10369691 27 30
5.032382 0.84328252 0.10365712 18 30
5.0414104 0.81302506 0.10371017 34 30
5.0413632 0.78131092 0.10364386 34 30
5.0381503 0.74918699 0.10353774 26 30
5.0357227 0.71727288 0.10344489 37 30
5.0340843 0.6855517 0.10336531 37 30
5.0401793 0.65490776 0.10339183 40 30
5.0391412 0.62335604 0.10332552 38 30
5.042871 0.59242475 0.10332552 67 30
5.0434299 0.56113964 0.10328572 60 30
5.0547333 0.53101832 0.10339183 68 30
5.050931 0.49930504 0.10329898 56 30
5.0548954 0.46839589 0.10331225 67 30
5.0507007 0.43676829 0.1032194 62 30
5.0502954 0.40552971 0.10317961 89 30
5.0516915 0.37446019 0.10316635 82 30
5.0578847 0.34372744 0.1032194 103 30
5.0598984 0.31268635 0.1032194 91 30
5.0647168 0.28179994 0.10325919 103 30
5.0663505 0.25071812 0.10325919 131 30
5.0647969 0.2194972 0.1032194 121 30
5.0620513 0.18826771 0.10316635 137 30
5.0641108 0.15723497 0.10317961 114 30
5.0709777 0.12630814 0.10325919 112 30
5.0726571 0.095209517 0.10327246 97 30
5.0701461 0.064044818 0.10323267 88 30
5.0764432 0.032972299 0.10331225 89 30
5.0675507 0.0018206557 0.10319287 84 30
0 -0 0 68 30
5.069191 -0.060390096 0.1032194 82 30
5.0747237 -0.091601662 0.10329898 71 30
5.0820627 -0.1229319 0.1034051 76 30
5.0832119 -0.15417331 0.10343163 69 30
5.0751753 -0.18510477 0.10333878 57 30
5.0839343 -0.21666849 0.10347142 64 30
5.0715232 -0.24732226 0.10332552 49 30
0 -0 0 45 30
5.0750923 -0.30996627 0.10341837 52 30
5.0840693 -0.34183931 0.10356427 55 30
5.0938425 -0.37390745 0.10372344 43 30
5.1064038 -0.40634653 0.1039224 49 30
5.1087956 -0.4380987 0.10398872 29 30
5.1099944 -0.46980393 0.10404178 25 30
5.1090055 -0.50134486 0.1040683 34 30
5.1048388 -0.53257984 0.10405504 27 30
5.1014748 -0.56389254 0.10405504 30 30
5.0969257 -0.59506798 0.10404178 28 30
5.0951633 -0.62657517 0.1040683 28 30
5.0932059 -0.65808308 0.10409483 34 30
5.0950174 -0.69012773 0.10417442 34 30
5.0976171 -0.72235978 0.10426727 28 30
5.1010017 -0.75479603 0.10437338 26 30
5.1051683 -0.78745353 0.10449275 25 30
5.106164 -0.81971484 0.10457234 24 30
5.1118875 -0.85284102 0.10471825 23 30
5.1114841 -0.88504428 0.10478457 15 30
5.1089101 -0.9169212 0.10482436 16 30
5.1081033 -0.94916534 0.10489068 13 30
5.1051288 -0.98105651 0.10493048 27 30
5.1029363 -1.0131418 0.10498353 25 30
5.1044598 -1.0460402 0.10508964 17 30
5.107728 -1.079409 0.10522228 31 30
5.1107788 -1.1128572 0.10535493 19 30
5.1145868 -1.1466023 0.10550083 23 30
5.1171985 -1.1802111 0.10563347 22 30
5.1186166 -1.2136643 0.10575285 23 30
5.1207881 -1.247416 0.10588549 25 30
5.121768 -1.2809972 0.10600486 23 30
5.1205912 -1.3141401 0.10609771 21 30
5.1259689 -1.3490987 0.10628341 27 30
5.1175942 -1.3805256 0.10628341 14 30
5.1408315 -1.4206923 0.10672113 28 30
5.1522222 -1.4579279 0.10699967 39 30
5.1633482 -1.4953567 0.10727822 36 30
5.1531172 -1.5267261 0.10726496 147 30
5.1560922 -1.5620861 0.10743739 378 30
5.0547171 -1.5652919 0.10616404 163 30
4.9706593 -1.5727443 0.10512944 169 30
4.8971691 -1.5826081 0.10424074 177 30
4.8142524 -1.5884961 0.1032194 179 30
4.764616 -1.6045992 0.10266231 339 30
4.7584629 -1.6351043 0.10271537 361 30
4.7577767 -1.6675789 0.10284801 372 30
4.754046 -1.6990969 0.10294086 358 30
4.7510467 -1.7309741 0.10304697 377 30
4.7628326 -1.7684484 0.10336531 484 30
4.7546978 -1.7987008 0.1034051 423 30
4.7612987 -1.8346736 0.10365712 423 30
4.7573981 -1.8667763 0.10376323 588 30
4.7634964 -1.9029815 0.10401525 498 30
4.7646976 -1.9374479 0.10420094 539 30
4.7684264 -1.9731476 0.10442644 653 30
4.7691312 -2.0078018 0.10461213 538 30
4.7374196 -2.028759 0.10433359 79 30
4.74505 -2.0665743 0.1046254 63 30
4.7533078 -2.1049643 0.10493048 69 30
4.7594495 -2.1427121 0.10520902 44 30
4.7643962 -2.1801977 0.1054743 37 30
4.7618089 -2.2144511 0.10563347 44 30
4.7653084 -2.2517452 0.10588549 47 30
4.7676272 -2.2887325 0.10612424 37 30
4.769671 -2.3258328 0.106363 44 30
4.7705421 -2.3626003 0.10658849 37 30
4.7702484 -2.3990166 0.10680071 30 30
4.7679052 -2.4346082 0.10698641 28 30
4.7715187 -2.4734828 0.10726496 36 30
4.7757187 -2.5129588 0.10755677 43 30
4.7760849 -2.5506947 0.10779552 30 30
4.7735305 -2.5870998 0.10799448 33 30
4.7715845 -2.6240511 0.10820671 35 30
4.7702374 -2.6615632 0.1084322 31 30
4.7668686 -2.6981716 0.10863116 29 30
4.7658315 -2.7363327 0.10886992 28 30
4.7688246 -2.7770987 0.10917499 20 30
4.7714968 -2.8180037 0.10948006 24 30
4.7764187 -2.8605871 0.10982493 19 30
4.7861247 -2.906451 0.11024939 16 30
4.7937436 -2.9514925 0.11064731 25 30
4.7984447 -2.9951477 0.11100543 12 30
4.8036346 -3.039506 0.11137683 11 30
4.8017268 -3.079721 0.11164211 20 30
4.8020205 -3.1216617 0.11194719 13 30
4.7994752 -3.162071 0.11221247 18 30
4.7999396 -3.2047875 0.11253081 10 30
4.8017168 -3.2487488 0.11287568 20 30
4.8014846 -3.2917211 0.11319402 21 30
4.8082957 -3.339947 0.11363173 20 30
4.8114243 -3.3860776 0.11401639 26 30
4.8092823 -3.4288883 0.11432146 20 30
4.8084164 -3.472971 0.11465307 20 30
4.8104177 -3.5195334 0.11503772 19 30
4.8104205 -3.5650597 0.11539586 19 30
4.8124442 -3.6125188 0.11579378 18 30
4.8196378 -3.6643729 0.11628456 18 30
4.8224134 -3.7134001 0.11670901 18 30
4.8224025 -3.7607536 0.11709367 25 30
4.8274841 -3.8125846 0.11757118 19 30
4.8282061 -3.8614957 0.11798236 16 30
4.8323932 -3.9137053 0.11845987 11 30
4.8252969 -3.9572334 0.11875168 19 30
4.8316936 -4.0123205 0.11928225 17 30
4.8284116 -4.0599113 0.11965364 13 30
4.8239651 -4.1069636 0.12001177 15 30
4.8380556 -4.1704364 0.12070151 17 30
4.8432608 -4.2270026 0.12124533 21 30
4.8442063 -4.280478 0.12172284 32 30
4.838716 -4.3287897 0.12209424 20 30
4.8461533 -4.389277 0.12270439 25 30
4.8419752 -4.4398804 0.12311557 22 30
4.8454185 -4.4980807 0.12367266 23 30
4.8454142 -4.55375 0.1241767 28 30
4.8528762 -4.6171699 0.12482664 19 30
4.8410172 -4.6628146 0.12513171 23 30
4.8509727 -4.7301288 0.12584798 29 30
4.8538785 -4.7914171 0.12644486 24 30
4.8654075 -4.8621063 0.12721418 34 30
4.8685188 -4.9252934 0.1278376 21 30
4.8773232 -4.9951396 0.12858039 27 30
4.8680992 -5.0472846 0.12899157 18 30
4.8777294 -5.1197748 0.12977415 26 30
4.8941894 -5.200582 0.13070264 23 30
4.8948631 -5.2656693 0.13133933 33 30
4.9070935 -5.3442178 0.13221475 28 30
4.8990626 -5.4016318 0.13270552 24 30
4.9058557 -5.4762788 0.13350137 25 30
4.9092655 -5.5482149 0.13424416 27 30
4.9126339 -5.62115 0.13500021 23 30
4.9159436 -5.6950912 0.13576953 35 30
4.9237194 -5.7753706 0.13664497 35 30
4.9158812 -5.8383646 0.13721533 25 30
4.9279118 -5.9260821 0.13821013 20 30
4.9466634 -6.023438 0.13936411 16 30
4.9404716 -6.091732 0.14001405 19 30
4.9298763 -6.1554928 0.14058441 28 30
4.9496951 -6.2585669 0.14181797 19 30
4.9425859 -6.3290133 0.14249444 27 30
4.926249 -6.3885202 0.14298521 26 30
4.9099731 -6.4488592 0.14348926 20 30
4.9171729 -6.5412102 0.14452384 38 30
4.9967151 -6.7326546 0.14718994 172 30
4.98663 -6.8059378 0.14789294 434 30
4.9787621 -6.8833995 0.14866225 367 30
4.9898839 -6.9886889 0.14988256 466 30
4.9716759 -7.0543203 0.15045291 65 30
4.9962425 -7.1823769 0.15203133 79 30
5.0211196 -7.3134694 0.15364955 90 30
5.0227008 -7.4128489 0.15475048 102 30
5.004354 -7.4842591 0.15540043 83 30
5.0139527 -7.599122 0.1567401 63 30
5.0343294 -7.7328176 0.15837158 66 30
5.0386615 -7.8443298 0.15964495 43 30
5.0402074 -7.953649 0.16087851 35 30
5.03477 -8.0539532 0.16196616 39 30
5.0393095 -8.1723604 0.16333236 25 30
5.0451818 -8.2953959 0.16476488 28 30
5.0317311 -8.3887939 0.16573317 27 30
5.0397205 -8.5202065 0.16728507 30 30
5.0513215 -8.6606655 0.16896962 20 30
5.0868058 -8.8457928 0.17133063 32 30
5.0832229 -8.9664345 0.17269683 27 30
5.0856652 -9.1004553 0.17426199 30 30
5.0770044 -9.2173233 0.17556188 27 30
