# .PCD v0.7 - Point Cloud Data file format
VERSION 0.7
FIELDS x y z intensity ring
SIZE 4 4 4 4 1
TYPE F F F F U
COUNT 1 1 1 1 1
WIDTH 328
HEIGHT 1
VIEWPOINT 0 0 0 1 0 0 0
POINTS 328
DATA ascii
3.7842033 -0.8496328 -1.2502369 52 58
3.7669015 -0.87005925 -1.2461292 18 58
3.7670305 -0.89447182 -1.2480249 76 58
3.7485671 -0.91441989 -1.2436013 60 58
3.7714157 -0.94455183 -1.2533966 23 58
3.7666273 -0.8942408 -1.2959139 64 59
4.132926 -1.143297 -1.439926 30 59
4.1841364 -1.1577977 -1.511746 12 60
3.8518727 -0.81445009 -1.2220482 58 57
4.2379107 -1.1447347 -1.4205502 19 58
3.5329244 -1.0485333 -0.86784619 98 51
3.5282826 -1.0707546 -0.86832464 43 51
3.5422997 -1.0499732 -0.77940643 67 49
3.5002115 -1.0609571 -0.81662542 128 50
3.4936357 -1.082414 -0.81662542 55 50
3.7835672 -0.82431257 -0.81879848 56 49
3.7788749 -0.87199605 -0.82009709 4 49
3.8317153 -0.81034899 -0.87727636 59 50
3.8000343 -0.82803768 -0.87089205 110 50
3.7825317 -0.84856671 -0.86792791 110 50
3.7620747 -0.86825508 -0.86427975 124 50
3.7282562 -0.88457638 -0.8574394 105 50
3.6934342 -0.90028489 -0.85037106 116 50
3.6774511 -0.92032915 -0.84786296 126 50
3.6613615 -0.9402113 -0.8453548 124 50
3.638576 -0.95819443 -0.8412506 99 50
3.6128883 -0.97517198 -0.83646238 104 50
3.5805612 -0.99005353 -0.83007807 120 50
3.5556827 -1.006698 -0.82551783 88 50
3.5363464 -1.0247012 -0.82232571 107 50
3.5206578 -1.0436124 -0.82004559 106 50
3.820586 -0.83375728 -0.92334324 26 51
3.7841334 -0.85016996 -0.91544926 94 51
3.7580314 -0.86856896 -0.91018665 37 51
3.739543 -0.9127807 -0.90827292 4 51
3.6792409 -0.92203599 -0.89439869 79 51
3.6575265 -0.94048822 -0.8903321 58 51
3.6864281 -0.97206211 -0.89918292 7 51
3.6747696 -0.99314511 -0.89774764 4 51
3.5909314 -0.99419516 -0.87789309 29 51
3.5558021 -1.0080098 -0.87047756 93 51
3.5448873 -1.0284575 -0.86928147 125 51
3.7967653 -0.85176134 -0.96749252 68 52
3.7810919 -0.87264609 -0.96473461 101 52
3.7502351 -0.88979346 -0.95796525 17 52
3.6948972 -0.92469716 -0.94618154 53 52
3.6732144 -0.94325632 -0.94191933 125 52
3.6523795 -0.96183103 -0.93790781 42 52
3.6099603 -0.97438133 -0.92812979 4 52
3.6281722 -1.0032237 -0.93464851 38 52
3.5604744 -1.0080552 -0.91810113 102 52
3.558871 -1.0312306 -0.91935468 91 52
3.8279412 -0.83466309 -1.0225397 58 53
3.7916706 -0.85116863 -1.0138986 115 53
3.7600446 -0.8683452 -1.0065666 92 53
3.7414987 -0.88828295 -1.0029007 115 53
3.7275386 -0.909168 -1.0005441 57 53
3.6844389 -0.92265642 -0.99006999 75 53
3.6637514 -0.94140804 -0.98588037 113 53
3.6485727 -0.9614144 -0.98326182 103 53
3.6202416 -0.97775114 -0.97697741 106 53
3.5946388 -0.99454784 -0.97147846 105 53
3.5810397 -1.0144833 -0.96938366 92 53
3.5932879 -1.0418062 -0.9746207 11 53
3.7976077 -0.85195041 -1.0635962 8 54
3.759501 -0.86766082 -1.0540429 33 54
3.7325778 -0.88560218 -1.0477651 38 54
3.7344942 -0.93461108 -1.0515864 3 54
3.6737149 -0.94338489 -1.0354823 24 54
3.6399486 -0.95855606 -1.0272937 109 54
3.6200671 -0.97711045 -1.0231994 108 54
3.6102946 -0.99827844 -1.0221076 74 54
3.8189151 -0.85727602 -1.1170368 14 55
3.770601 -0.87077975 -1.1039875 69 55
3.7642541 -0.89367813 -1.1037039 87 55
3.7158425 -0.90631902 -1.0906545 37 55
3.7148628 -0.93026519 -1.092073 13 55
3.6802914 -0.9456526 -1.0832788 58 55
3.661437 -0.96479994 -1.0793073 107 55
3.6387832 -0.98275268 -1.074201 43 55
3.804867 -0.85288507 -1.1622463 13 56
3.7828028 -0.87234861 -1.1569387 75 56
3.7625031 -0.89201468 -1.1522206 102 56
3.7402482 -0.91101217 -1.1469129 86 56
3.7169757 -0.92953843 -1.1413103 83 56
3.6963937 -0.94852632 -1.1365923 105 56
3.6341369 -0.95634955 -1.118605 42 56
3.79656 -0.82713914 -1.2055496 6 57
3.7867675 -0.84937823 -1.2040219 5 57
3.7482631 -0.8891986 -1.194856 35 57
3.7381108 -0.91105485 -1.1933285 88 57
3.7241364 -0.93189663 -1.1905787 89 57
3.7229598 -0.95591253 -1.1921064 31 57
3.8182504 -0.78374618 -0.48731482 37 42
3.8183789 -0.78362632 -0.53640056 64 43
3.8057554 -0.80540437 -0.53523332 94 43
3.7988086 -0.82831997 -0.53494149 22 43
3.8045535 -0.80529279 -0.58279473 117 44
3.7860339 -0.82567483 -0.5805853 100 44
3.7702982 -0.8465094 -0.57884938 113 44
3.7746544 -0.87185085 -0.58042753 37 44
3.8219521 -0.78574318 -0.63227624 91 45
3.8016324 -0.80591398 -0.62956387 103 45
3.7696548 -0.82334501 -0.62481725 68 45
3.7529929 -0.84386879 -0.62278301 10 45
3.7323804 -0.86333197 -0.62007064 61 45
3.7298894 -0.88690025 -0.62057924 81 45
3.7818241 -0.92378402 -0.63075054 31 45
3.8217781 -0.78447062 -0.68047732 4 46
3.7784097 -0.79975629 -0.67322224 33 46
3.7676666 -0.82166731 -0.67213392 14 46
3.7256804 -0.86053383 -0.66614848 8 46
3.7279842 -0.88519633 -0.6675995 49 46
3.6899998 -0.90012687 -0.66143268 98 46
3.6786838 -0.92131728 -0.66034442 116 46
3.6862957 -0.94729996 -0.6628837 50 46
3.8118558 -0.80807805 -0.72731382 99 47
3.7895699 -0.82768846 -0.72383916 76 47
3.7700596 -0.84770083 -0.72094363 84 47
3.750447 -0.86750513 -0.7180481 41 47
3.7040036 -0.88075334 -0.70974755 83 47
3.6851845 -0.90020847 -0.70704508 100 47
3.671977 -0.92089629 -0.70550078 96 47
3.6548538 -0.9404791 -0.70318437 99 47
3.6347823 -0.95913637 -0.70028883 97 47
3.6430376 -0.98525894 -0.70318437 48 47
3.8165114 -0.78408039 -0.77448201 7 48
3.8279076 -0.81093371 -0.77795845 41 48
3.7932136 -0.82793212 -0.77161908 121 48
3.7794666 -0.84925896 -0.76977861 58 48
3.6940742 -0.85390663 -0.75260097 8 48
3.6840036 -0.87542492 -0.75157845 18 48
3.6909246 -0.90103227 -0.75423694 122 48
3.668236 -0.91937703 -0.75055599 81 48
3.7203534 -0.95674521 -0.76303023 9 48
3.7759342 -0.99578577 -0.77632248 8 48
3.6733701 -0.99287373 -0.7554639 31 48
3.5662708 -0.98743504 -0.73358279 122 48
3.5705037 -1.0122366 -0.73583227 82 48
3.7670059 -0.84495193 -0.81620121 35 49
3.6901045 -0.89937019 -0.80234903 31 49
3.6854637 -0.92223203 -0.80256552 58 49
3.703378 -0.95089102 -0.80797648 8 49
3.670692 -0.99067539 -0.80321479 25 49
3.5742011 -0.98823148 -0.78243661 93 49
3.5549178 -1.0064247 -0.77940643 104 49
3.5346084 -1.0241473 -0.77615988 108 49
4.1566653 -1.0682262 -0.64718258 5 44
4.1900315 -1.0506501 -0.70415336 24 45
4.2207317 -1.0859067 -0.71076465 6 45
3.9918368 -0.66639447 -0.85754114 21 49
3.9722805 -0.68821323 -0.85407811 6 49
3.9472177 -0.73387837 -0.85039866 4 49
3.8975773 -0.74943322 -0.84022599 31 49
3.8996091 -0.77466381 -0.84174109 23 49
3.8630624 -0.81681263 -0.83568078 4 49
4.0360527 -0.64856356 -0.91740626 62 50
3.9993455 -0.66786033 -0.9096539 106 50
3.9855788 -0.69072378 -0.90737379 97 50
3.9678495 -0.71275449 -0.90418166 104 50
3.9432995 -0.73334694 -0.89939344 60 50
3.9167349 -0.75329715 -0.89414918 94 50
3.8891196 -0.77275926 -0.88867688 78 50
3.8642755 -0.79249811 -0.88388866 92 50
4.0005498 -0.6692763 -0.95922494 16 51
4.0049787 -0.6953029 -0.96137786 118 51
3.9576316 -0.71213841 -0.95061332 42 51
3.9675064 -0.73907161 -0.95420152 7 51
3.9333386 -0.75771672 -0.94678599 32 51
3.8886168 -0.77388895 -0.93673909 94 51
3.8685763 -0.79461318 -0.93291169 33 51
3.9726207 -0.66339487 -1.0028437 6 52
4.003767 -0.69387764 -1.0121204 64 52
4.0022922 -0.71894497 -1.0128725 79 52
3.9483159 -0.73428035 -0.99983513 9 52
3.9190202 -0.75373685 -0.99331647 6 52
3.8981802 -0.77456051 -0.98905426 73 52
3.877233 -0.7951569 -0.98479205 75 52
3.850498 -0.81432313 -0.97902554 8 52
4.1940703 -0.67441952 -1.1120932 11 53
4.0242133 -0.6725089 -1.0665308 93 53
3.9971881 -0.69323689 -1.0602465 88 53
3.9786103 -0.71519297 -1.0563186 80 53
3.959914 -0.7369473 -1.0523908 95 53
3.9354146 -0.75740647 -1.0468919 74 53
3.8985076 -0.77514976 -1.037989 105 53
3.8690958 -0.79401881 -1.0311809 108 53
3.8490429 -0.81455165 -1.0269911 76 53
3.9670339 -0.71260792 -1.1029013 79 54
3.9417791 -0.73306406 -1.0968964 15 54
3.9088662 -0.75178295 -1.0887079 7 54
3.8908646 -0.79795384 -1.0862513 37 54
3.8557773 -0.81544012 -1.0775168 11 54
3.8356619 -0.83580476 -1.0731496 9 54
3.9581871 -0.73662645 -1.1502274 39 55
3.9385257 -0.75800431 -1.1456885 22 55
3.9131081 -0.7780484 -1.1394476 10 55
3.8988664 -0.80011916 -1.1366107 65 55
3.8788724 -0.82085502 -1.1320719 87 55
3.8550234 -0.84055972 -1.1263983 14 55
3.9090025 -0.77600557 -1.1887851 43 56
3.8854461 -0.79613823 -1.1828876 76 56
3.8664646 -0.81699932 -1.1784644 86 56
3.8445733 -0.83704746 -1.1731567 74 56
3.9149399 -0.65497935 -0.44855922 5 41
3.937253 -0.68356514 -0.45184502 61 41
3.9202845 -0.70542932 -0.45026296 121 41
3.9100273 -0.72838151 -0.44953278 94 41
3.9686468 -0.66344011 -0.50428712 58 42
3.9576664 -0.68659234 -0.50335163 89 42
3.9338715 -0.70735359 -0.50067884 71 42
3.8943834 -0.72494543 -0.49586779 103 42
3.8684528 -0.74470365 -0.4929277 82 42
3.841455 -0.76397771 -0.48985398 102 42
3.9597807 -0.66176015 -0.55361801 7 43
3.9624691 -0.68722588 -0.5546394 21 43
3.9260442 -0.70575947 -0.54982436 97 43
3.9216399 -0.72983593 -0.54982436 15 43
3.8696926 -0.76942927 -0.54340428 10 43
4.0247192 -0.64745909 -0.61277926 82 44
3.9739218 -0.66432244 -0.60520422 6 44
3.9619873 -0.68734241 -0.60394168 9 44
3.9149332 -0.70394635 -0.59699792 92 44
3.9056864 -0.72705066 -0.59620887 69 44
3.9302411 -0.75660467 -0.60094327 12 44
3.9003441 -0.7756955 -0.59684008 24 44
3.8394089 -0.78809136 -0.58768696 107 44
4.0341196 -0.65018308 -0.66397673 107 45
3.9960327 -0.66923606 -0.6580435 78 45
3.9568944 -0.68767786 -0.6519407 51 45
3.9409609 -0.70985091 -0.64990646 92 45
3.9258735 -0.7320348 -0.64804173 93 45
3.8961463 -0.75126565 -0.64363414 88 45
3.875031 -0.77188963 -0.64075232 23 45
4.0344691 -0.64902854 -0.71457624 54 46
4.0313811 -0.67393363 -0.71475762 23 46
4.0116673 -0.69596601 -0.71185559 7 46
3.9666705 -0.71325451 -0.70423776 6 46
3.8974445 -0.7255156 -0.69208544 28 46
3.9045076 -0.75164813 -0.69426197 12 46
4.0309744 -0.6496771 -0.76399058 67 47
4.0104604 -0.67164803 -0.76070899 101 47
4.0062637 -0.69624311 -0.76070899 47 47
3.9526653 -0.71195561 -0.75086415 21 47
3.9183192 -0.73062849 -0.74488008 111 47
3.9022005 -0.75243115 -0.74256366 108 47
3.8609412 -0.76908726 -0.7352283 43 47
3.8474991 -0.79098737 -0.73349094 42 47
4.0360727 -0.65000659 -0.81456327 72 48
4.0078731 -0.67071772 -0.80945086 104 48
3.980536 -0.691275 -0.80454296 74 48
3.9444284 -0.70996082 -0.79779458 5 48
3.9236391 -0.73110014 -0.79431814 63 48
3.906584 -0.75275242 -0.79165971 97 48
3.865411 -0.76944309 -0.78388882 52 48
4.0217276 -0.67281294 -0.36065692 21 39
3.9823751 -0.66573644 -0.40712437 83 40
3.9635253 -0.68760937 -0.40548095 96 40
4.2294226 -0.49595749 -0.85014558 100 48
4.2117276 -0.52009857 -0.84707814 91 48
4.1764235 -0.5417729 -0.84032977 70 48
4.1565318 -0.56514531 -0.83685333 45 48
4.1229434 -0.5863632 -0.83051395 100 48
4.0911894 -0.60747808 -0.82458353 119 48
4.07094 -0.63002306 -0.82110715 15 48
4.2144489 -0.5186494 -0.90169483 62 49
4.1400428 -0.56116772 -0.88654405 5 49
4.106555 -0.58231926 -0.87983441 8 49
4.0797253 -0.60408026 -0.87463987 17 49
4.1597776 -0.56411368 -0.94317156 40 50
4.1244264 -0.58511102 -0.93564719 82 50
4.1072745 -0.60840833 -0.932455 94 50
4.0842195 -0.63062531 -0.92789477 124 50
4.1455512 -0.58930838 -0.9915185 55 51
4.1188054 -0.61131912 -0.98577744 100 51
4.1216941 -0.63761735 -0.98745191 74 51
4.011292 -0.64579517 -0.96089941 13 51
4.0885706 -0.63129759 -1.0311749 51 52
4.0148478 -0.64515406 -1.0128725 14 52
4.0831404 -0.58045411 -0.46754381 52 41
4.0716467 -0.60433334 -0.46657023 88 41
4.0021391 -0.61915666 -0.45841661 20 41
4.1069345 -0.55766988 -0.52059126 63 42
4.0622268 -0.57700169 -0.51497835 132 42
4.0468464 -0.60017043 -0.51337469 116 42
4.0254583 -0.62226325 -0.51096916 102 42
3.9980822 -0.64317137 -0.50776178 82 42
4.1443248 -0.53660518 -0.57783914 52 43
4.1203671 -0.55923587 -0.57477498 107 43
4.0335994 -0.57271034 -0.56237262 19 43
4.0583897 -0.60164839 -0.56660402 42 43
4.0331116 -0.62322128 -0.56339401 89 43
4.0116296 -0.64513391 -0.56076759 37 43
4.1425719 -0.53664607 -0.62887621 108 44
4.1421366 -0.56245315 -0.62934965 64 44
4.0173798 -0.57062727 -0.60978079 5 44
4.0344715 -0.62365741 -0.61372614 59 44
4.2031851 -0.49332821 -0.68906593 35 45
4.1805162 -0.51669681 -0.6856755 106 45
4.1596746 -0.54005915 -0.6826241 110 45
4.1455407 -0.56411356 -0.68075937 90 45
4.0922389 -0.58247083 -0.67211378 97 45
4.0642161 -0.60395473 -0.66787571 58 45
4.0458245 -0.6266225 -0.66533291 112 45
4.2133961 -0.54582763 -0.74450356 6 46
4.1622195 -0.56518209 -0.73561603 50 46
4.138227 -0.5878042 -0.73180711 65 46
4.1413517 -0.61419529 -0.73307675 12 46
4.1141806 -0.63598675 -0.7287237 4 46
4.2315435 -0.49664876 -0.79893005 92 47
4.1972542 -0.51876086 -0.79275292 72 47
4.2105341 -0.54664803 -0.79603451 4 47
4.1526537 -0.56507951 -0.78522456 46 47
4.115108 -0.58571935 -0.77846831 92 47
4.1143484 -0.61138999 -0.77904737 32 47
4.1114888 -0.63677359 -0.77924043 11 47
3.9982057 -0.61854929 -0.35754538 73 39
3.9992483 -0.64385974 -0.35803157 93 39
4.034266 -0.5983035 -0.41161636 67 40
4.0256076 -0.62228632 -0.41106856 87 40
3.9706836 -0.63876104 -0.4053714 17 40
4.3973603 -0.46143511 -0.83058792 24 47
4.2547626 -0.47248381 -0.85484898 76 48
4.2388902 -0.52270699 -0.64386851 31 44
4.2667131 -0.47306094 -0.75266552 34 46
4.2344279 -0.4957985 -0.74722421 91 46
4.2459464 -0.52357781 -0.74994487 21 46
4.2530403 -0.47272956 -0.80259776 120 47
