# .PCD v0.7 - Point Cloud Data file format
VERSION 0.7
FIELDS x y z intensity ring
SIZE 4 4 4 4 1
TYPE F F F F U
COUNT 1 1 1 1 1
WIDTH 396
HEIGHT 1
VIEWPOINT 0 0 0 1 0 0 0
POINTS 396
DATA ascii
3.7851484 -0.046311904 -1.2192708 77 58
3.8217885 -0.07021977 -1.231594 15 58
3.6693962 0.13534522 -1.2270101 46 59
3.6720469 0.11288638 -1.2276633 41 59
3.6555457 0.045049835 -1.2214587 4 59
3.7445982 0.023197085 -1.2521552 45 59
3.7597928 0.00022583353 -1.25738 108 59
3.7200267 -0.022614971 -1.2436646 20 59
3.6824441 0.1131593 -1.2765683 36 60
3.6953053 0.0908617 -1.2809484 57 60
3.7005 0.068272367 -1.2826331 42 60
3.7093225 0.045668673 -1.2856654 69 60
3.7208309 0.022976423 -1.2897086 31 60
3.6796119 0.091165826 -1.3209913 33 61
3.6829147 0.068639755 -1.322033 38 61
3.7351947 0.092487864 -0.83509433 15 50
3.7483473 0.06980177 -0.83805847 83 50
3.7623351 0.04696979 -0.8412506 21 50
3.7898908 0.00079958793 -0.84763491 6 50
3.8112442 -0.022583855 -0.85265118 11 50
3.8090868 -0.0459451 -0.85219514 27 50
3.8223622 -0.069565773 -0.85538727 5 50
3.689549 0.13545291 -0.86952066 87 51
3.7184553 0.11368098 -0.87645781 89 51
3.7365549 0.091295175 -0.88076365 78 51
3.7448111 0.06851089 -0.88267732 93 51
3.7490444 0.045580298 -0.88363415 102 51
3.8249876 0.023055308 -0.90229267 34 51
3.7901022 -0.00042167175 -0.89368105 81 51
3.81236 -0.023809938 -0.89918292 106 51
3.8228221 -0.047330663 -0.90181422 97 51
3.6708024 0.13599107 -0.91108102 5 52
3.7254219 0.09224689 -0.92487049 63 52
3.7375324 0.069601491 -0.9278791 90 52
3.7407932 0.046703067 -0.92863125 29 52
3.794328 0.00080007198 -0.94242072 68 52
3.7991016 -0.022510674 -0.94367433 125 52
3.8134117 -0.045997709 -0.94743508 105 52
3.6914661 0.1361663 -0.96178997 5 53
3.7153835 0.11423243 -0.96807438 8 53
3.71312 0.091360986 -0.96728885 81 53
3.7522082 0.069300883 -0.97776294 29 53
3.7236118 0.045910422 -0.96990734 7 53
3.7547784 0.00022397375 -0.97828662 6 53
3.7875221 -0.023004089 -0.98718959 35 53
3.7930999 -0.046312366 -0.98876071 8 53
3.681674 0.13639267 -1.0046387 68 54
3.7016728 0.11439208 -1.0100977 87 54
3.7196164 0.092103742 -1.0150108 99 54
3.7326157 0.069510438 -1.0185592 107 54
3.7464392 0.046772975 -1.0223806 77 54
3.774554 0.023958603 -1.0302962 81 54
3.7948325 0.00080012705 -1.0360281 117 54
3.798614 -0.022507735 -1.03712 108 54
3.8070621 -0.045920473 -1.0395765 79 54
3.8211367 -0.069543347 -1.0436708 21 54
3.7069936 0.11397184 -1.0563291 59 55
3.7162509 0.091439001 -1.0588822 61 55
3.7215357 0.068724826 -1.0603007 25 55
3.7537425 0.023256585 -1.0696622 37 55
3.7758696 0.00023179612 -1.0761868 83 55
3.7873068 -0.023002846 -1.0795909 86 55
3.763123 -0.045955598 -1.0724989 20 55
3.7723579 -0.069217771 -1.0753357 17 55
3.7208903 0.13848893 -1.1079894 11 56
3.6758263 0.11423545 -1.0938355 66 56
3.6860104 0.091916062 -1.0967842 47 56
3.732723 0.047251973 -1.1109382 6 56
3.7491863 0.024451803 -1.1159511 13 56
3.7750652 0.0014540862 -1.1239127 70 56
3.7702255 -0.021681346 -1.1224383 14 56
3.7977302 -0.045146801 -1.1309897 5 56
3.6717131 0.13607039 -1.1377221 66 57
3.6772375 0.11368725 -1.1392498 81 57
3.6911922 0.091456428 -1.1435273 61 57
3.7031081 0.069022529 -1.1471936 45 57
3.7234559 0.046555668 -1.1536096 51 57
3.7474756 0.023867141 -1.1612478 75 57
3.7570734 0.00087780686 -1.1643032 81 57
3.7712905 -0.022255026 -1.1688862 80 57
3.8186889 -0.045953084 -1.1841626 22 57
3.8116708 -0.069264203 -1.1820239 86 57
3.8302121 -0.093107842 -1.1881344 77 57
3.798161 -0.11566109 -1.1780519 13 57
3.672879 0.13542862 -1.1826171 72 58
3.6736407 0.11288971 -1.1826171 76 58
3.6780581 0.090439439 -1.183881 27 58
3.6523275 0.044972934 -1.1750336 16 58
3.7587945 0.023206882 -1.2104234 86 58
3.7664564 0.00014241885 -1.2129512 69 58
3.7777712 -0.02303873 -1.216743 88 58
3.7315989 0.13700996 -0.41971722 119 41
3.7442744 0.11447842 -0.4211776 121 41
3.7697129 0.092115678 -0.42422 26 41
3.8148649 0.069814332 -0.42969632 4 41
3.8072815 0.046306446 -0.42872274 7 41
3.7995536 0.022894252 -0.42774919 17 41
3.826422 -0.00041454038 -0.43103498 81 41
3.7288308 0.13748579 -0.46486327 124 42
3.7315855 0.11466419 -0.46513054 122 42
3.7431169 0.092032276 -0.46660057 125 42
3.815944 0.070390113 -0.47635633 43 42
3.8024306 0.046805244 -0.47448537 114 42
3.8165205 0.023557311 -0.47635633 136 42
3.8303964 -0.02336508 -0.47822729 124 42
3.7252665 0.1374238 -0.51130402 93 43
3.7299948 0.11468626 -0.51188767 99 43
3.7059035 0.091181152 -0.50823987 5 43
3.7766209 0.069759376 -0.51859951 6 43
3.7937946 0.046797771 -0.52108002 70 43
3.8078601 0.023608724 -0.52312273 138 43
3.82673 0.00025065936 -0.52589506 91 43
3.8177559 -0.023178389 -0.52458185 45 43
3.7371988 0.13779345 -0.55896491 105 44
3.7261298 0.11449713 -0.55707115 46 44
3.7435441 0.092042737 -0.55975395 9 44
3.7608228 0.06937895 -0.56243676 7 44
3.7829003 0.046566837 -0.56590867 11 44
3.807801 0.023504378 -0.56985402 51 44
3.8207107 0.00013886792 -0.57190561 5 44
3.8285391 -0.023353564 -0.5731681 8 44
3.7111731 0.13560778 -0.59989762 106 45
3.7296665 0.11337844 -0.60294896 109 45
3.7322624 0.090539917 -0.60328805 66 45
3.7662499 0.068254985 -0.60905176 93 45
3.7882776 0.045410961 -0.61278123 118 45
3.8042531 0.022262771 -0.6154936 94 45
3.8230431 -0.0010796995 -0.61871451 60 45
3.6993122 0.13640049 -0.64365768 94 46
3.752176 0.11529475 -0.65327072 12 46
3.7960701 0.093328737 -0.66125131 7 46
3.7857556 0.069836326 -0.65925616 53 46
3.8018463 0.04679811 -0.66215819 139 46
3.8059955 0.023493417 -0.6628837 109 46
3.8050845 0.00013989065 -0.66270232 40 46
3.8069806 -0.023219869 -0.66306508 36 46
3.7037439 0.13533399 -0.68986487 70 47
3.7309844 0.11341891 -0.69507682 5 47
3.7590752 0.09119872 -0.70048183 7 47
3.7732983 0.068384901 -0.70318437 15 47
3.7854204 0.045375831 -0.70550078 62 47
3.8072133 0.022280999 -0.70974755 8 47
3.7028496 0.13588616 -0.73460531 88 48
3.7192683 0.11364002 -0.73787725 76 48
3.7433815 0.091387786 -0.74278516 110 48
3.7556164 0.068630502 -0.74523908 107 48
3.7706487 0.045761839 -0.74830651 110 48
3.7826047 0.022693967 -0.7507605 129 48
3.8305619 -0.024031935 -0.76078081 95 48
3.7233205 0.13799939 -0.78633255 5 49
3.7280004 0.11527284 -0.78719831 8 49
3.7383974 0.092641011 -0.78936267 16 49
3.7437761 0.069793411 -0.79044485 89 49
3.7597532 0.047020927 -0.79390788 88 49
3.7843778 0.024113702 -0.79931891 18 49
3.8156297 -0.022502907 -0.80624497 110 49
3.8222535 -0.045994885 -0.80776006 108 49
3.9635727 -0.26831564 -0.93865275 69 51
3.9895396 -0.26886001 -0.99532223 104 52
3.9994001 -0.29418761 -0.99833083 96 52
4.0911236 -0.32619405 -1.0226505 15 52
3.9763854 -0.26848483 -1.0408694 72 53
3.9746633 -0.29287842 -1.0408694 27 53
3.875082 -0.094184846 -0.81966424 38 49
3.9046826 -0.11887201 -0.82637388 89 49
3.9165633 -0.14328869 -0.82918757 108 49
3.9429221 -0.16847645 -0.83524787 109 49
3.9622922 -0.19366142 -0.83979309 87 49
3.9659035 -0.21823671 -0.84087533 42 49
3.857878 -0.093898214 -0.86382371 10 50
3.9089773 -0.14316274 -0.8761363 84 50
3.9226167 -0.16777059 -0.87955648 16 50
3.9487433 -0.19317091 -0.88594079 6 50
3.9669273 -0.21846901 -0.89050096 7 50
3.9791179 -0.24363989 -0.89369315 85 50
3.8574088 -0.071422711 -0.91042584 39 51
3.8598099 -0.095160894 -0.91114348 15 51
3.8843868 -0.11961189 -0.91736299 90 51
3.8913424 -0.14372817 -0.91927665 93 51
3.9253101 -0.16909634 -0.92788827 37 51
3.8757083 -0.19080576 -0.91592771 6 51
3.9529939 -0.21890867 -0.93530381 42 51
3.9690211 -0.24422796 -0.93960965 90 51
3.8479021 -0.070033178 -0.95646095 30 52
3.863852 -0.094044223 -0.96072316 42 52
3.8980362 -0.11881582 -0.96974897 113 52
3.9136796 -0.14333543 -0.97401118 118 52
3.9243326 -0.16784416 -0.97701985 96 52
3.9261296 -0.19206244 -0.977772 52 52
3.9693403 -0.21860214 -0.98930502 110 52
3.9795191 -0.24366452 -0.99231362 92 52
3.8813188 -0.11884303 -1.013113 38 53
3.8891966 -0.1429726 -1.0154697 16 53
3.9668531 -0.21898039 -1.0374652 31 53
3.9741046 -0.24384584 -1.039822 68 53
3.8542988 -0.093810745 -1.0532241 90 54
3.8671129 -0.11787018 -1.0570455 87 54
3.8768919 -0.14198448 -1.060048 90 54
3.918097 -0.1916687 -1.0723307 36 54
3.9485459 -0.2174549 -1.0813382 91 54
3.9279327 -0.24050088 -1.0758791 38 54
3.8677261 -0.094680972 -1.1037039 100 55
3.8852835 -0.11896323 -1.1090938 94 55
3.8959796 -0.14321992 -1.1124979 101 55
3.9093983 -0.16773479 -1.1167531 88 55
3.9197888 -0.19227961 -1.1201574 58 55
3.8370109 -0.092720911 -1.1433744 31 56
3.8850794 -0.11774366 -1.1584131 76 56
3.8890584 -0.14175434 -1.1598873 66 56
3.8324497 0.0001380996 -0.47849455 140 42
3.8462296 -0.046944689 -0.52881324 66 43
3.858933 -0.047222253 -0.57806033 5 44
3.892139 -0.071519516 -0.58342594 78 44
3.8542767 -0.048380557 -0.62413919 88 45
3.8686876 -0.072300822 -0.62668198 109 45
3.8829496 -0.096399754 -0.62922484 140 45
3.8635688 -0.11964929 -0.62600392 30 45
3.8697 -0.047355097 -0.67467326 119 46
3.8644204 -0.071007408 -0.67376637 138 46
3.8786588 -0.095080689 -0.67648703 124 46
3.9163373 -0.12005688 -0.68356073 80 46
3.9194579 -0.14422986 -0.68428624 36 46
3.8347516 -0.0010794441 -0.71515256 9 47
3.8513529 -0.024711002 -0.71843415 5 47
3.8550532 -0.048390072 -0.71920633 30 47
3.8595889 -0.072133519 -0.72017151 36 47
3.9213414 -0.14550979 -0.73271883 34 47
3.93802 -0.17032592 -0.73619348 48 47
3.8414047 -0.00053018029 -0.76303023 25 48
3.8450241 -0.047719076 -0.76384825 131 48
3.8564034 -0.071529835 -0.76630217 117 48
3.8930774 -0.096112713 -0.774073 20 48
3.9080689 -0.12048256 -0.77734494 8 48
3.9414928 -0.14572901 -0.78450233 84 48
3.950304 -0.17033346 -0.7865473 118 48
3.9403853 -0.19413447 -0.78470683 55 48
3.838151 0.0009220278 -0.81122309 6 49
3.8423984 -0.069813125 -0.81230527 109 49
3.8007958 0.092884824 -0.33372268 91 39
3.8012941 0.069561832 -0.33372268 121 39
3.8076205 0.046310671 -0.33430609 86 39
3.7597504 0.1386226 -0.37677604 119 40
3.7804005 0.11615909 -0.37896726 118 40
3.7919726 0.093228415 -0.3801724 112 40
3.7904856 0.069923095 -0.37995329 20 40
3.7898493 0.046651661 -0.37984374 17 40
3.822865 0.023595825 -0.38345924 84 40
3.6952457 0.22781393 -0.82711393 10 50
3.6705337 0.18110976 -0.82072961 101 50
3.678385 0.15887778 -0.82232571 88 50
3.6066604 0.35476857 -0.85277587 26 51
3.555593 0.32771316 -0.83961928 75 51
3.5643086 0.30647478 -0.84129375 102 51
3.5719292 0.28506416 -0.84272903 85 51
3.5852308 0.26400128 -0.84559953 99 51
3.6080956 0.24344262 -0.85086221 62 51
3.6230893 0.22213541 -0.85421115 56 51
3.6447432 0.20102982 -0.85923457 108 51
3.6546361 0.17909281 -0.86138749 91 51
3.6653669 0.15708384 -0.8637796 112 51
3.6355295 0.33634579 -0.90531451 17 52
3.5536149 0.30679715 -0.88350201 82 52
3.5708702 0.2862227 -0.88751352 41 52
3.6497934 0.27001247 -0.90757096 10 52
3.6470346 0.22484675 -0.90606666 8 52
3.6580114 0.20300011 -0.90857381 25 52
3.6717577 0.18117003 -0.91183317 60 52
3.6640959 0.15826209 -0.90957671 9 52
3.5658114 0.2851975 -0.93010581 72 53
3.6011806 0.26581016 -0.93927068 27 53
3.6547396 0.2472429 -0.95341069 5 53
3.6292164 0.22314611 -0.94607884 25 53
3.6574986 0.20237499 -0.95341069 99 53
3.6548157 0.17973834 -0.95236325 87 53
3.5897305 0.26557538 -0.98061889 50 54
3.6104891 0.24484394 -0.98607796 114 54
3.618645 0.22309947 -0.98798859 76 54
3.6324329 0.20158334 -0.99153697 91 54
3.6451318 0.17985907 -0.99481243 76 54
3.6605837 0.15811077 -0.99890667 78 54
3.6227932 0.24507147 -1.0333511 43 55
3.6184862 0.22248287 -1.031649 70 55
3.6255279 0.20059578 -1.0333511 85 55
3.6669157 0.18033728 -1.0452657 14 55
3.6708272 0.1579587 -1.0461167 6 55
3.6146717 0.20122963 -1.076143 64 56
3.7275 0.18456396 -1.1106434 13 56
3.723789 0.16148248 -1.109169 10 56
3.6526487 0.18026739 -1.1322227 63 57
3.6622474 0.1582244 -1.1349725 57 57
3.6681871 0.15779974 -1.1813532 52 58
3.6233971 0.26742938 -0.45163286 27 42
3.6575994 0.24739514 -0.456043 109 42
3.6768537 0.22604059 -0.45844853 98 42
3.6930141 0.20429511 -0.46045312 107 42
3.6536148 0.17964028 -0.45497388 42 42
3.727917 0.16036287 -0.46486327 100 42
3.5987186 0.31007481 -0.49423248 46 43
3.6064703 0.28846282 -0.49510795 101 43
3.6121187 0.26662105 -0.4956916 107 43
3.6196089 0.24485503 -0.49656704 100 43
3.6970739 0.22734028 -0.50780213 30 43
3.6687663 0.20300207 -0.50342482 13 43
3.6491928 0.17946002 -0.50036073 5 43
3.68976 0.15877943 -0.50619715 10 43
3.5723426 0.35199979 -0.53497726 91 44
3.5754187 0.33016437 -0.53513509 108 44
3.5862317 0.30898172 -0.53655541 110 44
3.5988877 0.28783602 -0.53829134 124 44
3.6104341 0.26647401 -0.53986949 120 44
3.6238239 0.24511421 -0.54176325 131 44
3.6400437 0.22378154 -0.54413044 104 44
3.7143099 0.20547093 -0.5558086 30 44
3.7274039 0.16034086 -0.55754459 60 44
3.5446784 0.41403741 -0.57497793 26 45
3.535398 0.3909761 -0.57294369 84 45
3.5416512 0.36968648 -0.57362175 88 45
3.5438528 0.34794837 -0.57362175 85 45
3.550828 0.32665014 -0.57446939 48 45
3.6725559 0.31517491 -0.59515101 6 45
3.6537905 0.29098505 -0.59159106 16 45
3.6250386 0.26631218 -0.5863359 112 45
3.6344707 0.24459624 -0.58769208 147 45
3.6506581 0.22319777 -0.59023488 99 45
3.6480229 0.20057587 -0.58955681 47 45
3.6924958 0.18031693 -0.59701574 85 45
3.7014096 0.15799551 -0.59837192 103 45
3.5121493 0.45523572 -0.61409318 70 46
3.5139005 0.43355668 -0.61391181 87 46
3.5194247 0.4123306 -0.61445594 89 46
3.5287306 0.39148638 -0.61572558 93 46
3.5359566 0.37033877 -0.61663246 91 46
3.5410984 0.34892455 -0.61717659 69 46
3.5843015 0.33098367 -0.62479442 5 46
3.5980225 0.30999631 -0.62697101 7 46
3.6329398 0.26813266 -0.63277507 17 46
3.6433473 0.24643266 -0.63440746 22 46
3.6722746 0.22575957 -0.63948601 7 46
3.694211 0.20436119 -0.64329493 9 46
3.7130756 0.18255749 -0.64655972 6 46
3.7043006 0.15934944 -0.64474595 63 46
3.5148754 0.43242449 -0.65743488 89 47
3.5155137 0.41062117 -0.65704882 111 47
3.5355208 0.39098972 -0.66052347 70 47
3.5407808 0.36959535 -0.66110253 88 47
3.5527465 0.34882453 -0.66303289 88 47
3.5675216 0.32819134 -0.66554236 86 47
3.5948851 0.30848458 -0.67056131 36 47
3.6152935 0.28790689 -0.67422897 96 47
3.63167 0.26680148 -0.6771245 110 47
3.6361756 0.24471153 -0.67770362 93 47
3.6434846 0.22275689 -0.67886186 36 47
3.667316 0.20164281 -0.68330169 6 47
3.6714242 0.17928128 -0.68388075 48 47
3.6910806 0.15755136 -0.68754846 103 47
3.4744866 0.42808521 -0.69186562 11 48
3.5237157 0.41221219 -0.70168144 64 48
3.5174224 0.3896144 -0.69984096 106 48
3.5246146 0.36853302 -0.70086342 89 48
3.5453188 0.34871796 -0.70474887 60 48
3.6409674 0.33557206 -0.72438049 6 48
3.6634388 0.31498396 -0.72867489 12 48
3.5969985 0.28705609 -0.71436018 75 48
3.6055257 0.26548234 -0.71579164 106 48
3.6217365 0.24434102 -0.71885908 106 48
3.6446626 0.22342925 -0.72335804 50 48
3.6635578 0.20203011 -0.72703892 66 48
3.6784163 0.18021628 -0.72990191 96 48
3.6902106 0.15810232 -0.73215133 102 48
3.5235767 0.39152426 -0.74629122 71 49
3.5249417 0.36979443 -0.74607474 41 49
3.5533762 0.35075688 -0.75191861 7 49
3.5856197 0.3095696 -0.7581954 11 49
3.6001027 0.28858104 -0.7610091 17 49
3.6134889 0.26735401 -0.76360637 17 49
3.6506026 0.22510478 -0.77118176 6 49
3.6850576 0.2045511 -0.77854067 7 49
3.6686916 0.18106431 -0.77464479 42 49
3.6902163 0.15944172 -0.77919 77 49
3.5445492 0.37186044 -0.79473639 41 50
3.5351367 0.34895799 -0.79200023 73 50
3.5575714 0.32914171 -0.79678845 35 50
3.5566139 0.30705574 -0.79610443 94 50
3.5652249 0.2857708 -0.79770052 105 50
3.5775924 0.26467869 -0.80020863 118 50
3.6403494 0.24686572 -0.81457335 47 50
3.6557429 0.20287445 -0.81753749 57 50
4.1490536 0.43401858 -0.9876911 99 51
3.9924147 0.39353934 -1.1459723 4 55
4.0367665 0.37292838 -1.1584542 5 55
4.1335588 0.3563323 -1.1865386 48 55
3.8536983 0.49824518 -0.7251904 34 47
4.1088395 0.60840452 -0.77788919 7 47
3.6947491 0.20380397 -0.41557956 71 41
3.6969216 0.18117848 -0.41570127 131 41
3.7177966 0.15934746 -0.4181352 127 41
