# .PCD v0.7 - Point Cloud Data file format
VERSION 0.7
FIELDS x y z intensity ring
SIZE 4 4 4 4 1
TYPE F F F F U
COUNT 1 1 1 1 1
WIDTH 440
HEIGHT 1
VIEWPOINT 0 0 0 1 0 0 0
POINTS 440
DATA ascii
3.5913546 0.13243125 -1.2442229 38 60
3.5563383 0.10929747 -1.2314196 21 60
3.570591 0.065889262 -1.2361366 23 60
3.593523 0.044255108 -1.2442229 71 60
3.5852532 0.022153392 -1.2411906 70 60
3.6186762 0.089636683 -1.2984191 27 61
3.598531 0.06704022 -1.2907794 55 61
3.591373 0.044862632 -1.2880013 69 61
3.5096319 -0.25936216 -0.82694107 16 51
3.5887318 0.15377514 -0.84488189 5 51
3.5672908 0.13092583 -0.83938003 87 51
3.558322 0.10873514 -0.83698791 98 51
3.5560102 0.086827584 -0.83627033 84 51
3.6030743 0.065873697 -0.84775245 8 51
3.6335084 0.044139694 -0.85516798 6 51
3.535645 0.021223089 -0.83100766 65 51
3.5337667 -0.0004720031 -0.83052921 90 51
3.5298135 -0.022131711 -0.82957238 96 51
3.5257277 -0.043742925 -0.82861555 95 51
3.5244222 -0.065357879 -0.82837635 59 51
3.5006585 -0.086414777 -0.82263523 81 51
3.4855046 -0.10744888 -0.81904709 115 51
3.5837364 0.13277473 -0.88851637 118 52
3.5806131 0.11066362 -0.88751352 125 52
3.5802569 0.088667452 -0.88726282 140 52
3.5526648 0.066177927 -0.87999195 73 52
3.5675237 0.04455772 -0.88375276 15 52
3.5290082 0.022425147 -0.87372404 45 52
3.5290794 0.00077113789 -0.87372404 98 52
3.5261135 -0.020865398 -0.87297189 115 52
3.5239832 -0.042477284 -0.87247044 111 52
3.5517254 -0.064612925 -0.87974125 27 52
3.5216367 -0.1073055 -0.87221974 14 52
3.4870527 -0.12766843 -0.86344457 70 52
3.4900725 -0.14922802 -0.86444747 106 52
3.4832897 -0.17035553 -0.86294317 107 52
3.4715464 -0.19113879 -0.86018527 94 52
3.4751394 -0.21273248 -0.86143887 56 52
3.5552528 0.10925869 -0.92460692 28 53
3.5703285 0.087802656 -0.92853469 58 53
3.555361 0.065603919 -0.92434508 10 53
3.5701721 0.043970421 -0.92827284 4 53
3.5491445 -0.021629816 -0.92251211 27 53
3.5421896 -0.043326151 -0.92067915 34 53
3.4680645 -0.085018143 -0.90077835 9 53
3.4327495 -0.10524331 -0.8913517 5 53
3.4522932 -0.12704276 -0.89685059 13 53
3.4832683 -0.14957896 -0.90549171 59 53
3.476501 -0.17066708 -0.90392059 78 53
3.4782794 -0.19215402 -0.90470612 57 53
3.5480433 0.13145617 -0.96669835 6 54
3.5814764 0.11069021 -0.97597873 69 54
3.5667005 0.088333175 -0.9716115 102 54
3.5642898 0.066393211 -0.97079265 102 54
3.5665538 0.044545714 -0.97133857 64 54
3.5215456 0.022378543 -0.9585098 6 54
3.5524015 0.00077368191 -0.96724427 59 54
3.5263653 -0.020866914 -0.95987457 111 54
3.5271327 -0.042515591 -0.9601475 91 54
3.5268054 -0.064156868 -0.9601475 110 54
3.5196133 -0.085631207 -0.95823687 80 54
3.4969053 -0.10654922 -0.95195895 36 54
3.4952242 -0.12796851 -0.95168602 94 54
3.4809172 -0.14883555 -0.94786465 96 54
3.4837821 -0.17037965 -0.94895649 24 54
3.6123154 0.13322163 -1.0285285 23 55
3.5833528 0.11013149 -1.0197344 77 55
3.5753336 0.087927379 -1.0171813 85 55
3.5681357 0.065843843 -1.0149118 80 55
3.5636783 0.043888319 -1.0134934 77 55
3.5619628 0.022008695 -1.012926 26 55
3.5639486 0.00015319833 -1.0134934 17 55
3.5331976 -0.021537879 -1.0044156 69 55
3.5339577 -0.043228179 -1.0046992 103 55
3.5336258 -0.064911321 -1.0046992 114 55
3.5264506 -0.086429782 -1.0027136 89 55
3.5172276 -0.10780451 -1.0001605 85 55
3.5050006 -0.12896451 -0.99675626 82 55
3.637816 0.13540553 -1.0823355 7 56
3.5799787 0.089283034 -1.0640532 7 56
3.5909681 0.067511469 -1.0672969 44 56
3.5578735 0.045056544 -1.0569762 12 56
3.5094264 0.0013787467 -1.0419376 4 56
3.5151019 -0.020188266 -1.0437069 5 56
3.5168226 -0.041779056 -1.0442966 15 56
3.5250986 -0.063512944 -1.0469505 76 56
3.5198662 -0.085025452 -1.0454761 74 56
3.5192783 -0.10662134 -1.0454761 47 56
3.5917854 0.13308284 -1.1120577 6 57
3.5845811 0.088781096 -1.109308 49 57
3.5802984 0.066694617 -1.1077803 97 57
3.5739756 0.044639632 -1.1056416 73 57
3.5684693 0.02267112 -1.1038084 64 57
3.5180755 0.00074745371 -1.0876154 10 57
3.5265834 -0.020886974 -1.0903652 12 57
3.5463831 -0.042759765 -1.0967813 77 57
3.5355818 -0.064332075 -1.0934204 75 57
3.5256014 -0.085796304 -1.0903652 24 57
3.6254725 0.13368565 -1.166818 50 58
3.6376045 0.11178615 -1.1706098 17 58
3.6059737 0.088674583 -1.1598665 42 58
3.5590196 0.065676995 -1.1440675 81 58
3.5650477 0.043907508 -1.1459633 68 58
3.5652499 0.022031961 -1.1459633 92 58
3.5634205 0.00015570752 -1.1453314 85 58
3.5595593 -0.021685498 -1.1440675 106 58
3.5555646 -0.043479316 -1.1428035 55 58
3.6410604 0.13429104 -1.2172134 12 59
3.6257555 0.11144854 -1.2116619 4 59
3.6159775 0.088940218 -1.2080698 4 59
3.6192901 0.066804565 -1.2090495 5 59
3.6224673 0.044631612 -1.2100291 25 59
3.5763602 0.022102376 -1.1940278 88 59
3.5764284 0.00015782691 -1.1940278 64 59
3.5782526 -0.021797627 -1.1946809 46 59
3.581393 0.15407518 -0.53418821 85 44
3.6316109 0.13391134 -0.54207885 9 44
3.5655324 0.15215284 -0.57497793 88 45
3.5604899 0.1300545 -0.57396084 107 45
3.5592508 0.10814479 -0.57362175 96 45
3.562803 0.08637622 -0.57413036 40 45
3.5716619 0.1536576 -0.62026 130 46
3.5656583 0.13148648 -0.61899036 112 46
3.5585344 0.10936473 -0.61753935 37 46
3.5630708 0.087624185 -0.61826485 36 46
3.5458429 0.065435275 -0.61500007 108 46
3.5422444 0.043629147 -0.61427456 69 46
3.5827646 0.022138285 -0.62171102 18 46
3.5744264 0.15253527 -0.66457719 79 47
3.5547042 0.12984127 -0.66052347 19 47
3.5593567 0.10814805 -0.66129559 6 47
3.5609343 0.08633031 -0.66148865 6 47
3.5672832 0.06458769 -0.66264683 6 47
3.557801 0.042577416 -0.66071647 8 47
3.5354283 0.020607395 -0.65627664 74 47
3.5305822 -0.00108608 -0.65531147 114 47
3.5236409 -0.022707311 -0.65396023 44 47
3.5620959 0.15262702 -0.70536238 95 48
3.5619872 0.13073173 -0.70515788 116 48
3.5578301 0.10872438 -0.70413536 90 48
3.5153728 0.085845232 -0.69513756 9 48
3.5520456 0.064931661 -0.70270389 31 48
3.5376952 0.042958837 -0.69963646 124 48
3.5310402 0.021210741 -0.69820499 100 48
3.5242517 -0.00045406903 -0.69677353 115 48
3.5173306 -0.022034775 -0.69534206 112 48
3.509299 -0.04351832 -0.6937061 113 48
3.502115 -0.064922385 -0.69227463 109 48
3.4938221 -0.086215675 -0.69063866 53 48
3.575027 0.13245642 -0.7534337 99 49
3.5689418 0.11030462 -0.75191861 111 49
3.5568635 0.088085532 -0.74910492 49 49
3.6022387 0.067110501 -0.75906116 13 49
3.5391285 0.044192966 -0.74499255 64 49
3.5324991 0.022430789 -0.74347746 94 49
3.5286651 0.00075322948 -0.74261171 94 49
3.520793 -0.020854603 -0.74088019 84 49
3.5022445 -0.08523567 -0.73698431 39 49
3.478235 -0.10601746 -0.73178977 100 49
3.4823973 -0.12753452 -0.73287195 88 49
3.4981313 -0.14960332 -0.7365514 23 49
3.5498824 0.1315241 -0.79200023 57 50
3.5710597 0.11036939 -0.79678845 30 50
3.566803 0.0883357 -0.7956484 5 50
3.5721452 0.066538692 -0.79678845 6 50
3.5279765 0.00077101757 -0.78629994 38 50
3.5318093 -0.020899726 -0.78721201 13 50
3.5253668 -0.10741957 -0.78607196 33 50
3.4769642 -0.12729795 -0.77489942 76 50
3.4761176 -0.1486298 -0.77489942 100 50
3.4731953 -0.16986072 -0.77444339 96 50
3.4769485 -0.19143683 -0.77558345 64 50
3.4873705 -0.21348257 -0.7783196 17 50
3.479928 -0.12865578 -0.81785101 93 51
3.4713125 -0.14967377 -0.81593734 106 51
3.4625704 -0.17059092 -0.81402367 93 51
3.4556415 -0.19151323 -0.81258839 109 51
3.4573088 -0.21289109 -0.81330603 79 51
3.4539998 -0.23397014 -0.81282759 95 51
4.0099874 0.14801642 -0.55332619 7 43
3.6955385 0.20449197 -1.2371335 26 59
3.7154694 0.5286628 -0.83897048 86 50
3.7128544 0.5050683 -0.83760244 95 50
3.7110558 0.48165104 -0.83646238 110 50
3.6994464 0.45708197 -0.8330422 55 50
3.6876757 0.4326736 -0.82962203 8 50
3.6602621 0.40670815 -0.82255369 44 50
3.6655936 0.38454601 -0.82323772 105 50
3.6611016 0.36137831 -0.82164168 87 50
3.72172 0.52831519 -0.88602626 5 51
3.7162325 0.50429147 -0.88387334 15 51
3.7231085 0.4819794 -0.88483024 28 51
3.6573806 0.42788315 -0.86712855 4 51
3.6507678 0.3817538 -0.86425805 9 51
3.6694682 0.36096704 -0.86832464 64 51
3.6300399 0.33459932 -0.85803854 13 51
3.6203225 0.28894213 -0.8546896 5 51
3.6259005 0.26700929 -0.85564643 15 51
3.6197207 0.24423073 -0.85373276 81 51
3.6230893 0.22213541 -0.85421115 70 51
3.6117809 0.19920118 -0.8511014 12 51
3.7028215 0.52686447 -0.92838055 4 52
3.7270877 0.50700295 -0.93389636 97 52
3.7214882 0.48300397 -0.93163985 103 52
3.7176566 0.45933002 -0.92988485 123 52
3.7107902 0.43538317 -0.92737764 94 52
3.7095432 0.41217875 -0.92637479 25 52
3.6908212 0.38718987 -0.92085898 91 52
3.6806033 0.36330122 -0.91759968 88 52
3.6760156 0.34008709 -0.91584462 108 52
3.6703172 0.31685978 -0.91383892 102 52
3.6567528 0.29309729 -0.90982741 59 52
3.6401391 0.26929927 -0.90506375 90 52
3.6243377 0.24578162 -0.90055084 92 52
3.6170816 0.22300325 -0.89829439 94 52
3.6183817 0.20080507 -0.89829439 105 52
3.6108437 0.17817086 -0.89603794 69 52
3.6070333 0.15580343 -0.89478433 65 52
3.7269723 0.52972329 -0.98090518 54 53
3.732065 0.50710553 -0.98142886 92 53
3.7293639 0.48345026 -0.97985774 107 53
3.7207665 0.45913628 -0.97671551 88 53
3.7091358 0.43460822 -0.97278774 59 53
3.7088552 0.41152099 -0.97200221 12 53
3.7017121 0.3877477 -0.96938366 21 53
3.6761694 0.36227348 -0.96178997 83 53
3.6792841 0.33979917 -0.96205181 74 53
3.6755307 0.31671813 -0.96048069 53 53
3.69069 0.27244613 -0.96362293 6 53
3.6229644 0.24508312 -0.94476956 30 53
3.6138041 0.22219349 -0.94188917 81 53
3.6044996 0.19942553 -0.93900877 56 53
3.6181865 0.17792524 -0.94241285 11 53
3.7280045 0.46060747 -1.0251101 79 54
3.7011404 0.43425199 -1.0166485 13 54
3.7008669 0.41121563 -1.0158297 6 54
3.7023637 0.38839951 -1.0155568 8 54
3.6893589 0.36416453 -1.0111896 3 54
3.670449 0.3395727 -1.0051845 58 54
3.6715052 0.31696221 -1.0049117 51 54
3.678956 0.27216682 -1.0060035 6 54
3.6575208 0.24802834 -0.99945259 5 54
3.64169 0.22451781 -0.99453944 65 54
3.6333935 0.20163655 -0.99180996 89 54
3.6259146 0.17891288 -0.98935336 51 54
3.590421 0.15508765 -0.9789812 8 54
3.7099509 0.41164294 -1.0634211 47 55
3.7057312 0.38816997 -1.0614355 26 55
3.6937292 0.36400956 -1.0571802 65 55
3.6863449 0.34045354 -1.0543433 72 55
3.6778557 0.31691924 -1.0512229 77 55
3.6692166 0.29350197 -1.0481024 103 55
3.6479974 0.26928103 -1.0412941 65 55
3.6285334 0.24546164 -1.0350531 79 55
3.6184862 0.22248287 -1.031649 96 55
3.6140385 0.19995639 -1.0299469 88 55
3.6094508 0.17749286 -1.0282447 97 55
3.602808 0.1550101 -1.0259753 92 55
3.6761758 0.34074622 -1.0982586 70 56
3.6781974 0.31818321 -1.0982586 87 56
3.6781754 0.29545543 -1.0976689 54 56
3.6389432 0.26984674 -1.0849893 5 56
3.6271837 0.24660751 -1.0808611 7 56
3.6385233 0.20255493 -1.0835149 31 56
3.6206102 0.17928243 -1.0776174 52 56
3.6738734 0.29451853 -1.1413885 36 57
3.7534757 0.27775684 -1.1664419 8 57
3.6153471 0.20065939 -1.1206125 52 57
3.6155591 0.17842503 -1.120307 58 57
3.6099269 0.15594718 -1.1181684 70 57
3.6234522 0.24508911 -1.168082 31 58
3.6476154 0.22424622 -1.1756655 62 58
3.6470282 0.20175605 -1.1750336 66 58
3.6434593 0.17914204 -1.1734537 68 58
3.6378546 0.15649809 -1.1712418 81 58
3.6372502 0.17886889 -1.2165602 68 59
3.6354465 0.15642497 -1.2155806 59 59
3.7219141 0.4818244 -0.42202947 26 41
3.7193007 0.41202894 -0.4206908 17 41
3.6846333 0.50058007 -0.46312594 47 42
3.6778071 0.47668937 -0.46178952 108 42
3.6678762 0.45253757 -0.46005222 84 42
3.6853485 0.43175152 -0.46205682 10 42
3.6736133 0.38474104 -0.45978492 7 42
3.6759048 0.36219293 -0.45978492 6 42
3.6563475 0.33762872 -0.45684484 55 42
3.6050317 0.31059945 -0.44962826 134 42
3.595015 0.2875267 -0.44802457 121 42
3.6263621 0.26764789 -0.45203379 52 42
3.6936474 0.52497619 -0.51174176 62 43
3.6703324 0.49869794 -0.50780213 118 43
3.6644938 0.47502041 -0.50648898 137 43
3.6663575 0.4524051 -0.50634307 132 43
3.666117 0.42955393 -0.50590533 101 43
3.6450861 0.4044252 -0.50240344 66 43
3.6300845 0.35771728 -0.49948525 58 43
3.617435 0.33406737 -0.4972966 84 43
3.6164598 0.31160921 -0.49685887 120 43
3.6123869 0.28893799 -0.49598342 119 43
3.6022527 0.26588964 -0.49423248 91 43
3.5978944 0.24337909 -0.49335703 98 43
3.5963578 0.22111516 -0.4929193 78 43
3.7217062 0.55220723 -0.56259459 70 44
3.7191584 0.52852786 -0.56164771 92 44
3.6782992 0.49972022 -0.55454612 50 44
3.6901097 0.47828263 -0.55596644 101 44
3.6900349 0.4552691 -0.555493 125 44
3.6751051 0.43055254 -0.55265236 116 44
3.6629558 0.40636277 -0.55028516 107 44
3.6869864 0.3861402 -0.55375707 21 44
3.673563 0.36196241 -0.55123204 11 44
3.6501491 0.33705702 -0.54712892 89 44
3.6452618 0.31406119 -0.5460242 124 44
3.620543 0.28956565 -0.54176325 86 44
3.6035404 0.26596597 -0.53876477 17 44
3.5834296 0.2423863 -0.53529286 8 44
3.5792325 0.19801278 -0.53418821 77 44
3.5803802 0.1760473 -0.53418821 105 44
3.7223568 0.55106664 -0.6083737 115 45
3.7266436 0.52835494 -0.60854322 29 45
3.705416 0.45592964 -0.60328805 7 45
3.6435409 0.42561772 -0.59209961 39 45
3.6735103 0.40629551 -0.59684622 15 45
3.6749539 0.383645 -0.59667671 5 45
3.6527193 0.35867319 -0.59243864 6 45
3.6479819 0.33561957 -0.59125203 7 45
3.6322985 0.31170726 -0.58820063 39 45
3.6243188 0.28862852 -0.58650541 65 45
3.6014502 0.26457167 -0.58226734 6 45
3.593173 0.24180371 -0.58057213 7 45
3.5503237 0.21703139 -0.57294369 6 45
3.5988219 0.19785498 -0.58108073 53 45
3.5684693 0.17422119 -0.57565606 104 45
3.7263424 0.52954799 -0.65508449 96 46
3.704185 0.50323421 -0.65036869 30 46
3.7042773 0.48011738 -0.64982456 6 46
3.6808009 0.4541308 -0.64492732 32 46
3.679611 0.43107995 -0.64420182 104 46
3.6743674 0.40762755 -0.6427508 116 46
3.6650624 0.3838464 -0.64057428 118 46
3.6526685 0.35990587 -0.63785362 25 46
3.6606836 0.33802867 -0.63894188 63 46
3.6254566 0.31235698 -0.63204956 139 46
3.6243641 0.28987083 -0.63150543 130 46
3.6221514 0.26733756 -0.63077992 136 46
3.6207802 0.24490866 -0.63023579 129 46
3.6025834 0.22148257 -0.62660825 80 46
3.5911095 0.19866855 -0.62425029 141 46
3.5794921 0.17600372 -0.62189239 121 46
3.727406 0.55181575 -0.70202613 120 47
3.7180932 0.52713996 -0.69951665 103 47
3.7076459 0.50246727 -0.69681418 105 47
3.6970365 0.47794268 -0.69411165 66 47
3.6482875 0.44888222 -0.68388075 34 47
3.6831326 0.43025532 -0.69025093 117 47
3.6749759 0.40645808 -0.68812758 99 47
3.6647146 0.3825728 -0.6856181 91 47
3.6767576 0.36104128 -0.68754846 23 47
3.6759727 0.33820373 -0.68696934 7 47
3.6554945 0.3137053 -0.68252951 38 47
3.6182277 0.28814149 -0.67480808 98 47
3.6209061 0.26600724 -0.67500114 104 47
3.5970173 0.24206366 -0.66998219 23 47
3.5517118 0.19524975 -0.66052347 6 47
3.5665631 0.1741275 -0.66322595 31 47
3.7044337 0.52578008 -0.74217165 49 48
3.6843102 0.49988413 -0.73726374 31 48
3.6828203 0.40791652 -0.73460531 15 48
3.6745446 0.38419288 -0.73235583 33 48
3.6468592 0.31356022 -0.72519845 8 48
3.6428597 0.29071102 -0.72397149 22 48
3.6348126 0.26763561 -0.72192651 100 48
3.6256433 0.24460416 -0.71967709 49 48
3.6270759 0.22235303 -0.71967709 6 48
3.578691 0.17534108 -0.70904326 30 48
3.7157762 0.52878737 -0.79239285 73 49
3.7131469 0.50518632 -0.79109418 103 49
3.7103679 0.48163748 -0.78979558 88 49
3.7190666 0.45958224 -0.79109418 15 49
3.7169685 0.43618336 -0.790012 21 49
3.6662092 0.40742064 -0.77810782 83 49
3.6637852 0.38440663 -0.77702564 92 49
3.6641319 0.36172637 -0.77659273 92 49
3.6526728 0.33797324 -0.77356261 70 49
3.6274438 0.31319425 -0.76750225 43 49
3.628324 0.29085246 -0.76728582 69 49
3.6193306 0.26778814 -0.76490498 96 49
3.608243 0.2447124 -0.76209128 117 49
3.6018813 0.22208485 -0.76035976 98 49
3.5914788 0.19932692 -0.75776249 80 49
3.5848336 0.17689876 -0.75603098 89 49
3.5819499 0.1547295 -0.75516522 87 49
3.6409509 0.33684677 -0.81639743 44 50
3.6283982 0.31324533 -0.81297725 9 50
3.6312225 0.29105368 -0.81320524 12 50
3.6397371 0.26926956 -0.81480134 67 50
3.6335495 0.2464053 -0.81297725 96 50
3.6359646 0.22416544 -0.81320524 46 50
3.6071346 0.2001821 -0.80613691 8 50
3.5811095 0.15468644 -0.79952461 7 50
3.7764471 0.70393836 -0.85971951 44 50
3.7672794 0.678339 -0.85652733 102 50
3.7588997 0.6530453 -0.85356319 105 50
3.7541933 0.62852281 -0.85151112 100 50
3.7512503 0.60439223 -0.84991503 109 50
3.7471905 0.5801726 -0.84809095 96 50
3.7323806 0.5544529 -0.84375876 30 50
3.7755105 0.6546936 -0.90396714 24 51
3.7612615 0.62846923 -0.89942211 102 51
3.7640882 0.60522425 -0.89918292 90 51
3.7514188 0.57959151 -0.89511633 9 51
3.7549045 0.55656236 -0.89511633 8 51
3.7429543 0.57951713 -0.94066572 44 52
3.7445245 0.55625564 -0.94016427 45 52
3.7315667 0.57585406 -0.61057746 89 45
3.7392662 0.60179591 -0.65943754 80 46
3.738029 0.57808989 -0.65853065 100 46
3.7366419 0.55442172 -0.65762377 106 46
3.7485533 0.62567204 -0.70839632 78 47
3.7436032 0.60125655 -0.70665902 76 47
3.7384951 0.57692546 -0.70492166 103 47
3.7635012 0.67630845 -0.75934929 51 48
3.765651 0.65286911 -0.75894034 99 48
3.7657239 0.6291064 -0.75812232 87 48
3.7231224 0.5985356 -0.74830651 5 48
3.7093115 0.57299167 -0.74462557 5 48
3.7760174 0.70397884 -0.81187242 38 49
3.7793052 0.68062305 -0.81165594 109 49
3.7718682 0.65541166 -0.80905867 91 49
3.769079 0.63112485 -0.80754358 90 49
3.7478213 0.60394025 -0.80191618 46 49
3.7061133 0.57389671 -0.79174352 5 49
3.6340766 0.42575029 -0.36538169 98 40
3.633657 0.40311554 -0.36505303 89 40
3.6706624 0.38443229 -0.36888763 35 40
3.6627405 0.45131135 -0.41436261 121 41
3.6555827 0.42767224 -0.41314563 90 41
3.6605556 0.3827804 -0.41314563 49 41
3.6341901 0.35748547 -0.40961647 104 41
3.6452103 0.33600253 -0.41071174 67 41
