# .PCD v0.7 - Point Cloud Data file format
VERSION 0.7
FIELDS x y z intensity ring
SIZE 4 4 4 4 1
TYPE F F F F U
COUNT 1 1 1 1 1
WIDTH 1320
HEIGHT 1
VIEWPOINT 0 0 0 1 0 0 0
POINTS 1320
DATA ascii
4.8178921 -3.3067012 -0.38871366 25 37
4.8302693 -3.3589711 -0.3916223 33 37
4.8299541 -3.4029026 -0.39344022 22 37
4.8317165 -3.4486938 -0.39547625 24 37
4.8298645 -3.4922972 -0.39722145 21 37
4.820416 -3.5307045 -0.39831218 17 37
4.8210921 -3.5768507 -0.40034822 17 37
4.8197875 -3.6219392 -0.40223885 18 37
4.7784228 -3.6369512 -0.40049365 7 37
4.7970982 -3.6978576 -0.40427488 12 37
4.8073421 -3.7529931 -0.40732896 14 37
4.8084807 -3.80159 -0.40958315 14 37
4.8302279 -3.8671677 -0.41380069 20 37
4.8389521 -3.9231067 -0.41685474 30 37
4.8440862 -3.9767666 -0.41961795 21 37
4.8510442 -4.0325484 -0.42259932 18 37
4.8506308 -4.0827856 -0.42492622 23 37
4.8535786 -4.1364026 -0.42761672 24 37
0 -0 -0 0 37
0 -0 -0 0 37
0 -0 -0 0 37
0 -0 -0 0 37
0 -0 -0 0 37
0 -0 -0 0 37
0 -0 -0 0 37
0 -0 -0 0 37
0 -0 -0 0 37
0 -0 -0 0 37
0 -0 -0 0 37
0 -0 -0 0 37
0 -0 -0 0 37
0 -0 -0 0 37
0 -0 -0 0 37
0 -0 -0 0 37
4.8744812 -5.1212907 -0.47815433 16 37
4.8866959 -5.1976008 -0.48280817 11 37
4.8825436 -5.2574458 -0.48578951 18 37
4.8791881 -5.3189044 -0.48891631 9 37
4.9174585 -5.4270735 -0.4966242 25 37
4.9186592 -5.4957843 -0.50040543 18 37
4.9337354 -5.5811491 -0.50578642 12 37
4.9394183 -5.6571388 -0.51022208 17 37
4.9124312 -5.6964025 -0.51109469 11 37
4.9310718 -5.7894487 -0.51713014 16 37
4.9371948 -5.8691993 -0.52185667 28 37
4.9386988 -5.9446392 -0.52614689 32 37
4.9571776 -6.0419035 -0.53247321 40 37
4.9482718 -6.1070728 -0.53574538 50 37
4.9387512 -6.1723595 -0.53901762 52 37
4.9341807 -6.2448001 -0.54294431 33 37
4.9246106 -6.3119116 -0.54636192 31 37
4.9119663 -6.3759794 -0.54948872 16 37
4.9071755 -6.4512405 -0.55363351 26 37
4.8722911 -6.4876084 -0.55421525 21 37
4.9821157 -6.7192512 -0.57253969 338 37
4.95081 -6.7633743 -0.57377589 168 37
4.9477787 -6.8469725 -0.57857513 224 37
4.9462242 -6.9340334 -0.58366525 205 37
5.0557742 -7.1803355 -0.60293496 32 37
5.0150371 -7.2161355 -0.60337126 39 37
5.029912 -7.3331227 -0.61100644 29 37
5.0317945 -7.433218 -0.6171146 39 37
5.0071468 -7.4954643 -0.61987782 53 37
5.037375 -7.6417837 -0.62998533 54 37
5.0268321 -7.72856 -0.6348573 62 37
5.0385795 -7.8515835 -0.64285606 37 37
5.0372653 -7.956501 -0.6492551 36 37
5.0311522 -8.0557747 -0.65514505 45 37
5.041275 -8.1832895 -0.66343468 34 37
5.0438046 -8.3010006 -0.67085171 28 37
5.0661001 -8.4541216 -0.6812501 23 37
5.0740166 -8.58636 -0.6898306 29 37
5.0875297 -8.7310724 -0.69942909 36 37
5.0929956 -8.8650293 -0.70808232 48 37
5.0832415 -8.9750795 -0.71469945 65 37
5.0903196 -9.1175594 -0.72400713 44 37
5.0823722 -9.2359953 -0.73127872 30 37
5.111681 -9.4256849 -0.74444032 16 37
5.1087594 -9.559782 -0.75294811 17 37
5.092299 -9.6712513 -0.75956523 16 37
5.0686898 -9.7713671 -0.76523709 19 37
5.1461697 -10.071373 -0.78727001 47 37
5.1421247 -10.217679 -0.79665041 61 37
0 -0 -0 298 37
5.156343 -10.566823 -0.81991953 31 37
5.1808262 -10.784347 -0.83497173 13 37
5.1354527 -10.86011 -0.83853483 13 37
5.1714201 -11.112038 -0.85627753 37 37
5.196178 -11.346672 -0.87256587 73 37
5.1440787 -11.41744 -0.87569267 60 37
5.2162004 -11.769736 -0.90128869 115 37
5.2156296 -11.966084 -0.91437757 126 37
5.2505684 -12.250863 -0.93444723 47 37
5.2028008 -12.348104 -0.93961006 77 37
5.2131982 -12.588037 -0.95604384 43 37
5.3298926 -13.096442 -0.99356532 10 37
5.2738776 -13.190018 -0.99836457 10 37
5.2723427 -13.424498 -1.0142167 34 37
5.2656136 -13.652934 -1.0295597 43 37
5.288775 -13.967595 -1.0515927 16 37
5.3391986 -14.366244 -1.0800973 15 37
5.3644176 -14.709806 -1.1042391 35 37
5.3315182 -14.903022 -1.1166735 28 37
5.3271604 -15.183903 -1.1358705 6 37
5.394506 -15.683136 -1.1718649 33 37
5.3772063 -15.950318 -1.1898985 47 37
5.4447451 -16.483978 -1.2283653 17 37
5.4260969 -16.772333 -1.2479259 262 37
5.3242865 -16.809114 -1.2482167 455 37
5.2050962 -16.790028 -1.24429 10 37
5.1077676 -16.840736 -1.2457443 8 37
5.52772 -18.635874 -1.3799053 42 37
5.4035449 -18.635916 -1.3773603 152 37
5.3054109 -18.726294 -1.3817233 37 37
5.5351801 -20.004234 -1.4759632 57 37
5.8631287 -21.706411 -1.60198 17 37
4.4308071 -16.813837 -1.2304013 11 37
4.3270593 -16.838776 -1.2302558 12 37
4.2180829 -16.842758 -1.2285835 359 37
4.1099296 -16.848944 -1.2271291 483 37
4.0039339 -16.863171 -1.2263292 503 37
3.8965714 -16.870901 -1.225093 468 37
3.7903578 -16.882814 -1.2242204 450 37
3.68542 -16.899908 -1.2237841 301 37
3.5723584 -16.878296 -1.2205119 506 37
3.4687278 -16.899897 -1.2205119 386 37
1.6684859 -8.3930502 -0.5865739 56 37
1.6146926 -8.3913774 -0.58570129 370 37
1.5555054 -8.3599453 -0.5826472 494 37
1.5032977 -8.3644247 -0.58228362 44 37
1.4507525 -8.3666124 -0.58177465 29 37
1.3988951 -8.372406 -0.5815565 41 37
0 -0 -0 5 37
1.4899184 -9.6426735 -0.67405123 12 37
0 -0 -0 5 37
0 -0 -0 4 37
2.4642749 -18.149853 -1.2980999 14 37
2.3437624 -18.094408 -1.292937 40 37
2.2301288 -18.08766 -1.29141 44 37
0.98071009 -8.3824224 -0.57799339 11 37
0.93068743 -8.4011688 -0.57893872 7 37
0.88161409 -8.4305277 -0.58068389 6 37
0.82693541 -8.406002 -0.57850242 4 37
0.86822081 -9.4169579 -0.65216368 25 37
0.79330474 -9.2233734 -0.63762051 14 37
0 -0 -0 5 37
1.3176855 -17.873922 -1.2693771 8 37
1.2071136 -17.868734 -1.2684318 10 37
0 -0 -0 4 37
0.98647928 -17.859299 -1.2667593 5 37
0.87614369 -17.850073 -1.2656685 7 37
0.76608706 -17.843155 -1.264796 7 37
0.65600139 -17.831573 -1.2636325 6 37
0 -0 -0 5 37
0.2024402 -8.2865248 -0.56701326 12 37
0.15162799 -8.2896051 -0.5671587 10 37
0.10120247 -8.3262815 -0.56977648 23 37
0 -0 -0 4 37
0 -0 -0 7 37
-0 -0 -0 6 37
-0.10356837 -8.3591681 -0.5721761 286 37
-0.15474729 -8.3523922 -0.57173979 343 37
-0.2052356 -8.3203764 -0.5694856 251 37
-0.25576487 -8.3020134 -0.56824946 149 37
-0.30879149 -8.3570986 -0.57239425 68 37
-0.36014947 -8.3570395 -0.57253969 27 37
-0.41367066 -8.4004955 -0.57588464 66 37
-0.46355653 -8.3679237 -0.57370317 9 37
-0.51440328 -8.3569584 -0.57312143 7 37
-0.56701583 -8.3735456 -0.57457572 9 37
-0.61948448 -8.3848295 -0.57566649 6 37
-1.3511704 -16.893066 -1.1982608 72 37
-1.4486394 -16.812912 -1.1930252 373 37
-1.5515909 -16.801722 -1.1928798 621 37
-1.6538732 -16.783945 -1.1922982 610 37
-1.7564112 -16.769512 -1.1920073 541 37
-1.8814754 -16.958658 -1.2066959 243 37
-1.9752893 -16.859623 -1.2002969 179 37
-2.0763817 -16.828379 -1.1989152 681 37
-2.1815217 -16.830156 -1.200006 611 37
-2.2867615 -16.83128 -1.2010968 642 37
-2.3937805 -16.843592 -1.20306 624 37
-2.4989877 -16.841412 -1.2040054 609 37
-2.6050203 -16.843504 -1.2053143 543 37
-2.7108557 -16.842957 -1.2064778 579 37
-2.8171115 -16.843714 -1.2077867 547 37
-2.9233077 -16.842815 -1.2090228 578 37
-3.0258923 -16.820635 -1.2087319 175 37
-2.2397394 -12.024722 -0.85445958 557 37
-0 -0 -0 1132 37
-2.3688447 -11.904382 -0.8476243 395 37
-2.4498661 -11.928702 -0.85053295 600 37
-2.5370579 -11.979795 -0.85547763 899 37
-2.6128545 -11.974722 -0.85627753 895 37
-2.6891215 -11.971114 -0.8572228 812 37
-2.7661157 -11.969937 -0.85838628 846 37
-5.9225998 -24.936281 -1.8313262 116 37
-6.1085868 -25.035122 -1.8415065 118 37
-6.2623267 -24.998137 -1.8415792 150 37
-6.4280066 -25.00754 -1.8452151 163 37
-6.7020597 -25.425728 -1.8797551 47 37
-5.9926481 -22.180742 -1.6378291 185 37
-6.1318254 -22.15509 -1.6387016 217 37
-6.2915764 -22.201492 -1.6451006 64 37
-6.4476824 -22.231438 -1.6503361 43 37
-6.5748944 -22.16086 -1.6480093 266 37
-6.7104578 -22.119144 -1.6479366 245 37
-6.8723378 -22.162336 -1.6544082 37 37
-7.4428048 -23.491741 -1.7593374 24 37
-2.3156846 -7.1535711 -0.51087654 597 37
-2.3548419 -7.1250224 -0.50978577 1417 37
-2.3991532 -7.1123295 -0.50993121 1383 37
-2.4537792 -7.1295404 -0.51240355 931 37
-2.4935164 -7.1030569 -0.511531 756 37
-2.5155506 -7.0275235 -0.50687712 822 37
-2.5350437 -6.9473047 -0.50185972 1616 37
-2.5821409 -6.9437723 -0.50280505 1480 37
-2.6278775 -6.9361925 -0.50345951 1410 37
-2.6746945 -6.9311037 -0.50433207 1506 37
-2.7215483 -6.9257011 -0.50520468 1278 37
-2.7373297 -6.842196 -0.49996912 1397 37
-2.7736213 -6.8114147 -0.49887839 1486 37
-2.8745189 -6.9370914 -0.51014936 1185 37
-2.9305854 -6.9514909 -0.51269442 1416 37
-2.9763272 -6.940712 -0.51327616 1436 37
-3.0575175 -7.0110021 -0.52032959 346 37
-5.3984675 -12.176595 -0.93379277 29 37
-5.4439893 -12.078681 -0.92862993 36 37
-5.469409 -11.938958 -0.92012215 22 37
-5.4832206 -11.77768 -0.90986919 29 37
-5.4927025 -11.611279 -0.89917994 32 37
-5.5167642 -11.479369 -0.89125389 31 37
-5.5507894 -11.37091 -0.8852185 11 37
-5.599638 -11.294638 -0.88180083 57 37
-5.6683869 -11.259175 -0.88172811 54 37
-5.7137642 -11.178001 -0.87794685 123 37
-5.7817845 -11.141847 -0.87787414 102 37
-5.7422247 -10.901428 -0.86100405 14 37
-5.775157 -10.802659 -0.8557685 11 37
-5.8204098 -10.728445 -0.85256898 204 37
-5.814476 -10.56234 -0.84173429 18 37
-5.847084 -10.468991 -0.83693504 27 37
-5.8207607 -10.273243 -0.82355529 25 37
-5.8434386 -10.167288 -0.81766534 21 37
-5.865037 -10.061444 -0.81177533 19 37
-5.8962145 -9.973752 -0.80741239 18 37
-5.9014144 -9.8441401 -0.79948634 16 37
-5.5390487 -9.1122618 -0.74015003 39 37
-5.5765448 -9.0483837 -0.73760498 64 37
-5.5986714 -8.9607058 -0.73302388 58 37
-5.6001916 -8.8419218 -0.72575229 71 37
-5.6036992 -8.7284956 -0.71891701 53 37
-5.61201 -8.6245575 -0.71288157 64 37
-5.6280417 -8.5341721 -0.7080096 65 37
-5.6564751 -8.4638195 -0.7048828 88 37
-5.6937637 -8.4074802 -0.7029922 339 37
-5.7407298 -8.3658066 -0.70241046 742 37
-5.7418594 -8.258357 -0.69601148 50 37
-5.8791375 -8.3461008 -0.70699155 25 37
-5.9968524 -8.4032383 -0.71535391 762 37
-6.0629067 -8.3864918 -0.71717179 675 37
-6.1336942 -8.3756886 -0.71957141 663 37
-6.204576 -8.3643312 -0.72197109 143 37
-5.7975402 -7.7160668 -0.66634333 25 37
-6.4003553 -8.4105921 -0.73324203 595 37
-0 -0 -0 594 37
-0 -0 -0 594 37
-0 -0 -0 605 37
-0 -0 -0 534 37
-0 -0 -0 558 37
-0 -0 -0 133 37
-0 -0 -0 83 37
-7.1437263 -8.4885941 -0.77156335 103 37
-7.2441854 -8.5015411 -0.77701706 78 37
-7.3339963 -8.5007343 -0.78123462 96 37
-7.4371896 -8.5141678 -0.78690642 83 37
-7.5447855 -8.5311356 -0.79301459 96 37
-7.6302505 -8.5218363 -0.79665041 101 37
-7.7004795 -8.4948101 -0.79861373 73 37
-7.8259549 -8.527503 -0.80653977 336 37
-7.8849196 -8.4866314 -0.80726695 602 37
-7.9935541 -8.498394 -0.81330234 350 37
-8.0792456 -8.484581 -0.81686544 418 37
-8.0432549 -8.343648 -0.80763048 24 37
-8.0817623 -8.2812891 -0.80632162 603 37
-8.1022854 -8.2010336 -0.80319482 502 37
-8.1073198 -8.1060286 -0.79854101 635 37
-8.1427135 -8.0421124 -0.79708672 617 37
-8.1983309 -7.9982667 -0.79774112 157 37
-8.3118801 -8.0101051 -0.80428559 96 37
-8.470664 -8.063489 -0.81533837 571 37
-8.5795565 -8.0673914 -0.8213011 556 37
-8.6836977 -8.0655079 -0.82675481 594 37
-8.7969551 -8.0707397 -0.83308113 602 37
-8.9076462 -8.0722036 -0.83911651 510 37
-9.0090237 -8.0639629 -0.84420663 247 37
-9.0934486 -8.0395851 -0.8476243 121 37
-2.716275 -2.3708584 -0.22553897 56 37
-2.6877253 -2.317014 -0.22139417 96 37
-2.7094834 -2.3069468 -0.22212131 349 37
-2.6747472 -2.2491813 -0.2174675 119 37
-2.7176456 -2.2569499 -0.2202307 343 37
-2.6952083 -2.210494 -0.21681306 156 37
-2.7025223 -2.1888909 -0.21623132 98 37
-2.7088943 -2.1666584 -0.21557689 107 37
-2.7096181 -2.1401012 -0.21441342 105 37
-2.7085462 -2.1123898 -0.21310453 139 37
-2.7246165 -2.098166 -0.2133954 280 37
-2.7064843 -2.0578554 -0.21055947 130 37
-2.7126811 -2.0364177 -0.20997775 122 37
-2.7163134 -2.0131991 -0.20917787 121 37
-2.7229822 -1.9923697 -0.20866886 89 37
-2.7262645 -1.9691974 -0.20786898 141 37
-2.737484 -1.9518529 -0.20779628 110 37
-2.7526705 -1.9373165 -0.20808713 110 37
-2.7792463 -1.9306371 -0.20939602 94 37
-2.8099554 -1.9265255 -0.21106848 69 37
-2.8423693 -1.9232275 -0.21288639 96 37
-2.8814819 -1.9240367 -0.21528602 115 37
-2.9182127 -1.9227906 -0.2174675 323 37
-2.9550354 -1.9211656 -0.21964897 114 37
-2.9818757 -1.9126954 -0.22095786 217 37
-3.0668623 -1.9407861 -0.22728415 62 37
-3.090555 -1.9293295 -0.22830218 75 37
-3.1184678 -1.9202712 -0.22968379 69 37
-3.1591692 -1.9187124 -0.23215613 29 37
-10.461855 -6.2695489 -0.85191453 230 37
-10.46836 -6.1864605 -0.84922403 495 37
-10.439774 -6.0834403 -0.84362495 187 37
-0 -0 -0 7 37
-10.434673 -5.9101334 -0.83700776 372 37
-10.426332 -5.8211961 -0.83329928 589 37
-10.416419 -5.7321033 -0.82951802 488 37
-10.085821 -5.4697747 -0.79919547 31 37
-10.347003 -5.5295601 -0.81802887 130 37
-10.366618 -5.4585314 -0.81686544 594 37
-10.360078 -5.3741503 -0.81359321 600 37
-10.346678 -5.2868781 -0.80981201 567 37
-10.335272 -5.2013187 -0.8062489 596 37
-10.334823 -5.1218581 -0.80363113 529 37
-10.303315 -5.0277252 -0.79854101 654 37
-10.29981 -4.9479961 -0.7957778 712 37
-10.286701 -4.8642349 -0.79228741 680 37
-10.278378 -4.7833476 -0.78923339 648 37
-10.272171 -4.7039919 -0.78639746 551 37
-10.260832 -4.6228447 -0.78319794 688 37
-10.257092 -4.5456514 -0.78065288 694 37
-10.247307 -4.4662876 -0.77767152 698 37
-10.229601 -4.3840718 -0.77410841 676 37
-10.218627 -4.3053408 -0.7711271 661 37
-10.208917 -4.2276735 -0.76829118 681 37
-10.194943 -4.1487842 -0.76516438 779 37
-10.180388 -4.0702257 -0.76203758 804 37
-10.172681 -3.99492 -0.75949252 800 37
-10.161642 -3.9187858 -0.7567293 828 37
-10.065178 -3.8107927 -0.74734896 766 37
-10.029475 -3.7270687 -0.74276781 720 37
-9.9687653 -3.6350408 -0.73629612 66 37
-1.6249373 -0.58021653 -0.088469319 21 37
-1.6265848 -0.56957471 -0.088323891 16 37
-1.6328782 -0.56055683 -0.088542037 14 37
-1.6230561 -0.54606563 -0.087524012 14 37
-1.625429 -0.53578365 -0.087451294 14 37
-1.6144524 -0.52119428 -0.086360559 12 37
-1.6204722 -0.51218206 -0.086578704 8 37
-1.602627 -0.49573085 -0.084978953 24 37
-1.5235602 -0.46098778 -0.078725375 86 37
-1.5148861 -0.4482266 -0.077852786 149 37
-1.5137764 -0.43781179 -0.077561922 144 37
-1.5145152 -0.42797136 -0.077416487 126 37
-1.5103841 -0.41680822 -0.076907478 160 37
-1.508099 -0.40623221 -0.076543897 174 37
-1.5067055 -0.39595419 -0.076253034 148 37
-1.5071747 -0.38620517 -0.076107599 158 37
-1.5066137 -0.376223 -0.075889453 178 37
-1.5050181 -0.36602584 -0.07559859 173 37
-1.5043247 -0.3560929 -0.075380445 162 37
-1.5025942 -0.34595782 -0.075089581 185 37
-1.5007962 -0.33585739 -0.074798718 180 37
-1.4989311 -0.32579207 -0.074507847 167 37
-1.4969989 -0.31576234 -0.074216984 187 37
-1.4950004 -0.30576861 -0.073926121 155 37
-1.4939138 -0.2960059 -0.073707975 173 37
-1.4927639 -0.28626809 -0.07348983 196 37
-1.4925313 -0.27673814 -0.073344395 150 37
-1.4902748 -0.26686868 -0.073053531 173 37
-1.4899189 -0.25737846 -0.072908096 163 37
-1.4885191 -0.24773814 -0.07268995 194 37
-1.4860723 -0.23796625 -0.072399087 191 37
-1.4855332 -0.22853859 -0.072253652 182 37
-1.485921 -0.21927285 -0.072180942 198 37
-1.486251 -0.21001098 -0.072108224 178 37
-1.4845468 -0.20048483 -0.071890071 143 37
-1.4867381 -0.19150022 -0.071962789 195 37
-1.4868953 -0.18225205 -0.071890071 191 37
-1.4860045 -0.17289314 -0.071744643 175 37
-1.4840635 -0.16344208 -0.071526498 178 37
-1.4840465 -0.15422909 -0.07145378 199 37
-1.4800022 -0.14463136 -0.071090199 168 37
-1.4778824 -0.13527244 -0.070872054 153 37
-1.4786845 -0.12620178 -0.070872054 169 37
-1.4784368 -0.11704688 -0.070799336 188 37
-1.4672502 0.035979491 -0.088035628 83 38
-1.4689935 0.045043293 -0.088206112 73 38
-1.4617199 0.053797636 -0.08760941 97 38
-1.4623576 0.062808588 -0.087694652 90 38
-1.4629399 0.071829394 -0.087779894 65 38
-1.4654561 0.080970168 -0.088035628 95 38
-1.4649317 0.089960515 -0.088035628 107 38
-1.4663403 0.099082343 -0.088206112 93 38
-1.4696792 0.10837192 -0.088547088 112 38
-1.4679935 0.11730803 -0.088461839 122 38
-1.4741948 0.12691332 -0.089058541 157 38
-1.4704119 0.13568099 -0.088802814 141 38
-1.4755009 0.14528809 -0.089314274 172 38
-1.4755726 0.15444285 -0.089399517 194 38
-1.4785582 0.16393411 -0.089740485 227 38
-1.4775245 0.1730033 -0.089740485 224 38
-1.477424 0.18218815 -0.089825727 241 38
-1.4713379 0.1906087 -0.089399517 271 38
-1.4701407 0.19963306 -0.089399517 267 38
-1.4698745 0.2087903 -0.089484759 272 38
-1.4734935 0.21853752 -0.089910977 255 38
-1.474094 0.22787955 -0.090081461 221 38
-1.4746354 0.23723716 -0.090251945 210 38
-1.4770826 0.24693908 -0.090592921 242 38
-1.4784846 0.25650936 -0.090848647 255 38
-1.4808053 0.26628274 -0.091189623 235 38
-1.4811025 0.27572897 -0.091360107 219 38
-1.483296 0.28556612 -0.091701075 215 38
-1.4834703 0.29505131 -0.091871567 215 38
-1.4835839 0.30454937 -0.092042051 212 38
-1.482662 0.31385332 -0.092127293 198 38
-1.4836286 0.32358259 -0.09238302 232 38
-1.4816152 0.33267987 -0.09238302 224 38
-1.4814875 0.3422136 -0.092553511 206 38
-1.4822679 0.35198876 -0.092809238 206 38
-1.4839518 0.36202273 -0.093150206 198 38
-1.4855683 0.37209058 -0.093491182 187 38
-1.4890469 0.38268837 -0.094002642 192 38
-1.4943779 0.39385113 -0.094684586 212 38
-1.4986658 0.40483359 -0.095281288 185 38
-1.5028751 0.41588342 -0.095877983 173 38
-1.5079634 0.42727193 -0.096559927 190 38
-1.5139251 0.43901619 -0.097327121 183 38
-1.5159786 0.4497152 -0.097753331 184 38
-1.518911 0.46074533 -0.098264791 166 38
-1.5208132 0.47153303 -0.098691009 154 38
-1.5216905 0.48206025 -0.099031977 190 38
-1.5205997 0.49200201 -0.099202462 166 38
-1.5213362 0.50257403 -0.099543437 171 38
-1.5220001 0.51317358 -0.099884406 155 38
-1.5244752 0.52444887 -0.10039587 112 38
-1.6368583 0.57439858 -0.11088075 32 38
-1.6351792 0.58510309 -0.11105125 8 38
-1.6334301 0.59580863 -0.11122173 7 38
-1.626942 0.60477781 -0.110966 16 38
-1.6259956 0.61580849 -0.11122173 15 38
-4.6849246 1.8080467 -0.3920975 15 38
-4.7293801 1.8586291 -0.39721209 390 38
-4.7373123 1.8953871 -0.39900219 577 38
-4.720057 1.9221637 -0.39849073 565 38
-4.7136965 1.9533784 -0.39900219 557 38
-4.7098846 1.9857486 -0.39976937 521 38
-4.7012744 2.0161817 -0.40011033 542 38
-4.694294 2.0473807 -0.4006218 519 38
-4.6889296 2.0793777 -0.40130374 490 38
-4.6887984 2.113843 -0.40249714 549 38
-4.6884208 2.148385 -0.40369055 435 38
-4.6769567 2.1779535 -0.40386105 498 38
-4.6842184 2.2164128 -0.40582162 380 38
-8.8191271 4.2397189 -0.79964441 817 38
-8.805481 4.2998738 -0.80083781 818 38
-8.7958908 4.3622336 -0.80245745 817 38
-8.7831964 4.4232931 -0.80382133 873 38
-8.7745199 4.486629 -0.80561143 927 38
-8.7653952 4.5500245 -0.80740154 910 38
-8.7505341 4.6106901 -0.80868018 1018 38
-8.7378931 4.6727533 -0.81021458 958 38
-8.7300739 4.7376866 -0.81226039 935 38
-8.7235317 4.8036609 -0.81447673 722 38
-8.484271 4.739975 -0.79393315 48 38
-8.7063999 4.9344244 -0.81865358 639 38
-8.6863241 4.9937129 -0.81967652 706 38
-8.662405 5.0509324 -0.82035846 150 38
-7.8525391 4.6434655 -0.74295783 244 38
-8.5476465 5.1255941 -0.81515867 392 38
-8.6437349 5.2555957 -0.82794511 497 38
-8.638464 5.3252659 -0.83067286 235 38
-8.6411123 5.4003496 -0.83425307 123 38
-0 0 -0 4 38
-2.6662493 1.7118317 -0.23354547 9 38
-2.7333546 1.7787086 -0.24147308 47 38
-2.7173991 1.7921547 -0.24096161 29 38
-2.7196045 1.8176546 -0.2423255 40 38
-2.7149994 1.8387781 -0.24300745 38 38
-2.7110589 1.8604772 -0.24377464 58 38
-2.7118618 1.8856105 -0.24505328 37 38
-2.7132723 1.9113971 -0.24641716 40 38
-2.7144682 1.9372718 -0.24778105 51 38
-2.7122185 1.9608973 -0.24880397 34 38
-2.7073696 1.9828014 -0.24957116 32 38
-2.6959527 1.99997 -0.24965641 29 38
-2.6836302 2.0164745 -0.24965641 46 38
-2.6616933 2.025661 -0.24863349 29 38
-2.6350107 2.0310044 -0.24709912 36 38
-2.6052217 2.0336442 -0.24522378 32 38
-2.5770633 2.0372314 -0.2435189 36 38
-2.5450711 2.0374365 -0.24138783 27 38
-2.5093043 2.0341883 -0.23883054 38 38
-2.4790645 2.0350046 -0.23686995 35 38
-2.4473774 2.0342531 -0.23473887 35 38
-2.412745 2.0306232 -0.23226683 30 38
-2.3858325 2.0331089 -0.23064721 31 38
-2.3559639 2.0327373 -0.22868662 25 38
-2.3269405 2.032732 -0.22681127 41 38
-2.3017378 2.0357485 -0.22536214 36 38
-2.2758441 2.0378678 -0.22382776 34 38
-2.2455828 2.0357308 -0.22178194 34 38
-2.2249758 2.0420592 -0.22084427 22 38
-2.1919692 2.0366805 -0.21845746 43 38
-2.1656437 2.0371194 -0.21683784 47 38
-2.1430032 2.0407484 -0.21564443 36 38
-2.1225517 2.0462513 -0.21470676 24 38
-2.0999746 2.0494924 -0.21351336 35 38
-2.0774381 2.0525339 -0.21231996 36 38
-2.0598745 2.0603094 -0.21172325 37 38
-2.0338933 2.0594385 -0.21010365 31 38
-1.9975661 2.0476274 -0.20720538 36 38
-1.9061593 1.9780453 -0.19748767 5 38
-1.8816229 1.9767121 -0.19595329 3 38
-1.9001673 2.0208893 -0.19978924 32 38
-1.8755286 2.0193677 -0.19825485 39 38
-1.865123 2.0330405 -0.19851059 36 38
-1.8546202 2.0466619 -0.19876632 51 38
-1.8533219 2.0706255 -0.20021544 37 38
-1.8471801 2.0894241 -0.20106788 35 38
-1.84874 2.1172321 -0.20294322 41 38
-1.8461239 2.1406095 -0.20430711 33 38
-1.8452281 2.1663101 -0.20592673 36 38
-1.8408794 2.188267 -0.20712014 35 38
-1.845243 2.2209818 -0.20950694 29 38
-1.8391634 2.2415066 -0.21052986 32 38
-1.8366641 2.266685 -0.21206424 33 38
-1.8376589 2.2965848 -0.21411006 39 38
-1.8377378 2.3257999 -0.21607065 29 38
-1.8350756 2.3519592 -0.21769027 29 38
-1.8315532 2.3773832 -0.21922465 40 38
-1.8295969 2.4052315 -0.22101475 40 38
-1.829162 2.435535 -0.22306058 35 38
-1.8230834 2.458719 -0.22433923 26 38
-1.8138468 2.4778996 -0.22519165 34 38
-1.8085276 2.5027125 -0.22664079 35 38
-1.8018148 2.5259304 -0.22791943 35 38
-0 0 -0 5 38
-2.4312871 3.4986582 -0.32697183 32 38
-2.4142818 3.5200841 -0.32765377 31 38
-2.3915207 3.5331812 -0.3274833 44 38
-2.3769898 3.5585604 -0.32859144 44 38
-2.3688166 3.5938773 -0.33072251 34 38
-2.3559539 3.6225445 -0.33217165 38 38
-2.349822 3.6620908 -0.33472896 58 38
-2.3939137 3.7816784 -0.34538433 137 38
-2.3585281 3.7768574 -0.34342372 132 38
-2.3201578 3.7666547 -0.34095168 107 38
-2.0430269 3.3626983 -0.29909736 137 38
-2.0208192 3.3726068 -0.29884163 126 38
-1.9661336 3.3274665 -0.29313034 21 38
-0 0 -0 8 38
-1.6036103 2.7914653 -0.23789287 13 38
-1.8569357 3.27899 -0.28486177 87 38
-1.8314401 3.2807519 -0.2839241 119 38
-1.8031116 3.2770867 -0.28247496 130 38
-0 0 -0 63 38
-0 0 -0 92 38
-0 0 -0 86 38
-0 0 -0 70 38
-0 0 -0 64 38
-0 0 -0 110 38
-0 0 -0 93 38
-0 0 -0 118 38
-0 0 -0 104 38
-0 0 -0 103 38
-0 0 -0 98 38
-0 0 -0 105 38
-0 0 -0 100 38
-0 0 -0 106 38
-0 0 -0 78 38
-1.202505 2.8060973 -0.22365728 56 38
-1.1895183 2.8235238 -0.22459495 55 38
-0 0 -0 57 38
-0 0 -0 62 38
-0 0 -0 40 38
-0 0 -0 23 38
-0 0 -0 14 38
-0 0 -0 5 38
-0 0 -0 7 38
-0 0 -0 14 38
-0 0 -0 18 38
-0 0 -0 40 38
-0 0 -0 44 38
-0 0 -0 27 38
-0 0 -0 40 38
-0 0 -0 51 38
-0 0 -0 86 38
-0 0 -0 45 38
-0 0 -0 23 38
-0 0 -0 9 38
-0 0 -0 23 38
-0.77550679 2.7379472 -0.20592673 6 38
-0 0 -0 5 38
-0.74055147 2.7424481 -0.20550051 12 38
-0.73081398 2.7739189 -0.20788732 32 38
-0 0 -0 4 38
-0 0 -0 4 38
-0 0 -0 5 38
-0 0 -0 4 38
-0.62006509 2.6853254 -0.19825485 7 38
-0 0 -0 3 38
-0.58091438 2.6645002 -0.19578281 4 38
-0.56620342 2.675813 -0.19646476 3 38
-0.54897368 2.6753325 -0.19612378 6 38
-0.5298298 2.664969 -0.19493039 6 38
-0.51384419 2.6701267 -0.19510087 5 38
-0.49909016 2.6820452 -0.19586806 4 38
-0.4794538 2.6674051 -0.19433369 7 38
-0.46035621 2.6545892 -0.1929698 6 38
-0.4419263 2.644588 -0.19186163 5 38
-0.42663935 2.6531522 -0.1923731 5 38
-0.4077678 2.6389804 -0.19092396 6 38
-0.39112976 2.6384759 -0.19066823 10 38
-0.37479311 2.6398396 -0.19058299 6 38
-0.35885602 2.6440642 -0.19075347 8 38
-0.34160325 2.6383114 -0.19007152 5 38
-0.329182 2.6710134 -0.19271407 35 38
-0.31116757 2.6591282 -0.19152066 15 38
-0.29243478 2.6392004 -0.18964532 39 38
-0.27147421 2.5953605 -0.18572414 61 38
-0.25408295 2.5821037 -0.18444549 62 38
-0.23649926 2.5647631 -0.18282588 72 38
-0.21973477 2.5542533 -0.18180296 90 38
-0.20397888 2.5545604 -0.18171771 123 38
-0.1887389 2.5617259 -0.18222918 81 38
-0.17335169 2.5678062 -0.18265539 74 38
-0.15789695 2.5737941 -0.1830816 81 38
-0.14237526 2.5796888 -0.18350782 91 38
-0.1270304 2.5904655 -0.18436025 80 38
-0.11109067 2.5902007 -0.184275 117 38
-0.09552332 2.5997949 -0.18504219 91 38
-0.079781748 2.6073034 -0.18563889 62 38
-0.061481915 2.5131176 -0.17754081 18 38
-0.045843348 2.5014932 -0.17651789 10 38
-0.030433673 2.4967458 -0.17609167 13 38
-0.015136855 2.5008709 -0.17643264 14 38
0.00020800804 2.498924 -0.17626216 12 38
0.015464882 2.4869196 -0.17523925 14 38
0.030711576 2.4857817 -0.175154 16 38
0.046037782 2.4895313 -0.17549497 19 38
0.061213631 2.4852176 -0.175154 18 38
0.076276675 2.4788198 -0.17464255 22 38
0.091521904 2.479301 -0.17472778 12 38
0.10664684 2.4767017 -0.1745573 13 38
0 0 -0 25 38
0 0 -0 12 38
0 0 -0 20 38
0 0 -0 19 38
0 0 -0 12 38
0.19646101 2.4552073 -0.17319341 16 38
0.21160789 2.4549484 -0.17327866 16 38
0.22685082 2.4555881 -0.17344914 40 38
0.24220745 2.4571245 -0.17370486 16 38
0.25779942 2.4605467 -0.17413108 32 38
0.27300227 2.4599087 -0.17421633 19 38
0.28797472 2.4571979 -0.17413108 18 38
0.30255756 2.4514291 -0.17379011 33 38
0.31618261 2.4386578 -0.17285244 39 38
0.33490115 2.4643152 -0.17523925 28 38
0.35184059 2.4750373 -0.1763474 18 38
0.37434214 2.522109 -0.18060955 6 38
0.38615102 2.4961336 -0.17856373 16 38
0.40431303 2.5114233 -0.1800981 5 38
0.42530987 2.5423064 -0.18299636 10 38
0.44806531 2.5808783 -0.18657656 22 38
0.47272262 2.6271095 -0.19083872 33 38
0.46308553 2.4860523 -0.17881945 67 38
0.4766334 2.474359 -0.17805226 77 38
0 0 -0 102 38
0 0 -0 108 38
0 0 -0 68 38
0 0 -0 192 38
0.55493206 2.4702392 -0.17907518 108 38
0.57344615 2.4813488 -0.18035382 105 38
0.59004331 2.4835994 -0.18086529 106 38
0.60810804 2.4915473 -0.18188819 93 38
0.62483841 2.4935677 -0.18239966 88 38
0.63963038 2.487757 -0.18222918 87 38
0.65310371 2.4770417 -0.18163247 87 38
0.66777015 2.4710641 -0.18146199 102 38
0.67733431 2.4467559 -0.17967188 84 38
0.6814602 2.4042115 -0.17626216 53 38
0.70147628 2.4181654 -0.17788178 85 38
0.7233907 2.4376945 -0.18001285 133 38
0.73543996 2.423676 -0.17916042 91 38
0.75177401 2.4238758 -0.17958663 92 38
0.77024609 2.4306145 -0.18060955 113 38
0.78545254 2.4267905 -0.1806948 91 38
0.80095375 2.4238174 -0.18086529 95 38
0.81644809 2.4207454 -0.18103577 94 38
0.83809751 2.4354739 -0.18282588 49 38
0.91079772 2.5947995 -0.1977434 8 38
1.071806 2.9943941 -0.23456839 3 38
0 0 -0 3 38
1.1668299 3.1379015 -0.24888922 75 38
1.1998327 3.1670191 -0.25221369 160 38
1.2192425 3.1595974 -0.25221369 164 38
1.238971 3.1529841 -0.25229895 194 38
0 0 -0 194 38
1.2835834 3.1523066 -0.25366282 195 38
1.304809 3.1489735 -0.25408906 187 38
1.3241061 3.140908 -0.25408906 178 38
1.3453174 3.1373026 -0.25451526 204 38
1.368526 3.1381214 -0.2553677 216 38
0 0 -0 200 38
0 0 -0 184 38
0 0 -0 200 38
0 0 -0 214 38
1.4824705 3.1333911 -0.25903314 201 38
1.5072813 3.1359093 -0.26014131 232 38
1.5291178 3.1319735 -0.26065275 190 38
0 0 -0 197 38
0 0 -0 220 38
0 0 -0 658 38
0 0 -0 127 38
0 0 -0 122 38
1.6090589 3.0094311 -0.25443003 108 38
1.6108595 2.9688518 -0.25144652 99 38
1.5997268 2.9056733 -0.24624668 74 38
0 0 -0 60 38
0 0 -0 80 38
0 0 -0 63 38
0 0 -0 69 38
0 0 -0 134 38
0 0 -0 142 38
0 0 -0 147 38
0 0 -0 192 38
0 0 -0 137 38
0 0 -0 146 38
0 0 -0 140 38
0 0 -0 151 38
0 0 -0 172 38
0 0 -0 147 38
0 0 -0 167 38
0 0 -0 119 38
0 0 -0 132 38
0 0 -0 171 38
0 0 -0 145 38
0 0 -0 168 38
0 0 -0 139 38
0 0 -0 121 38
1.9362592 2.5769014 -0.23823383 160 38
0 0 -0 133 38
0 0 -0 185 38
0 0 -0 186 38
0 0 -0 136 38
0 0 -0 140 38
0 0 -0 140 38
0 0 -0 135 38
2.1234305 2.5546386 -0.2466729 149 38
2.1467657 2.5507083 -0.24769582 107 38
2.1694858 2.5458291 -0.24863349 130 38
2.1922266 2.5407665 -0.24957116 140 38
2.2162979 2.5370212 -0.25067931 141 38
2.2397451 2.5323296 -0.25170225 136 38
2.266542 2.5311563 -0.25315136 148 38
2.2920694 2.5282726 -0.25443003 134 38
2.3196681 2.5273728 -0.2559644 116 38
2.3453066 2.5240393 -0.25724304 146 38
2.3750877 2.5248399 -0.25903314 124 38
2.4022176 2.5224838 -0.26048228 143 38
2.482662 2.5751147 -0.26849511 60 38
2.9020991 2.9733491 -0.31793606 139 38
2.9349964 2.9703684 -0.31972617 169 38
2.962328 2.9614604 -0.32083434 155 38
3.2094538 3.1693368 -0.34836784 28 38
3.2359731 3.1565409 -0.34922028 74 38
3.2610207 3.1421561 -0.34990221 74 38
3.2917876 3.1330774 -0.35126609 90 38
3.3261955 3.127151 -0.35305619 110 38
3.3708758 3.1304111 -0.3560397 124 38
3.4120491 3.1298728 -0.35859698 111 38
3.4511266 3.1269391 -0.36089855 106 38
3.4910383 3.1243076 -0.36328536 128 38
3.5205951 3.1120658 -0.36447877 98 38
3.564394 3.1120279 -0.36729178 103 38
3.6075692 3.1109183 -0.37001956 103 38
3.6538987 3.111979 -0.3730883 101 38
3.6980884 3.1106637 -0.37590134 94 38
3.7377999 3.1051025 -0.37820289 91 38
3.7698779 3.0928516 -0.37965202 80 38
3.7926555 3.0727978 -0.38007823 69 38
0 0 -0 6 38
3.798022 3.0007026 -0.37658328 5 38
3.81322 2.9748907 -0.37624231 10 38
3.836138 2.955085 -0.37675375 3 38
3.8486462 2.9272695 -0.37615705 19 38
3.8649416 2.9024029 -0.37598658 12 38
3.8802764 2.8768535 -0.37573084 118 38
3.9211729 2.8700545 -0.37820289 137 38
3.9782841 2.8745308 -0.3823798 157 38
4.0282955 2.8732066 -0.38578951 134 38
4.0694771 2.8650672 -0.38826156 136 38
4.1172552 2.8610783 -0.39141557 162 38
4.1643152 2.8560464 -0.39448431 169 38
4.2081666 2.8483105 -0.39721209 172 38
4.2520785 2.8401432 -0.39993986 184 38
4.3002076 2.834285 -0.40309384 176 38
4.3526001 2.830658 -0.40667406 202 38
4.4009161 2.8238037 -0.40982807 172 38
4.4526777 2.8185937 -0.41332301 154 38
4.5087657 2.8154926 -0.4172442 179 38
4.5615888 2.8097184 -0.42082441 150 38
4.6238761 2.8090909 -0.42534229 168 38
4.6786332 2.8031957 -0.42909297 174 38
4.7257705 2.7921722 -0.43207648 150 38
4.7755299 2.7821798 -0.43531573 194 38
4.8296638 2.7741623 -0.43898118 234 38
4.8812761 2.7641118 -0.44239089 355 38
4.8572531 2.711287 -0.43838447 258 38
4.8685598 2.6785512 -0.43787301 240 38
4.8770199 2.6443541 -0.43710583 258 38
4.8773346 2.6059291 -0.43557146 206 38
4.8764806 2.567136 -0.43395182 169 38
4.8832951 2.5325797 -0.43309939 286 38
4.8765597 2.4912384 -0.43096831 195 38
4.8873038 2.4590306 -0.43054211 195 38
4.8996215 2.4276695 -0.43028638 219 38
4.9529319 2.4163427 -0.43395182 125 38
4.9982033 2.4005711 -0.4368501 302 38
5.0101361 2.3685801 -0.43659437 318 38
4.99928 2.3260269 -0.43420756 217 38
5.0071168 2.2924054 -0.43361086 223 38
5.014729 2.258775 -0.43301415 250 38
5.0148292 2.2219095 -0.43173552 245 38
4.9160156 2.1421494 -0.42125061 195 38
5.0142422 2.1484325 -0.42917821 282 38
5.0245757 2.1164651 -0.4289225 296 38
5.0301023 2.0825465 -0.42824054 298 38
5.0335565 2.047889 -0.42738813 278 38
5.026598 2.0092006 -0.42559803 334 38
5.0063701 1.965578 -0.42261451 266 38
5.0322819 1.9401978 -0.42389315 386 38
5.0273185 1.9029361 -0.42235878 323 38
5.032362 1.8696247 -0.42176208 302 38
5.013783 1.8277936 -0.4190343 211 38
5.0389767 1.8020267 -0.42031294 290 38
5.017971 1.7598653 -0.4174147 221 38
5.034328 1.7309859 -0.41792613 289 38
5.0410776 1.6987908 -0.41758516 337 38
5.0220757 1.6581455 -0.41494262 138 38
5.0084543 1.619637 -0.41281155 48 38
5.0201979 1.5894766 -0.41298205 52 38
4.9994006 1.5492083 -0.41025427 17 38
5.0069051 1.5179253 -0.41008377 16 38
5.0151696 1.4868919 -0.40999854 25 38
5.0213275 1.4552594 -0.4097428 20 38
5.0272861 1.4236076 -0.40948707 24 38
5.0330458 1.3919374 -0.40923136 15 38
5.0357199 1.3594713 -0.4087199 10 38
5.0449305 1.3288009 -0.40880513 19 38
5.0443029 1.2955906 -0.40803796 14 38
5.0463586 1.2631638 -0.40752649 16 38
5.0472379 1.2305247 -0.40692979 17 38
5.041121 1.1963124 -0.40573639 21 38
5.039629 1.1633419 -0.40496922 15 38
5.0398664 1.1308709 -0.40437251 24 38
5.0418429 1.098865 -0.40394628 22 38
5.0367928 1.0654347 -0.40292338 14 38
5.0422597 1.0343094 -0.40283811 13 38
5.045579 1.0027688 -0.40258241 27 38
5.0438094 0.97028559 -0.40190044 25 38
5.0428114 0.93804413 -0.40130374 15 38
5.0396461 0.90549928 -0.40053657 25 38
5.0352898 0.87285846 -0.39968413 16 38
5.0346541 0.84096164 -0.39917266 14 38
5.034801 0.80926353 -0.39874646 24 38
5.0337634 0.77744329 -0.39823499 10 38
5.0394244 0.74668801 -0.39832026 17 38
5.0439115 0.71575266 -0.39832026 17 38
5.0531449 0.68545961 -0.39874646 31 38
5.0631843 0.65520793 -0.39925793 20 38
5.0730429 0.62485886 -0.39976937 19 38
5.0599575 0.5917533 -0.39832026 13 38
5.0813189 0.56266737 -0.39985463 30 38
5.075757 0.53054684 -0.39908743 24 38
5.0709844 0.49861321 -0.39840549 32 38
5.0441833 0.46474874 -0.39584818 12 38
5.0648084 0.43532392 -0.39738256 26 38
5.0614252 0.40376371 -0.39687112 27 38
5.0667882 0.37291896 -0.39712685 40 38
5.0699754 0.34188968 -0.39721209 47 38
5.068994 0.31059188 -0.39695635 50 38
5.0737891 0.27964753 -0.39721209 45 38
5.05053 0.24729384 -0.39508101 78 38
5.0390115 0.21574666 -0.39397284 98 38
5.0631413 0.18566179 -0.39593345 91 38
5.0681686 0.15471274 -0.39627442 67 38
5.0680265 0.12358791 -0.39618918 57 38
5.0686893 0.092488758 -0.39618918 50 38
5.0721507 0.061422087 -0.39644489 66 38
5.0714355 0.030292926 -0.39635965 43 38
5.0695333 -0.00082491001 -0.39618918 55 38
0 -0 -0 55 38
5.0721302 -0.063073218 -0.39644489 36 38
5.0716476 -0.09419404 -0.39644489 48 38
5.0759544 -0.12543476 -0.39687112 53 38
5.0820608 -0.15679349 -0.39746782 41 38
5.0899639 -0.18830569 -0.39823499 24 38
5.0867219 -0.21944752 -0.39806452 27 38
5.0862746 -0.25070408 -0.39814976 28 38
0 -0 -0 17 38
0 -0 -0 20 38
5.091733 -0.34502509 -0.39908743 21 38
5.0915074 -0.37640795 -0.39925793 19 38
5.0950613 -0.40811956 -0.39976937 23 38
5.0944467 -0.43954602 -0.39993986 31 38
5.1025667 -0.47180662 -0.40087754 27 38
5.1174235 -0.50486869 -0.40241191 15 38
5.1261206 -0.53750688 -0.40343481 12 38
5.1247063 -0.56917012 -0.40360531 15 38
5.1230969 -0.60083628 -0.40377581 20 38
5.1232691 -0.63274854 -0.40411678 24 38
5.1222544 -0.66455722 -0.40437251 26 38
5.1210418 -0.69637722 -0.40462822 27 38
5.1206183 -0.72834778 -0.40496922 32 38
5.1239371 -0.76092505 -0.40565115 35 38
5.1359105 -0.79494274 -0.40710029 14 38
5.1299524 -0.82628262 -0.40701503 20 38
5.130682 -0.85873115 -0.40752649 23 38
5.1370959 -0.89224315 -0.4085494 23 38
5.1403499 -0.92533636 -0.4093166 15 38
5.1443701 -0.95868558 -0.41016904 13 38
5.1423044 -0.9909873 -0.41051 24 38
5.1468759 -1.024662 -0.41144767 17 38
5.1453714 -1.0572263 -0.41187388 11 38
5.143661 -1.0898108 -0.41230011 11 38
5.1485586 -1.1239021 -0.41332301 15 38
5.1454539 -1.156346 -0.41366398 8 38
5.1392326 -1.1881206 -0.41374922 12 38
5.1376615 -1.2210147 -0.41426069 11 38
5.1484632 -1.2570072 -0.41588032 19 38
5.148385 -1.2905126 -0.41656226 23 38
5.1471243 -1.3238159 -0.41715896 23 38
5.1466117 -1.3574066 -0.4178409 18 38
5.148766 -1.3918209 -0.41877857 31 38
5.1487708 -1.4257807 -0.41954577 26 38
5.1504693 -1.4603366 -0.42048344 30 38
5.1567221 -1.4963555 -0.42184731 42 38
5.1741877 -1.5359092 -0.42423412 185 38
5.1751533 -1.5708126 -0.42517179 453 38
5.0426621 -1.5644432 -0.41417545 189 38
4.9854794 -1.5802983 -0.4099133 155 38
4.8941698 -1.5844606 -0.40258241 168 38
4.822866 -1.594131 -0.39704159 175 38
4.7639027 -1.6071281 -0.39260897 342 38
4.7567782 -1.6373017 -0.3928647 333 38
4.7475824 -1.666788 -0.39294994 292 38
4.7222571 -1.690513 -0.39158604 273 38
4.7061796 -1.7174066 -0.3910746 221 38
4.7151642 -1.7535456 -0.3928647 286 38
4.7154961 -1.7866815 -0.39388761 249 38
4.7639332 -1.8385454 -0.39934316 418 38
4.7822356 -1.8794059 -0.40207094 530 38
4.7456379 -1.8987187 -0.39976937 368 38
4.7514305 -1.934943 -0.401389 356 38
4.7606382 -1.9728354 -0.40334958 326 38
4.7502794 -2.0027833 -0.40352008 237 38
4.752552 -2.0381773 -0.40488395 57 38
4.7527418 -2.0728774 -0.40607736 55 38
4.7800083 -2.119776 -0.40982807 22 38
4.7750859 -2.1527519 -0.41059524 29 38
4.777185 -2.1890678 -0.41204438 27 38
4.7772112 -2.2246492 -0.41332301 34 38
4.7661729 -2.2551982 -0.41357875 13 38
4.7737966 -2.2947621 -0.41562459 20 38
4.7757416 -2.3318806 -0.41715896 24 38
4.7854438 -2.3730936 -0.41946051 20 38
4.7814713 -2.4077902 -0.42048344 25 38
4.79322 -2.4506927 -0.42304072 28 38
4.7957788 -2.4892385 -0.42474559 36 38
4.8077402 -2.5330174 -0.42738813 24 38
4.8052864 -2.5695176 -0.42866677 29 38
4.8060679 -2.6079843 -0.43028638 30 38
4.8039393 -2.6451149 -0.43165028 28 38
4.8093638 -2.686691 -0.43378136 24 38
4.8057899 -2.7235198 -0.43505999 23 38
4.8123102 -2.7663651 -0.43736154 17 38
4.8055739 -2.8018639 -0.43838447 23 38
4.8200235 -2.8500633 -0.44153845 12 38
4.8238072 -2.8923957 -0.44366953 11 38
4.824698 -2.9333284 -0.44554487 11 38
4.8201785 -2.9712429 -0.44690877 24 38
4.8238244 -3.0144932 -0.44912508 21 38
4.821228 -3.0541666 -0.45074472 23 38
4.8225183 -3.0966134 -0.45279053 22 38
4.820128 -3.1370163 -0.4544954 16 38
4.8282347 -3.1846387 -0.45730841 19 38
4.8276544 -3.2269404 -0.45926902 27 38
4.83251 -3.2732661 -0.46182629 21 38
4.8353353 -3.3186445 -0.4642131 37 38
4.8418751 -3.3670249 -0.46702611 28 38
4.8480015 -3.4156096 -0.46983916 17 38
4.846415 -3.4591856 -0.47188497 17 38
4.8493195 -3.5063732 -0.47444227 14 38
4.8453965 -3.5490158 -0.47631761 22 38
4.8419323 -3.5923355 -0.47827819 27 38
4.836525 -3.6345484 -0.4800683 19 38
4.8331599 -3.6786401 -0.48211414 14 38
4.8365369 -3.7283022 -0.48492715 22 38
4.8206372 -3.763427 -0.48569435 13 38
4.8357506 -3.8232164 -0.48987126 17 38
4.8230891 -3.8615351 -0.49106467 12 38
4.8472872 -3.9299631 -0.49634972 21 38
4.8554239 -3.986187 -0.49992993 28 38
4.8615198 -4.0413833 -0.50333965 16 38
4.8716931 -4.1006541 -0.50726086 12 38
4.8684301 -4.1492128 -0.5097329 12 38
4.8602285 -4.1939793 -0.51169348 17 38
4.8599129 -4.2460122 -0.51459175 16 38
4.8651109 -4.3034797 -0.51817197 26 38
4.8690434 -4.3605051 -0.52166688 25 38
4.8695059 -4.4150629 -0.52482092 36 38
4.8790221 -4.478549 -0.52908307 26 38
4.8762646 -4.5314641 -0.53198129 28 38
4.8919072 -4.6022649 -0.5370959 47 38
4.8888268 -4.6562462 -0.54007941 37 38
4.891005 -4.7158957 -0.54374486 43 38
4.8969116 -4.7799215 -0.54792178 33 38
4.9085937 -4.8504996 -0.55286586 22 38
4.8998699 -4.9016681 -0.55542314 25 38
4.8991027 -4.9614196 -0.55900335 33 38
4.8880463 -5.0113587 -0.56139016 24 38
4.8758698 -5.0606303 -0.56369174 10 38
0 -0 -0 0 38
0 -0 -0 0 38
0 -0 -0 0 38
0 -0 -0 0 38
0 -0 -0 0 38
0 -0 -0 0 38
0 -0 -0 0 38
0 -0 -0 0 38
0 -0 -0 0 38
0 -0 -0 0 38
0 -0 -0 0 38
0 -0 -0 0 38
0 -0 -0 0 38
0 -0 -0 0 38
0 -0 -0 0 38
0 -0 -0 0 38
4.9377012 -6.3295736 -0.64927572 25 38
4.9449763 -6.419744 -0.65575421 32 38
4.9199672 -6.4689989 -0.65780002 24 38
4.9621406 -6.608223 -0.6694783 78 38
4.9523535 -6.6801682 -0.67391098 84 38
5.0165977 -6.8543544 -0.68916947 373 38
5.0024524 -6.9237738 -0.69326115 486 38
4.9997916 -7.0103116 -0.69914287 253 38
5.0306668 -7.1459603 -0.71013921 74 38
5.0060549 -7.2045135 -0.71303749 62 38
5.0034513 -7.2959023 -0.71934551 42 38
5.0027061 -7.3916535 -0.7260797 35 38
5.020339 -7.5166683 -0.73579741 30 38
5.0322385 -7.6355181 -0.74483317 24 38
5.0341754 -7.7414289 -0.752505 23 38
5.0328484 -7.8442936 -0.7598359 26 38
5.0538926 -7.9844751 -0.77091753 30 38
5.0517683 -8.0905542 -0.77850413 31 38
5.0427837 -8.1875725 -0.78515309 52 38
5.052453 -8.3171425 -0.79504126 53 38
5.0617442 -8.4488459 -0.80509996 39 38
5.0853167 -8.6075649 -0.81780118 19 38
5.0991054 -8.7531118 -0.82913852 19 38
5.0914483 -8.8645878 -0.83706611 26 38
5.087523 -8.9849663 -0.84584612 14 38
5.103189 -9.1430387 -0.85829163 29 38
5.1185451 -9.3042555 -0.87099284 62 38
5.1188164 -9.441474 -0.88130724 35 38
5.1382504 -9.6177111 -0.89537233 15 38
5.1390057 -9.7627954 -0.90636867 14 38
5.129457 -9.8914413 -0.91574544 18 38
5.1085505 -10.000813 -0.9232468 18 38
5.1545534 -10.245589 -0.94370514 33 38
5.1318388 -10.35827 -0.95146227 41 38
5.1376371 -10.531949 -0.96501589 27 38
5.1872125 -10.801291 -0.98760527 13 38
5.1583085 -10.912186 -0.9951067 13 38
5.1408443 -11.050232 -1.0051653 28 38
5.203989 -11.36785 -1.0321021 63 38
5.1480494 -11.430455 -1.0350004 53 38
5.2013021 -11.740588 -1.0610847 216 38
5.1148391 -11.739398 -1.0580161 984 38
5.2471194 -12.247725 -1.1024276 90 38
5.2047405 -12.357741 -1.1096733 64 38
5.3151598 -12.839622 -1.1513572 16 38
5.2708154 -12.956903 -1.1591995 19 38
5.2847595 -13.22308 -1.180766 42 38
5.2370181 -13.340585 -1.1886083 26 38
5.2711725 -13.673684 -1.2162271 22 38
0 -0 -0 589 38
5.3395824 -14.374335 -1.2743628 41 38
5.3505683 -14.679239 -1.2991686 18 38
5.3670669 -15.01014 -1.3262758 25 38
5.3566251 -15.275969 -1.3474162 29 38
5.3437676 -15.544109 -1.3687268 16 38
5.385715 -15.984506 -1.4055518 35 38
5.4196429 -16.417471 -1.4416096 21 38
5.4236283 -16.774649 -1.4707627 203 38
5.3260112 -16.824709 -1.4722972 446 38
0 -0 -0 4 38
5.1029615 -16.835403 -1.4675236 5 38
5.5185666 -18.61743 -1.6237741 42 38
5.4025645 -18.645199 -1.6232625 127 38
5.6202502 -19.851427 -1.7276 49 38
5.5140038 -19.942198 -1.7326293 60 38
5.8640347 -21.726391 -1.8877716 15 38
4.4402609 -16.861513 -1.4542257 6 38
4.3260617 -16.846943 -1.4505602 10 38
4.2180142 -16.854805 -1.4489405 378 38
4.1102691 -16.862944 -1.4474062 446 38
4.0021229 -16.868458 -1.4457014 495 38
3.8924956 -16.866484 -1.4433998 397 38
1.874055 -8.3531351 -0.69488072 76 38
1.8240385 -8.3703175 -0.69539219 444 38
1.766255 -8.3511333 -0.69274968 534 38
1.703172 -8.3042269 -0.6877203 20 38
1.6539334 -8.3233156 -0.68848753 34 38
1.6024551 -8.3313513 -0.688317 7 38
1.8130379 -9.7486696 -0.81081122 24 38
1.7510736 -9.7478428 -0.80978835 15 38
1.6987135 -9.8016005 -0.81353903 4 38
0 -0 -0 5 38
2.9185169 -18.163872 -1.5363998 20 38
2.8039703 -18.161743 -1.534695 37 38
2.6901438 -18.162836 -1.5333312 16 38
0 -0 -0 6 38
0 -0 -0 4 38
2.3462963 -18.13912 -1.5272789 22 38
1.0276562 -8.3453007 -0.68183857 8 38
0.97885984 -8.3722315 -0.68362868 15 38
0.92933327 -8.3949156 -0.68507779 12 38
0.87915111 -8.4133425 -0.68618596 11 38
0.83335662 -8.4780731 -0.69130051 10 38
0.78214246 -8.4919567 -0.69206774 13 38
0.73539263 -8.5591364 -0.697438 7 38
0.72916603 -9.144516 -0.74730521 8 38
0 -0 -0 5 38
0 -0 -0 5 38
1.093237 -17.858261 -1.4931817 8 38
0.98298317 -17.852695 -1.4921588 6 38
0.87274152 -17.844458 -1.4909654 7 38
0 -0 -0 4 38
0.6526767 -17.825945 -1.4885786 5 38
0.25387272 -8.3247576 -0.67501909 5 38
0.2026187 -8.3191862 -0.67442238 6 38
0 -0 -0 4 38
0.10046629 -8.3170605 -0.67408144 25 38
0.049461246 -8.3225021 -0.67450768 14 38
-0.0019181176 -9.6248922 -0.78592026 10 38
-0.061254825 -9.6685381 -0.789671 6 38
-0 -0 -0 3 38
-0.15464945 -8.3132401 -0.67382568 6 38
-0.20543341 -8.3031702 -0.67305851 7 38
-0.25650004 -8.3057365 -0.67339951 647 38
-0.3079012 -8.3159552 -0.67442238 1010 38
-0.35857698 -8.3059454 -0.67374045 1017 38
-0.40968195 -8.3065748 -0.67399621 847 38
-0.46141568 -8.317832 -0.67518961 823 38
-0.51275092 -8.3198166 -0.67561579 840 38
-0.56459993 -8.3284426 -0.67663872 745 38
-0.61907429 -8.3705292 -0.68055993 37 38
-0 -0 -0 4 38
-0.72920489 -8.4486637 -0.68797606 11 38
-1.5542762 -16.799673 -1.4058928 127 38
-1.6578174 -16.794779 -1.406319 489 38
-1.7609409 -16.78528 -1.4064043 437 38
-1.8768872 -16.89101 -1.4164629 215 38
-1.9766608 -16.846521 -1.4136499 192 38
-2.0806029 -16.83902 -1.4140762 542 38
-2.1860666 -16.842733 -1.4155253 521 38
-2.2905796 -16.837889 -1.4162924 452 38
-2.3967998 -16.844231 -1.4180826 541 38
-2.5025983 -16.845963 -1.4195317 577 38
-2.608813 -16.848997 -1.4211513 517 38
-2.7135742 -16.841526 -1.4219185 507 38
-2.8199871 -16.843229 -1.4235381 535 38
-2.9272053 -16.848186 -1.4254987 482 38
-3.0363564 -16.862268 -1.4283117 379 38
-2.264338 -12.147676 -1.0196567 298 38
-2.3062017 -11.9643 -1.0049096 739 38
-2.381516 -11.959696 -1.0057621 725 38
-2.4582648 -11.96145 -1.0072112 787 38
-2.5311995 -11.944192 -1.0070407 346 38
-2.6140056 -11.972239 -1.0108767 620 38
-2.6922243 -11.977361 -1.0127519 812 38
-2.7701554 -11.980031 -1.0144569 733 38
-5.3960724 -22.699255 -1.9586086 61 38
-6.0815554 -24.902561 -2.1556053 56 38
-5.7360144 -22.877771 -1.9803456 37 38
-5.7861662 -22.491873 -1.9494023 34 38
-5.9019518 -22.372129 -1.9419862 53 38
-6.2123241 -22.976067 -1.9987581 54 38
-6.2409453 -22.532309 -1.9627855 74 38
-6.3364015 -22.343098 -1.9494023 45 38
-6.4955959 -22.380348 -1.9562218 103 38
-6.9541173 -23.422251 -2.0528021 37 38
-6.9636841 -22.937721 -2.0133345 94 38
-7.2569671 -23.386536 -2.0574052 58 38
-7.2151299 -22.757463 -2.0049808 107 38
-2.3193147 -7.1634383 -0.60665423 762 38
-2.3550932 -7.1244769 -0.60443789 1505 38
-2.3987639 -7.1098919 -0.60443789 1438 38
-2.4595349 -7.1449704 -0.60895574 860 38
-2.4990375 -7.1175232 -0.60784763 768 38
-0 -0 -0 815 38
-0 -0 -0 1326 38
-2.5827289 -6.9442496 -0.59633982 1277 38
-2.6316452 -6.9450421 -0.59787416 1226 38
-2.6821034 -6.949213 -0.59974951 1314 38
-2.7246926 -6.9326248 -0.59974951 1190 38
-2.7420063 -6.8528738 -0.59395301 1304 38
-2.784003 -6.8359199 -0.59395301 1281 38
-0 -0 -0 1275 38
-2.9334965 -6.9573126 -0.60844433 1421 38
-2.9820223 -6.9529171 -0.60972297 1322 38
-3.0975335 -7.101613 -0.6253224 988 38
-3.1555934 -7.1152616 -0.62839115 149 38
-5.4206772 -12.022326 -1.0907494 21 38
-5.4524145 -11.897358 -1.0821398 28 38
-5.4941821 -11.796843 -1.0758318 19 38
-5.483777 -11.588193 -1.0592947 26 38
-5.5288734 -11.500449 -1.0541801 17 38
-5.5744128 -11.415276 -1.0493213 13 38
-5.607605 -11.306771 -1.0422461 43 38
-5.6643271 -11.247234 -1.0398593 35 38
-5.7073746 -11.161702 -1.0350004 85 38
-0 -0 -0 46 38
-5.7361541 -10.886324 -1.015224 7 38
-0 -0 -0 19 38
-0 -0 -0 79 38
-0 -0 -0 20 38
-5.8339257 -10.442192 -0.98581517 17 38
-5.8458085 -10.314318 -0.9767794 47 38
-5.8369761 -10.153008 -0.96441919 15 38
-0 -0 -0 16 38
-0 -0 -0 13 38
-5.8742642 -9.7960472 -0.9396987 10 38
-5.5925989 -9.1979456 -0.88343829 28 38
-5.5668383 -9.0303011 -0.87005514 49 38
-5.5878172 -8.9410543 -0.86451435 67 38
-5.5935144 -8.8291683 -0.85667199 47 38
-5.5996656 -8.7200661 -0.84908539 73 38
-5.6258883 -8.6437912 -0.84482324 43 38
-5.6437058 -8.5558805 -0.83936769 56 38
-5.6407228 -8.4382591 -0.83084339 96 38
-5.6862459 -8.3944159 -0.82990569 386 38
-5.7393374 -8.3618317 -0.83016139 703 38
-5.7342157 -8.2454786 -0.82172239 32 38
-5.9023523 -8.3771057 -0.83919716 383 38
-5.9918489 -8.3942537 -0.84482324 700 38
-6.0636778 -8.3855877 -0.84780675 728 38
-6.1379795 -8.379571 -0.8511312 717 38
-6.2053108 -8.3633556 -0.85343277 109 38
-6.2942238 -8.3753014 -0.85880309 16 38
-6.4028273 -8.4118385 -0.86690116 654 38
-6.4780464 -8.4031668 -0.87022567 642 38
-6.5619841 -8.4048824 -0.87474352 603 38
-6.6573091 -8.4199514 -0.88079578 574 38
-6.7524414 -8.4333868 -0.8867628 613 38
-6.8322997 -8.4266214 -0.89059871 605 38
-6.9755549 -8.4961967 -0.90295899 120 38
-7.0600414 -8.4923096 -0.90730637 111 38
-7.1530833 -8.497613 -0.91276193 94 38
-7.2412839 -8.496026 -0.91753554 94 38
-7.3388462 -8.5042353 -0.9235025 106 38
-7.4341583 -8.508564 -0.92912859 93 38
-7.5344195 -8.5172644 -0.93535131 74 38
-7.6317415 -8.5213423 -0.94114786 81 38
-7.7119942 -8.5053549 -0.94472802 93 38
-7.8226581 -8.5217304 -0.95214421 417 38
-7.8802257 -8.4794092 -0.95282614 620 38
-8.0133553 -8.5172501 -0.96297008 251 38
-8.0847063 -8.488121 -0.96535689 331 38
-8.0543337 -8.3530064 -0.95521295 29 38
-8.0594988 -8.2563734 -0.94958693 228 38
-8.0995026 -8.1961355 -0.94830823 668 38
-8.1059484 -8.1026125 -0.9430232 517 38
-8.1526766 -8.0499229 -0.94268221 483 38
-8.2090492 -8.0067043 -0.94353467 69 38
-8.3821592 -8.0757742 -0.9582817 159 38
-8.4806337 -8.0708961 -0.96407819 495 38
-8.5866222 -8.0719366 -0.97072715 554 38
-8.6929407 -8.0719786 -0.9773761 514 38
-8.8113298 -8.0817919 -0.98538899 467 38
-8.8961973 -8.0596838 -0.98948061 449 38
-9.0167637 -8.0687275 -0.99766397 135 38
-9.0832739 -8.0284262 -0.99962455 98 38
-2.7019515 -2.3591659 -0.26934755 67 38
-2.6960018 -2.3249762 -0.26704597 112 38
-2.7086997 -2.3070982 -0.26687551 268 38
-2.6816278 -2.2558038 -0.26227239 126 38
-2.7153466 -2.2558591 -0.2644887 293 38
-2.7129598 -2.2258859 -0.26269859 121 38
-2.7149532 -2.19979 -0.26141995 118 38
-2.714395 -2.1718869 -0.25988558 114 38
-2.7089059 -2.140368 -0.25783974 115 38
-2.6984193 -2.1053221 -0.25528243 135 38
-2.7278633 -2.1014926 -0.25707254 297 38
-2.7089832 -2.0605905 -0.25366282 146 38
-2.7080305 -2.0337598 -0.25221369 91 38
-2.7156558 -2.0135453 -0.25170225 110 38
-2.7223313 -1.9927255 -0.25110555 119 38
