# .PCD v0.7 - Point Cloud Data file format
VERSION 0.7
FIELDS x y z intensity ring
SIZE 4 4 4 4 1
TYPE F F F F U
COUNT 1 1 1 1 1
WIDTH 445
HEIGHT 1
VIEWPOINT 0 0 0 1 0 0 0
POINTS 445
DATA ascii
3.8198383 0.14083183 -1.231594 8 58
3.7860937 0.046605818 -1.2195867 84 58
3.7986422 0.023448778 -1.2236946 98 58
3.8025095 0.00014005919 -1.2249584 106 58
3.7957976 -0.023150519 -1.2227466 111 58
3.792738 -0.046405543 -1.2217987 80 58
3.8092372 0.070371933 -1.2746876 36 59
3.8077071 0.046973672 -1.2740345 85 59
3.8135946 0.023646036 -1.2759938 94 59
3.808701 0.14042234 -1.3220539 58 60
3.8085499 0.11702113 -1.321717 66 60
3.8073137 0.093604013 -1.3210431 79 60
3.8996792 0.00027771489 -1.3057107 29 59
3.8445299 0.070914499 -1.3341835 26 60
3.7330055 -0.25277528 -0.88172048 84 51
3.7432444 -0.25223798 -0.93138915 115 52
3.7425919 -0.27527246 -0.93163985 124 52
3.7398672 -0.29815435 -0.93138915 96 52
3.7539475 -0.25353137 -0.98038149 94 53
3.7523212 -0.2765604 -0.98038149 91 53
3.7447813 -0.29911971 -0.97881037 91 53
3.7390292 -0.32176185 -0.97776294 112 53
3.7216074 -0.34328452 -0.97357333 28 53
3.7468922 -0.25248417 -1.0248371 110 54
3.7471914 -0.27561125 -1.025383 78 54
3.7133455 0.13756266 -0.83030611 98 50
3.6790845 0.11369639 -0.82209766 6 50
3.6845798 0.091239817 -0.82323772 8 50
3.6860437 0.068647973 -0.82346576 18 50
3.7146294 0.046379119 -0.83007807 111 50
3.7187388 0.023610031 -0.83099014 121 50
3.7207608 0.00079204707 -0.83144611 145 50
3.6992757 -0.02190903 -0.8264299 59 50
3.7143042 -0.067588232 -0.83007807 80 50
3.7186863 -0.090496443 -0.83121812 119 50
3.7141683 -0.11319313 -0.83030611 130 50
3.7143767 -0.13601644 -0.8305341 109 50
3.7173634 -0.15897167 -0.83144611 84 50
3.7309053 -0.18249303 -0.83486629 24 50
3.7190213 -0.20479201 -0.83235818 86 50
3.7215822 -0.22784604 -0.83327025 22 50
3.7429156 0.13742901 -0.88267732 35 51
3.6903107 0.11281171 -0.86952066 6 51
3.6792853 0.089878038 -0.86665016 4 51
3.7014709 0.044987109 -0.87191278 26 51
3.7366314 0.022495804 -0.8805244 80 51
3.7163086 -0.00043616106 -0.87550098 6 51
3.7405097 -0.023383172 -0.88148123 4 51
3.7402959 -0.046334069 -0.88148123 4 51
3.7506201 -0.069477722 -0.8841126 11 51
3.7365336 -0.092158847 -0.88076365 16 51
3.7291043 -0.1148769 -0.87908912 30 51
3.7468152 -0.16146012 -0.88387334 5 51
3.7370257 -0.18402003 -0.88172048 5 51
3.7358263 -0.20694652 -0.88172048 4 51
3.7306097 -0.22962783 -0.88076365 57 51
3.7462595 0.13877855 -0.930637 120 52
3.750911 0.11590853 -0.93163985 116 52
3.7544549 0.092962779 -0.932392 93 52
3.7549546 0.069924131 -0.932392 121 52
3.7369213 0.046655126 -0.9276284 142 52
3.7303607 0.023682613 -0.92587334 124 52
3.73334 0.00079341925 -0.92662549 123 52
3.7381148 -0.022143112 -0.9278791 94 52
3.7359726 -0.045055788 -0.92737764 51 52
3.734658 -0.067960724 -0.92712694 126 52
3.7322352 -0.090827569 -0.92662549 107 52
3.7403162 -0.11399274 -0.928882 150 52
3.7463181 -0.13718942 -0.930637 101 52
3.7221937 -0.15917873 -0.92461979 8 52
3.72018 -0.1819673 -0.92436904 17 52
3.741225 -0.20601699 -0.93013555 110 52
3.745688 -0.22932437 -0.93163985 134 52
3.7850168 0.13964672 -0.98718959 7 53
3.7739029 0.092875682 -0.98378557 10 53
3.769577 0.069627084 -0.98247629 15 53
3.7322972 0.046020236 -0.97226405 102 53
3.7325094 0.023118423 -0.97226405 116 53
3.7586389 0.00022540551 -0.97933406 15 53
3.7556741 -0.022820482 -0.97854847 4 53
3.7473917 -0.068767406 -0.97645366 75 53
3.7459345 -0.091736354 -0.97619182 117 53
3.7395129 -0.11454377 -0.9746207 112 53
3.7445266 -0.13769782 -0.97619182 58 53
3.7706096 -0.16182151 -0.98352367 7 53
3.7627981 -0.18462551 -0.9816907 31 53
3.7432849 -0.20670481 -0.97671551 84 53
3.7486894 -0.23008105 -0.97854847 81 53
3.7758884 0.13987309 -1.0313879 68 54
3.7662809 0.07013388 -1.0281125 69 54
3.7637544 0.046987362 -1.0272937 108 54
3.77263 0.023946587 -1.0297502 90 54
3.7669337 0.00079708372 -1.0281125 12 54
3.7716777 -0.022345392 -1.0294774 5 54
3.7512686 -0.045241836 -1.0237453 11 54
3.7720814 -0.068645604 -1.0297502 35 54
3.7542779 -0.091366284 -1.0248371 89 54
3.7363381 -0.11387109 -1.019924 17 54
3.7182643 -0.1361592 -1.0150108 6 54
3.7449057 -0.20622005 -1.0234723 11 54
3.7454903 -0.22931226 -1.0240183 88 54
3.7618034 0.13878311 -1.0727826 77 55
3.8124239 0.11724655 -1.0875341 19 55
3.7641819 0.092633434 -1.0730664 70 55
3.770432 0.06964314 -1.0747684 126 55
3.7736647 0.046543263 -1.0756195 108 55
3.777715 0.02341257 -1.0767542 119 55
3.7720339 0.00023037354 -1.0750521 99 55
3.766211 -0.022881227 -1.07335 80 55
3.7688763 -0.046024069 -1.074201 95 55
3.7685227 -0.069148593 -1.074201 99 55
3.7622757 -0.092131443 -1.0724989 111 55
3.7616396 -0.1152146 -1.0724989 114 55
3.7666116 -0.13850306 -1.074201 59 55
3.7455719 -0.16075474 -1.0682437 35 55
3.753135 -0.18415439 -1.0707968 68 55
3.7404447 -0.20654885 -1.0673927 73 55
3.7333641 -0.22914521 -1.0656906 39 55
3.7853556 0.094383039 -1.1274512 6 56
3.7810864 0.071065463 -1.1259768 7 56
3.7652085 0.047659867 -1.1209639 48 56
3.7730744 0.024605155 -1.123323 11 56
3.7836027 -0.021759635 -1.1265665 4 56
3.7738435 -0.044860426 -1.1236178 9 56
3.7601218 -0.067773007 -1.1194896 70 56
3.7644114 -0.090959303 -1.1209639 127 56
3.7714233 -0.11428791 -1.123323 120 56
3.769696 -0.13739187 -1.123028 123 56
3.7630541 -0.16027515 -1.1212589 72 56
3.7782831 0.14005379 -1.1719414 50 57
3.7885885 0.11716533 -1.1749967 9 57
3.7787654 0.093654022 -1.1716359 63 57
3.778317 0.070448145 -1.1713303 99 57
3.7786779 0.047263503 -1.1713303 100 57
3.7884185 0.024140699 -1.1743857 86 57
3.7627864 0.00088092283 -1.1661364 7 57
3.7579601 -0.022180501 -1.1646087 6 57
3.7939336 -0.045662779 -1.1762189 47 57
3.7773976 -0.068651937 -1.1710248 96 57
3.7578671 -0.09137135 -1.1649143 102 57
3.7610426 -0.11454222 -1.1661364 37 57
3.7795458 0.09292417 -1.2176908 41 58
3.774353 0.069627151 -1.215795 101 58
3.6486115 0.1345364 -0.45403838 63 42
3.6473873 0.11208573 -0.45377111 131 42
3.682682 0.090552643 -0.45844853 24 42
3.6600177 0.13499632 -0.50167394 133 43
3.6607773 0.11253633 -0.50167394 131 43
3.6673329 0.090219975 -0.50254935 129 43
3.6678174 0.06771595 -0.50254935 93 43
3.6681228 0.13525376 -0.54791796 150 44
3.6688836 0.11274403 -0.54791796 164 44
3.6635833 0.090085045 -0.54697108 113 44
3.69961 0.068256035 -0.55265236 31 44
3.672312 0.045216884 -0.54823357 142 44
3.6744952 0.022695139 -0.54854923 80 44
3.6816275 0.13451891 -0.59481198 46 45
3.6942043 0.11228935 -0.59684622 9 45
3.6849713 0.089377955 -0.59515101 9 45
3.6775675 0.066620417 -0.59379482 4 45
3.6739652 0.044005573 -0.59311676 5 45
3.6859922 0.02153454 -0.59515101 45 45
3.7047801 -0.0010822796 -0.59837192 109 45
3.6840079 -0.023687825 -0.59481198 35 45
3.6973467 0.13632822 -0.64329493 137 46
3.6912329 0.11342845 -0.64202529 169 46
3.7439647 0.092053033 -0.65163833 35 46
3.7005622 0.045561735 -0.64347631 103 46
3.7115893 0.022920322 -0.64547145 150 46
3.7116601 0.00014600526 -0.64547145 134 46
3.6997905 -0.022555135 -0.64329493 146 46
3.6887658 -0.045122743 -0.64129978 127 46
3.7356153 -0.068627693 -0.65000594 17 46
3.6860945 0.13468353 -0.68639022 118 47
3.6829286 0.11194307 -0.6856181 104 47
3.6913934 0.08953575 -0.6871624 19 47
3.6801009 0.066667117 -0.68484592 29 47
3.6922143 0.044229928 -0.6871624 138 47
3.698303 0.021610348 -0.68832058 108 47
3.7013097 -0.0010823554 -0.6888997 133 47
3.6963274 -0.023763148 -0.68793452 120 47
3.6931686 -0.046406884 -0.6873554 72 47
3.7114539 -0.069409609 -0.69102311 86 47
3.7246907 -0.092518173 -0.69372559 97 47
3.7165446 0.13638729 -0.73746824 50 48
3.7065492 0.11325272 -0.73521876 12 48
3.7052171 0.090460062 -0.73480982 5 48
3.7017875 0.067652442 -0.7339918 7 48
3.6943026 0.044843208 -0.73235583 8 48
3.6798253 0.02208798 -0.7292884 24 48
3.6740184 -0.00049001048 -0.72806144 10 48
3.6600327 -0.045404371 -0.72519845 4 48
3.6557705 -0.06778805 -0.72438049 6 48
3.6601784 -0.090339445 -0.72540295 11 48
3.7104321 -0.11436976 -0.73603678 100 48
3.7008567 -0.13680802 -0.73419631 82 48
3.7135644 0.13763472 -0.78416812 120 49
3.7114115 0.11475468 -0.78351879 85 49
3.6983819 0.091636851 -0.78048867 29 49
3.6939938 0.068849765 -0.77940643 50 49
3.7226572 0.046545427 -0.78568321 106 49
3.7258015 0.023722326 -0.78633255 136 49
3.7258768 0.00086079183 -0.78633255 117 49
3.6994524 -0.02185341 -0.78048867 62 49
3.6318889 -0.043762486 -0.76555431 8 49
3.6588838 -0.06653478 -0.77161461 24 49
3.7062316 -0.090131946 -0.78222018 91 49
3.7036569 -0.11281243 -0.78178728 133 49
3.7077734 -0.13571253 -0.78286952 111 49
3.7088218 -0.15854321 -0.78330237 90 49
3.727282 -0.1822446 -0.78763115 21 49
3.8401392 0.11865662 -1.0494028 7 54
3.6562154 0.1342186 -0.41046834 29 41
3.8057618 0.23395176 -1.2284342 58 58
3.8014417 0.21028182 -1.2265383 67 58
3.7856033 0.1861158 -1.2208507 77 58
3.7933092 0.163169 -1.2230625 38 58
3.7930138 0.18657896 -1.2704424 57 59
3.7969201 0.16342476 -1.271422 15 59
3.8548009 0.16580775 -1.3389006 14 60
3.7058296 0.52729219 -0.83669037 18 50
3.7109249 0.50480598 -0.8371464 5 50
3.7168491 0.48240235 -0.83783042 8 50
3.7216718 0.45982569 -0.83828646 7 50
3.7244232 0.43698129 -0.83828646 44 50
3.7280021 0.41422784 -0.83851451 34 50
3.7275684 0.39104101 -0.83783042 7 50
3.6885419 0.3184312 -0.82711393 7 50
3.726337 0.29866722 -0.83555031 50 50
3.708679 0.27436259 -0.83099014 27 50
3.6845558 0.22715601 -0.82460582 5 50
3.7133229 0.18321653 -0.83076209 27 50
3.7192409 0.16063812 -0.83190215 115 50
3.7294102 0.52940929 -0.88793999 16 51
3.7383611 0.50730127 -0.88937521 68 51
3.7375519 0.48385376 -0.88841838 64 51
3.7394867 0.46079242 -0.88817918 107 51
3.7412794 0.43772554 -0.88793999 97 51
3.7381046 0.41411799 -0.88650471 90 51
3.7309184 0.39016071 -0.8841126 78 51
3.8037801 0.37422225 -0.90157503 6 51
3.7508948 0.34577811 -0.88793999 39 51
3.737468 0.32142061 -0.8841126 109 51
3.7403376 0.29855946 -0.88435179 112 51
3.7440357 0.27574679 -0.88483024 98 51
3.7408135 0.25244024 -0.88363415 24 51
3.7248478 0.22840713 -0.87932837 4 51
3.7261791 0.2055476 -0.87932837 10 51
3.7448263 0.18354133 -0.88363415 89 51
3.7478223 0.16064382 -0.8841126 99 51
3.7454889 0.48611644 -0.93790781 37 52
3.7349503 0.46146491 -0.93439776 121 52
3.7425189 0.43910253 -0.93565136 140 52
3.7547643 0.41719869 -0.93815851 75 52
3.763993 0.39485833 -0.93991357 27 52
3.756711 0.37080556 -0.93740636 7 52
3.7540958 0.34730244 -0.93615282 15 52
3.7445822 0.32326326 -0.93314415 107 52
3.7436004 0.30004913 -0.932392 128 52
3.7424748 0.27685922 -0.93163985 107 52
3.7354105 0.25330204 -0.9293834 55 52
3.7281983 0.22984202 -0.92712694 18 52
3.7401707 0.20755082 -0.92988485 82 52
3.7462082 0.18483569 -0.93113846 99 52
3.748239 0.16188759 -0.93138915 128 52
3.7676053 0.44147775 -0.98876071 55 53
3.764488 0.41771147 -0.98718959 41 53
3.7199488 0.38966376 -0.97435886 6 53
3.7234895 0.34389585 -0.97409701 5 53
3.7197604 0.32054353 -0.97252589 9 53
3.7620616 0.30095834 -0.98352367 32 53
3.7433252 0.2532641 -0.97750109 6 53
3.7615693 0.20816669 -0.9816907 8 53
3.7434971 0.18412796 -0.97645366 32 53
3.75227 0.1614892 -0.97854847 62 53
3.7616844 0.3946164 -1.0324798 83 54
3.7544611 0.37058371 -1.0297502 86 54
3.7470849 0.34665456 -1.0270207 101 54
3.7472243 0.32349107 -1.0264748 114 54
3.7510567 0.30064598 -1.0270207 125 54
3.7518713 0.27755338 -1.0267478 102 54
3.7592628 0.25491703 -1.0283855 45 54
3.7770798 0.23285048 -1.0330257 22 54
3.7621078 0.20876589 -1.0283855 97 54
3.7575529 0.18539426 -1.0267478 106 54
3.7643864 0.16258334 -1.0283855 107 54
3.7675052 0.34797496 -1.0784563 83 55
3.7647927 0.32443827 -1.0770378 82 55
3.7714918 0.30171567 -1.0784563 100 55
3.7914417 0.2799156 -1.0838462 36 55
3.7835207 0.2559962 -1.0810094 7 55
3.7888486 0.23301275 -1.0821441 14 55
3.7643561 0.20832179 -1.0744847 91 55
3.7617326 0.18503058 -1.07335 94 55
3.7608809 0.16186249 -1.0727826 102 55
3.7819953 0.30378407 -1.1298102 67 56
3.8228581 0.28346556 -1.1419001 6 56
3.8140388 0.25929174 -1.1386564 6 56
3.8045306 0.21177895 -1.1348231 12 56
3.75804 0.18607298 -1.1200793 58 56
3.7953873 0.16457996 -1.1312846 16 56
3.7686687 0.27888587 -1.1713303 58 57
3.770309 0.2557565 -1.1713303 45 57
3.7927153 0.23391347 -1.1780519 77 57
3.7902763 0.21042511 -1.1768299 97 57
3.7838881 0.18678652 -1.1743857 89 57
3.782109 0.1634413 -1.1734691 77 57
3.6662159 0.33853894 -0.45818123 89 42
3.6672368 0.31595212 -0.4580476 105 42
3.6700943 0.29352334 -0.45818123 127 42
3.6708379 0.2709257 -0.4580476 119 42
3.6338687 0.24579257 -0.45283562 24 42
3.6461895 0.2241587 -0.45430568 6 42
3.6425486 0.2015087 -0.45363748 14 42
3.7257109 0.4133966 -0.51436812 23 43
3.6691444 0.38432595 -0.50561351 98 43
3.6684799 0.36151326 -0.50517577 123 43
3.6657038 0.33854064 -0.50444621 117 43
3.6608126 0.31544521 -0.50342482 136 43
3.6646516 0.29313534 -0.50371665 133 43
3.6703274 0.27093652 -0.5043003 142 43
3.6748819 0.24861197 -0.50473803 136 43
3.6704137 0.22569245 -0.50386256 103 43
3.6183898 0.20019855 -0.49598342 13 43
3.6205382 0.17804167 -0.49612933 19 43
3.6650507 0.1577083 -0.50254935 110 43
3.6802344 0.45406097 -0.55391484 71 44
3.6819704 0.43135613 -0.55375707 117 44
3.6835663 0.40864709 -0.55359924 123 44
3.6801119 0.38542095 -0.55265236 99 44
3.708941 0.36544451 -0.55691332 11 44
3.7002971 0.34168237 -0.55517739 8 44
3.7141299 0.31998724 -0.55707115 13 44
3.6756659 0.29396832 -0.55060077 88 44
3.6744459 0.2711916 -0.55012733 162 44
3.6740704 0.24850745 -0.54981172 121 44
3.6942527 0.22710837 -0.55281019 45 44
3.7586784 0.20792069 -0.5629102 10 44
3.7036655 0.18209583 -0.55391484 54 44
3.6613042 0.15750436 -0.54697108 137 44
3.6809876 0.49884602 -0.60006714 92 45
3.6820245 0.47599721 -0.59972811 108 45
3.679985 0.45279247 -0.59888047 101 45
3.6768212 0.42951605 -0.59786338 116 45
3.6774282 0.40673012 -0.59752429 131 45
3.6827953 0.38446608 -0.59803289 83 45
3.7047005 0.36379403 -0.60142332 5 45
3.7058816 0.34096497 -0.60125375 5 45
3.7068396 0.29522678 -0.6007452 45 45
3.68401 0.27066344 -0.59650719 122 45
3.7033005 0.24925049 -0.59955853 19 45
3.6663969 0.22416505 -0.59294724 4 45
3.6844318 0.20258933 -0.59582907 4 45
3.695502 0.15774149 -0.59735477 10 45
3.700649 0.54908508 -0.65091282 115 46
3.6981065 0.52553844 -0.64982456 125 46
3.6983383 0.50244051 -0.64928037 79 46
3.7627935 0.48769557 -0.66070718 12 46
3.7042255 0.45701838 -0.64928037 84 46
3.70696 0.43428108 -0.64928037 126 46
3.7066226 0.41120243 -0.64873624 145 46
3.7051635 0.38804197 -0.64801073 114 46
3.6996453 0.36452958 -0.64655972 113 46
3.6949575 0.34118989 -0.64529008 84 46
3.7018805 0.31893319 -0.64619696 114 46
3.7076888 0.29652604 -0.64692247 124 46
3.7123809 0.27398735 -0.6474666 135 46
3.7120297 0.25107095 -0.64710385 134 46
3.6938691 0.22708483 -0.64347631 106 46
3.7315238 0.20642138 -0.65018731 40 46
3.6953955 0.18169008 -0.64329493 120 46
3.7052832 0.1593916 -0.64492732 111 46
3.7099359 0.5492239 -0.69855148 104 47
3.7248931 0.52810621 -0.70086789 8 47
3.7241743 0.50471246 -0.70009577 5 47
3.7057424 0.45596987 -0.69526988 4 47
3.7084703 0.43322328 -0.69526988 18 47
3.7198355 0.41143391 -0.69700718 69 47
3.6969178 0.3859449 -0.69198829 7 47
3.6923811 0.36258039 -0.69063705 6 47
3.6798809 0.33856452 -0.68774146 3 47
3.6887319 0.31656826 -0.68909276 10 47
3.7003856 0.29471073 -0.69102311 77 47
3.6933174 0.2713502 -0.68928576 111 47
3.7017655 0.24914671 -0.69063705 56 47
3.6904931 0.22564596 -0.68812758 9 47
3.6976864 0.20332234 -0.68928576 8 47
3.7282646 0.18207492 -0.69507682 51 47
3.6940215 0.15767781 -0.68812758 112 47
3.7156625 0.55065113 -0.74523908 104 48
3.7199404 0.52797937 -0.74544358 137 48
3.71438 0.50396073 -0.74360311 72 48
3.7067237 0.47977921 -0.74135369 13 48
3.7144556 0.45762411 -0.74237615 101 48
3.7191381 0.43505126 -0.74278516 107 48
3.7246563 0.41254586 -0.74339861 121 48
3.728091 0.38978571 -0.74360311 93 48
3.6972904 0.36364904 -0.73665023 10 48
3.6936038 0.34041765 -0.73542327 8 48
3.7053757 0.31858522 -0.73746824 44 48
3.7209218 0.29693216 -0.74033117 114 48
3.7265785 0.27438253 -0.74114919 109 48
3.6949856 0.24927483 -0.73419631 21 48
3.6948342 0.20375153 -0.73358279 5 48
3.7048142 0.18150678 -0.73542327 12 48
3.711726 0.15902182 -0.73665023 80 48
3.7409058 0.53237146 -0.79802024 51 49
3.7006867 0.48037767 -0.78763115 7 49
3.7210045 0.45982233 -0.79152709 71 49
3.7159989 0.43606928 -0.78979558 100 49
3.7176344 0.41315201 -0.78957909 115 49
3.7230122 0.39063978 -0.79022843 119 49
3.7311683 0.36836579 -0.79152709 37 49
3.7450237 0.34654799 -0.79412436 32 49
3.7091463 0.32027495 -0.78568321 94 49
3.7129879 0.29766667 -0.78611606 116 49
3.715718 0.27495095 -0.78633255 100 49
3.7183092 0.25221294 -0.78654897 99 49
3.7275822 0.22987626 -0.78828049 94 49
3.7279477 0.20694551 -0.78806406 92 49
3.7184215 0.18353456 -0.78568321 108 49
3.7136252 0.16046058 -0.78438455 129 49
3.7371962 0.55516773 -0.84489876 84 50
3.7059572 0.57313329 -0.65254521 74 46
3.7475438 0.64916426 -0.70897543 17 47
3.7001655 0.61758047 -0.69874454 88 47
3.7038853 0.59486502 -0.69874454 89 47
3.7123139 0.57287693 -0.69970971 113 47
3.7386451 0.64818978 -0.75321442 45 48
3.7203453 0.62153018 -0.74851102 90 48
3.7173235 0.59760398 -0.74707955 107 48
3.7122138 0.57343966 -0.74523908 89 48
3.7545681 0.60502958 -0.80343127 60 49
3.7398796 0.57913625 -0.79931891 96 49
3.7346718 0.5548839 -0.79737097 113 49
3.6192966 0.22250827 -0.36176619 85 40
3.6503677 0.20194043 -0.36505303 144 40
3.6277113 0.17836942 -0.36242357 74 40
3.6698363 0.29290986 -0.41326734 31 41
3.6557267 0.26921529 -0.41132021 109 41
3.6454263 0.24597344 -0.40985984 143 41
3.6399319 0.22317348 -0.40900797 98 41
3.6422238 0.20089006 -0.40912968 49 41
3.6473534 0.1787336 -0.40961647 39 41
3.6295402 0.15553704 -0.40730423 111 41
