# .PCD v0.7 - Point Cloud Data file format
VERSION 0.7
FIELDS x y z intensity ring
SIZE 4 4 4 4 1
TYPE F F F F U
COUNT 1 1 1 1 1
WIDTH 435
HEIGHT 1
VIEWPOINT 0 0 0 1 0 0 0
POINTS 435
DATA ascii
3.420583 -1.6953959 -1.2300141 115 58
3.4041836 -1.7133659 -1.2278023 122 58
3.379245 -1.7268803 -1.2224306 94 58
3.3610063 -1.7436495 -1.2195867 89 58
3.3510838 -1.7646816 -1.2199028 68 58
3.359437 -1.7954981 -1.2271703 11 58
3.3266742 -1.8043144 -1.2189548 6 58
3.3429685 -1.8397912 -1.2293822 5 58
3.3916168 -1.6809304 -1.2661971 39 59
3.3948102 -1.8675601 -0.86747187 6 50
3.313575 -1.8494368 -0.84877497 30 50
3.3080952 -1.8730924 -0.85037106 147 50
3.2931628 -1.8914152 -0.84945899 112 50
3.2730827 -1.9066843 -0.84717888 112 50
3.254616 -1.922769 -0.8453548 122 50
3.2402513 -1.9412012 -0.84467077 119 50
3.1958272 -1.9413288 -0.83577836 27 50
3.4184105 -1.8546929 -0.91808057 6 51
3.4137719 -1.8793771 -0.91999429 5 51
3.294131 -1.8665878 -0.89272422 51 51
3.2733543 -1.8814454 -0.89009285 103 51
3.2659433 -1.9039387 -0.89128894 55 51
3.2801144 -1.939253 -0.89870447 8 51
3.2506623 -1.9488636 -0.89368105 38 51
3.2278552 -1.9622191 -0.8905713 75 51
3.2380762 -1.9957362 -0.89703 10 51
3.324187 -1.8553611 -0.94568008 128 52
3.3051591 -1.8714294 -0.94342363 133 52
3.2986505 -1.8945677 -0.94492793 42 52
3.2476513 -1.891866 -0.93314415 6 52
3.2343149 -1.9107727 -0.93264276 5 52
3.2316642 -1.9360555 -0.93540066 9 52
3.2006955 -1.9442867 -0.92963415 49 52
3.2150803 -1.980137 -0.93765712 94 52
3.2880919 -1.8624133 -0.98483294 126 53
3.2657218 -1.8763067 -0.98142886 102 53
3.2499774 -1.8938812 -0.98011959 28 53
3.2258303 -1.9064255 -0.97619182 44 53
3.2124162 -1.9251912 -0.97566813 98 53
3.1972432 -1.9428623 -0.9746207 109 53
3.1811526 -1.9599137 -0.97331142 93 53
3.1600611 -1.9737748 -0.97043109 63 53
3.2712562 -1.8522285 -1.025929 4 54
3.2349806 -1.8844832 -1.0215617 10 54
3.224185 -1.9047866 -1.0218346 100 54
3.2165627 -1.9270065 -1.0231994 121 54
3.2030339 -1.9457076 -1.0226535 127 54
3.1926732 -1.9663335 -1.0231994 147 54
3.1593328 -1.9726368 -1.0161027 104 54
3.1601746 -2.0002186 -1.0204699 53 54
3.2382541 -1.9137625 -1.0719316 26 55
3.2165782 -1.9276838 -1.0685275 103 55
3.1989522 -1.9439001 -1.0665417 104 55
3.1787989 -1.9584645 -1.0637048 97 55
3.1610279 -1.9743782 -1.0617191 84 55
3.1488538 -1.9937367 -1.0617191 106 55
3.1389828 -2.0145733 -1.0625701 28 55
3.262069 -1.8462768 -1.1156563 89 56
3.2490218 -1.865306 -1.1150665 104 56
3.2375152 -1.8852066 -1.1150665 103 56
3.2267096 -1.905522 -1.1153613 93 56
3.2075794 -1.9208658 -1.1127075 87 56
3.1859324 -1.9345586 -1.109169 51 56
3.2602971 -1.8459332 -1.1609423 60 57
3.4243541 -1.8579153 -0.43955371 81 41
3.4167464 -1.8531796 -0.48584479 147 42
3.3992338 -1.870764 -0.4849093 57 42
3.4090905 -1.848873 -0.53348237 133 43
3.3950813 -1.8683259 -0.53304464 135 43
3.4111993 -1.904547 -0.53771377 35 43
3.3775544 -1.85883 -0.57742906 20 44
3.3540156 -1.8727783 -0.57521969 113 44
3.3553486 -1.9006245 -0.57758689 30 44
3.3511209 -1.8725556 -0.62142682 106 45
3.342998 -1.8950254 -0.62210494 97 45
3.3628795 -1.8507516 -0.66886914 150 46
3.3463087 -1.868474 -0.66778088 124 46
3.3330696 -1.8880018 -0.66741812 114 46
3.3188643 -1.9069475 -0.66687399 91 46
3.3564119 -1.8485814 -0.71457344 125 47
3.3407228 -1.8667494 -0.71360826 124 47
3.3360355 -1.8910815 -0.71515256 27 47
3.315011 -1.9061381 -0.71302915 72 47
3.3024051 -1.9259487 -0.71283615 71 47
3.3225086 -1.882781 -0.75832683 8 48
3.3049533 -1.8997167 -0.75689536 7 48
3.2788594 -1.9115771 -0.75341892 91 48
3.2426345 -1.9172097 -0.74748856 42 48
3.2737012 -1.8535168 -0.79434079 9 49
3.306298 -1.8988386 -0.80559564 95 49
3.2751782 -1.9077938 -0.80061752 83 49
3.2592068 -1.9253724 -0.79953533 90 49
3.2364419 -1.9388152 -0.79672164 17 49
3.3603594 -1.6905711 -0.84102261 5 50
3.3794024 -1.72622 -0.84877497 6 50
3.3786416 -1.7784472 -0.85424721 46 50
3.3625131 -1.7963912 -0.85287917 103 50
3.3865197 -1.8360195 -0.86222762 14 50
3.4190495 -1.7214687 -0.90301031 92 51
3.4231219 -1.7499241 -0.9070769 151 51
3.3890474 -1.758826 -0.9006182 109 51
3.3721774 -1.7764218 -0.89894366 110 51
3.3406601 -1.7860986 -0.8932026 44 51
3.4258647 -1.7235347 -0.95295089 10 52
3.4035971 -1.7649999 -0.9527002 155 52
3.3832808 -1.7808897 -0.94994229 164 52
3.3586287 -1.7943157 -0.94593078 159 52
3.3679795 -1.8259655 -0.95194805 76 52
3.3490791 -1.8423965 -0.94969159 105 52
3.3925335 -1.7335551 -0.99321222 56 53
3.4178197 -1.772993 -1.00421 17 53
3.4102929 -1.7957286 -1.0052575 6 53
3.4060206 -1.8202571 -1.0073522 4 53
3.3905451 -1.8388225 -1.006043 11 53
3.3174644 -1.8256435 -0.98692775 107 53
3.3036716 -1.8445541 -0.98614222 127 53
3.4312453 -1.7262424 -1.0491298 130 54
3.4111652 -1.7424488 -1.0461273 135 54
3.3969936 -1.7615746 -1.0450356 111 54
3.3716497 -1.7747658 -1.0403954 9 54
3.3513632 -1.790433 -1.037393 5 54
3.3318572 -1.8063769 -1.0346634 11 54
3.3156538 -1.8240041 -1.0330257 25 54
3.2968395 -1.8400937 -1.0305691 25 54
3.4113538 -1.7168537 -1.0889524 122 55
3.3999012 -1.7373171 -1.0886687 98 55
3.3789611 -1.7528501 -1.0852646 43 55
3.3528671 -1.7655127 -1.0801584 64 55
3.3453543 -1.7878591 -1.0812931 99 55
3.3284199 -1.8051538 -1.0793073 113 55
3.317281 -1.8255427 -1.0793073 134 55
3.2733586 -1.8276416 -1.0682437 63 55
3.4101934 -1.714906 -1.1368872 43 56
3.3876932 -1.7297137 -1.132759 13 56
3.3829541 -1.7535464 -1.1348231 6 56
3.3746676 -1.7756058 -1.1357076 6 56
3.3384242 -1.782773 -1.1268615 77 56
3.322382 -1.8004915 -1.1250921 105 56
3.3037367 -1.8166988 -1.1224383 115 56
3.2808459 -1.830417 -1.1183101 105 56
3.429749 -1.699072 -1.1869123 98 57
3.4133039 -1.7170911 -1.1847737 111 57
3.3967669 -1.7349724 -1.1826349 18 57
3.3919754 -1.7588483 -1.1847737 8 57
3.3836477 -1.7809576 -1.1856903 20 57
3.3340166 -1.7810595 -1.1716359 72 57
3.310467 -1.79468 -1.167053 109 57
3.3018959 -1.8163348 -1.1679696 88 57
3.2832046 -1.8323866 -1.1652198 84 57
3.1836677 -1.8284609 -1.1368055 19 57
3.4306748 -1.8335816 -0.48624569 166 42
3.4282248 -1.8321147 -0.53479558 130 43
3.4277971 -1.805089 -0.58042753 17 44
3.4123025 -1.8237599 -0.57963842 11 44
3.3915002 -1.8394834 -0.5779025 8 44
3.4318185 -1.8085787 -0.6283772 104 45
3.3693757 -1.8021932 -0.61837542 12 45
3.3426609 -1.8143755 -0.61532408 4 45
3.3426893 -1.8410289 -0.61752784 14 45
3.4252319 -1.8306718 -0.67721254 93 46
3.3914602 -1.8394616 -0.67249674 146 46
3.4303801 -1.7810173 -0.72113669 4 47
3.4185193 -1.8015751 -0.72094363 7 47
3.4151886 -1.8266793 -0.72268099 9 47
3.3745914 -1.8316946 -0.71611774 82 47
3.4121451 -1.7709392 -0.76364374 31 48
3.4072766 -1.7950368 -0.76507521 51 48
3.374619 -1.8043686 -0.7599628 133 48
3.3566015 -1.8213055 -0.75832683 122 48
3.3505077 -1.8447001 -0.75955379 24 48
3.4224441 -1.7480775 -0.81230527 7 49
3.3920941 -1.7854 -0.81014091 107 49
3.37763 -1.8043408 -0.80927515 113 49
3.3630617 -1.8231715 -0.80840933 117 49
3.3475337 -1.8414211 -0.80732715 113 49
3.2816017 -1.8314928 -0.79347503 12 49
3.7065089 -1.9515898 -1.4056375 18 59
3.7954633 -1.9987503 -1.4932148 8 60
3.5429456 -1.5964142 -1.2527647 72 58
3.5072067 -1.6062688 -1.2432853 12 58
3.4693501 -1.6668541 -1.2404414 26 58
3.4385948 -1.6781216 -1.2328579 96 58
3.4965892 -1.6012721 -1.2870969 90 59
3.484127 -1.621501 -1.2861172 100 59
3.4689846 -1.6404259 -1.2841579 88 59
3.451185 -1.657999 -1.2812188 101 59
3.4358494 -1.6766584 -1.2792594 85 59
3.5028346 -1.7628587 -1.3132215 7 59
3.6963773 -1.5034994 -0.84498763 128 49
3.6834738 -1.5246592 -0.84412187 123 49
3.676749 -1.5483679 -0.84477121 80 49
3.6537161 -1.5651363 -0.8415246 23 49
3.6333017 -1.5828496 -0.83892733 120 49
3.6128082 -1.6003716 -0.83633006 170 49
3.5913465 -1.6173012 -0.83351636 159 49
3.571589 -1.63484 -0.83113551 135 49
3.5482106 -1.6505514 -0.82788891 8 49
3.5247743 -1.6660377 -0.82464236 6 49
3.5153656 -1.6880562 -0.82485878 7 49
3.5075746 -1.7108775 -0.82550812 32 49
3.4856362 -1.7267369 -0.82269436 49 49
3.4437268 -1.7856629 -0.82031351 37 49
3.6854963 -1.4992701 -0.89186907 94 50
3.6654327 -1.5173855 -0.88913292 22 50
3.648875 -1.5368235 -0.88730884 8 50
3.6402714 -1.5595672 -0.88753682 8 50
3.6270633 -1.5803181 -0.88662481 40 50
3.5888128 -1.5899205 -0.87932843 152 50
3.5763266 -1.6107113 -0.87864441 159 50
3.559294 -1.6293821 -0.87682033 95 50
3.5509946 -1.6520123 -0.87727636 57 50
3.5099835 -1.6592029 -0.86929595 140 50
3.4944708 -1.678179 -0.86792791 181 50
3.482358 -1.6987351 -0.86747187 155 50
3.4762311 -1.7222321 -0.86861193 130 50
3.677274 -1.5235927 -0.94056648 72 51
3.6383266 -1.5336899 -0.9326725 25 51
3.6440201 -1.5624857 -0.93673909 78 51
3.6174517 -1.5774465 -0.93219405 150 51
3.5935006 -1.5933203 -0.92836666 91 51
3.5606384 -1.6049722 -0.92214721 9 51
3.534832 -1.6195147 -0.91784137 5 51
3.5345123 -1.6456789 -0.92047274 5 51
3.5006466 -1.6561311 -0.91401398 77 51
3.486918 -1.6758981 -0.91305715 141 51
3.4687152 -1.6934305 -0.91090423 134 51
3.4460785 -1.7086475 -0.90755528 137 51
3.6440372 -1.5347854 -0.98378921 157 52
3.6256535 -1.5533029 -0.981282 155 52
3.6080673 -1.5720394 -0.97902554 148 52
3.5939283 -1.5921874 -0.977772 135 52
3.5664384 -1.6062568 -0.97275764 45 52
3.5424328 -1.6216613 -0.96874613 20 52
3.5447035 -1.6490848 -0.97225618 64 52
3.5240161 -1.665838 -0.96924758 167 52
3.4910407 -1.6765312 -0.96272892 46 52
3.4484973 -1.6822133 -0.95345235 7 52
3.4372432 -1.7029114 -0.95320159 7 52
3.4359143 -1.7550939 -0.9589681 127 52
3.6055272 -1.5452523 -1.0238489 113 53
3.6269472 -1.5808337 -1.0330138 32 53
3.5730562 -1.5835197 -1.0199212 6 53
3.5729532 -1.6097717 -1.0228015 24 53
3.5463343 -1.6240348 -1.0178263 131 53
3.5301769 -1.6429154 -1.0159934 141 53
3.5095584 -1.6595975 -1.0128511 128 53
3.4792981 -1.6714944 -1.0068285 139 53
3.4368799 -1.6771607 -0.99713999 13 53
3.4324219 -1.7274488 -1.0021152 14 53
3.6004987 -1.5425231 -1.070693 70 54
3.6121321 -1.5738108 -1.0772439 14 54
3.6138413 -1.6010116 -1.0807923 9 54
3.6109667 -1.6263168 -1.0829759 5 54
3.566807 -1.6328224 -1.0723307 24 54
3.5113659 -1.6335713 -1.0581373 129 54
3.502146 -1.6554971 -1.0584102 66 54
3.4901879 -1.6761216 -1.0578643 11 54
3.4720564 -1.6937087 -1.0554078 42 54
3.4521167 -1.7102821 -1.0524052 138 54
3.6028984 -1.5703603 -1.1218594 72 55
3.585304 -1.5889432 -1.1193062 108 55
3.5649941 -1.6061887 -1.1159021 118 55
3.5419922 -1.6220478 -1.1116469 121 55
3.5197997 -1.6380898 -1.1076753 67 55
3.460263 -1.6363049 -1.0915055 12 55
3.4458354 -1.6554309 -1.0900872 6 55
3.434751 -1.6761228 -1.0898035 6 55
3.4381509 -1.7039753 -1.0943424 59 55
3.5434511 -1.5431455 -1.1516309 48 56
3.5636206 -1.5780159 -1.1616566 114 56
3.5469007 -1.5967135 -1.1592976 126 56
3.5205286 -1.6108911 -1.153695 116 56
3.5027804 -1.6288354 -1.1510412 96 56
3.4590275 -1.6343738 -1.139541 41 56
3.4497955 -1.6559808 -1.139836 48 56
3.4541698 -1.684238 -1.1448488 124 56
3.4429142 -1.7049766 -1.1445539 123 56
3.5552661 -1.5749025 -1.2064662 71 57
3.5108027 -1.5810586 -1.1942451 29 57
3.475924 -1.5910854 -1.1853848 3 57
3.4678228 -1.613186 -1.1859958 5 57
3.4681911 -1.6393135 -1.1896621 17 57
3.4675105 -1.6650941 -1.193023 92 57
3.4503808 -1.6830016 -1.1905787 102 57
3.6604257 -1.6229703 -0.45281857 83 41
3.6422534 -1.6417313 -0.45172331 177 41
3.6212814 -1.6590909 -0.45026296 146 41
3.5957341 -1.6741618 -0.44819412 190 41
3.5844967 -1.6957691 -0.44807243 164 41
3.5713401 -1.7164421 -0.44770736 168 41
3.5491438 -1.7326658 -0.4461253 166 41
3.5295517 -1.7500038 -0.44490832 167 41
3.5001273 -1.7622598 -0.44235271 80 41
3.4901323 -1.7841545 -0.4424744 6 41
3.4741232 -1.8300859 -0.44332629 15 41
3.4356894 -1.8368689 -0.43955371 75 41
3.7412839 -1.5495565 -0.50776178 112 42
3.7170939 -1.5663246 -0.50562352 140 42
3.6973939 -1.584807 -0.50415349 140 42
3.6794243 -1.6038991 -0.50295073 145 42
3.6658897 -1.6248388 -0.50241619 149 42
3.6413949 -1.6407863 -0.50027794 59 42
3.6844168 -1.687451 -0.50816268 4 42
3.6141598 -1.7092296 -0.50081247 11 42
3.5669816 -1.7137735 -0.49533322 130 42
3.54304 -1.7291067 -0.49332863 186 42
3.5270364 -1.7481726 -0.4925268 170 42
3.5091619 -1.7662162 -0.49145767 214 42
3.4876695 -1.782302 -0.48985398 151 42
3.4678714 -1.7991037 -0.48851758 188 42
3.4479988 -1.8157297 -0.48718119 168 42
3.8085718 -1.4687581 -0.56353992 131 43
3.7921205 -1.4892086 -0.56237262 151 43
3.7700496 -1.5073105 -0.56032985 156 43
3.7524819 -1.527061 -0.5590167 137 43
3.7430415 -1.5500571 -0.5590167 66 43
3.7216067 -1.5680047 -0.55711985 12 43
3.6909988 -1.5818535 -0.55376393 139 43
3.6721532 -1.6005211 -0.5523048 179 43
3.6423628 -1.6142104 -0.5490948 168 43
3.6251729 -1.6332803 -0.5479275 149 43
3.5862961 -1.6423206 -0.54325837 31 43
3.5842249 -1.6680492 -0.54457158 9 43
3.5551386 -1.6811346 -0.54150742 20 43
3.5367296 -1.6990638 -0.54019427 87 43
3.5075643 -1.7116272 -0.53713012 27 43
3.4863575 -1.7278485 -0.53537923 13 43
3.4624324 -1.7425408 -0.53319055 8 43
3.4428644 -1.7592543 -0.53173143 10 43
3.4539628 -1.7917283 -0.53537923 153 43
3.4411528 -1.8119663 -0.53508741 141 43
3.8042779 -1.4673411 -0.61293709 146 44
3.7878501 -1.4877673 -0.61167455 180 44
3.7593963 -1.5032799 -0.60836047 137 44
3.7674787 -1.5333934 -0.61135894 34 44
3.7397535 -1.5489223 -0.6082027 9 44
3.7256293 -1.5699222 -0.60741359 7 44
3.7141111 -1.5919745 -0.60709798 20 44
3.6762128 -1.6024989 -0.60220575 143 44
3.666311 -1.6250255 -0.60220575 112 44
3.6724756 -1.6547946 -0.60504639 13 44
3.6631505 -1.6777086 -0.60520422 38 44
3.5865419 -1.6693126 -0.59352601 165 44
3.5699832 -1.6883321 -0.59242135 148 44
3.5381961 -1.6999398 -0.58863384 179 44
3.525924 -1.7207514 -0.58831817 155 44
3.5073369 -1.7384062 -0.58689785 26 44
3.4772003 -1.7501253 -0.58342594 15 44
3.4971704 -1.7871584 -0.58894944 41 44
3.4528322 -1.7912997 -0.5829525 134 44
3.784404 -1.4609574 -0.65889108 135 45
3.7671127 -1.4809079 -0.65736538 141 45
3.7469742 -1.4996035 -0.65533113 156 45
3.7322254 -1.5203371 -0.65431398 127 45
3.7319317 -1.5469803 -0.6560092 87 45
3.6869502 -1.5549244 -0.64939791 158 45
3.6655643 -1.5724703 -0.64719409 179 45
3.6522331 -1.5933568 -0.64651603 156 45
3.6333778 -1.611743 -0.64482081 14 45
3.6099422 -1.6279335 -0.64227796 6 45
3.6007814 -1.6504635 -0.64244753 3 45
3.5959475 -1.6750215 -0.64346462 48 45
3.5330381 -1.6721948 -0.63346285 159 45
3.4969501 -1.6814643 -0.62854671 88 45
3.5202227 -1.7193149 -0.63498855 17 45
3.506958 -1.7395693 -0.63448 51 45
3.4838939 -1.7548516 -0.63210672 137 45
3.4695504 -1.7744014 -0.6314286 116 45
3.4524739 -1.7924799 -0.63024193 138 45
3.7685304 -1.4535491 -0.70587015 82 46
3.7458112 -1.4712509 -0.7031495 25 46
3.6935654 -1.5297871 -0.69825232 46 46
3.6904526 -1.5550953 -0.69952196 146 46
3.6727066 -1.5742226 -0.69788957 134 46
3.6539638 -1.5927978 -0.6960758 157 46
3.6504149 -1.6179781 -0.69734544 85 46
3.6332459 -1.6371135 -0.69589442 101 46
3.600781 -1.6491363 -0.69135994 162 46
3.5825706 -1.6674637 -0.68972754 164 46
3.5713828 -1.6889941 -0.68954617 91 46
3.5033379 -1.6831878 -0.67775667 13 46
3.4823391 -1.6994754 -0.67558014 15 46
3.4709647 -1.7203739 -0.67539877 11 46
3.4682488 -1.7456188 -0.67703116 95 46
3.4522188 -1.7641811 -0.6759429 189 46
3.4518037 -1.7907659 -0.67811942 128 46
3.4642432 -1.8242862 -0.6830166 17 46
3.7560856 -1.4765767 -0.75472492 76 47
3.7387555 -1.4963169 -0.75298756 9 47
3.7358654 -1.5218186 -0.7543388 4 47
3.6983554 -1.5330734 -0.74835473 34 47
3.7078671 -1.5637387 -0.75240844 56 47
3.6882823 -1.582208 -0.75028509 7 47
3.6659122 -1.5993199 -0.74758255 8 47
3.657824 -1.6225786 -0.74796861 7 47
3.5851796 -1.6167753 -0.73445612 115 47
3.5760837 -1.6391517 -0.73464918 147 47
3.5606215 -1.658579 -0.73349094 164 47
3.5441687 -1.6774589 -0.73213971 136 47
3.5019705 -1.6838765 -0.7251904 39 47
3.5100901 -1.7143698 -0.72924417 70 47
3.4704938 -1.7214953 -0.72287399 131 47
3.4519775 -1.7387872 -0.72113669 134 47
3.4360013 -1.7572564 -0.71997845 29 47
3.7237928 -1.48979 -0.79840803 138 48
3.7082355 -1.510026 -0.79697657 161 48
3.6898577 -1.5290027 -0.79493165 149 48
3.6749949 -1.5493323 -0.79370463 119 48
3.6393309 -1.5606619 -0.78777426 44 48
3.6458361 -1.5900081 -0.79145521 5 48
3.6162341 -1.6302023 -0.78920573 27 48
3.594595 -1.6470585 -0.7865473 26 48
3.5888579 -1.67115 -0.78756976 5 48
3.5433786 -1.7031887 -0.7818439 22 48
3.4967985 -1.7072865 -0.77345955 151 48
3.4774876 -1.7243608 -0.77141458 160 48
3.4659674 -1.7452254 -0.77121007 177 48
3.4508359 -1.764231 -0.77018762 174 48
3.4488068 -1.7349375 -0.81620121 16 49
3.4651685 -1.8526183 -0.34616882 16 39
3.5122576 -1.7683628 -0.34646052 46 39
3.4951367 -1.786711 -0.3457799 156 39
3.484108 -1.8081231 -0.3457799 166 39
3.4685445 -1.8271492 -0.3452937 128 39
3.6131952 -1.7087731 -0.40263239 67 40
3.5650146 -1.7128283 -0.39803082 146 40
3.5499716 -1.7324903 -0.39748302 159 40
3.5366027 -1.7529154 -0.39715433 176 40
3.5222292 -1.7727947 -0.39671609 140 40
3.5413773 -1.8097551 -0.40044117 12 40
3.5293241 -1.8309926 -0.40033162 11 40
3.4670153 -1.8257464 -0.39397708 56 40
3.4478581 -1.8427677 -0.39299104 108 40
3.8169034 -1.44537 -0.61356831 156 44
3.6070557 -1.4423461 -0.67739391 5 46
