# .PCD v0.7 - Point Cloud Data file format
VERSION 0.7
FIELDS x y z intensity ring
SIZE 4 4 4 4 1
TYPE F F F F U
COUNT 1 1 1 1 1
WIDTH 1379
HEIGHT 1
VIEWPOINT 0 0 0 1 0 0 0
POINTS 1379
DATA ascii
-1.0270404 2.6641836 0.18052113 92 27
-1.0053655 2.6564267 0.17975962 75 27
-0.98243219 2.6447604 0.17879505 91 27
-0.9634465 2.6432331 0.17838891 78 27
-0.94283348 2.6368716 0.17772894 73 27
-0 0 0 79 27
-0 0 0 79 27
-0.88615566 2.6301217 0.17645976 72 27
-0.86780661 2.6288719 0.17610438 79 27
-0.849814 2.6284463 0.17579979 75 27
-0.83276474 2.6307552 0.17564748 66 27
-0.82134235 2.651077 0.17645976 294 27
-0.79954833 2.6379094 0.17549518 82 27
-0.78306311 2.6418083 0.17544441 88 27
-0.76767361 2.6494408 0.17559671 81 27
-0.76883984 2.7155941 0.17884582 34 27
-0.75696081 2.7375853 0.17975962 32 27
-0.74093103 2.7450705 0.17991193 24 27
-0.72407365 2.7495651 0.17991193 25 27
-0.70868176 2.7597597 0.18021654 29 27
-0.68274915 2.7282128 0.17833814 11 27
-0.65344012 2.6809299 0.17564748 7 27
-0.63559228 2.679059 0.17534287 6 27
-0 0 0 5 27
-0.59500289 2.6525531 0.17356603 5 27
-0.57488143 2.6385908 0.17265221 7 27
-0.55371165 2.6186202 0.17143381 10 27
-0.53522122 2.6102293 0.17082459 4 27
-0.51841497 2.6095462 0.17062153 7 27
-0.50125921 2.6067941 0.17031692 10 27
-0 0 0 4 27
-0.46887818 2.6107833 0.17021538 7 27
-0.45028585 2.5988514 0.16945387 10 27
-0.43449602 2.6025505 0.16950464 11 27
-0 0 0 3 27
-0.40206763 2.6047256 0.16935234 10 27
-0.38446367 2.596277 0.1687939 14 27
-0.36740062 2.590677 0.16838777 7 27
-0 0 0 4 27
-0 0 0 4 27
-0.32601973 2.6485419 0.17102766 5 27
-0 0 0 6 27
-0 0 0 4 27
-0 0 0 6 27
-0 0 0 5 27
-0.23983955 2.6055839 0.16838777 17 27
-0.22530748 2.6239219 0.1692508 49 27
-0.2087245 2.6192818 0.16894621 52 27
-0.19294362 2.6244972 0.16914928 38 27
-0.17372896 2.5797961 0.16681398 22 27
-0.15771204 2.5778229 0.16666168 31 27
-0 0 0 19 27
-0 0 0 15 27
-0 0 0 11 27
-0 0 0 21 27
-0 0 0 16 27
-0 0 0 25 27
-0.045541674 2.5103228 0.16300644 29 27
-0.0300257 2.5015671 0.16254953 17 27
-0.014669482 2.5007057 0.16249876 16 27
0.00067699281 2.4897628 0.16194032 24 27
0.015965741 2.4917092 0.16204186 23 27
0.031157803 2.4835751 0.16163573 34 27
0.046396147 2.4833372 0.16163573 30 27
0.06165706 2.4840043 0.16168649 30 27
0.077049658 2.4885705 0.16194032 38 27
0.092208095 2.4850566 0.16178802 49 27
0.10783856 2.4934242 0.16224493 25 27
0.12352636 2.5006957 0.16265106 45 27
0.13941731 2.5098627 0.16315874 60 27
0.15499805 2.5119505 0.16331103 57 27
0.17054249 2.5129452 0.16341257 65 27
0.18588515 2.5108554 0.1633618 72 27
0.20216119 2.5206187 0.16392025 68 27
0.21830754 2.5272911 0.16432638 65 27
0.23335263 2.5209315 0.16407254 89 27
0 0 0 160 27
0 0 0 178 27
0 0 0 182 27
0 0 0 149 27
0.30568957 2.4729383 0.16204186 97 27
0.32175443 2.4779491 0.16239724 84 27
0.33816072 2.4848351 0.16285414 73 27
0.35396212 2.4866686 0.16305721 68 27
0.37126225 2.498281 0.16376795 57 27
0.3861272 2.492995 0.16361564 58 27
0.40157512 2.4915648 0.16366641 49 27
0.41570398 2.4821584 0.16331103 53 27
0.43126747 2.481529 0.16341257 51 27
0.44630915 2.4778531 0.1633618 33 27
0.4604089 2.4691768 0.16305721 40 27
0.47441903 2.4604208 0.1627526 35 27
0.48872837 2.4535453 0.16254953 29 27
0.5039745 2.4514787 0.16260029 27 27
0.51900703 2.4483402 0.16260029 22 27
0.53401995 2.4451096 0.16260029 21 27
0.54901284 2.4417868 0.16260029 22 27
0.56420958 2.4393454 0.16265106 21 27
0.58008879 2.4397244 0.16285414 26 27
0.59623039 2.4409707 0.16310798 12 27
0.61410642 2.4488921 0.16371718 10 27
0.62912095 2.4450781 0.16371718 7 27
0.6453836 2.4460008 0.16397101 10 27
0.65985924 2.4400663 0.16386949 5 27
0.67508501 2.436934 0.16392025 11 27
0.68812048 2.4260194 0.16356488 7 27
0.70493907 2.4284663 0.16392025 9 27
0.72067815 2.4269676 0.16407254 7 27
0.73671508 2.4263229 0.16427562 7 27
0 0 0 5 27
0.76613289 2.4161477 0.16422485 6 27
0.78463089 2.4228044 0.16483405 4 27
0 0 0 5 27
0.81685454 2.4205649 0.1652402 14 27
0.8316915 2.4155071 0.1652402 23 27
0.85079354 2.4226103 0.16590017 10 27
0 0 0 5 27
1.1605849 3.1804671 0.20747855 49 27
1.1766002 3.1639242 0.20697087 171 27
0 0 0 201 27
0 0 0 177 27
0 0 0 205 27
0 0 0 224 27
1.2787445 3.1402197 0.20773238 212 27
1.3018085 3.141542 0.20824006 190 27
1.3249367 3.142699 0.20874773 186 27
1.3449817 3.1363461 0.20884927 182 27
0 0 0 174 27
0 0 0 203 27
0 0 0 182 27
0 0 0 212 27
1.4544576 3.1234951 0.21052457 216 27
1.4731688 3.1136091 0.21047382 196 27
1.4939753 3.1081123 0.21067688 223 27
1.5169591 3.1069653 0.21113379 210 27
1.541315 3.1083376 0.211743 235 27
0 0 0 216 27
0 0 0 203 27
1.608843 3.0998321 0.21291064 209 27
1.6301589 3.0943208 0.21316448 225 27
1.6519383 3.0895452 0.21346909 245 27
1.6741964 3.0854969 0.21382445 207 27
1.6974297 3.0830414 0.21428135 183 27
1.6837026 3.0141397 0.21087995 80 27
0 0 0 36 27
0 0 0 35 27
0 0 0 43 27
0 0 0 40 27
0 0 0 44 27
0 0 0 52 27
0 0 0 48 27
0 0 0 41 27
0 0 0 51 27
0 0 0 52 27
0 0 0 46 27
0 0 0 42 27
0 0 0 45 27
1.7922367 2.6460068 0.19783276 46 27
1.8067441 2.6324892 0.19768047 86 27
1.8200133 2.6172528 0.19742663 179 27
0 0 0 92 27
0 0 0 74 27
0 0 0 118 27
0 0 0 92 27
0 0 0 96 27
1.9331044 2.5724485 0.19894965 98 27
1.9542934 2.567693 0.19940655 78 27
1.976106 2.5635655 0.19991423 81 27
0 0 0 100 27
0 0 0 75 27
0 0 0 83 27
0 0 0 105 27
0 0 0 111 27
2.1278346 2.5597713 0.20458481 67 27
0 0 0 51 27
0 0 0 40 27
2.4543772 2.8446498 0.22636396 110 27
2.4770398 2.8355551 0.2267701 110 27
2.5016675 2.8285341 0.22732854 70 27
2.6654944 2.9768612 0.23849733 94 27
2.7232723 3.0041175 0.2414926 159 27
2.7436793 2.9895592 0.2416449 149 27
2.7755628 2.9873049 0.24266025 148 27
2.8047853 2.9818606 0.24347253 173 27
2.8347335 2.9768934 0.24433556 160 27
2.8654187 2.9723895 0.24524938 152 27
2.8961551 2.9676206 0.24616319 175 27
2.92273 2.9583223 0.24677239 243 27
2.9733055 2.9728243 0.24910769 18 27
3.1911063 3.1517832 0.26337329 91 27
3.2296815 3.150979 0.26474401 71 27
3.2626145 3.144274 0.26570857 87 27
3.3006487 3.1421044 0.26702854 84 27
3.3351412 3.1361642 0.26809463 52 27
3.3652952 3.125839 0.26885614 75 27
3.397655 3.1172876 0.26976997 63 27
3.4337351 3.1118107 0.27093762 72 27
3.4780591 3.1133368 0.27266368 83 27
3.5277662 3.1190672 0.27474514 82 27
3.5761695 3.1229897 0.27672508 76 27
3.6073623 3.1114275 0.27753735 97 27
3.6423476 3.102839 0.27860346 73 27
3.6796551 3.0958674 0.27982187 75 27
3.7200851 3.0911076 0.28124335 66 27
3.7559636 3.0821655 0.28236023 89 27
3.773253 3.0578034 0.28225869 36 27
0 0 0 5 27
3.8018751 3.004456 0.28170025 4 27
3.7966223 2.9626338 0.28017724 5 27
3.8036559 2.9307458 0.27946651 8 27
3.8311031 2.9146104 0.2800757 4 27
3.8153825 2.8658485 0.27794349 31 27
3.8754041 2.8739235 0.28063416 158 27
3.9082732 2.8613033 0.28159872 154 27
3.9484167 2.8536544 0.2830202 163 27
3.991864 2.8479409 0.28464475 175 27
4.0353889 2.8418009 0.28626931 135 27
4.0912867 2.8437862 0.28865537 108 27
4.1481829 2.845757 0.29109222 99 27
4.1961598 2.8409743 0.2929706 105 27
4.245894 2.8368194 0.29495052 125 27
4.2915654 2.8294108 0.29667661 137 27
4.3423271 2.8248162 0.29870731 133 27
4.4049578 2.8272598 0.30144873 110 27
4.4669366 2.8285053 0.30413938 136 27
4.5206256 2.8238027 0.30632237 153 27
4.5633717 2.811734 0.30784538 135 27
4.6240592 2.8101423 0.31043452 156 27
4.6746192 2.8017473 0.31241444 174 27
4.7286878 2.7948704 0.31459743 160 27
4.7724934 2.7813978 0.31617123 145 27
4.8353586 2.7784431 0.3188619 250 27
4.8488407 2.7467518 0.31865883 233 27
4.8551407 2.7111032 0.31804961 188 27
4.8594365 2.6745172 0.31733888 204 27
4.8573217 2.6346464 0.31627277 192 27
4.8584247 2.5967865 0.31540972 206 27
4.851294 2.5548227 0.31408978 223 27
4.85181 2.5171857 0.31322673 272 27
4.8573823 2.4823666 0.31266829 229 27
4.8609266 2.446676 0.31200832 246 27
4.881216 2.419466 0.3123129 193 27
4.9435334 2.4126961 0.31500357 235 27
4.979847 2.3927028 0.31622198 301 27
4.9962401 2.3629563 0.31632352 308 27
4.9735255 2.3149683 0.31424206 212 27
4.9758334 2.2789991 0.31358209 302 27
4.9769773 2.2426779 0.31287137 311 27
4.9796891 2.2072389 0.31226215 309 27
4.9867306 2.1738474 0.31190678 305 27
4.9889612 2.1384847 0.31129757 318 27
4.9900255 2.1027884 0.31063759 383 27
4.9889946 2.066395 0.30987608 348 27
4.9904804 2.0312238 0.30926687 384 27
4.9880142 1.9946282 0.3084546 366 27
4.9815693 1.9566783 0.30743927 327 27
4.9981399 1.9278731 0.30769309 453 27
4.9949327 1.8915067 0.30688083 369 27
4.99334 1.8559486 0.30617008 309 27
4.9999428 1.823563 0.30591625 319 27
5.0006948 1.7891465 0.30535781 289 27
5.0087519 1.7574366 0.30520549 319 27
5.0147195 1.7250451 0.30495167 342 27
5.013854 1.6904116 0.30434245 301 27
5.020339 1.6583614 0.30413938 221 27
4.9867129 1.6133746 0.3018041 40 27
4.9984226 1.5833499 0.30190563 48 27
4.9870591 1.5461394 0.30078876 27 27
4.9448471 1.4998449 0.2980473 11 27
4.9903383 1.4802763 0.29997647 34 27
4.9801445 1.4440614 0.29896113 19 27
4.9793034 1.4107521 0.29845345 17 27
4.978241 1.3775074 0.2979458 15 27
4.9788866 1.3448504 0.29753965 11 27
4.9957356 1.3165678 0.29799655 18 27
5.0056543 1.2863873 0.29809809 17 27
5.0134535 1.255649 0.29809809 23 27
5.0200934 1.2246264 0.2980473 18 27
5.0177965 1.1914912 0.29753965 27 27
5.021121 1.1597801 0.29733658 12 27
5.0183988 1.1267593 0.2968289 18 27
5.0144849 1.0936024 0.29627046 18 27
5.0152388 1.0615714 0.29596585 16 27
5.0197015 1.0303763 0.29586431 17 27
5.013196 0.99702126 0.29520434 11 27
5.0290256 0.96813226 0.29571202 19 27
5.0270171 0.93579251 0.29530588 24 27
5.0306983 0.90457577 0.29520434 13 27
5.0282822 0.87232351 0.29479823 23 27
5.0266452 0.84029984 0.29444283 23 27
5.0267763 0.80864686 0.29418901 20 27
5.024735 0.77671838 0.29383364 35 27
5.0294061 0.74587256 0.29383364 26 27
5.0328994 0.714858 0.29378286 23 27
5.0411491 0.68450165 0.29398593 17 27
5.0452542 0.65355688 0.29398593 31 27
5.0432224 0.62185276 0.29368132 21 27
5.0429754 0.59043097 0.29347825 20 27
5.0395551 0.55870485 0.29312289 20 27
5.0379224 0.52725124 0.29286906 20 27
5.0380807 0.49603498 0.29271677 40 27
0 0 0 35 27
5.0417986 0.43400085 0.29261523 37 27
5.045362 0.40313658 0.29266599 36 27
5.0527205 0.37253955 0.29291981 51 27
5.0529184 0.34139451 0.29281828 61 27
5.050931 0.31013823 0.29261523 64 27
5.0567274 0.27936172 0.29281828 84 27
5.0583467 0.24832897 0.29281828 111 27
5.0557837 0.21711455 0.29261523 113 27
5.0500345 0.18583006 0.29225984 107 27
5.0450907 0.15465514 0.29195526 86 27
5.0529332 0.12386908 0.29231063 68 27
5.0585909 0.092955425 0.29256445 63 27
5.0640593 0.061977006 0.29281828 51 27
5.0703363 0.030941302 0.29312289 47 27
5.0734267 -0.00016969154 0.29327521 50 27
5.0723314 -0.03129372 0.29322442 37 27
5.0710454 -0.062404312 0.29317367 43 27
5.0745611 -0.093591236 0.29337674 35 27
5.0748901 -0.12475071 0.2934275 34 27
5.0730305 -0.15585686 0.29337674 30 27
5.0749731 -0.18709114 0.29352903 40 27
5.0857029 -0.21873932 0.29413825 18 27
5.0802751 -0.24974525 0.29393518 26 27
5.0896163 -0.28151676 0.29449362 23 27
5.0927773 -0.31304598 0.29474744 27 27
5.09375 -0.34449026 0.29489976 23 27
5.1005044 -0.37639791 0.29535666 18 27
5.0941167 -0.40736938 0.29515359 25 27
5.0964966 -0.43904608 0.29540741 21 27
5.0937066 -0.47030935 0.29540741 24 27
5.0996704 -0.50243413 0.29586431 18 27
5.0925183 -0.53330052 0.29566127 30 27
5.0881572 -0.56442767 0.29561049 23 27
5.0845985 -0.59563738 0.29561049 23 27
5.0768828 -0.62633646 0.29540741 20 27
5.0749249 -0.65773213 0.29550895 15 27
5.0698042 -0.6887247 0.2954582 16 27
5.0674605 -0.72010005 0.29555973 14 27
5.0678864 -0.75191152 0.29581356 16 27
5.0839043 -0.78619391 0.29687968 11 27
5.0868731 -0.81864101 0.2972858 11 27
5.0955453 -0.8521412 0.29799655 19 27
5.0971093 -0.88458467 0.29835191 15 27
5.1073132 -0.91866863 0.29916421 9 27
5.1104169 -0.95163268 0.29962111 13 27
5.1446919 -0.99070561 0.30170256 6 27
5.1218634 -1.0189452 0.30083951 18 27
5.1311684 -1.0535637 0.30165181 14 27
5.1343784 -1.0870947 0.30215946 14 27
5.1344419 -1.1200666 0.30251482 8 27
5.1284475 -1.1517684 0.3025656 15 27
5.1290689 -1.1850111 0.30297175 11 27
5.1187859 -1.2157686 0.30281943 26 27
5.1151109 -1.2481 0.3030225 14 27
5.1122007 -1.2806747 0.30327633 14 27
5.1090827 -1.3132606 0.30353019 13 27
5.1067233 -1.3461106 0.3038348 25 27
5.1118665 -1.3810633 0.30454552 28 27
5.1138844 -1.4153311 0.30510396 32 27
5.1339321 -1.4548451 0.30662698 59 27
5.129705 -1.4877088 0.30688083 59 27
5.1319699 -1.5225623 0.30749002 181 27
5.1521597 -1.5630043 0.30906382 555 27
5.03372 -1.5608915 0.30327633 214 27
4.9659677 -1.5733613 0.30017954 214 27
4.8839998 -1.5804501 0.29632124 202 27
4.8286891 -1.5953596 0.2938844 181 27
4.7563448 -1.6039102 0.29053375 347 27
4.7435808 -1.6320902 0.29038146 414 27
4.7466712 -1.6657925 0.29109222 373 27
4.739182 -1.695895 0.29124451 459 27
4.7446384 -1.7307568 0.29210755 427 27
4.7507806 -1.7660968 0.29302135 496 27
4.7538657 -1.8005167 0.29378286 417 27
4.7548423 -1.8343222 0.29444283 374 27
4.7611609 -1.870397 0.29540741 472 27
4.7542315 -1.9014291 0.29566127 372 27
4.7582016 -1.9369625 0.29652429 429 27
4.7582231 -1.9710878 0.29718429 439 27
4.7543225 -2.0037355 0.29764119 543 27
4.7217426 -2.0242171 0.29652429 78 27
4.7376161 -2.0655179 0.29809809 39 27
4.7321577 -2.0977848 0.29850423 37 27
4.7638168 -2.146878 0.3009918 17 27
4.7396574 -2.1710792 0.30038261 26 27
4.7470737 -2.2098098 0.30155027 34 27
4.7496772 -2.2465785 0.30246407 27 27
4.7457061 -2.2804356 0.3030225 31 27
4.7432933 -2.3152041 0.30368248 27 27
4.7451062 -2.3522456 0.3045963 20 27
4.7537799 -2.392987 0.30591625 14 27
4.7550163 -2.4302883 0.30683005 29 27
4.7559733 -2.4676948 0.30774385 24 27
4.7575336 -2.5056694 0.30870843 25 27
4.7570443 -2.5428143 0.30957147 21 27
4.753644 -2.5786192 0.31028223 26 27
4.7552333 -2.6173663 0.31129757 25 27
4.7573972 -2.6567163 0.31236368 23 27
4.7549114 -2.6937306 0.31317595 17 27
4.7616758 -2.7362857 0.31454667 20 27
4.7629189 -2.7760084 0.31561279 16 27
4.7655725 -2.816865 0.31678042 23 27
4.7670469 -2.8573449 0.31789732 23 27
4.7699103 -2.8989856 0.31911573 20 27
4.7681894 -2.9381499 0.32008031 18 27
4.7661672 -2.9774017 0.32104489 25 27
4.7689052 -3.019944 0.32231405 24 27
4.7755027 -3.0653279 0.32383707 21 27
4.7800469 -3.1098168 0.32525855 17 27
4.7875605 -3.1566749 0.32688311 25 27
4.7880335 -3.1993039 0.32810152 30 27
4.7947793 -3.2465353 0.32972607 19 27
4.7978306 -3.2917099 0.33114755 24 27
4.7996869 -3.3364737 0.33251828 24 27
4.7979074 -3.3790841 0.33368593 17 27
4.807981 -3.4304965 0.33561507 16 27
4.8103175 -3.4768946 0.33708733 18 27
4.8098474 -3.5216806 0.33840728 16 27
4.8138213 -3.5701597 0.34003183 13 27
4.8165822 -3.6182199 0.3416056 24 27
4.8165483 -3.6646338 0.34302711 24 27
4.8105874 -3.7069168 0.3440932 14 27
4.8113751 -3.7547927 0.34561622 22 27
4.8062696 -3.7984834 0.34678388 23 27
4.8023686 -3.8435001 0.34805307 20 27
4.8112874 -3.8992989 0.35018528 13 27
4.8058023 -3.9439492 0.35140368 16 27
4.8183875 -4.003994 0.35384053 21 27
4.8120723 -4.048912 0.35505894 11 27
4.8243952 -4.1100912 0.35754654 24 27
4.8255577 -4.1624422 0.35932338 21 27
4.8255067 -4.2143044 0.36104947 17 27
4.8324823 -4.2729359 0.36328325 20 27
4.8262672 -4.3204889 0.36465394 16 27
4.8381529 -4.3848896 0.36729383 16 27
4.8523726 -4.4522977 0.3701368 18 27
4.8600912 -4.514607 0.37257364 17 27
4.8723197 -4.5819664 0.37536582 16 27
4.8564124 -4.6234808 0.37622887 8 27
4.8480897 -4.6725941 0.37765035 20 27
4.8400612 -4.7224765 0.37912261 9 27
4.8557649 -4.7962933 0.38232094 13 27
4.8559098 -4.8556519 0.38445318 18 27
4.8688459 -4.9286885 0.38754997 18 27
4.8622313 -4.982769 0.38927606 28 27
4.86692 -5.0491753 0.39186519 18 27
4.8695984 -5.1143789 0.39435279 30 27
4.8791862 -5.1878052 0.39739883 18 27
4.8710575 -5.2432508 0.39917567 29 27
4.8840437 -5.3223348 0.40257707 12 27
4.8895321 -5.3943748 0.40547082 25 27
4.8909879 -5.4629612 0.40811071 34 27
4.8891373 -5.5287747 0.41054755 34 27
4.8945479 -5.6037951 0.41359359 44 27
4.8985677 -5.6783319 0.41658884 28 27
4.9037991 -5.7554078 0.41973642 35 27
4.9153423 -5.8411646 0.42344242 32 27
4.9177165 -5.917294 0.42648846 30 27
4.9250431 -6.0006175 0.42999139 21 27
4.9164352 -6.0656333 0.43227592 24 27
4.9172015 -6.1432419 0.43537274 31 27
4.9159598 -6.2195196 0.43836799 21 27
4.8912263 -6.2668848 0.43948486 15 27
4.9191442 -6.3829942 0.4450185 26 27
4.8853302 -6.4202094 0.4454754 18 27
4.8968444 -6.5179276 0.44979063 25 27
4.977562 -6.7106686 0.46009639 88 27
4.9634395 -6.7781458 0.46243167 257 27
4.9791059 -6.887784 0.46740687 427 27
4.9564772 -6.9458437 0.46913296 474 27
4.9810662 -7.0716457 0.47507271 68 27
4.9546881 -7.1266742 0.47659573 63 27
4.9549489 -7.2211676 0.48055556 46 27
5.0371304 -7.4383068 0.49202898 16 27
5.0180359 -7.5089278 0.4944658 21 27
5.0329075 -7.6321149 0.50010097 15 27
5.0350137 -7.7381859 0.50467002 15 27
5.0241337 -7.8260794 0.50812221 25 27
5.0214496 -7.9284701 0.5124374 23 27
5.0118742 -8.0218048 0.51619416 14 27
4.9898109 -8.0966139 0.51883405 11 27
5.036025 -8.2849483 0.52822602 26 27
5.0164251 -8.3679409 0.53132284 32 27
5.0341206 -8.5154772 0.5382272 31 27
5.0426459 -8.6505995 0.54437 39 27
5.0302877 -8.7523756 0.5485329 38 27
5.0390286 -8.8934231 0.55498034 47 27
5.069119 -9.0758801 0.56381387 32 27
5.0759602 -9.2205429 0.57041359 27 27
5.0907421 -9.3831825 0.57802868 21 27
5.0910001 -9.5225668 0.58427304 22 27
5.0836854 -9.6508179 0.58985746 24 27
5.0713058 -9.7722425 0.59503573 20 27
5.0667186 -9.9116592 0.60122931 31 27
5.0597115 -10.0496 0.60732138 33 27
5.0853667 -10.256717 0.61732256 44 27
5.103847 -10.454649 0.62676525 62 27
5.1300392 -10.67389 0.63737559 39 27
5.1558657 -10.898353 0.64823979 21 27
5.1407585 -11.041141 0.65448415 16 27
5.1041203 -11.140569 0.6582917 15 27
5.0656328 -11.238141 0.66199774 13 27
5.1403203 -11.593109 0.68002009 42 27
5.174901 -11.867017 0.6934734 221 27
5.1496224 -12.009606 0.69961625 115 27
5.1844826 -12.298648 0.71383107 74 27
5.2442813 -12.656833 0.7318027 34 27
5.2520332 -12.898734 0.74332684 15 27
5.2180538 -13.04384 0.74952048 11 27
5.2409415 -13.337729 0.7638368 28 27
5.2356019 -13.568092 0.77465028 31 27
5.2534637 -13.86706 0.78916967 33 27
5.2723761 -14.178916 0.80434906 20 27
5.2797799 -14.469937 0.81836087 14 27
5.2898664 -14.778499 0.8332864 22 27
5.3056264 -15.114103 0.84963346 19 27
5.322989 -15.466499 0.86684358 33 27
5.2650237 -15.608641 0.87273258 13 27
5.3656936 -16.235199 0.90456367 19 27
5.3997984 -16.681131 0.92664737 57 27
5.3154511 -16.77107 0.9296934 406 27
5.2124457 -16.803371 0.9296934 468 27
5.102282 -16.812101 0.92847502 466 27
4.9930601 -16.822987 0.92740887 435 27
4.8463197 -16.703682 0.9194892 403 27
4.7355628 -16.704279 0.91796619 392 27
4.6276469 -16.713772 0.91695082 380 27
4.5255275 -16.74378 0.91705239 296 27
4.4395161 -16.834967 0.920403 507 27
4.3309107 -16.841579 0.91933692 553 27
4.2202053 -16.838774 0.9178139 468 27
4.1139622 -16.852709 0.91720468 522 27
4.0047045 -16.853344 0.91593552 473 27
3.8973944 -16.861057 0.91507244 448 27
3.7899213 -16.867115 0.91415864 468 27
3.6823077 -16.871513 0.91319406 394 27
3.5751972 -16.87718 0.91233104 448 27
3.4661455 -16.872387 0.91096032 542 27
3.3592377 -16.876686 0.91009724 555 27
3.2537308 -16.887173 0.90958959 480 27
3.2291064 -17.330957 0.93152106 127 27
3.2740133 -18.19083 0.97492707 172 27
3.1678047 -18.242064 0.97655159 433 27
3.0518565 -18.237518 0.97533315 426 27
2.9340184 -18.219418 0.97345477 453 27
2.8142257 -18.185757 0.97081488 519 27
2.6959839 -18.158228 0.96853036 504 27
2.5814216 -18.152676 0.96741349 508 27
2.4644716 -18.1276 0.96533203 456 27
2.3485694 -18.106726 0.96350443 442 27
2.2331388 -18.086103 0.96172756 468 27
2.1182826 -18.066732 0.96005225 534 27
2.0026453 -18.036709 0.95786923 612 27
1.888186 -18.012899 0.95604163 514 27
1.7743884 -17.991348 0.95436633 495 27
1.6609267 -17.96908 0.95269102 490 27
1.5488358 -17.958036 0.95162487 491 27
1.4364642 -17.940323 0.95025414 541 27
1.3237791 -17.91394 0.94847733 556 27
1.2115395 -17.887846 0.94675124 522 27
1.1001002 -17.868031 0.94538051 578 27
0.98894966 -17.847519 0.94400978 574 27
0.87838751 -17.832304 0.94294369 554 27
0.7676186 -17.806427 0.94136989 565 27
0.65768075 -17.792837 0.94045609 528 27
0.54778445 -17.773579 0.93928844 481 27
0.43809986 -17.751644 0.93801928 549 27
0.32874224 -17.731033 0.93685162 586 27
0.21972881 -17.715738 0.93598855 571 27
0.11091543 -17.699776 0.93512553 648 27
0.002302103 -17.662172 0.93319637 606 27
-0.10589304 -17.631893 0.93167335 548 27
-0.21371652 -17.600952 0.93015033 588 27
-0.32134616 -17.57934 0.92913496 605 27
-0.42867002 -17.555071 0.92801809 534 27
-0.53628653 -17.549116 0.9278658 528 27
-0.64326108 -17.526531 0.92690122 537 27
-0.75061899 -17.518265 0.92669815 565 27
-0.85711873 -17.493378 0.92568284 584 27
-0.96372586 -17.474827 0.92502284 627 27
-1.0699545 -17.452635 0.92421055 645 27
-1.1756785 -17.425812 0.92319524 656 27
-1.2816266 -17.405321 0.92253524 667 27
-1.3880026 -17.392153 0.92228138 637 27
-1.0103844 -11.74638 0.63468492 191 27
-1.0816156 -11.731009 0.63422805 306 27
-1.703113 -17.314955 0.91979378 436 27
-1.8099463 -17.310139 0.92009842 656 27
-1.9157956 -17.295729 0.91994613 675 27
-2.0199125 -17.266785 0.91908306 461 27
-2.0735805 -16.829823 0.89735466 604 27
-2.1792421 -16.835602 0.89831924 658 27
-2.285455 -16.843685 0.89943612 667 27
-2.3905866 -16.842199 0.90009612 639 27
-2.4949079 -16.834129 0.90045148 617 27
-2.59922 -16.825413 0.90080684 222 27
-2.041316 -12.695308 0.68900591 53 27
-2.1163778 -12.665797 0.68814284 23 27
-2.2022402 -12.699807 0.69057971 109 27
-2.2790637 -12.680158 0.69027507 87 27
-2.2856066 -12.283004 0.67047584 401 27
-0 -0 0 617 27
-2.3760202 -11.951347 0.65478879 1118 27
-2.451916 -11.949262 0.65544873 844 27
-2.5326285 -11.969168 0.65727639 1063 27
-2.6083615 -11.964137 0.65783483 965 27
-2.6856582 -11.965447 0.65874863 889 27
-2.7621706 -11.962367 0.65945935 900 27
-2.8398991 -11.963656 0.66042393 529 27
-3.1119363 -12.761056 0.70306844 23 27
-6.2924242 -25.136908 1.3525846 33 27
-6.4510145 -25.115236 1.3534985 194 27
-6.6131363 -25.106085 1.3551229 176 27
-6.7829361 -25.123852 1.3582197 164 27
-6.9659791 -25.186682 1.3637534 201 27
-7.141613 -25.218418 1.3677132 190 27
-6.6677208 -23.005266 1.2529285 16 27
-6.8047791 -22.950516 1.2522178 14 27
-5.3047729 -17.495842 0.96472281 104 27
-5.3271937 -17.189175 0.95015264 93 27
-5.4159856 -17.103798 0.94736046 162 27
-2.3138943 -7.1522908 0.41750264 283 27
-2.3574233 -7.1370101 0.41745189 1352 27
-2.3967061 -7.1091609 0.41674113 1484 27
-2.4467759 -7.1132102 0.4177565 1154 27
-2.5154934 -7.1696887 0.4216148 891 27
-2.5264838 -7.0619602 0.4166396 726 27
-2.5393267 -6.9628148 0.41212133 1465 27
-2.5840886 -6.9527202 0.41242594 1672 27
-2.6312969 -6.9488759 0.41308591 1590 27
-2.6817882 -6.9531007 0.41420278 1559 27
-2.7291455 -6.9486003 0.41486275 1532 27
-2.7613516 -6.905757 0.41344127 1246 27
-2.7750707 -6.8183765 0.40958297 1756 27
-2.8271697 -6.8261356 0.41095367 1200 27
-2.9329653 -6.960526 0.41933027 1615 27
-2.979552 -6.9515786 0.41983795 1598 27
-3.0249424 -6.9395747 0.42019331 1087 27
-5.4255266 -12.243403 0.71611559 26 27
-5.477581 -12.158889 0.71327263 33 27
-5.4905577 -11.990654 0.70575911 33 27
-5.4991508 -11.81729 0.69794095 48 27
-5.4968624 -11.625318 0.68905669 43 27
-5.5127482 -11.476135 0.68255848 40 27
-5.5313916 -11.336177 0.67656791 40 27
-5.5795631 -11.259068 0.6741311 42 27
-5.6256509 -11.179121 0.67154199 46 27
-5.6759658 -11.108816 0.66951126 23 27
-5.7191939 -11.025905 0.66676986 16 27
-5.7225418 -10.868648 0.65976399 20 27
-5.7387671 -10.739077 0.65433186 12 27
-5.775516 -10.650105 0.65123504 8 27
-5.8243876 -10.584716 0.64950895 9 27
-0 -0 0 5 27
-0 -0 0 4 27
-0 -0 0 4 27
-0 -0 0 5 27
-0 -0 0 4 27
-0 -0 0 4 27
-5.5361719 -9.1111059 0.57731795 10 27
-5.59302 -9.0786657 0.57741946 64 27
-5.613709 -8.988266 0.57406884 49 27
-5.6276255 -8.8886738 0.57015979 81 27
-5.6405325 -8.7892513 0.56625068 65 27
-5.6360993 -8.6648903 0.56081861 69 27
-5.6396976 -8.5550947 0.55624956 73 27
-5.6804357 -8.5028887 0.55518341 55 27
-5.7022738 -8.4232111 0.55244201 123 27
-5.7628875 -8.4012423 0.55325431 168 27
-5.7983713 -8.3427591 0.5518328 46 27
-5.8850965 -8.3576555 0.55498034 53 27
-5.9467058 -8.3360243 0.5558942 45 27
-5.7819204 -8.0006638 0.53716105 13 27
-5.794333 -7.9150686 0.53401351 8 27
-5.8166199 -7.8440657 0.53177971 14 27
-5.8304586 -7.7627063 0.52888602 17 27
-5.8822117 -7.7323494 0.52924138 20 27
-5.9319835 -7.699276 0.52944446 31 27
-5.988328 -7.6745448 0.53020597 45 27
-6.0650225 -7.6752729 0.53264278 13 27
-6.1612911 -7.6995225 0.5366534 16 27
-6.2568264 -7.7213254 0.54056245 8 27
-6.3439913 -7.7314334 0.54376078 39 27
-6.4066267 -7.7107997 0.54497921 18 27
-6.5078182 -7.7355461 0.54924369 46 27
-6.5927167 -7.7395692 0.55218816 40 27
-6.666821 -7.7299824 0.55426961 21 27
-6.7423687 -7.7212806 0.55645263 16 27
-6.9185948 -7.8256836 0.56635225 344 27
-6.9305182 -7.7428961 0.56361079 381 27
-6.965157 -7.6861629 0.56264621 310 27
-7.0196133 -7.6513772 0.56320465 175 27
-7.0983691 -7.6425581 0.56559074 194 27
-7.1868567 -7.6432467 0.5686875 179 27
-7.2783728 -7.646029 0.57198739 170 27
-7.5094719 -7.7925358 0.58549148 357 27
-7.605958 -7.7963581 0.58904517 463 27
-7.6908431 -7.7872066 0.59173584 484 27
-7.7935519 -7.7949638 0.59569567 544 27
-7.8852777 -7.7905202 0.59884328 500 27
-7.9765258 -7.7845449 0.6019401 323 27
-8.0651197 -7.7749686 0.60483378 28 27
-9.0484667 -8.6166344 0.67052662 72 27
-9.141901 -8.5992746 0.67336959 62 27
-9.2354612 -8.5810919 0.67621255 78 27
-9.3313484 -8.5641098 0.6792078 80 27
-8.3442125 -7.5641642 0.60787982 654 27
-8.3599653 -7.4855051 0.60579836 679 27
-8.3503838 -7.3851018 0.6020416 380 27
-2.7233033 -2.3778315 0.21915501 66 27
-2.6932321 -2.3225806 0.21615975 149 27
-2.7233944 -2.3196158 0.21722586 374 27
-2.6749237 -2.2501233 0.21306294 165 27
-2.7071114 -2.2489908 0.21428135 255 27
-2.7077379 -2.2215645 0.21341832 158 27
-2.7112331 -2.1967316 0.21275833 120 27
-2.7121873 -2.1700671 0.21194607 118 27
-2.7129169 -2.1434741 0.21113379 116 27
-2.7142098 -2.1175685 0.21037228 135 27
-2.7129145 -2.0898991 0.20945847 251 27
-2.7169452 -2.06656 0.20890003 145 27
-2.7199934 -2.0426502 0.20829082 137 27
-2.7188408 -2.0158057 0.20742778 92 27
-2.7287412 -1.9973147 0.20727548 131 27
-2.7336614 -1.9752671 0.20681857 129 27
-2.7424786 -1.9561355 0.20661551 118 27
-2.7519803 -1.9375455 0.2064632 147 27
-2.7900548 -1.9388698 0.20808776 82 27
-2.8126035 -1.9290609 0.20874773 63 27
-2.8392706 -1.9218487 0.20966154 74 27
-2.890033 -1.9304769 0.21204759 113 27
-2.9251668 -1.9281051 0.21346909 375 27
-2.9846535 -1.9411732 0.21636282 100 27
-2.9872639 -1.916887 0.21580437 361 27
-3.0605567 -1.937538 0.21951039 99 27
-3.1011829 -1.9367181 0.22123647 96 27
-3.1410632 -1.9349478 0.22291179 71 27
-3.1759171 -1.9296472 0.2242825 78 27
-3.4420846 -2.0626655 0.23936038 48 27
-3.4942203 -2.0648901 0.24169567 41 27
-3.5318444 -2.0579998 0.24316792 49 27
-3.5842338 -2.0591869 0.24550322 103 27
-3.625474 -2.053406 0.24717854 71 27
-3.6720083 -2.0501184 0.24915846 55 27
-3.6993906 -2.0357382 0.25002149 42 27
-8.479064 -4.6000943 0.52573842 275 27
-8.4912777 -4.5395041 0.52482462 322 27
-8.5145531 -4.4849892 0.52457076 329 27
-8.543685 -4.4335809 0.52467233 326 27
-8.55828 -4.3747087 0.5239616 307 27
-8.5564175 -4.3077393 0.52233702 242 27
-8.5665836 -4.24717 0.52142322 248 27
-8.5888929 -4.1927733 0.52122015 227 27
-8.5955553 -4.1309071 0.52015406 248 27
-8.6135178 -4.0746708 0.51974791 226 27
-8.6374521 -4.0213208 0.51969713 213 27
-8.6501608 -3.9628377 0.51903713 240 27
-8.6506424 -3.899014 0.51771718 272 27
-8.6680126 -3.8430269 0.51736182 255 27
-8.6886835 -3.7885709 0.51720953 257 27
-8.7099304 -3.7343993 0.51710802 255 27
-8.7354412 -3.68205 0.51726031 215 27
-8.7431078 -3.6222632 0.51644802 210 27
-8.7605438 -3.5666647 0.51619416 250 27
-8.7850456 -3.513957 0.51634651 219 27
-8.8120184 -3.4621787 0.51665109 251 27
-8.838686 -3.4102018 0.51695567 271 27
-8.8501053 -3.3523655 0.51644802 270 27
-8.8695726 -3.2976511 0.51639724 280 27
-8.8887014 -3.2428238 0.51634651 267 27
-8.916894 -3.1912525 0.51680338 374 27
-8.9334803 -3.1354868 0.51665109 393 27
-8.9298878 -3.0728111 0.51543266 345 27
-8.9400568 -3.0150871 0.51497579 332 27
-8.9517508 -2.9579809 0.51462042 389 27
-8.9393282 -2.8931539 0.51299584 236 27
-8.3647566 -2.650527 0.48141861 963 27
-8.3665552 -2.5947125 0.4806571 1022 27
-8.3574715 -2.535785 0.47933716 954 27
-8.3690434 -2.4833198 0.47913408 1020 27
-8.3745317 -2.4291379 0.47862643 1026 27
-8.3767881 -2.3741653 0.47796646 940 27
-8.3854237 -2.3211222 0.47766185 993 27
-8.3927593 -2.267802 0.47730649 944 27
-8.4065161 -2.2162623 0.47730649 771 27
-6.2214556 -1.5991246 0.36191252 269 27
-8.7479181 -2.1918631 0.49380583 251 27
-8.9212866 -2.1772354 0.50218242 145 27
-6.3227091 -1.5016583 0.36572006 217 27
-8.7313175 -2.017647 0.49091211 162 27
-8.7415848 -1.9635966 0.49081057 153 27
-8.7378569 -1.9065138 0.48999828 178 27
-8.7347355 -1.8497579 0.48923677 208 27
-8.72929 -1.7927102 0.48837373 219 27
-8.7156391 -1.7342387 0.48710456 222 27
-8.7349415 -1.6824291 0.48756146 245 27
-8.7608099 -1.6317288 0.48837373 199 27
-8.7696733 -1.5777657 0.48832297 211 27
-8.7821417 -1.5244391 0.48847526 202 27
-8.8189096 -1.4751413 0.48989674 178 27
-9.0328827 -1.4540418 0.50045633 183 27
-9.0771646 -1.4040903 0.50228393 198 27
-9.0974636 -1.3501283 0.50289315 240 27
-9.1065655 -1.2944225 0.50294393 254 27
-9.1083994 -1.2377137 0.50263935 217 27
-9.1098795 -1.1810312 0.50233471 237 27
-9.1189375 -1.1253567 0.50243628 254 27
-9.133606 -1.0703137 0.50284243 343 27
-9.1270971 -1.0128171 0.50218242 280 27
-8.6295567 -0.90397483 0.47644344 367 27
-8.8853989 -0.87572551 0.48923677 100 27
-9.1262932 -0.8429898 0.50126863 406 27
-9.1243286 -0.78637493 0.50091326 371 27
-9.1170359 -0.72941697 0.50030404 398 27
-9.5931377 0.23406495 0.40253931 1086 28
-9.5146132 0.29057109 0.3995969 1242 28
-9.505661 0.34868947 0.39932939 1202 28
-9.4933586 0.40658057 0.39894727 1222 28
-9.4697256 0.46379569 0.39814478 418 28
-9.4796724 0.52260768 0.39864156 1205 28
-9.4703035 0.58039707 0.39841226 1236 28
-9.4625759 0.63822567 0.39825943 1193 28
-9.460475 0.69642174 0.39833584 1009 28
-9.5715714 0.76368082 0.40276861 1085 28
-9.5756655 0.82316715 0.40311253 1051 28
-9.5584936 0.88080603 0.40265396 1107 28
-9.5449533 0.93865657 0.40234825 1102 28
-9.5380201 0.99710166 0.40231004 1086 28
-9.5337095 1.0558271 0.40238646 1070 28
-9.5250664 1.1140728 0.40231004 1072 28
-9.5041666 1.1707855 0.40177506 1132 28
-9.5017586 1.2297214 0.40196612 1094 28
-9.4979954 1.2885375 0.40211898 1121 28
-9.4859524 1.34623 0.40196612 1113 28
-9.4765253 1.4042629 0.40192792 1139 28
-9.4677305 1.4623833 0.40192792 1142 28
-9.4625254 1.5210832 0.40208074 1151 28
-9.4530144 1.5791155 0.40208074 1174 28
-9.4529924 1.6387957 0.4024629 1187 28
-9.4437428 1.6969441 0.40250111 1117 28
-9.4282408 1.7539439 0.40231004 1195 28
-9.4173012 1.8117615 0.40231004 1179 28
-9.4099274 1.8702903 0.4024629 1178 28
-9.4002323 1.9283949 0.40253931 1148 28
-9.3911562 1.986658 0.40265396 1196 28
-9.3797655 2.0444565 0.40269217 1225 28
-9.3738699 2.103503 0.40295967 1175 28
-9.3676023 2.162554 0.40322715 1214 28
-9.3580456 2.2209151 0.40338001 1217 28
-9.3539505 2.2806606 0.40376216 1229 28
-9.3485041 2.3401966 0.40410608 1239 28
-9.339776 2.3990057 0.40433535 1309 28
-9.3374424 2.4595778 0.40483212 1348 28
-9.3173513 2.5155225 0.40464106 1257 28
-9.3027039 2.5729117 0.40467927 1222 28
-9.2934723 2.6318498 0.40494677 1238 28
-9.27139 2.6871548 0.40471748 780 28
-8.4873419 2.516432 0.37410855 51 28
-8.458353 2.5644023 0.37357357 44 28
-8.4233694 2.610337 0.37280929 60 28
-8.3919525 2.6571457 0.37219787 72 28
-8.3964071 2.7153533 0.37303856 50 28
-8.3957186 2.7721486 0.37368819 31 28
-8.6257 2.9069135 0.3836619 162 28
-8.4820223 2.9165642 0.37857953 92 28
-9.213604 3.2315094 0.40895918 132 28
-9.1992483 3.2900016 0.40918845 965 28
-9.159173 3.3391967 0.40838596 240 28
-8.3994608 3.1207125 0.37823561 33 28
-8.3913689 3.1764376 0.37869415 28 28
-8.4500389 3.2580669 0.3819041 12 28
-8.525691 3.3474741 0.38584006 204 28
-8.4984961 3.3971272 0.38557258 379 28
-8.4885988 3.4537284 0.38603112 260 28
-8.7968464 3.6422307 0.39967331 348 28
-8.9133854 3.7547207 0.40544355 1147 28
-8.8975267 3.8124905 0.40574923 1059 28
-8.2336454 3.5879495 0.37903807 377 28
-8.2005119 3.6335444 0.37857953 902 28
-8.1853514 3.687077 0.37888521 874 28
-8.1743851 3.7426403 0.37938198 804 28
-8.1657629 3.7994723 0.37999341 757 28
-8.1549425 3.8554852 0.38052839 782 28
-8.1824751 3.9301131 0.38270655 482 28
-8.2650757 4.0323915 0.38725397 316 28
-8.1882467 4.0572944 0.38503757 314 28
-8.1310635 4.0912895 0.3836619 553 28
-8.1422901 4.1597447 0.38522863 590 28
-8.1379023 4.2206688 0.38614577 607 28
-8.2674713 4.3524575 0.39287132 307 28
-8.2370844 4.4012203 0.39271846 299 28
-8.2108021 4.4521556 0.3927567 308 28
-8.1868315 4.5043793 0.39290956 364 28
-8.1721268 4.5618343 0.39348274 347 28
-8.1465902 4.613369 0.39359739 314 28
-8.1233292 4.6662555 0.39382666 271 28
-8.1282167 4.735631 0.39531699 221 28
-8.7932634 5.1956663 0.42615521 720 28
-8.9206495 5.3450584 0.43326288 895 28
-8.9064722 5.4111094 0.43410358 938 28
-8.8867159 5.4740424 0.434715 850 28
-8.8682165 5.5379953 0.43540284 445 28
-0 0 0 3 28
-2.7250516 1.7482587 0.15938742 27 28
-2.7167861 1.7665809 0.15950207 51 28
-2.7159073 1.7898171 0.15996063 49 28
-2.7148452 1.8131088 0.1604192 33 28
-2.7144265 1.8370148 0.16091597 48 28
-2.7171125 1.8632444 0.16156559 32 28
-2.7179372 1.8884354 0.16213879 37 28
-2.7193716 1.9142816 0.16275021 35 28
-2.7214043 1.9407964 0.16339983 37 28
-2.7191637 1.9644815 0.1638584 37 28
-2.712703 1.9852606 0.16412589 38 28
-2.706892 2.0066295 0.1644316 63 28
-2.6825433 2.0141995 0.1638584 15 28
-2.6653619 2.0269916 0.16362911 41 28
-2.6410005 2.0341599 0.16305591 29 28
-2.6119249 2.0374179 0.16225344 31 28
-2.5860455 2.0428743 0.16160381 46 28
-2.5500548 2.039974 0.1604574 32 28
-2.5173037 2.0392258 0.15946385 35 28
-2.4823408 2.0362518 0.15835567 29 28
-2.4513533 2.0361192 0.15743855 40 28
-2.4219909 2.0369699 0.15659785 32 28
-2.3957536 2.0401294 0.15591002 38 28
-2.3688128 2.0423913 0.15518396 37 28
-2.3426876 2.0450573 0.15449612 33 28
-2.3166194 2.0474799 0.15380827 35 28
-2.2913547 2.0503266 0.15315865 33 28
-2.2646618 2.0515988 0.15243259 41 28
-2.2402492 2.0546474 0.15182118 41 28
-2.2151525 2.0567944 0.15117155 50 28
-2.1886585 2.0573421 0.15044549 32 28
-2.1651368 2.0603983 0.14987229 32 28
-2.1395018 2.0611634 0.14918445 44 28
-2.1146545 2.0623901 0.14853482 40 28
-2.0884514 2.0619855 0.14780876 49 28
-2.0672801 2.066283 0.14735021 45 28
-2.0412185 2.0654228 0.14662415 42 28
-1.9943076 2.0428672 0.1447517 30 28
-0 0 0 5 28
-1.9153373 2.0107424 0.14177105 8 28
-1.883793 2.0020769 0.14070107 34 28
-1.8667117 2.0084734 0.14043358 40 28
-1.8523258 2.0176809 0.14031895 55 28
-1.8533337 2.0438154 0.14108321 44 28
-1.8547566 2.0707819 0.14188568 44 28
-1.8532698 2.0948484 0.14253531 54 28
-1.8581313 2.1264997 0.14356709 49 28
-1.8587567 2.1537492 0.14436956 41 28
-1.858469 2.1803253 0.14513382 50 28
-1.8579247 2.2069783 0.1458981 40 28
-1.8577615 2.2344747 0.14670058 40 28
-1.8585984 2.2635963 0.14757949 39 28
-1.8553717 2.2881541 0.14822911 41 28
-1.8550357 2.3166575 0.14906982 50 28
-1.8531798 2.3436747 0.14983408 42 28
-1.8504469 2.3699677 0.15056013 33 28
-1.8486807 2.397898 0.15136261 40 28
-1.8430099 2.421124 0.15193582 30 28
-1.8383241 2.4459679 0.15258545 33 28
-1.8280441 2.4636221 0.15289114 38 28
-1.8176166 2.4812419 0.15319686 38 28
-1.8093832 2.5020657 0.15365542 33 28
-1.8009624 2.5228813 0.15411398 21 28
-2.7229002 3.8646548 0.21636361 37 28
-2.6985652 3.8804691 0.2163254 153 28
-2.6837509 3.9101369 0.21693681 128 28
-2.6064758 3.8479295 0.21330655 58 28
-2.5855925 3.8680041 0.21349761 46 28
-2.6789916 4.0614791 0.22163707 161 28
-2.6676457 4.0987797 0.2225924 163 28
-2.6667399 4.1529102 0.22431201 130 28
-2.6647348 4.2063389 0.22599339 140 28
-2.6568782 4.2514234 0.22729264 150 28
-2.0681689 3.3548701 0.18628967 77 28
-2.0361252 3.3487117 0.18544897 124 28
-2.0088599 3.3500004 0.1849522 53 28
-0 0 0 6 28
-0 0 0 6 28
-1.8796327 3.2694509 0.17979339 37 28
-1.865448 3.2913554 0.18025194 113 28
-1.8413192 3.2957604 0.17994624 129 28
-1.7897369 3.250097 0.17746237 39 28
-0 0 0 4 28
-0 0 0 8 28
-0 0 0 10 28
-0 0 0 8 28
-0 0 0 3 28
-0 0 0 5 28
-0 0 0 8 28
-0 0 0 4 28
-0 0 0 6 28
-0 0 0 6 28
-0 0 0 5 28
-0 0 0 11 28
-0 0 0 4 28
-0 0 0 5 28
-0 0 0 6 28
-1.1632621 2.7118881 0.14842018 5 28
-0 0 0 5 28
-0 0 0 10 28
-0 0 0 22 28
-0 0 0 26 28
-0 0 0 26 28
-0 0 0 18 28
-0 0 0 15 28
-0 0 0 17 28
-0 0 0 8 28
-0 0 0 11 28
-0 0 0 32 28
-0 0 0 36 28
-0 0 0 17 28
-0 0 0 5 28
-0 0 0 6 28
-0 0 0 6 28
-0 0 0 5 28
-0 0 0 4 28
-0 0 0 8 28
-0 0 0 12 28
-0 0 0 6 28
-0 0 0 4 28
-0 0 0 5 28
-0 0 0 4 28
-0 0 0 5 28
-0 0 0 5 28
-0 0 0 6 28
-0 0 0 7 28
-0 0 0 3 28
-0 0 0 4 28
-0 0 0 4 28
-0 0 0 6 28
-0 0 0 5 28
-0 0 0 5 28
-0 0 0 5 28
-0 0 0 3 28
-0 0 0 3 28
-0 0 0 4 28
-0 0 0 5 28
-0 0 0 5 28
-0 0 0 4 28
-0 0 0 5 28
-0 0 0 4 28
-0 0 0 5 28
-0 0 0 3 28
-0 0 0 4 28
-0 0 0 4 28
-0 0 0 6 28
-0 0 0 4 28
-0 0 0 6 28
-0 0 0 4 28
-0.21722537 2.5147974 0.13210306 12 28
-0.20250838 2.5250478 0.13244697 5 28
-0.18708478 2.5272393 0.1324852 11 28
-0.17224945 2.5383096 0.13286732 11 28
-0.15562789 2.5223632 0.13221771 10 28
-0.13998224 2.5202775 0.13210306 26 28
-0.12436805 2.5180948 0.13198842 16 28
-0.10904402 2.5218055 0.13210306 14 28
-0.093236454 2.5134397 0.13175914 14 28
-0.077812523 2.5139644 0.13175914 17 28
-0.062336396 2.5123966 0.13168271 14 28
-0.046715919 2.5017419 0.13126236 26 28
-0.031339899 2.4999831 0.13118593 39 28
-0.016005943 2.5011275 0.13122416 42 28
-0.00065890228 2.5001793 0.13118593 36 28
0.014663855 2.4971385 0.1310713 45 28
0.029961426 2.4950032 0.13099487 52 28
0.045160208 2.4887776 0.13076559 41 28
0.060479037 2.4904518 0.13084202 60 28
0.075759023 2.4900339 0.13084202 58 28
0.091072828 2.4905207 0.13088022 84 28
0.10613868 2.4849231 0.13068916 116 28
0 0 0 173 28
0 0 0 184 28
0 0 0 277 28
0 0 0 344 28
0.18304728 2.4904637 0.1310713 435 28
0.19904067 2.4982586 0.13141522 596 28
0.21436594 2.4969902 0.13141522 758 28
0.22913276 2.4896576 0.13118593 890 28
0.2444047 2.488205 0.13118593 892 28
0.25914773 2.4816892 0.13099487 717 28
0.27426019 2.4790592 0.13095665 624 28
0.29027912 2.484277 0.13122416 482 28
0.30576134 2.4844327 0.13130058 338 28
0.32112807 2.483501 0.13133879 288 28
0.33447924 2.4676211 0.13080381 192 28
0.35059711 2.4724476 0.1310713 167 28
0.3659077 2.4712384 0.13110951 119 28
0.38228467 2.4768472 0.13141522 126 28
0.39731649 2.4734683 0.131377 74 28
0.41248593 2.4709837 0.131377 73 28
0.42849347 2.4733293 0.13156807 68 28
0.44383824 2.471637 0.13160628 68 28
0.46557632 2.5042338 0.13298197 40 28
0 0 0 47 28
0 0 0 43 28
0 0 0 31 28
0 0 0 29 28
0 0 0 28 28
0.56290561 2.5097756 0.1339373 29 28
0.57762027 2.5033536 0.13382266 23 28
0.60081631 2.5328188 0.13512191 18 28
0.61255819 2.5135515 0.1345105 20 28
0.63379425 2.53301 0.13542762 11 28
0.65131366 2.5368161 0.13573334 17 28
0.67704999 2.5714238 0.13726187 12 28
0.69125223 2.5614328 0.13703258 6 28
0.69123751 2.5003202 0.13477799 14 28
0.71827579 2.537374 0.13642117 7 28
0 0 0 5 28
0.73884767 2.4929214 0.13500728 6 28
0 0 0 5 28
0.7779631 2.5113468 0.13611546 7 28
0 0 0 5 28
0.96002299 2.9693913 0.15491647 8 28
0.96976435 2.9378254 0.15388469 12 28
0.96543068 2.8655348 0.15120976 8 28
0.85073245 2.4749615 0.13565691 11 28
0.85829496 2.4480073 0.13477799 12 28
0.8689245 2.4304633 0.13428122 10 28
1.1419214 3.1329489 0.16309413 29 28
1.1757419 3.1652243 0.16469909 156 28
1.1947875 3.157016 0.16466087 183 28
1.214136 3.1496255 0.16466087 194 28
1.2348999 3.1458368 0.16481373 199 28
0 0 0 211 28
1.2801906 3.1471064 0.16550158 178 28
1.301006 3.142885 0.16565442 173 28
1.3218176 3.1385264 0.16580728 164 28
1.343412 3.1358678 0.16603656 170 28
1.3638258 3.1303139 0.1661512 191 28
0 0 0 217 28
0 0 0 197 28
0 0 0 199 28
0 0 0 186 28
1.4771458 3.1249475 0.16775617 159 28
1.4975904 3.1185274 0.1678708 189 28
1.5202026 3.1164641 0.16817652 193 28
0 0 0 210 28
0 0 0 244 28
0 0 0 599 28
0 0 0 51 28
0 0 0 56 28
1.5905529 2.9773157 0.16466087 27 28
1.6106969 2.9710138 0.16481373 57 28
0 0 0 25 28
0 0 0 33 28
0 0 0 41 28
0 0 0 51 28
0 0 0 63 28
0 0 0 95 28
0 0 0 73 28
0 0 0 76 28
0 0 0 94 28
0 0 0 68 28
0 0 0 72 28
0 0 0 70 28
0 0 0 87 28
1.7353706 2.6333103 0.15617751 72 28
0 0 0 80 28
1.7765173 2.6250565 0.15678892 111 28
0 0 0 107 28
0 0 0 485 28
0 0 0 139 28
0 0 0 180 28
0 0 0 135 28
0 0 0 139 28
0 0 0 107 28
1.9169849 2.5531023 0.15766783 149 28
0 0 0 126 28
0 0 0 124 28
0 0 0 130 28
0 0 0 126 28
0 0 0 121 28
0 0 0 117 28
0 0 0 146 28
2.1153023 2.5466611 0.16217701 82 28
2.22931 2.6506298 0.16802366 41 28
2.3051441 2.706887 0.17153929 41 28
2.4594111 2.8523614 0.17960232 100 28
2.4821246 2.8432386 0.17990802 74 28
2.5140843 2.8444257 0.18074872 37 28
2.5581474 2.8587294 0.18227726 47 28
2.7165475 2.9984806 0.19030207 111 28
2.7497561 2.9979556 0.19114277 138 28
2.7816999 2.9956708 0.19190703 104 28
2.8116653 2.9909222 0.19255666 131 28
2.8416765 2.9859183 0.1932063 126 28
2.8668783 2.9756215 0.19358842 143 28
2.8906646 2.963697 0.19389413 143 28
2.9396904 2.9771879 0.19557552 234 28
2.9388268 2.9400141 0.19454376 12 28
3.2027602 3.1649289 0.20776559 54 28
3.2364223 3.1591763 0.20852986 68 28
3.267256 3.1503553 0.20914128 65 28
3.3009977 3.1440308 0.20990555 74 28
3.3333285 3.1360412 0.21059339 87 28
3.3678811 3.129813 0.21139587 69 28
3.4076355 3.1280081 0.21246585 75 28
3.4452729 3.1238191 0.21342118 69 28
3.4807529 3.1172855 0.21426187 80 28
3.5215218 3.1150677 0.21537006 85 28
3.5676615 3.1170683 0.21674575 72 28
3.6116877 3.1166604 0.21800679 79 28
3.6566026 3.116477 0.21930605 62 28
3.6932406 3.1087811 0.22018495 79 28
3.7306895 3.1013911 0.22110207 93 28
3.763552 3.089854 0.22178991 69 28
3.7971888 3.0786591 0.22251597 49 28
0 0 0 5 28
0 0 0 5 28
0 0 0 5 28
3.7869129 2.9192717 0.21842714 8 28
3.8039587 2.8953755 0.21838893 8 28
3.8224516 2.8725805 0.21842714 18 28
3.8889616 2.8853889 0.22075815 123 28
3.9178793 2.8697381 0.22129314 128 28
3.9532297 2.8585246 0.22213385 123 28
4.0024166 2.8568528 0.22362415 133 28
4.0835905 2.8771279 0.2266048 88 28
4.1183968 2.8639967 0.22740729 73 28
4.1424837 2.8431962 0.22771299 80 28
4.2161131 2.855828 0.23031151 132 28
4.2568192 2.8454518 0.23138148 152 28
4.294219 2.8324826 0.2322986 139 28
4.3391571 2.8240659 0.23355965 158 28
4.3925614 2.8206027 0.23520282 140 28
4.4587483 2.8246098 0.2374192 121 28
4.5090461 2.8178492 0.23890953 117 28
4.5585771 2.8100524 0.24036163 118 28
4.6235504 2.8110964 0.24250159 131 28
4.6878495 2.8109341 0.24460332 123 28
4.7290936 2.7963567 0.2456733 107 28
4.7599754 2.7753391 0.24628471 123 28
4.8427582 2.7839251 0.24918893 222 28
4.8501854 2.748739 0.24876858 249 28
4.8547463 2.712105 0.24823359 239 28
4.8607917 2.6764827 0.24777503 211 28
4.8595567 2.6370761 0.24701077 220 28
4.8659525 2.6020262 0.24659042 207 28
4.8694491 2.5655999 0.24605542 112 28
4.8602653 2.5227849 0.24498546 205 28
4.8676457 2.4888217 0.24464153 240 28
4.8747926 2.4548631 0.24429761 256 28
4.8879728 2.4240179 0.24422118 185 28
4.938673 2.4115162 0.24574973 202 28
4.970489 2.3893921 0.24647577 252 28
4.9805403 2.3567121 0.24628471 232 28
4.9849424 2.3214681 0.24586436 147 28
4.9872828 2.2854264 0.24536759 201 28
4.9811702 2.2457478 0.24452689 174 28
4.9884615 2.2123065 0.2442594 225 28
5.0010262 2.1812568 0.24422118 204 28
4.9922743 2.1410787 0.24330406 267 28
5.00808 2.1115708 0.24341871 297 28
5.0144801 2.0781245 0.24315122 323 28
5.0030737 2.0375195 0.24215767 292 28
4.9959984 1.9989887 0.24135518 365 28
4.9942188 1.9628145 0.24078198 346 28
5.0015073 1.9303349 0.24059092 418 28
5.0039129 1.8960699 0.24020877 352 28
4.9957838 1.8580171 0.2394063 313 28
5.0052128 1.8266436 0.23932987 295 28
5.0012736 1.7905098 0.23871845 294 28
5.0065084 1.7578031 0.23848918 269 28
5.0153103 1.7264003 0.23841275 314 28
5.0210743 1.6939976 0.23822168 353 28
5.0180907 1.6587672 0.23768669 235 28
4.9749351 1.6107128 0.23554674 30 28
4.9923449 1.5825719 0.23585245 54 28
4.9895539 1.5480611 0.23535568 35 28
4.9884405 1.5142248 0.23493533 21 28
4.9966798 1.4833034 0.23489712 27 28
5.0018482 1.4515028 0.23474427 29 28
5.0010467 1.4180593 0.23436213 19 28
5.0019493 1.3852139 0.23405641 20 28
5.0045667 1.3529322 0.23382714 19 28
5.0060101 1.3204157 0.23355965 23 28
5.0062757 1.2876838 0.23325394 19 28
5.0102053 1.25597 0.23310108 25 28
5.0158758 1.2247304 0.23302466 24 28
5.0194073 1.1930065 0.2328718 24 28
5.0207915 1.1608354 0.23264253 24 28
5.0219698 1.1286923 0.23241325 22 28
5.0170851 1.0953001 0.23195468 19 28
5.0168686 1.0630457 0.23168719 24 28
5.0154662 1.0306343 0.23138148 18 28
5.0158153 0.99867022 0.23115221 30 28
5.0120363 0.96598458 0.23077007 15 28
5.0217986 0.93594515 0.23092292 30 28
5.0205626 0.90387553 0.23065543 20 28
5.0230603 0.87254006 0.23054078 22 28
5.0263486 0.84137291 0.23046435 19 28
5.0314164 0.810516 0.23046435 24 28
5.0333323 0.77917016 0.23034972 21 28
5.0380187 0.74827152 0.23034972 19 28
5.0425153 0.71734476 0.23034972 26 28
5.0448413 0.68612176 0.23027329 32 28
5.0449924 0.65464026 0.23012044 25 28
5.045939 0.62330514 0.2300058 24 28
5.0496688 0.59233212 0.2300058 32 28
5.0512218 0.56111628 0.22992937 26 28
5.0505943 0.52969539 0.22977652 40 28
5.0438046 0.497715 0.22939439 65 28
5.0437789 0.46648157 0.22927974 45 28
5.046546 0.43552476 0.22927974 54 28
5.0541039 0.4049502 0.22947082 54 28
5.0554967 0.37385756 0.2294326 57 28
5.0517139 0.34242555 0.22920331 70 28
5.0457406 0.3109313 0.22889762 71 28
5.0505466 0.28013116 0.22901225 84 28
5.0441861 0.24874318 0.22870654 145 28
5.0556006 0.2182181 0.22908868 209 28
5.0418658 0.18664008 0.22851548 130 28
5.0439148 0.15573102 0.2285537 123 28
5.0367837 0.12458215 0.22824799 96 28
5.0554371 0.094007723 0.22893582 61 28
5.0579171 0.063011117 0.22901225 72 28
5.0652032 0.032018818 0.22927974 58 28
5.0703006 0.00093925901 0.22947082 69 28
0 -0 0 34 28
5.0629363 -0.061196126 0.22920331 56 28
5.0644636 -0.092297137 0.22927974 39 28
5.0657997 -0.12341919 0.22935617 55 28
5.0679436 -0.15459166 0.22947082 48 28
5.0649023 -0.18561172 0.22939439 31 28
5.0676618 -0.21685708 0.22954723 31 28
5.0722241 -0.24824113 0.22977652 36 28
0 -0 0 35 28
5.07478 -0.31083342 0.2300058 43 28
5.0757685 -0.34216771 0.23012044 40 28
5.0765629 -0.3735258 0.23023508 42 28
5.0811481 -0.40522456 0.23050258 30 28
5.0974827 -0.43802118 0.23122863 17 28
5.0927086 -0.46910703 0.23115221 24 28
5.1056461 -0.50191188 0.23176362 21 28
5.1084332 -0.53385371 0.2319929 17 28
5.1040683 -0.56507838 0.23195468 24 28
5.1005049 -0.59638572 0.23195468 32 28
5.0967498 -0.62767059 0.23195468 42 28
5.0937934 -0.65906012 0.2319929 34 28
5.0916338 -0.69057143 0.23206933 31 28
5.0932369 -0.72264278 0.2322986 25 28
5.0946379 -0.75475979 0.23252788 30 28
5.1007738 -0.78768402 0.23294823 32 28
5.1027508 -0.82007742 0.23321572 18 28
5.1055079 -0.85268933 0.23352143 23 28
5.1129789 -0.88621956 0.23401821 18 28
5.11728 -0.91934323 0.23440035 17 28
5.1223493 -0.95273572 0.23482069 18 28
5.1232758 -0.9854697 0.23508818 21 28
5.1249733 -1.0184457 0.2353939 29 28
5.1215644 -1.0504754 0.23550853 21 28
5.1208882 -1.083122 0.23573782 20 28
5.1160989 -1.1149485 0.23581424 17 28
5.1150112 -1.1476324 0.23604351 19 28
5.1107941 -1.1796703 0.23615816 22 28
5.1151266 -1.2137767 0.23661672 20 28
5.1202035 -1.2482173 0.23711349 24 28
5.1240802 -1.2825233 0.23757206 23 28
5.1286964 -1.3171722 0.23806883 29 28
5.13308 -1.351926 0.23856561 20 28
5.1420527 -1.3880855 0.23925345 30 28
5.1363282 -1.4204096 0.23936808 18 28
5.1515522 -1.4587067 0.24032342 29 28
5.1607404 -1.4955746 0.24104947 33 28
5.1438022 -1.5249394 0.24074377 111 28
5.1333923 -1.5561825 0.24070555 412 28
5.0569339 -1.5669429 0.23803061 172 28
4.9843497 -1.5780313 0.23550853 167 28
4.9080191 -1.5870584 0.23283359 153 28
4.8232279 -1.592389 0.22981474 176 28
4.7603383 -1.6040806 0.22767478 320 28
4.7541862 -1.6345592 0.22782764 387 28
