# .PCD v0.7 - Point Cloud Data file format
VERSION 0.7
FIELDS x y z intensity ring
SIZE 4 4 4 4 1
TYPE F F F F U
COUNT 1 1 1 1 1
WIDTH 473
HEIGHT 1
VIEWPOINT 0 0 0 1 0 0 0
POINTS 473
DATA ascii
3.4278879 0.063805602 -1.2275774 23 61
3.4327846 0.14823718 -1.2303556 32 61
3.4561203 0.12801188 -1.2386899 79 61
3.4512167 0.10662746 -1.2366064 63 61
3.4518061 0.085449181 -1.2366064 62 61
3.800797 -0.28144652 -0.71051973 11 47
3.8293188 -0.3071855 -0.7165038 73 47
3.7980347 -0.32815114 -0.71071273 23 47
3.7828147 -0.25622946 -0.75260097 72 48
3.7792189 -0.27929106 -0.75219196 102 48
3.7710273 -0.25402117 -0.79823673 72 49
3.6997235 0.13705945 -0.82711393 81 50
3.7082806 0.11459558 -0.82893801 54 50
3.7137806 0.091959849 -0.83007807 113 50
3.7191424 0.069260925 -0.83121812 118 50
3.7185237 0.046427339 -0.83099014 119 50
3.7070551 0.023537066 -0.82825398 92 50
3.7334185 0.00079342781 -0.83441031 5 50
3.7294586 -0.02209094 -0.83349824 5 50
3.7195168 -0.044855632 -0.83121812 27 50
3.7152777 -0.067606047 -0.83030611 103 50
3.714793 -0.090401292 -0.83030611 81 50
3.7482305 -0.11423475 -0.83828646 5 50
3.7533557 -0.16051461 -0.83988255 7 50
3.7523 -0.18354174 -0.83988255 11 50
3.7326319 -0.20554291 -0.83555031 73 50
3.7361596 -0.22874002 -0.83669037 64 50
3.6235683 0.13300973 -0.85325432 4 51
3.6456673 0.11143287 -0.85851699 8 51
3.629781 0.08865305 -0.85445035 3 51
3.6652055 0.067029729 -0.86306196 10 51
3.6665187 0.044551294 -0.86330122 39 51
3.6803162 0.022139197 -0.86665016 9 51
3.6949475 -0.00044035536 -0.8702383 7 51
3.7123523 -0.023215925 -0.87454414 6 51
3.6933424 -0.068434499 -0.86999911 90 51
3.6967359 -0.091189682 -0.87095594 144 51
3.6931951 -0.11378193 -0.8702383 113 51
3.7166853 -0.13732952 -0.87621862 21 51
3.7177129 -0.16021508 -0.876697 12 51
3.6962938 -0.18202701 -0.87167358 78 51
3.7241924 -0.2063057 -0.87884992 29 51
3.6766067 0.13620548 -0.91258532 48 52
3.5893216 0.11093183 -0.88976997 7 52
3.6189675 0.089621969 -0.89729154 19 52
3.6533258 0.06804207 -0.90606666 118 52
3.6575463 0.045672342 -0.9070695 140 52
3.6616299 0.023253381 -0.90807241 128 52
3.6723523 0.00078676653 -0.91083026 119 52
3.6800323 -0.021793053 -0.91283602 101 52
3.6827333 -0.044408217 -0.91358817 109 52
3.6765842 -0.066897929 -0.91208386 126 52
3.6693301 -0.089290202 -0.91032887 134 52
3.6696806 -0.1118327 -0.91057956 122 52
3.6718276 -0.13445391 -0.91133171 115 52
3.6786709 -0.15731297 -0.91333747 100 52
3.6902061 -0.18049805 -0.91659677 15 52
3.6229908 0.13361879 -0.94319844 98 53
3.6266363 0.1114759 -0.94398397 98 53
3.572258 0.087850742 -0.92905843 17 53
3.6171169 0.066763751 -0.94110364 82 53
3.6222837 0.044629291 -0.94241285 158 53
3.629245 0.022446493 -0.94424582 124 53
3.6389654 0.00018102076 -0.94686437 98 53
3.6861875 -0.022419883 -0.9596951 9 53
3.6946659 -0.045140851 -0.96205181 8 53
3.6759853 -0.06747932 -0.95707661 10 53
3.6272607 -0.08886712 -0.94398397 33 53
3.6584811 -0.11208704 -0.9526251 125 53
3.6654403 -0.13481428 -0.95471996 97 53
3.6239915 0.1342618 -0.98826158 48 54
3.6007078 0.11128251 -0.98143774 6 54
3.6032465 0.089234315 -0.98198366 4 54
3.6204233 0.045212701 -0.98662388 5 54
3.6312146 0.023063436 -0.98962635 39 54
3.6226296 0.00078134262 -0.98716974 54 54
3.6552746 -0.02164384 -0.99645013 5 54
3.6714263 -0.044270687 -1.0010903 6 54
3.6730092 -0.066832505 -1.0016363 6 54
3.6350222 -0.088451736 -0.99099112 61 54
3.6372957 -0.11084236 -0.99180996 77 54
3.5817316 0.15409645 -1.0197344 101 55
3.5854843 0.13222341 -1.0205854 110 55
3.5919788 0.11039942 -1.0222875 57 55
3.6127198 0.088859037 -1.0282447 5 55
3.6304545 0.06701424 -1.0333511 5 55
3.5732667 0.044009548 -1.0163302 72 55
3.5897708 0.022189638 -1.0211527 112 55
3.5850449 0.00016102254 -1.0197344 102 55
3.5821016 -0.021819817 -1.0188833 118 55
3.582859 -0.043810181 -1.0191669 103 55
3.5930693 -0.065983608 -1.0222875 98 55
3.5446649 -0.086870149 -1.0081035 55 55
3.5671549 0.13278286 -1.0605147 107 56
3.5688574 0.11092229 -1.0608096 109 56
3.5723367 0.089093268 -1.0616943 86 56
3.5909681 0.067511469 -1.0672969 28 56
3.5951366 0.045524422 -1.0684763 29 56
3.5695493 0.023298601 -1.0605147 105 56
3.5744028 0.001397175 -1.0619891 91 56
3.5762551 -0.020546159 -1.0625788 107 56
3.5751061 -0.042477805 -1.062284 107 56
3.5375185 -0.06373807 -1.0507839 31 56
3.529068 0.15242785 -1.0921984 29 57
3.5432582 0.13126895 -1.0964757 91 57
3.5554175 0.10988218 -1.1001421 65 57
3.5446022 0.087777846 -1.0964757 10 57
3.555546 0.066225424 -1.0998366 5 57
3.5663588 0.044542 -1.1031973 5 57
3.5761585 0.00077913317 -1.1062527 21 57
3.5561006 -0.021051992 -1.0998366 87 57
3.5920849 -0.043295704 -1.1114466 18 57
3.474817 0.14950176 -1.1168932 4 58
3.5107496 0.12946767 -1.1285845 71 58
3.5171678 0.10809793 -1.1304803 91 58
3.5234556 0.086654283 -1.1323762 74 58
3.526767 0.065085337 -1.1333241 18 58
3.5432277 0.04364115 -1.1386958 6 58
3.5073764 0.021680636 -1.1266886 43 58
3.5216749 0.00015843977 -1.1314282 61 58
3.4853044 0.14991638 -1.1636579 77 59
3.4842696 0.12845786 -1.1630048 84 59
3.488771 0.10719373 -1.1643111 75 59
3.4921978 0.085855655 -1.1652907 75 59
3.4973838 0.064515062 -1.1669235 95 59
3.5033844 0.043125998 -1.1688828 107 59
3.5083089 0.021659574 -1.1705157 55 59
3.4747727 0.14949986 -1.2027804 92 60
3.4699793 0.12796868 -1.2007588 92 60
3.4735224 0.10676134 -1.2017696 92 60
3.4797597 0.085584469 -1.2037913 88 60
3.4830434 0.064283259 -1.204802 99 60
3.4748991 0.042807065 -1.2017696 30 60
3.8086741 0.13920109 -0.61668026 71 45
3.8084714 0.11579862 -0.61651069 118 45
3.8248739 0.092815422 -0.61922306 75 45
3.8066497 0.068999618 -0.61600214 7 45
3.8111384 -0.024465125 -0.61668026 34 45
3.7464843 0.13813484 -0.65236384 7 46
3.8101702 0.11707076 -0.66397196 127 46
3.8088505 0.093641646 -0.66360921 152 46
3.8054204 0.070197068 -0.6628837 106 46
3.7969296 0.046738092 -0.66125131 14 46
3.8059955 0.023493417 -0.6628837 21 46
3.815902 0.00013918264 -0.66469747 132 46
3.8148477 -0.023268657 -0.66451609 156 46
3.8244665 -0.046797007 -0.66632986 163 46
3.8211577 -0.07020811 -0.66578573 145 46
3.8226211 -0.09370137 -0.66614848 116 46
3.8308208 -0.11742684 -0.66778088 122 46
3.782186 0.1382249 -0.70530772 101 47
3.7790401 0.11489476 -0.7045356 95 47
3.769865 0.091463834 -0.70260525 94 47
3.7674122 0.068276405 -0.70202613 107 47
3.7707036 0.045194902 -0.70260525 79 47
3.7669852 0.02203328 -0.70183307 4 47
3.7856922 -0.0010805144 -0.70550078 37 47
3.7954259 -0.024369055 -0.70743114 117 47
3.7981484 -0.047692951 -0.70801026 117 47
3.7938602 -0.070924893 -0.70723808 81 47
3.7992389 -0.094346598 -0.70839632 4 47
3.796627 -0.11759636 -0.70801026 4 47
3.7938728 -0.14081763 -0.7076242 5 47
3.8027403 -0.16451484 -0.70955455 21 47
3.8192995 -0.18871114 -0.71302915 37 47
3.7145884 0.1363157 -0.73705924 6 48
3.7163332 0.11355064 -0.73726374 6 48
3.7384887 0.091268845 -0.74176264 37 48
3.7448506 0.068434887 -0.74298966 54 48
3.7591124 0.022555456 -0.74585259 10 48
3.7709262 -0.00051326671 -0.74830651 7 48
3.7796619 -0.023707395 -0.75014699 8 48
3.7647634 -0.046714813 -0.74707955 96 48
3.7634273 -0.069795832 -0.74687505 112 48
3.799135 -0.093783997 -0.75444138 23 48
3.8082721 -0.1173959 -0.75648636 9 48
3.8035672 -0.14061576 -0.7556684 9 48
3.7781839 -0.16289471 -0.75055599 111 48
3.778091 -0.18612242 -0.7507605 147 48
3.7788327 -0.20940937 -0.75116944 115 48
3.7813847 -0.23283295 -0.75198746 126 48
3.7094598 0.11469372 -0.78308594 12 49
3.7276616 0.092371605 -0.78698182 85 49
3.7310865 0.069552869 -0.78763115 132 49
3.7373004 0.046733126 -0.78892982 115 49
3.7306828 0.023754941 -0.78741473 94 49
3.7405212 0.00086877914 -0.78957909 13 49
3.7375274 -0.022066271 -0.78892982 123 49
3.7441552 -0.04507903 -0.79044485 109 49
3.7516172 -0.068191387 -0.79217637 118 49
3.7550323 -0.091303304 -0.79304212 111 49
3.7622082 -0.11457735 -0.79477364 91 49
3.7702153 -0.1379783 -0.79672164 26 49
3.7683222 -0.16106792 -0.79650521 76 49
3.7555611 -0.1836184 -0.79390788 93 49
3.7504644 -0.20644522 -0.79304212 114 49
3.7501016 -0.22951308 -0.79325861 112 49
3.8693295 -0.26263925 -0.62820768 79 45
3.8415637 -0.25954416 -0.67104566 26 46
3.8418605 -0.28325549 -0.67140841 134 46
3.8390698 -0.30674493 -0.67122704 144 46
3.847893 -0.33122408 -0.67322224 120 46
3.8575392 -0.35591346 -0.67539877 21 46
3.9260087 0.14420873 -0.44356966 166 41
3.9268198 0.12011648 -0.44356966 131 41
3.9245059 0.095946044 -0.44320458 159 41
3.9240284 0.071845457 -0.4430829 134 41
3.9243953 0.047766719 -0.4430829 71 41
3.9041247 0.14393075 -0.48851758 161 42
3.9019628 0.11988178 -0.48811665 169 42
3.8857822 0.095525175 -0.48584479 24 42
3.9094539 0.048111677 -0.48891851 48 42
3.9156218 0.024158908 -0.48972034 169 42
3.9186692 0.00013245654 -0.49012128 169 42
3.9156232 -0.023893612 -0.48972034 138 42
3.8794901 0.14316148 -0.53406602 38 43
3.8802955 0.11935467 -0.53406602 22 43
3.8651309 0.095149055 -0.53173143 4 43
3.8676202 0.07146842 -0.53202325 12 43
3.8521585 0.047535688 -0.52968872 4 43
3.8790882 0.024072196 -0.53362828 89 43
3.8880665 0.00027340796 -0.53494149 120 43
3.887995 -0.023583325 -0.53494149 114 43
3.8937125 -0.047509808 -0.53581697 132 43
3.8992825 -0.071507342 -0.53669238 126 43
3.9076715 -0.095646746 -0.53800559 95 43
3.8684461 -0.11845276 -0.53231508 32 43
3.845747 0.1417844 -0.57632434 120 44
3.8435836 0.118094 -0.5758509 170 44
3.8521333 0.094701342 -0.57711345 146 44
3.8644896 0.071280651 -0.57900721 119 44
3.8737407 0.047675725 -0.58042753 125 44
3.8739603 0.023906002 -0.58042753 170 44
3.870084 0.00013563644 -0.57979625 156 44
3.870012 -0.023610756 -0.57979625 172 44
3.8806558 -0.047490265 -0.58153218 120 44
3.892139 -0.071519516 -0.58342594 11 44
3.8926139 -0.095424183 -0.58358377 9 44
3.8791242 -0.1189124 -0.58153218 111 44
3.875361 -0.14260279 -0.58105874 134 44
3.8704669 -0.16620901 -0.58042753 135 44
3.8861408 -0.19077942 -0.58311033 70 44
3.8338184 0.022444827 -0.62057924 6 45
3.8496523 -0.001079119 -0.62329155 8 45
3.8700438 -0.048573714 -0.6268515 9 45
3.8854387 -0.072608843 -0.62956387 5 45
3.8849199 -0.096448079 -0.62956387 9 45
3.8891804 -0.12043473 -0.63041151 11 45
3.8558679 -0.14309968 -0.62481725 109 45
3.8549173 -0.16675614 -0.62481725 126 45
3.8587432 -0.19064802 -0.62566489 136 45
3.8643889 -0.21470185 -0.6268515 115 45
3.8669333 -0.2386509 -0.62752962 95 45
3.8339591 -0.14107515 -0.66850638 149 46
3.8389163 -0.16485097 -0.66959465 165 46
3.8466725 -0.18883787 -0.67122704 146 46
3.8474052 -0.21254575 -0.67158979 95 46
3.9445059 0.14541543 -0.39715433 159 40
3.6462841 0.49601957 -0.82186967 65 50
3.6502247 0.47376227 -0.82209766 123 50
3.6491976 0.45087883 -0.82118565 114 50
3.671236 0.4307465 -0.82574588 15 50
3.6728423 0.40810466 -0.82551783 8 50
3.6617203 0.38414007 -0.82232571 8 50
3.6795118 0.3631936 -0.82597387 41 50
3.6807015 0.34052011 -0.82574588 88 50
3.6798115 0.31767839 -0.82506186 90 50
3.6787796 0.29486045 -0.82437778 110 50
3.6892588 0.27292794 -0.8264299 40 50
3.6937783 0.25048324 -0.82711393 45 50
3.6806684 0.22691676 -0.82369375 111 50
3.6829636 0.20438218 -0.8239218 113 50
3.6890109 0.1820195 -0.82506186 110 50
3.694922 0.1595903 -0.82620186 112 50
3.5733831 0.52959979 -0.84990537 17 51
3.6198235 0.51381826 -0.86066985 98 51
3.6209838 0.49133608 -0.86019146 108 51
3.6287448 0.46973366 -0.86138749 94 51
3.6344497 0.4478164 -0.86210513 117 51
3.6284499 0.42448923 -0.85995221 108 51
3.627126 0.40178862 -0.85899538 114 51
3.6246948 0.37901899 -0.85779935 55 51
3.6395137 0.35801086 -0.8609091 115 51
3.6377745 0.33531475 -0.85995221 92 51
3.6358941 0.31265348 -0.85899538 101 51
3.6387119 0.29041573 -0.85923457 118 51
3.6317105 0.26743898 -0.85708171 45 51
3.6100333 0.24357398 -0.85134065 10 51
3.6192129 0.22189648 -0.85325432 14 51
3.6592853 0.20183656 -0.86282277 80 51
3.6614246 0.17942764 -0.86306196 105 51
3.6731274 0.15741889 -0.86569333 36 51
3.6219559 0.53806061 -0.90807241 54 52
3.5945199 0.51146597 -0.90004939 10 52
3.6023867 0.4900527 -0.90130299 6 52
3.6254861 0.47055411 -0.90656805 56 52
3.6090899 0.44592756 -0.90155369 136 52
3.6194499 0.42467588 -0.90355945 81 52
3.6277604 0.40310019 -0.90506375 7 52
3.6195748 0.37972319 -0.9023059 5 52
3.6375248 0.31403226 -0.90531451 33 52
3.6335933 0.29124346 -0.9038102 20 52
3.6391737 0.26922795 -0.90481305 4 52
3.6378596 0.24669714 -0.9040609 5 52
3.652832 0.22520356 -0.90757096 5 52
3.6348135 0.2017152 -0.9025566 18 52
3.6379166 0.17950383 -0.90305805 105 52
3.6379824 0.15713693 -0.9028073 124 52
3.5561512 0.54999417 -0.93586659 14 53
3.5537312 0.52731186 -0.93429548 9 53
3.5511672 0.50468004 -0.93272436 7 53
3.5532408 0.48275074 -0.93246251 4 53
3.5666635 0.46230745 -0.93534285 9 53
3.5809267 0.44183603 -0.93848509 75 53
3.5749438 0.41884202 -0.93612844 82 53
3.6062222 0.40010068 -0.94398397 31 53
3.5980511 0.37685648 -0.94110364 9 53
3.6099 0.35572168 -0.94372213 10 53
3.5793409 0.33053708 -0.93481916 61 53
3.6101472 0.31106323 -0.94267476 98 53
3.6139121 0.28906044 -0.94319844 117 53
3.6088803 0.266381 -0.94136548 132 53
3.6297047 0.24554126 -0.94660252 57 53
3.6446288 0.22409871 -0.95026845 40 53
3.6035359 0.1993719 -0.93874693 109 53
3.6027637 0.17716184 -0.93822324 133 53
3.6114964 0.15538675 -0.94031805 105 53
3.5485981 0.54944551 -0.97816235 121 54
3.5519028 0.52766138 -0.97816235 98 54
3.5522161 0.50545114 -0.9773435 88 54
3.5752692 0.48636669 -0.9830755 36 54
3.5381165 0.45922372 -0.9716115 116 54
3.5465963 0.43821281 -0.9732492 122 54
3.5549512 0.41711509 -0.97488689 120 54
3.5612683 0.39571902 -0.97597873 105 54
3.5684133 0.3743614 -0.9773435 96 54
3.5419216 0.34962699 -0.96915495 20 54
3.584234 0.33160558 -0.98061889 71 54
3.5881181 0.30977216 -0.98116481 99 54
3.5813208 0.28705922 -0.97870827 116 54
3.5782175 0.26472485 -0.9773435 124 54
3.594172 0.24373916 -0.98143774 39 54
3.64169 0.22451781 -0.99453944 6 54
3.6372356 0.20184937 -0.99290174 9 54
3.615345 0.17839248 -0.98635089 43 54
3.6038768 0.15566742 -0.98280251 102 54
3.5670853 0.52929783 -1.0259753 35 55
3.5484312 0.50429028 -1.0194507 83 55
3.522954 0.47862589 -1.0109403 122 55
3.5267756 0.45712402 -1.0112239 92 55
3.5276105 0.43524006 -1.0106566 91 55
3.5321195 0.41381064 -1.0112239 105 55
3.5336392 0.39202413 -1.0109403 58 55
3.5712638 0.37404206 -1.0214365 7 55
3.5985613 0.31006119 -1.0276774 7 55
3.5736325 0.28582561 -1.0197344 29 55
3.594445 0.26531079 -1.025408 16 55
3.5929749 0.19878416 -1.0237058 7 55
3.5950847 0.17678174 -1.0239896 12 55
3.5057397 0.4556444 -1.0498992 28 56
3.5141594 0.43482843 -1.0516685 116 56
3.5196085 0.41359201 -1.0525532 91 56
3.524929 0.39230511 -1.0534377 109 56
3.5244188 0.37036985 -1.0525532 42 56
3.6122067 0.35719103 -1.0790918 6 56
3.5201671 0.30452931 -1.0493095 61 56
3.5229218 0.28300065 -1.0496044 100 56
3.5312624 0.26187304 -1.0516685 89 56
3.5451963 0.24104199 -1.0555018 118 56
3.5275342 0.21810724 -1.0496044 81 56
3.5383468 0.1969887 -1.0525532 49 56
3.5490324 0.17574568 -1.0555018 105 56
3.5605452 0.15442021 -1.0587455 101 56
3.5012889 0.38904029 -1.089143 61 57
3.5055041 0.36774877 -1.0897541 68 57
3.5057995 0.34604478 -1.089143 79 57
3.5078568 0.32452708 -1.089143 83 57
3.5126278 0.30324382 -1.0900596 83 57
3.520117 0.28214335 -1.0918928 93 57
3.5293784 0.26110354 -1.094337 100 57
3.5318642 0.2395075 -1.0946425 88 57
3.5323169 0.21777298 -1.094337 51 57
3.4803474 0.19312282 -1.0772274 4 57
3.4862218 0.17200038 -1.078755 6 57
3.4973068 0.32295984 -1.1282685 48 58
3.493551 0.30100664 -1.1263726 85 58
3.4934409 0.27941388 -1.1257406 95 58
3.4922509 0.25776407 -1.1247927 80 58
3.5022862 0.23690651 -1.1276366 26 58
3.4821939 0.19265491 -1.1200529 6 58
3.4624627 0.17026213 -1.1131015 4 58
3.4818933 0.2569665 -1.1646376 71 59
3.4834044 0.23559716 -1.1646376 83 59
3.4838412 0.21416065 -1.1643111 78 59
3.4888644 0.19299026 -1.1656172 47 59
3.4862068 0.17139244 -1.1643111 6 59
3.4764369 0.19233704 -1.2041281 59 60
3.4775517 0.1710024 -1.2041281 83 60
3.8233159 0.30576125 -0.57427281 103 44
3.8211808 0.28200576 -0.57364154 127 44
3.8248098 0.2586872 -0.57395715 125 44
3.8273106 0.23527423 -0.57411498 123 44
3.8002017 0.32616991 -0.61718881 95 45
3.8031139 0.30292472 -0.61735833 86 45
3.8068669 0.27972859 -0.61769736 120 45
3.810478 0.25649783 -0.61803639 113 45
3.8168986 0.23341461 -0.61888403 134 45
3.8084188 0.20944598 -0.61718881 86 45
3.8194754 0.18655781 -0.61888403 9 45
3.8077483 0.16256805 -0.61668026 15 45
3.790663 0.37348804 -0.66342783 79 46
3.78407 0.34940904 -0.66179544 33 46
3.7155976 0.32011351 -0.64873624 5 46
3.7221885 0.27471015 -0.64928037 12 46
3.7208602 0.25166729 -0.64873624 11 46
3.7831917 0.23256662 -0.65998167 40 46
3.7189689 0.18284664 -0.64764798 7 46
3.7377059 0.16078295 -0.65091282 10 46
3.7398555 0.390441 -0.70048183 86 47
3.7499926 0.36825588 -0.70202613 107 47
3.7521815 0.34523943 -0.70202613 90 47
3.7415209 0.32111531 -0.69951665 36 47
3.6994076 0.29463252 -0.69083005 7 47
3.7089739 0.27250543 -0.69237435 22 47
3.7536502 0.25265515 -0.70086789 122 47
3.7610059 0.22997954 -0.70202613 126 47
3.7672448 0.20716901 -0.70299131 122 47
3.7576649 0.18351991 -0.70086789 102 47
3.741075 0.15970112 -0.6973933 55 47
3.7084434 0.43380138 -0.74053568 72 48
3.7071435 0.41060799 -0.73971772 123 48
3.7183554 0.38876885 -0.74155813 111 48
3.7187223 0.36575469 -0.74114919 106 48
3.716023 0.34248149 -0.74012667 114 48
3.7161038 0.31950647 -0.73971772 94 48
3.7267764 0.29739875 -0.74155813 43 48
3.7558653 0.27653581 -0.74728405 7 48
3.7418652 0.2524325 -0.74401212 69 48
3.7433436 0.22946808 -0.74401212 104 48
3.7437036 0.20644124 -0.74380761 96 48
3.7370782 0.18308406 -0.74217165 44 48
3.7254176 0.15960698 -0.73951322 9 48
3.6735289 0.45394048 -0.78092152 96 49
3.6752756 0.43127748 -0.78070509 13 49
3.6730011 0.40817761 -0.77962291 5 49
3.6670465 0.36201504 -0.77724206 16 49
3.6905854 0.3414934 -0.7820037 83 49
3.6741309 0.31724036 -0.7778914 25 49
3.6705813 0.24896049 -0.7759434 6 49
3.692503 0.22770192 -0.78048867 20 49
3.7357459 0.20738086 -0.78979558 86 49
3.7301226 0.1841158 -0.78828049 37 49
3.7165513 0.16058794 -0.78503388 10 49
3.6176295 0.56012636 -0.90782166 53 52
3.5472305 0.59327316 -0.93534285 15 53
3.5527096 0.57180393 -0.93586659 91 53
3.5499089 0.57197362 -0.97952712 73 54
3.9365637 0.217219 -0.44527343 26 41
3.9140298 0.19188707 -0.44235271 153 41
3.9240584 0.16825274 -0.44344798 131 41
3.8994167 0.23969942 -0.48851758 78 42
3.8988349 0.21565926 -0.48825032 56 42
3.8961256 0.19153816 -0.48771575 160 42
3.9031682 0.16788331 -0.48851758 164 42
3.8597529 0.28498 -0.53231508 40 43
3.8446496 0.26015115 -0.52983463 116 43
3.866909 0.23783757 -0.53289872 6 43
3.8702712 0.21421611 -0.53319055 8 43
3.8805153 0.16704857 -0.53435785 6 43
3.8543174 0.21320128 -0.5782181 59 44
3.8703473 0.19027345 -0.5805853 19 44
3.8448048 0.16537879 -0.57632434 136 44
3.9624076 0.17042542 -0.39923599 107 40
