# .PCD v0.7 - Point Cloud Data file format
VERSION 0.7
FIELDS x y z intensity ring
SIZE 4 4 4 4 1
TYPE F F F F U
COUNT 1 1 1 1 1
WIDTH 401
HEIGHT 1
VIEWPOINT 0 0 0 1 0 0 0
POINTS 401
DATA ascii
3.7802052 -1.4570732 -1.2587117 4 57
3.7209888 -1.5135016 -1.2477126 73 57
3.6949139 -1.5293905 -1.2419076 121 57
3.6837049 -1.5512947 -1.2412965 94 57
3.7651553 -1.6128345 -1.2730715 26 57
3.7600658 -1.4768512 -1.3039535 138 58
3.7341957 -1.4932001 -1.2979499 136 58
4.011025 -1.8669338 -1.541396 7 60
4.007154 -1.8951334 -1.5444283 13 60
3.9928725 -1.8275242 -1.3677856 7 57
3.97299 -1.8196501 -1.4139146 4 58
3.9195039 -1.8239629 -1.4520087 33 59
3.7127316 -1.4573131 -0.84455478 8 49
3.7046263 -1.4804286 -0.84477121 5 49
3.6873329 -1.4998237 -0.84282327 5 49
3.6753542 -1.5213012 -0.84217393 65 49
3.6659503 -1.5438241 -0.84217393 13 49
3.6474333 -1.5624472 -0.84000957 6 49
3.6350923 -1.583629 -0.83936024 5 49
3.6226285 -1.6047182 -0.8387109 18 49
3.5735402 -1.6092888 -0.82918757 137 49
3.5698133 -1.6340278 -0.83070266 135 49
3.5482106 -1.6505514 -0.82788891 18 49
3.52654 -1.6668715 -0.82507521 13 49
3.5092041 -1.6850998 -0.82334369 23 49
3.5216162 -1.7177215 -0.82897115 122 49
3.4970107 -1.7323674 -0.82550812 56 49
3.7117739 -1.4571334 -0.89392114 112 50
3.6937222 -1.4762666 -0.89164102 131 50
3.6800852 -1.4970682 -0.89050096 155 50
3.6744285 -1.5211105 -0.89141303 168 50
3.6596422 -1.5413597 -0.89004499 151 50
3.6161079 -1.5492122 -0.88138056 32 50
3.5824344 -1.560868 -0.87522423 8 50
3.6190786 -1.6033325 -0.88708085 83 50
3.5869794 -1.6155105 -0.88138056 179 50
3.5778844 -1.6378947 -0.88160855 159 50
3.5562913 -1.6544771 -0.87864441 16 50
3.5487134 -1.6775156 -0.87932843 6 50
3.5392311 -1.6996801 -0.87955648 6 50
3.5164847 -1.7153869 -0.87636429 42 50
3.5085104 -1.7382283 -0.87704831 199 50
3.5021276 -1.7619117 -0.87818837 215 50
3.4860485 -1.7807093 -0.87682033 48 50
3.7218678 -1.4623896 -0.94511151 6 51
3.7083166 -1.4833972 -0.94391543 18 51
3.6883521 -1.5017325 -0.94104487 99 51
3.6763768 -1.5232214 -0.94032723 139 51
3.6606975 -1.5431122 -0.93865275 135 51
3.6440201 -1.5624857 -0.93673909 28 51
3.6103306 -1.5743437 -0.93028039 39 51
3.6094799 -1.6003997 -0.9326725 161 51
3.6031334 -1.6241119 -0.93362933 147 51
3.5904517 -1.6449772 -0.93291169 144 51
3.5732479 -1.6637002 -0.93099803 146 51
3.5506828 -1.6797844 -0.92764908 114 51
3.5298059 -1.6964952 -0.92477852 150 51
3.516712 -1.7168446 -0.92406088 118 51
3.5130715 -1.7418388 -0.92597455 162 51
3.5005829 -1.7624891 -0.92549616 121 51
3.4879732 -1.7830517 -0.92501771 113 51
3.4735193 -1.802632 -0.92406088 115 51
3.7202103 -1.486856 -0.99732798 22 52
3.7029471 -1.506371 -0.99507153 103 52
3.6703799 -1.5194341 -0.98855287 156 52
3.6877513 -1.5532018 -0.99607438 9 52
3.6754823 -1.5746562 -0.99532223 13 52
3.6586516 -1.5940849 -0.99331647 9 52
3.6043916 -1.6233547 -0.98353851 30 52
3.5926027 -1.6446342 -0.98303705 18 52
3.5877099 -1.6690977 -0.98454136 5 52
3.5642736 -1.6848729 -0.9807806 9 52
3.5582314 -1.708807 -0.98203421 10 52
3.5346291 -1.7242401 -0.97827339 102 52
3.5231154 -1.7454659 -0.97802269 167 52
3.5071507 -1.7644395 -0.97651839 162 52
3.49281 -1.784164 -0.97551548 148 52
3.4835155 -1.8064532 -0.97601694 158 52
3.7662289 -1.4790492 -1.057366 30 53
3.7068932 -1.4820809 -1.0427023 115 53
3.6932592 -1.5029805 -1.041393 128 53
3.6875348 -1.5270896 -1.0424404 124 53
3.6816533 -1.551185 -1.0434879 138 53
3.662307 -1.5695668 -1.0406075 70 53
3.6411047 -1.5869993 -1.0372034 75 53
3.6286511 -1.6081384 -1.0364178 137 53
3.6169553 -1.6295809 -1.0358942 135 53
3.5963571 -1.6469245 -1.0327519 130 53
3.562556 -1.6579726 -1.0256819 25 53
3.5226474 -1.6657822 -1.0167789 7 53
3.5628233 -1.7115897 -1.0319663 42 53
3.5427117 -1.7287656 -1.029086 123 53
3.5268483 -1.747901 -1.0275149 119 53
3.519506 -1.7712427 -1.0285623 45 53
3.7796018 -1.4570657 -1.1086334 8 54
3.737458 -1.4672191 -1.0985341 7 54
3.7230253 -1.4879814 -1.0968964 7 54
3.6853106 -1.4991944 -1.0881619 34 54
3.6795976 -1.5232511 -1.0892538 106 54
3.6657491 -1.5439324 -1.0878891 12 54
3.6517854 -1.5645013 -1.0865242 5 54
3.6429989 -1.5872632 -1.0867972 9 54
3.6323116 -1.6091965 -1.0865242 117 54
3.6135981 -1.6275022 -1.0837947 139 54
3.5982957 -1.6472411 -1.082157 125 54
3.5872486 -1.668883 -1.081884 172 54
3.570853 -1.6879839 -1.0799735 129 54
3.5569599 -1.7081963 -1.0788816 121 54
3.7654314 -1.4521354 -1.1530643 95 55
3.7412751 -1.4692578 -1.1482416 15 55
3.718832 -1.4868503 -1.1439865 92 55
3.713192 -1.5110853 -1.1451212 148 55
3.6799266 -1.5239415 -1.1374618 91 55
3.712045 -1.5639794 -1.1507949 37 55
3.6442001 -1.561813 -1.1320719 6 55
3.6371858 -1.5852926 -1.1329229 4 55
3.6484332 -1.6168985 -1.1397313 57 55
3.6165836 -1.6294135 -1.1326393 130 55
3.6047738 -1.6507758 -1.1320719 109 55
3.5945768 -1.6728631 -1.1320719 43 55
3.7749565 -1.4545207 -1.2073622 7 56
3.7686291 -1.4787033 -1.2082467 8 56
3.7373021 -1.4929354 -1.2008749 91 56
3.7077131 -1.5075592 -1.1940928 165 56
3.7019248 -1.5317426 -1.1952723 135 56
3.6915758 -1.5540575 -1.1949774 119 56
3.6784575 -1.5751745 -1.1937979 131 56
3.6617148 -1.5946625 -1.1914389 130 56
3.6474929 -1.6151655 -1.1899645 83 56
3.6392562 -1.6383003 -1.1905543 4 56
3.6578805 -1.4626752 -0.4929277 175 42
3.679127 -1.4974236 -0.49733785 82 42
3.6852915 -1.447291 -0.54544705 18 43
3.6754229 -1.4695092 -0.54530114 4 43
3.6562562 -1.4879346 -0.54369611 58 43
3.6232901 -1.5005065 -0.53990245 131 43
3.6513987 -1.5384482 -0.54588473 37 43
3.7180002 -1.4603244 -0.59968072 7 44
3.7299809 -1.5181273 -0.60488856 3 44
3.6348414 -1.5054584 -0.59005415 74 44
3.650104 -1.5380886 -0.59431511 140 44
3.6351526 -1.5581216 -0.59336823 124 44
3.6863899 -1.4492015 -0.64244753 151 45
3.6637022 -1.4663045 -0.63990468 123 45
3.6418569 -1.4835556 -0.6375314 162 45
3.6390591 -1.5085136 -0.63871801 170 45
3.6251936 -1.5289005 -0.63787043 201 45
3.6112151 -1.5491741 -0.63702279 179 45
3.600738 -1.5709091 -0.63685328 193 45
3.5991402 -1.5965675 -0.63837898 95 45
3.7256744 -1.4633394 -0.6991592 11 46
3.7074945 -1.4825201 -0.69734544 6 46
3.6937742 -1.5033869 -0.69643855 13 46
3.6463218 -1.5102144 -0.68882066 142 46
3.6233935 -1.5268301 -0.68610001 100 46
3.6320336 -1.5567844 -0.68972754 17 46
3.632329 -1.5833644 -0.69172269 8 46
3.5892816 -1.5908747 -0.68501174 34 46
3.5722802 -1.6096355 -0.68356073 170 46
3.573065 -1.6364392 -0.68573725 69 46
3.723208 -1.4636629 -0.74777561 27 47
3.7096016 -1.484659 -0.74681044 6 47
3.6749759 -1.4970355 -0.74140543 67 47
3.6602819 -1.5173038 -0.74024719 146 47
3.6409569 -1.5355431 -0.73812383 123 47
3.6242518 -1.5547621 -0.73657954 7 47
3.6011522 -1.5710896 -0.733684 7 47
3.5654991 -1.6079072 -0.73020935 45 47
3.5680552 -1.6354746 -0.73291183 161 47
3.5508363 -1.6540246 -0.73136759 127 47
3.7228427 -1.4629741 -0.79615861 31 48
3.7192488 -1.4879715 -0.79738557 35 48
3.677413 -1.4974712 -0.79002374 143 48
3.6627297 -1.5177583 -0.78879672 134 48
3.6479363 -1.5379217 -0.78756976 155 48
3.636632 -1.5595043 -0.78716075 122 48
3.6287889 -1.5825716 -0.78756976 95 48
3.5876925 -1.5909165 -0.78041244 169 48
3.5858943 -1.6165216 -0.78225285 141 48
3.5678992 -1.6348232 -0.78041244 171 48
3.5489278 -1.6525517 -0.77836746 183 48
3.5396059 -1.674715 -0.77857196 160 48
3.523088 -1.6934332 -0.7771405 145 48
3.9481244 -1.7786683 -0.6001634 11 43
3.9920659 -1.7988372 -0.66107017 11 44
3.999001 -1.8032453 -0.71568078 7 45
3.7766054 -1.4291365 -1.2544342 73 57
3.8309772 -1.3168449 -0.8584069 124 49
3.7693837 -1.3216068 -0.84585339 27 49
3.7455738 -1.3391275 -0.84217393 8 49
3.7673013 -1.3992565 -0.85126442 44 49
3.7641239 -1.4244174 -0.85256302 97 49
3.7216036 -1.4345047 -0.84455478 16 49
3.8187954 -1.3128778 -0.90577775 205 50
3.8180182 -1.338863 -0.90760183 148 50
3.7794774 -1.3514434 -0.90007746 32 50
3.7738583 -1.375609 -0.90076149 158 50
3.7616959 -1.3973826 -0.89984941 162 50
3.7466767 -1.4180244 -0.89825338 152 50
3.7279124 -1.4371334 -0.89574522 193 50
3.8308113 -1.3182774 -0.95802891 16 51
3.810739 -1.3375809 -0.95491916 8 51
3.7741175 -1.3508031 -0.94750363 8 51
3.754811 -1.3699449 -0.94463307 8 51
3.7599876 -1.39803 -0.94822121 64 51
3.7458899 -1.4190123 -0.94678599 96 51
3.7235229 -1.436731 -0.94319779 6 51
3.7550979 -1.3427234 -0.99256432 20 52
3.7959008 -1.3836462 -1.0061032 157 52
3.7755427 -1.4025279 -1.0028437 205 52
3.7596231 -1.4229257 -1.000838 201 52
3.7327569 -1.4390016 -0.99582368 75 52
3.7953467 -1.3314421 -1.0508198 16 53
3.7843792 -1.3537306 -1.0500342 7 53
3.7914174 -1.3825418 -1.0544857 95 53
3.7783391 -1.4040998 -1.0531764 140 53
3.7624311 -1.4245251 -1.0510815 151 53
3.7437134 -1.4437671 -1.0482012 113 53
3.8288729 -1.3426706 -1.1105441 4 54
3.8283768 -1.3954875 -1.1154572 14 54
3.8152332 -1.4172763 -1.1140924 104 54
3.7983677 -1.4375939 -1.1116358 29 54
3.8062553 -1.3615488 -1.15505 136 55
3.7933245 -1.3832366 -1.1536316 136 55
3.7892604 -1.4081548 -1.15505 131 55
3.7796519 -1.4310395 -1.1547663 115 55
3.8118632 -1.3887157 -1.2109007 141 56
3.8014791 -1.4114133 -1.2103108 172 56
3.76683 -1.4249055 -1.2017595 83 56
3.8312378 -1.240043 -0.45561758 135 41
3.8056488 -1.2576156 -0.45330536 136 41
3.784692 -1.2765057 -0.45160162 147 41
3.7730339 -1.2984133 -0.45111483 156 41
3.7678058 -1.3225251 -0.45147991 101 41
3.7446661 -1.3402718 -0.44953278 6 41
3.7307765 -1.3611838 -0.44880262 9 41
3.7242153 -1.3847411 -0.44904599 8 41
3.7305014 -1.413188 -0.45099315 72 41
3.6754537 -1.4181994 -0.44490832 166 41
3.6713021 -1.4425384 -0.44551682 121 41
3.8150275 -1.2601821 -0.50348526 31 42
3.7959545 -1.2797667 -0.5018816 111 42
3.7899048 -1.303679 -0.50214887 130 42
3.7743535 -1.3242834 -0.50107974 125 42
3.7446959 -1.3397371 -0.49800605 122 42
3.730819 -1.3606509 -0.49720418 128 42
3.7019639 -1.3759193 -0.49426413 181 42
3.6971588 -1.4000125 -0.49479866 181 42
3.6931219 -1.4244552 -0.49546689 160 42
3.6806226 -1.4456393 -0.49493232 153 42
3.831104 -1.2133505 -0.55420166 11 43
3.8018336 -1.2556231 -0.55201298 10 43
3.7818694 -1.2748225 -0.55011618 9 43
3.8048513 -1.3086125 -0.55493122 58 43
3.755671 -1.3175365 -0.54851115 6 43
3.7335422 -1.335562 -0.54632246 9 43
3.7206292 -1.3567522 -0.54559296 9 43
3.7122345 -1.3795559 -0.54559296 17 43
3.7064757 -1.403358 -0.54603064 138 43
3.7024107 -1.4278525 -0.5467602 133 43
3.8295021 -1.2649649 -0.60583544 106 44
3.8151183 -1.2862296 -0.60473078 132 44
3.797817 -1.3064016 -0.60315263 122 44
3.7878661 -1.329026 -0.60283703 126 44
3.7684834 -1.34825 -0.60094327 32 44
3.7369483 -1.362887 -0.59699792 11 44
3.737771 -1.3892319 -0.59857607 89 44
3.7236359 -1.4100416 -0.59762919 128 44
3.7232053 -1.4360619 -0.59904951 94 44
3.8118927 -1.2864093 -0.65312737 97 45
3.7992682 -1.3081714 -0.65227973 133 45
3.7772207 -1.3265643 -0.64973694 129 45
3.7652984 -1.348388 -0.64905882 28 45
3.7551022 -1.3707906 -0.64871979 39 45
3.7410777 -1.3917456 -0.64770269 178 45
3.7057397 -1.4045527 -0.64278656 123 45
3.6952128 -1.4265549 -0.64244753 125 45
3.8237402 -1.2891374 -0.70514464 56 46
3.8129687 -1.3116152 -0.70460051 118 46
3.7862906 -1.328473 -0.70097297 10 46
3.7752903 -1.3506861 -0.70042884 7 46
3.7623122 -1.3721402 -0.69952196 7 46
3.7556655 -1.3958849 -0.69988471 5 46
3.7387531 -1.4157678 -0.69825232 33 46
3.7364182 -1.4411596 -0.69952196 13 46
3.8268027 -1.2914361 -0.75530398 112 47
3.8160231 -1.313935 -0.75472492 124 47
3.8023341 -1.3353759 -0.75356668 110 47
3.7903733 -1.3573593 -0.7527945 60 47
3.7718337 -1.3768929 -0.75067115 90 47
3.7531972 -1.3962502 -0.74854773 118 47
3.7463946 -1.4199481 -0.74893379 123 47
3.7348652 -1.4418495 -0.74835473 122 47
3.8216777 -1.2891817 -0.80311149 56 48
3.8294296 -1.3180239 -0.80658787 106 48
3.8138819 -1.3389014 -0.80495191 20 48
3.7880847 -1.3560079 -0.80106652 5 48
3.772337 -1.3765405 -0.79943055 19 48
3.7491405 -1.3942008 -0.79615861 133 48
3.7405152 -1.4171789 -0.79615861 164 48
3.7290096 -1.439046 -0.7955451 120 48
3.9671929 -1.0984887 -0.82049364 119 48
3.9735622 -1.1265495 -0.82335657 31 48
3.9523096 -1.1187932 -0.87096041 36 49
3.9472461 -1.143566 -0.87139326 132 49
3.9317298 -1.1652699 -0.86944532 138 49
3.916096 -1.1868266 -0.86749738 164 49
3.900346 -1.2082353 -0.86554945 151 49
3.8919282 -1.2318503 -0.86533296 96 49
3.8647866 -1.2494066 -0.86078775 16 49
3.8412855 -1.2678994 -0.85710829 48 49
3.8371346 -1.2926909 -0.85797405 133 49
3.9444575 -1.169286 -0.92356259 87 50
3.9204371 -1.1883811 -0.91945839 183 50
3.9121413 -1.2121258 -0.9192304 133 50
3.9250512 -1.2425743 -0.92424661 12 50
3.8586571 -1.2738546 -0.91170603 91 50
3.8396964 -1.2937751 -0.90896988 138 50
3.9046903 -1.2110677 -0.96711892 106 51
3.9194024 -1.2420371 -0.97285998 13 51
3.9033928 -1.2633741 -0.97070712 7 51
3.8789709 -1.281822 -0.96640128 10 51
3.8737931 -1.3065289 -0.96711892 61 51
3.9041269 -1.2623566 -1.0223998 174 52
3.8806808 -1.2811276 -1.0181376 163 52
3.8589866 -1.3002769 -1.0143768 149 52
3.8500202 -1.3236159 -1.0141261 172 52
3.8381722 -1.3459326 -1.0131232 134 52
3.853122 -1.2725453 -1.0605083 88 53
3.8635342 -1.3023241 -1.0657454 169 53
3.8536451 -1.3253784 -1.0652217 120 53
3.8515949 -1.3241575 -1.1149113 127 54
3.8413963 -1.3735908 -1.1168219 9 54
3.8770485 -1.1759604 -0.50802904 88 42
3.8650272 -1.1982596 -0.50736088 147 42
3.8453205 -1.2180607 -0.50562352 119 42
3.8443742 -1.2437683 -0.50655901 28 42
3.911041 -1.1338252 -0.5620808 110 43
3.9068561 -1.1586446 -0.56251854 133 43
3.8911519 -1.1800133 -0.56120533 130 43
3.8715529 -1.2000625 -0.55930853 108 43
3.9583073 -1.0691824 -0.61656678 48 44
3.9554791 -1.0945036 -0.61719805 177 44
3.9401386 -1.11633 -0.61577773 163 44
3.9199374 -1.136634 -0.61356831 88 44
3.9233029 -1.1637548 -0.61530429 142 44
3.9160883 -1.1878059 -0.61530429 184 44
3.8879769 -1.2053771 -0.61183238 161 44
3.8663876 -1.2247363 -0.60946518 149 44
3.8343732 -1.2405316 -0.605362 79 44
3.9948025 -1.0540183 -0.67177474 151 45
3.979697 -1.0761971 -0.67024904 156 45
3.943574 -1.092448 -0.66499388 62 45
3.9055059 -1.1077592 -0.65939963 9 45
3.9005282 -1.132251 -0.65973872 10 45
3.8944523 -1.1564431 -0.65990824 9 45
3.8976572 -1.1834639 -0.66177297 33 45
3.8686719 -1.2006449 -0.65787399 112 45
3.8969336 -1.2356694 -0.66431576 29 45
3.8789639 -1.2562201 -0.66245103 5 45
3.9885123 -1.0511278 -0.72165 154 46
3.9743927 -1.0735288 -0.72019899 205 46
3.9648874 -1.097108 -0.71965486 187 46
3.9628119 -1.1227562 -0.72056174 188 46
3.9190133 -1.1363659 -0.71348798 24 46
3.9308226 -1.1659862 -0.71711552 82 46
3.9085374 -1.1855148 -0.71421349 163 46
3.8946147 -1.2074357 -0.71294385 183 46
3.8636959 -1.2238834 -0.70840943 55 46
3.8455846 -1.2702792 -0.7078653 7 46
3.9848876 -1.0514053 -0.77151901 67 47
3.9925699 -1.0796744 -0.77441454 168 47
3.9688482 -1.0994419 -0.77093989 181 47
3.9422028 -1.1181566 -0.76688612 58 47
3.9060543 -1.1338533 -0.76090205 8 47
3.9103117 -1.1611476 -0.76321846 68 47
3.8965406 -1.1831253 -0.76186723 139 47
3.8798361 -1.2041061 -0.75993687 115 47
3.86115 -1.224334 -0.75762045 111 47
3.8470302 -1.2458884 -0.75626916 57 47
3.8346548 -1.267931 -0.75530398 114 47
3.9336727 -1.1413596 -0.81619924 8 48
3.908766 -1.1601808 -0.8123138 7 48
3.9090669 -1.1864177 -0.81394976 49 48
3.8895602 -1.2066094 -0.81129134 49 48
3.9026113 -1.2369612 -0.81579024 12 48
3.8884292 -1.258773 -0.81435877 4 48
3.8824911 -1.2832228 -0.81476772 5 48
4.0231481 -1.0351288 -0.67567372 94 45
4.0129833 -1.0312873 -0.72509617 190 46
3.7648442 -1.3214866 -0.35210019 89 39
3.7407334 -1.3388655 -0.35044718 176 39
3.7333829 -1.3621339 -0.35054442 165 39
3.7109601 -1.379817 -0.3490859 73 39
3.7733028 -1.2721274 -0.40098897 153 40
3.7720053 -1.2975199 -0.4017559 146 40
3.7620971 -1.3199817 -0.40153676 136 40
3.7061985 -1.3259596 -0.39594918 17 40
3.6895888 -1.3456095 -0.39496312 10 40
3.7390265 -1.3896987 -0.4017559 53 40
3.7062614 -1.4034604 -0.3989073 163 40
