# .PCD v0.7 - Point Cloud Data file format
VERSION 0.7
FIELDS x y z intensity ring
SIZE 4 4 4 4 1
TYPE F F F F U
COUNT 1 1 1 1 1
WIDTH 324
HEIGHT 1
VIEWPOINT 0 0 0 1 0 0 0
POINTS 324
DATA ascii
3.826195 0.76121372 -1.2578204 55 58
3.8140237 0.73449451 -1.2521328 42 58
3.8137949 0.71021026 -1.2505528 17 58
3.8626907 0.89334434 -1.2309085 12 57
3.8625259 0.86837167 -1.2290753 10 57
3.8482473 0.84038335 -1.2226592 3 57
3.8626456 0.81873232 -1.2257146 14 57
3.9035628 0.87670457 -1.2909983 29 58
3.8764241 0.84566164 -1.2799389 73 58
3.8685453 0.81911033 -1.2755153 61 58
3.8484046 0.79020792 -1.2669837 55 58
3.6726682 0.54558873 -0.82962203 87 50
3.6595595 0.52071339 -0.82574588 82 50
3.6559319 0.49733096 -0.82414979 47 50
3.6569407 0.54201114 -0.87071675 69 51
3.6428943 0.51710063 -0.86641091 81 51
3.6421502 0.49421504 -0.86545408 84 51
3.7702901 0.48810229 -0.89655155 14 51
3.6481915 0.51909709 -0.91408962 5 52
3.627327 0.49344274 -0.90782166 75 52
3.6264462 0.4706786 -0.90681881 91 52
3.6580889 0.45197645 -0.91434032 8 52
3.6673298 0.54420567 -0.96545589 9 53
3.6629562 0.52060431 -0.96336108 9 53
3.6651254 0.49798876 -0.96309918 15 53
3.6298296 0.47051582 -0.9526251 83 53
3.6738338 0.45333004 -0.96388477 43 53
3.6860783 0.54757941 -1.0166485 30 54
3.6503184 0.51939946 -1.0054575 84 54
3.6381843 0.49491858 -1.0010903 76 54
3.626842 0.47072995 -0.99699605 97 54
3.625843 0.44799572 -0.99590421 80 54
3.6782088 0.43156385 -1.0100977 22 54
3.6771097 0.54566014 -1.0588822 7 55
3.6395671 0.51727253 -1.046684 58 55
3.6398222 0.49454263 -1.045833 60 55
3.6370826 0.47145835 -1.0441309 74 55
3.6370521 0.44877955 -1.0432799 61 55
3.6321182 0.42555943 -1.0410104 63 55
3.6838994 0.54791033 -1.1082844 78 56
3.658812 0.52125585 -1.0994382 67 56
3.6505799 0.49724963 -1.0958997 81 56
3.6440864 0.47361019 -1.0929509 82 56
3.6421821 0.4506554 -1.0914766 41 56
3.6477258 0.42863315 -1.0923611 27 56
3.6806772 0.40962195 -1.1017971 9 56
3.7049782 0.55046272 -1.1606369 16 57
3.6933913 0.54735303 -0.74053568 80 48
3.6825266 0.5471198 -0.78568321 85 49
3.6800153 0.52368683 -0.78438455 68 49
3.8053916 0.75790292 -0.82053 4 49
3.7560651 0.74794751 -0.85698336 15 50
3.7232966 0.7177031 -0.84809095 6 50
3.7458169 0.698232 -0.85242313 21 50
3.7529054 0.67575234 -0.85310721 50 50
3.7368357 0.64921439 -0.84831893 6 50
3.7484314 0.62755877 -0.85014302 20 50
3.7003024 0.59618896 -0.83783042 81 50
3.6865711 0.57079333 -0.83372623 78 50
3.8297386 0.78583473 -0.92310405 41 51
3.8087769 0.75720155 -0.91664535 36 51
3.7876091 0.72885537 -0.91018665 93 51
3.7824647 0.7038222 -0.90779454 78 51
3.7628219 0.67629886 -0.90181422 33 51
3.6520903 0.61019349 -0.87215203 4 51
3.6864409 0.59271508 -0.87980676 52 51
3.6756153 0.56785613 -0.87621862 97 51
3.7932329 0.73117661 -0.96022171 58 52
3.7947929 0.70735615 -0.95946956 79 52
3.7809591 0.6808008 -0.95470589 62 52
3.7297456 0.64798331 -0.94016427 33 52
3.7384253 0.62588459 -0.94141787 61 52
3.724036 0.60001034 -0.93665421 62 52
3.6712036 0.56841558 -0.92186189 24 52
3.8188827 0.75990391 -1.0159934 52 53
3.8102067 0.73389786 -1.0123274 81 53
3.780282 0.6561994 -1.0005441 16 53
3.722368 0.62262338 -0.98352367 71 53
3.7146847 0.59792757 -0.98038149 67 53
3.7039778 0.5729062 -0.97645366 58 53
3.8132815 0.75933504 -1.0625045 77 54
3.812201 0.73483092 -1.0608668 87 54
3.7882652 0.7061401 -1.0526782 28 54
3.7530446 0.65202868 -1.0401224 3 54
3.7095327 0.62105042 -1.0264748 29 54
3.698077 0.59583062 -1.0221076 31 54
3.7501497 0.58063048 -1.0360281 7 54
3.8180039 0.75972879 -1.1107959 37 55
3.8094118 0.7337445 -1.1068243 32 55
3.8053584 0.70877379 -1.1042712 12 55
3.7718871 0.67860788 -1.092924 52 55
3.7419693 0.64953685 -1.0827115 80 55
3.7392642 0.6254549 -1.0807257 90 55
3.6919105 0.59425455 -1.0654069 8 55
3.7845776 0.73019141 -1.1483873 10 56
3.754231 0.70047474 -1.1374769 5 56
3.7443523 0.67488503 -1.1330538 10 56
3.7277117 0.64829761 -1.1265665 67 56
3.7287922 0.62493908 -1.125682 68 56
3.7268963 0.60113549 -1.1239127 71 56
3.6578054 0.56699347 -1.1012074 31 56
3.8312242 0.78752828 -1.2137989 61 57
3.8201098 0.76083887 -1.2086049 49 57
3.8069429 0.73395455 -1.2027999 43 57
3.7992067 0.70830941 -1.198828 26 57
3.7603769 0.67720824 -1.1847737 62 57
3.7485139 0.65134615 -1.1795796 66 57
3.7336588 0.62518263 -1.1734691 63 57
3.7148645 0.59861898 -1.1661364 53 57
3.7015309 0.57318568 -1.1606369 54 57
3.8299997 0.78588837 -0.44125745 64 41
3.755022 0.69870722 -0.43018311 49 41
3.7611921 0.67600542 -0.43042648 104 41
3.8259184 0.81008905 -0.48905215 101 42
3.8201382 0.78440678 -0.48758209 78 42
3.8034954 0.75670004 -0.48464203 80 42
3.7866571 0.72922719 -0.48170194 108 42
3.7696257 0.70198959 -0.47876185 88 42
3.7582557 0.67604077 -0.47662359 105 42
3.7525685 0.65127414 -0.4752872 79 42
3.7751482 0.72713417 -0.52852142 77 43
3.766896 0.70159787 -0.52662456 72 43
3.7536049 0.67531294 -0.5239982 88 43
3.7459819 0.65023464 -0.52224725 114 43
3.7450228 0.6264199 -0.52151775 49 43
3.8218448 0.76034874 -0.58405721 17 44
3.7847424 0.72885865 -0.57727122 41 44
3.8221505 0.71176541 -0.58263689 5 44
3.7508159 0.65097016 -0.56969619 41 44
3.7118855 0.62078089 -0.56275243 89 44
3.7594967 0.60504967 -0.56985402 24 44
3.7903917 0.75285584 -0.62583441 91 45
3.7871978 0.72809345 -0.62447822 92 45
3.7702789 0.7008729 -0.62074876 29 45
3.7426682 0.64831817 -0.61447644 5 45
3.7164428 0.62030238 -0.60922128 63 45
3.7133679 0.59639102 -0.60803461 83 45
3.814981 0.78334838 -0.67920768 10 46
3.7878864 0.75359625 -0.67322224 83 46
3.7837477 0.7286672 -0.67158979 96 46
3.7833135 0.70453715 -0.67068291 29 46
3.7527211 0.67504573 -0.66415334 91 46
3.743227 0.64965391 -0.66161406 87 46
3.7345333 0.62456614 -0.65925616 86 46
3.7227604 0.59914118 -0.65635413 108 46
3.714704 0.57448506 -0.65417761 59 46
3.8239038 0.783943 -0.72866505 88 47
3.799772 0.75472194 -0.72287399 62 47
3.8052948 0.73157829 -0.72306705 7 47
3.7923491 0.70498252 -0.71959239 4 47
3.7869465 0.67996287 -0.71766204 33 47
3.7272422 0.64564115 -0.70492166 73 47
3.7233918 0.62146443 -0.70337737 79 47
3.7164788 0.59689164 -0.70125401 68 47
3.7142534 0.5731768 -0.70009577 93 47
3.8176889 0.78321254 -0.77468652 82 48
3.8109014 0.75748408 -0.77223259 95 48
3.7779884 0.72687769 -0.76425719 39 48
3.7804527 0.70332485 -0.76384825 25 48
3.7442319 0.67284781 -0.75525939 59 48
3.7425032 0.64885825 -0.75403243 39 48
3.7550161 0.60365951 -0.75505489 4 48
3.7189856 0.574485 -0.74667054 41 48
3.8003845 0.73268807 -0.81836557 14 49
3.7577832 0.70057356 -0.80776006 74 49
3.7543247 0.67611641 -0.80602854 65 49
3.7478225 0.65122581 -0.8036477 78 49
3.7228625 0.62337142 -0.79715449 9 49
3.7051485 0.57374704 -0.79152709 7 49
4.2231803 0.54657161 -0.85014558 24 48
4.2234588 0.54616416 -0.79854399 15 47
3.9240282 0.93295276 -0.85451102 81 49
3.9201674 0.90665519 -0.8523466 79 49
3.8827963 0.87293518 -0.84260684 43 49
3.8632817 0.84367132 -0.83697939 5 49
3.8693407 0.82015347 -0.83719581 29 49
3.8360505 0.78852189 -0.82853824 16 49
3.9220784 0.93228155 -0.90418166 36 50
3.9220331 0.906883 -0.90281361 11 50
3.9313238 0.88365453 -0.90372562 8 50
3.8662777 0.84415329 -0.8868528 47 50
3.8494766 0.8157739 -0.88160855 82 50
3.8410571 0.78939587 -0.87841642 74 50
3.957809 0.93954068 -0.9620955 81 51
3.8679523 0.89314616 -0.93793511 14 51
3.8544133 0.86513752 -0.93315089 10 51
3.8568032 0.84084964 -0.93243331 26 51
3.8504913 0.81475347 -0.92956275 66 51
3.9316375 0.93455279 -1.0063539 53 52
3.8986268 0.90147322 -0.99607438 26 52
3.8993623 0.87647367 -0.99482077 90 52
3.8923714 0.84984785 -0.99156147 101 52
3.8482661 0.81551754 -0.97852415 37 52
3.8550942 0.79227924 -0.97902554 5 52
3.8513379 0.76690924 -0.97676909 3 52
3.8772347 0.87097502 -1.0377271 43 53
3.8693058 0.844284 -1.0340612 59 53
3.8640282 0.81832391 -1.0311809 62 53
3.8727579 0.79537702 -1.0322282 17 53
3.8459463 0.71634626 -1.0209686 8 53
3.8875773 0.92408407 -1.0930752 45 54
3.907234 0.90346253 -1.0971694 69 54
3.9051948 0.87778413 -1.0949857 77 54
3.8747909 0.84601116 -1.0846136 11 54
3.8584952 0.79297787 -1.0769709 19 54
3.913393 0.92970222 -1.1490927 30 55
3.9236951 0.90675348 -1.1505111 53 55
3.9179585 0.88013572 -1.147107 66 55
3.8792548 0.84645796 -1.1337739 36 55
3.9087443 0.90452749 -1.1970415 41 56
3.9002371 0.87738252 -1.1926184 13 56
3.8583636 0.81835717 -1.1761055 42 56
3.8502088 0.79197329 -1.1719772 49 56
3.8400018 0.76534706 -1.1672592 61 56
3.9315579 0.93330103 -0.45732135 82 41
3.9101329 0.90289909 -0.45391384 96 41
3.8739579 0.86953044 -0.44868091 47 41
3.8588562 0.84129786 -0.4461253 118 41
3.8425834 0.81307775 -0.44344798 104 41
3.8568985 0.74221063 -0.44344798 6 41
3.8347015 0.66497618 -0.43906692 18 41
3.94277 0.93647373 -0.50816268 62 42
3.846051 0.83903873 -0.4925268 63 42
3.9464073 0.93755549 -0.55974627 83 43
3.8981113 0.90083331 -0.55157524 36 43
3.8997047 0.87602955 -0.55099159 43 43
3.8702126 0.84448212 -0.54573882 83 43
3.8637083 0.81825602 -0.54398793 14 43
3.8667181 0.79413474 -0.54369611 5 43
3.8540542 0.76691353 -0.54106969 12 43
3.9344225 0.93449187 -0.60757142 11 44
3.9429686 0.91099972 -0.60804486 14 44
3.8897114 0.87359512 -0.59841824 69 44
3.8641248 0.84297979 -0.59336823 99 44
3.8634281 0.81802738 -0.59242135 69 44
3.9317474 0.93262404 -0.65617877 13 45
3.9028275 0.90049523 -0.65007597 8 45
3.9169335 0.87847453 -0.65160167 33 45
3.8952894 0.84854287 -0.64685506 29 45
3.8801754 0.82033896 -0.64329511 8 45
3.8349357 0.78620803 -0.63448 46 45
3.9298089 0.93339652 -0.70587015 44 46
3.9124656 0.90395522 -0.70151711 101 46
3.8977883 0.87540823 -0.69770819 88 46
3.8723395 0.84477097 -0.69190407 32 46
3.9105861 0.90228778 -0.75028509 59 47
3.8978593 0.87419087 -0.74661738 90 47
3.8743906 0.84398389 -0.74082631 79 47
3.8478191 0.81348836 -0.73445612 90 47
4.1233978 0.61056441 -0.78078473 280 47
4.1348381 0.58635652 -0.78232902 79 47
4.1840544 0.56718189 -0.79140168 13 47
3.9375896 0.93452072 -0.80597442 90 48
3.9432497 0.91034251 -0.80597442 73 48
3.8530343 0.81512791 -0.78327537 37 48
3.8002145 0.75549668 -0.34082088 74 39
3.7930515 0.72990441 -0.33965406 95 39
3.7886529 0.70497566 -0.33877894 82 39
3.7729838 0.70261461 -0.38510266 104 40
3.7967899 0.68296826 -0.38729388 34 40
3.8374276 0.78741485 -0.345002 33 39
3.8609469 0.86713779 -0.39824995 61 40
3.8593967 0.84194881 -0.39748302 95 40
3.8508761 0.81537092 -0.39594918 105 40
3.8353591 0.7875306 -0.39364839 64 40
3.8547425 0.76689023 -0.39529181 10 40
3.8379021 0.7390905 -0.39288145 18 40
3.9891977 1.0508127 -0.82233411 71 48
3.9785042 1.0219338 -0.81865317 100 48
3.9808798 1.0242631 -0.87160975 21 49
4.0012932 1.0033836 -0.87485635 9 49
3.9675438 0.96907258 -0.86576587 10 49
3.9297142 1.0108629 -0.91033792 27 50
3.9169538 0.98199803 -0.90577775 9 50
3.9295266 0.95956177 -0.90737379 11 50
3.968585 0.99370503 -0.96783656 75 51
3.9632885 0.96657163 -0.964966 78 51
3.9446383 0.9632504 -1.0113682 90 52
3.9214849 0.95708621 -1.0547475 23 53
3.8967023 0.97568434 -0.45440063 27 41
3.9517915 0.96376425 -0.46060714 90 41
4.0145607 1.0846246 -0.52246219 55 42
4.004849 1.0556786 -0.5201903 87 42
3.9824557 1.0236864 -0.51618111 96 42
3.9675124 0.99393505 -0.51324105 77 42
3.9562058 0.96534514 -0.51083553 94 42
4.0576415 1.1501619 -0.58352965 57 43
4.0417418 1.118902 -0.58002776 75 43
4.031342 1.0894308 -0.5774014 81 43
3.9537756 1.0424551 -0.56456131 17 43
3.9409361 1.0132431 -0.56164306 6 43
3.9672298 0.99409837 -0.56470722 35 43
3.9463463 0.96316159 -0.56062168 98 43
4.0524902 1.121593 -0.633295 90 44
4.0392761 1.0912995 -0.62998092 86 44
4.024889 1.0609591 -0.62650901 78 44
3.9280317 1.0097023 -0.60946518 8 44
3.9312794 0.98486173 -0.60899174 11 44
3.9631507 0.96703911 -0.6132527 27 44
4.0201325 1.111408 -0.67855561 33 45
4.0230703 1.0856919 -0.67787749 46 45
3.9858196 1.0494313 -0.67007953 4 45
3.9950471 1.025691 -0.67058808 54 45
3.9639821 0.99181867 -0.66397673 97 45
3.9690356 0.96724385 -0.66380721 81 45
4.0123062 1.0840157 -0.72745407 42 46
3.9748256 1.0217259 -0.71784103 17 46
3.9504933 0.98967326 -0.71203697 93 46
3.9345171 0.96005511 -0.7078653 49 46
4.0177574 1.0842565 -0.77943349 25 47
3.9939737 1.0515807 -0.7732563 79 47
3.985146 1.023146 -0.77016777 77 47
3.9751687 0.99462104 -0.76688612 55 47
3.965708 0.99275053 -0.81456327 88 48
3.9460468 0.9621405 -0.80904186 56 48
4.2662873 0.52555162 -0.85852993 15 48
4.2927656 0.50209129 -0.86343783 11 48
4.2693443 0.5266816 -0.75429791 5 46
4.2900772 0.50253332 -0.7575627 20 46
4.347816 0.48226693 -0.76771986 10 46
4.2510757 0.52324241 -0.80336988 6 47
4.3984246 0.56883872 -0.72398734 13 45
4.2976408 0.58379561 -0.76082748 14 46
4.2777357 0.55438352 -0.75647444 12 46
