# .PCD v0.7 - Point Cloud Data file format
VERSION 0.7
FIELDS x y z intensity ring
SIZE 4 4 4 4 1
TYPE F F F F U
COUNT 1 1 1 1 1
WIDTH 1358
HEIGHT 1
VIEWPOINT 0 0 0 1 0 0 0
POINTS 1358
DATA ascii
-5.9380798 3.6086242 1.0747727 152 19
-8.9245119 5.498075 1.6041292 427 19
-8.9132576 5.5668736 1.6081294 607 19
-8.8939734 5.63098 1.6107962 670 19
-8.9033709 5.7137513 1.6186484 361 19
-6.7896404 4.4166393 1.2472247 5 19
-6.7095642 4.4233866 1.2377428 46 19
-6.6831193 4.4650216 1.237891 55 19
-6.6670628 4.5137048 1.2399652 35 19
-6.675128 4.5791388 1.2464839 12 19
-8.8583946 6.1566596 1.649909 291 19
-8.8293467 6.2171602 1.6515387 529 19
-8.8240442 6.2947631 1.657613 680 19
-8.7996836 6.3592129 1.6602799 607 19
-8.8004017 6.4422913 1.6676875 469 19
-8.8059912 6.5297394 1.6761324 305 19
-8.7847395 6.5979013 1.6796881 524 19
-8.767705 6.6696396 1.6841327 584 19
-8.7736254 6.759521 1.693022 291 19
-8.7319841 6.8132277 1.693022 441 19
-8.6938944 6.8697433 1.6937628 645 19
-8.6716576 6.9390216 1.6976148 308 19
-8.6050959 6.9728007 1.693022 589 19
-8.6011438 7.0574589 1.7005779 164 19
-8.5903902 7.1372743 1.7069485 548 19
-8.5123768 7.1612034 1.7002816 432 19
-8.4178305 7.1703386 1.6903552 384 19
-8.3302345 7.1843967 1.6817622 553 19
-8.3023853 7.2496839 1.6850216 609 19
-8.2080984 7.2566075 1.6750953 364 19
-8.1059351 7.2553945 1.6635393 401 19
-7.9835768 7.2346106 1.6478349 364 19
-7.8727131 7.2226281 1.6343528 388 19
-7.7746201 7.2210002 1.6233894 406 19
-7.6516256 7.1947336 1.6072404 314 19
-7.5399947 7.1774592 1.5933139 436 19
-7.4352765 7.1652641 1.5807208 429 19
-7.3444457 7.1651764 1.5709426 350 19
-7.2166004 7.1274176 1.5533122 441 19
-7.118175 7.1170287 1.5417562 402 19
-7.0340538 7.1197715 1.5331632 410 19
-6.9232268 7.094151 1.5187922 476 19
-6.8253379 7.0802555 1.5070879 457 19
-6.5894217 6.9200559 1.4653083 486 19
-6.5129538 6.9243426 1.4579006 478 19
-6.4137926 6.9033227 1.4454557 532 19
-6.3117929 6.8777056 1.4322698 475 19
-6.2468872 6.8913946 1.4272326 404 19
-6.1550012 6.874342 1.416121 317 19
-6.0694585 6.86309 1.4063427 232 19
-5.9511023 6.813067 1.3890088 135 19
-5.8898025 6.8269925 1.384564 145 19
-5.8311229 6.8434334 1.380712 118 19
-4.1153154 4.8907442 0.99136168 38 19
-5.7131968 6.8741689 1.3728598 366 19
-5.6922464 6.9350834 1.3778971 742 19
-5.6047421 6.9145699 1.3672299 609 19
-2.75473 3.4424064 0.69431162 93 19
-2.7519567 3.4825177 0.69875628 117 19
-2.7469687 3.520385 0.70275646 111 19
-2.7428265 3.5598879 0.70705295 143 19
-2.7323124 3.5916026 0.70986784 119 19
-2.7238889 3.6264837 0.71327543 108 19
-2.7233891 3.6725154 0.71875715 132 19
-2.7282705 3.7266545 0.72572041 147 19
-2.722158 3.7665653 0.73001689 164 19
-2.7191052 3.8113701 0.73520231 158 19
-2.7156043 3.8562784 0.74038774 183 19
-2.7110894 3.9004741 0.74542499 199 19
-2.7044547 3.9423122 0.75001776 197 19
-2.6946347 3.9801209 0.75386977 196 19
-2.6932454 4.0311117 0.76009226 204 19
-2.6804404 4.0657234 0.76335168 179 19
-2.6894298 4.1343126 0.77268541 119 19
-2.6827145 4.1798625 0.77787083 188 19
-2.6982989 4.2614079 0.78942692 117 19
-2.6836312 4.2963343 0.79268628 136 19
-2.0697498 3.3597367 0.62497526 78 19
-2.0352235 3.3495576 0.62097508 126 19
-2.0131068 3.3594379 0.62053061 23 19
-0 0 0 4 19
-0 0 0 4 19
-1.8696015 3.2544556 0.59608513 122 19
-1.8466716 3.2607036 0.59519619 156 19
-1.8222884 3.2642031 0.59386277 187 19
-1.797455 3.2666597 0.59238124 98 19
-0 0 0 5 19
-0 0 0 5 19
-0 0 0 6 19
-0 0 0 11 19
-0 0 0 7 19
-0 0 0 13 19
-0 0 0 6 19
-0 0 0 4 19
-0 0 0 5 19
-0 0 0 9 19
-0 0 0 15 19
-0 0 0 33 19
-0 0 0 13 19
-0 0 0 5 19
-0 0 0 13 19
-0 0 0 6 19
-0 0 0 6 19
-0 0 0 5 19
-0 0 0 18 19
-0 0 0 38 19
-1.0455315 2.663336 0.46244961 29 19
-1.0202672 2.6466353 0.45874575 44 19
-0.99805123 2.6371243 0.45622712 55 19
-0.98047233 2.6394908 0.4556345 45 19
-0.96086764 2.636167 0.45415297 40 19
-0.9403407 2.629909 0.45222697 46 19
-0 0 0 44 19
-0 0 0 44 19
-0.88639867 2.630842 0.44970831 55 19
-0.86961859 2.6343532 0.44941202 42 19
-0.85069644 2.6311717 0.44807863 43 19
-0.83334041 2.632571 0.44748601 32 19
-0.81482702 2.6300783 0.44630077 218 19
-0.79350299 2.6179948 0.44363397 51 19
-0.78192765 2.6379833 0.44600445 40 19
-0.76076519 2.6256356 0.44333768 49 19
-0.75570202 2.6692636 0.44941202 34 19
-0.73930955 2.6738503 0.44941202 29 19
-0.73140657 2.709841 0.45430112 10 19
-0.71325213 2.7085402 0.4534122 11 19
-0.69070655 2.6898789 0.44985649 15 19
-0.66913849 2.6739216 0.44674525 21 19
-0.64896548 2.662605 0.44437477 16 19
-0.62506884 2.6347857 0.43948567 7 19
-0.60421175 2.6183372 0.4363744 18 19
-0.58553213 2.6104164 0.43459654 8 19
-0.56866008 2.6100953 0.43400392 10 19
-0.55242914 2.6125679 0.43385577 3 19
-0 0 0 4 19
-0.50912589 2.5628948 0.42526281 6 19
-0.49077025 2.5523751 0.42318866 10 19
-0.47292539 2.5436718 0.4214108 9 19
-0 0 0 4 19
-0.43541217 2.513232 0.41592908 4 19
-0.42553475 2.5490198 0.42096633 6 19
-0 0 0 3 19
-0.39785358 2.5775054 0.42452204 5 19
-0 0 0 5 19
-0 0 0 3 19
-0.35380822 2.6098704 0.42837405 9 19
-0.33715132 2.6070886 0.42763329 5 19
-0.32005692 2.6002746 0.4262999 4 19
-0.30663091 2.6237986 0.42955929 13 19
-0.28943384 2.6158013 0.42807776 44 19
-0.27090216 2.5939224 0.42452204 60 19
-0.25352409 2.5807731 0.42229971 91 19
-0.23759292 2.5812955 0.42215157 97 19
-0.2220901 2.5866458 0.42274418 72 19
-0.20621455 2.5879598 0.42274418 79 19
-0.19098777 2.598053 0.42407757 63 19
-0.17544417 2.6050961 0.42496651 54 19
-0.15933463 2.6041493 0.42467019 71 19
-0.14357199 2.6090279 0.42526281 83 19
-0 0 0 92 19
-0 0 0 87 19
-0 0 0 74 19
-0 0 0 76 19
-0.062959261 2.5914421 0.42215157 66 19
-0.046891704 2.5828805 0.42081818 93 19
-0.030906931 2.5722418 0.41918847 111 19
-0.015160943 2.5783167 0.42007738 65 19
0.00065940234 2.5793502 0.42022556 59 19
0.016503608 2.5822644 0.42067 66 19
0.032407485 2.587059 0.4214108 62 19
0.04819072 2.5818675 0.42067 82 19
0.064176314 2.5874553 0.42155895 75 19
0.08020214 2.5919552 0.42229971 76 19
0.098095953 2.645771 0.43044823 44 19
0.11606134 2.6856296 0.43652257 32 19
0.13195789 2.6730137 0.43474472 27 19
0.14503877 2.6119182 0.42570728 99 19
0.16082068 2.6070306 0.42511466 96 19
0.17614903 2.5961275 0.4236331 75 19
0.19142221 2.5861211 0.42229971 51 19
0.206029 2.5691245 0.41992924 43 19
0.22187363 2.5687973 0.42007738 55 19
0.23763129 2.5673876 0.42007738 799 19
0.25425071 2.574739 0.4214108 2299 19
0 0 0 2006 19
0 0 0 1702 19
0 0 0 705 19
0.31772399 2.5706687 0.42185524 141 19
0.33501399 2.5804403 0.4236331 94 19
0.3524358 2.590096 0.42541096 40 19
0.36915517 2.5937595 0.4262999 65 19
0.38651243 2.6012287 0.42778143 153 19
0.40201321 2.595876 0.42733696 69 19
0.41683525 2.5865252 0.4262999 68 19
0.42634487 2.5458763 0.42052186 26 19
0.44077587 2.5363913 0.41948479 22 19
0.44916132 2.4937301 0.41341043 31 19
0.46174166 2.4763429 0.41118813 36 19
0.47636715 2.4705496 0.41074365 26 19
0.48881873 2.4540002 0.4086695 25 19
0.49949571 2.429641 0.40541008 17 19
0.51439428 2.4265304 0.40541008 34 19
0.52927351 2.4233284 0.40541008 59 19
0.54283386 2.4142454 0.40452117 123 19
0.55830443 2.4137602 0.40496564 141 19
0.57378942 2.4131758 0.40541008 144 19
0.58928823 2.412492 0.40585455 142 19
0.60456014 2.4107497 0.40615085 135 19
0.62032479 2.4108262 0.40674347 141 19
0.63586128 2.4098437 0.40718794 170 19
0.65140903 2.408761 0.40763241 162 19
0.66670382 2.4066253 0.40792871 157 19
0.68253571 2.4062953 0.40852132 139 19
0.70554543 2.4305587 0.41296598 28 19
0.72662956 2.4470437 0.41622537 6 19
0.7390486 2.4340212 0.41489199 14 19
0.75396961 2.4294405 0.41489199 24 19
0.78199565 2.4662538 0.4214108 13 19
0.80685014 2.4915209 0.42615175 9 19
0 0 0 7 19
0.99399704 2.9462783 0.49963644 11 19
0 0 0 4 19
0 0 0 7 19
0 0 0 4 19
1.1513546 3.1551449 0.53697139 87 19
1.1693149 3.1443126 0.5363788 156 19
0 0 0 146 19
0 0 0 127 19
0 0 0 157 19
0 0 0 166 19
1.2767684 3.1353624 0.54097158 143 19
1.2959827 3.1274693 0.54097158 165 19
1.3159158 3.1212814 0.54126787 146 19
1.3373797 3.1186025 0.54215682 133 19
0 0 0 170 19
0 0 0 158 19
0 0 0 155 19
0 0 0 186 19
1.4470137 3.1074946 0.54734224 207 19
1.4681669 3.1030281 0.54808301 182 19
1.4906043 3.1010928 0.54926825 176 19
1.5139402 3.1007767 0.55074978 152 19
1.5373281 3.1002908 0.55223131 203 19
0 0 0 158 19
0 0 0 179 19
1.6064266 3.0951724 0.5562315 215 19
1.6327585 3.0992594 0.55860198 159 19
1.6545407 3.0944161 0.55949092 149 19
1.6800957 3.0963776 0.5615651 166 19
1.7043066 3.095542 0.56319475 137 19
1.7251965 3.0884805 0.5637874 165 19
1.749962 3.0881636 0.56556523 145 19
1.7728182 3.0842285 0.56675047 133 19
1.7961895 3.0809834 0.56808388 153 19
1.822103 3.0818248 0.57015806 164 19
1.846061 3.0790701 0.5716396 143 19
1.8685133 3.0736015 0.57267666 149 19
1.8909678 3.0679731 0.57371378 143 19
1.9165663 3.0672178 0.57563978 143 19
1.9432843 3.0679348 0.57786208 144 19
1.9663445 3.0626123 0.57904732 159 19
1.9872559 3.0538056 0.57963991 155 19
2.0113986 3.0498121 0.5811215 155 19
2.0361161 3.0464594 0.58275121 149 19
2.0625308 3.0453749 0.58482534 157 19
2.0901272 3.0457118 0.58719581 159 19
2.1155479 3.0425756 0.5889737 163 19
0 0 0 0 19
0 0 0 0 19
0 0 0 0 19
0 0 0 0 19
0 0 0 0 19
0 0 0 0 19
0 0 0 0 19
0 0 0 0 19
0 0 0 0 19
0 0 0 0 19
0 0 0 0 19
0 0 0 0 19
0 0 0 0 19
0 0 0 0 19
0 0 0 0 19
0 0 0 0 19
2.4667001 2.8589411 0.59949267 30 19
2.5895607 2.9644423 0.62349373 78 19
2.6476541 2.9936981 0.63253117 140 19
2.6804819 2.9936092 0.63579053 150 19
2.710752 2.990298 0.63845736 147 19
2.742419 2.9881852 0.64142042 137 19
2.7707965 2.9821723 0.64364272 107 19
2.7992034 2.9759233 0.64586508 139 19
2.8276374 2.9694374 0.64808738 116 19
2.8622725 2.9691241 0.6516431 142 19
2.8928664 2.9642491 0.65430987 132 19
2.9255924 2.961221 0.65742111 169 19
2.9751694 2.974689 0.66408807 109 19
3.0053244 2.968195 0.66660672 126 19
3.0411727 2.966969 0.67031056 108 19
3.0657277 2.9544311 0.67164397 134 19
3.1038494 2.9546623 0.67579228 117 19
3.1384873 2.9511483 0.67919987 118 19
3.173198 2.9473195 0.68260741 110 19
3.2174506 2.9518697 0.68794096 126 19
3.2538185 2.9486794 0.69164485 136 19
3.2784805 2.934597 0.69297826 144 19
3.2667954 2.8882153 0.68705207 93 19
3.268816 2.8544517 0.68394083 38 19
3.289264 2.8369253 0.68453342 27 19
3.3156412 2.8243873 0.6863113 30 19
3.3616595 2.828191 0.69194114 54 19
3.3956807 2.82142 0.69520056 46 19
3.432802 2.8168473 0.69905257 42 19
3.4669213 2.8094337 0.70231199 24 19
3.4933584 2.7955256 0.70408982 42 19
3.5151002 2.7777183 0.70497876 34 19
3.6965582 2.8845112 0.73623937 127 19
3.7486503 2.8883426 0.74275821 146 19
3.7883365 2.8820584 0.74690652 151 19
3.8249235 2.8730187 0.75046223 164 19
3.8631301 2.8648167 0.75431424 156 19
3.9029746 2.8574221 0.75846261 141 19
3.948483 2.8537023 0.76364797 175 19
3.9900668 2.846658 0.76809263 197 19
4.043839 2.8477545 0.77475959 209 19
4.0920897 2.8443446 0.78038949 201 19
4.137188 2.8382106 0.78542674 182 19
4.1856394 2.833848 0.79105657 186 19
4.2235031 2.821852 0.79476047 151 19
4.2828412 2.8236558 0.80231637 209 19
4.3348985 2.8199813 0.80853885 237 19
4.3845744 2.8141704 0.81431687 201 19
4.444366 2.8142064 0.82187277 269 19
4.4984508 2.8099446 0.82839155 206 19
4.5358124 2.794745 0.83194727 252 19
4.6247025 2.8105333 0.84454042 163 19
4.6605201 2.7932928 0.84779984 209 19
4.7167301 2.7877994 0.85461491 190 19
4.7559595 2.7717574 0.85846698 224 19
4.8140316 2.7661824 0.86557835 335 19
4.8386574 2.7409806 0.86691177 408 19
4.8320737 2.6982164 0.86291158 301 19
4.8277473 2.6570678 0.85935587 266 19
4.8222294 2.6156025 0.85565203 243 19
4.8277225 2.5803683 0.85387415 252 19
4.8390899 2.5483923 0.85313338 213 19
4.8484912 2.5154629 0.85209632 334 19
4.8523874 2.4798126 0.85017031 318 19
4.860446 2.4464338 0.84898508 350 19
4.8656192 2.4117312 0.84735537 214 19
4.9434214 2.4126413 0.85787433 299 19
4.9670453 2.3865485 0.85935587 350 19
4.975338 2.3530653 0.85831881 323 19
4.9618907 2.3095498 0.85372603 224 19
4.9669781 2.2749407 0.85224444 411 19
4.9700241 2.2395432 0.85046661 414 19
4.9728241 2.2041943 0.84868878 379 19
4.9762836 2.1692908 0.84705907 414 19
4.9704137 2.1305296 0.84394783 563 19
4.9761028 2.0969179 0.84276259 532 19
4.9769983 2.0614233 0.84083658 630 19
4.9794784 2.0267429 0.83920687 645 19
4.9697838 1.9873337 0.83565116 553 19
4.9680781 1.9513758 0.8334288 585 19
4.9808807 1.9212116 0.83357698 684 19
4.9759288 1.8843055 0.83091021 516 19
4.976274 1.8496011 0.82913232 391 19
4.9866004 1.8186935 0.8289842 464 19
4.9725261 1.7790614 0.82498401 288 19
4.9936132 1.7521211 0.82661372 485 19
4.9995942 1.7198384 0.82587296 479 19
5.0016193 1.6862836 0.82453954 481 19
5.0052991 1.6533897 0.82350248 279 19
4.9626608 1.605587 0.81520581 29 19
4.9724193 1.5751064 0.81520581 37 19
4.9819903 1.5445666 0.81520581 24 19
4.9819107 1.5110959 0.81372428 32 19
4.9901404 1.4802176 0.8135761 23 19
4.9810834 1.4443338 0.81076115 37 19
4.9793859 1.4107754 0.80913144 41 19
4.981277 1.3783482 0.80809438 45 19
4.9848671 1.3464673 0.80735362 33 19
4.9872975 1.3143419 0.80646467 41 19
4.9885635 1.2819911 0.80542761 52 19
4.9896212 1.2496743 0.80439049 36 19
4.9895091 1.2171582 0.80320525 54 19
4.9939971 1.1858342 0.80276084 48 19
5.0021424 1.1553921 0.80290896 39 19
5.0120325 1.1253284 0.80335343 51 19
5.0130458 1.0932882 0.80246449 33 19
5.0128875 1.0610731 0.80142742 37 19
5.0105853 1.0285029 0.80009401 36 19
5.0061326 0.99561477 0.79846436 47 19
5.0082626 0.96413028 0.79787171 51 19
5.0111675 0.93283838 0.79742724 40 19
5.0129037 0.9013719 0.79683465 36 19
5.0134683 0.86975002 0.79609388 40 19
5.009932 0.837502 0.79476047 36 19
5.008142 0.80564481 0.7937234 40 19
5.0071273 0.77399248 0.79283446 54 19
5.0117822 0.74325472 0.79283446 41 19
5.0142899 0.71221042 0.79253817 49 19
5.015626 0.68103004 0.79209369 49 19
5.0138254 0.64947832 0.79120475 40 19
5.0147719 0.61833805 0.79076028 53 19
5.012578 0.58686501 0.78987134 52 19
5.0121531 0.55566055 0.78927875 53 19
5.0135012 0.52468973 0.78898245 56 19
5.014658 0.49372336 0.78868616 77 19
5.0195622 0.46312687 0.78898245 71 19
5.0252652 0.43257383 0.78942692 96 19
5.0268393 0.40165225 0.78927875 91 19
5.0252638 0.37050879 0.78868616 94 19
5.0274429 0.33966738 0.78868616 93 19
5.0264711 0.30863068 0.78824168 149 19
5.0322199 0.27800211 0.78883427 169 19
5.0446963 0.24765569 0.79046398 179 19
5.0154915 0.21537495 0.78587121 299 19
5.0236368 0.18485257 0.78690827 169 19
5.0296187 0.15417729 0.78764904 137 19
5.0472775 0.12372912 0.79016769 112 19
5.0350871 0.092518114 0.78824168 71 19
5.0276489 0.061523017 0.78705645 78 19
5.0229874 0.03064147 0.78631568 91 19
5.0319815 -0.00017782934 0.78764904 60 19
5.0407863 -0.031106349 0.78898245 71 19
5.044456 -0.062083215 0.78957504 70 19
5.0459576 -0.093070261 0.78987134 46 19
5.0443029 -0.12400585 0.78972322 45 19
5.0394931 -0.15483421 0.78913057 65 19
5.0433898 -0.18593408 0.78987134 42 19
5.0441298 -0.21696077 0.79016769 43 19
5.037765 -0.24766523 0.78942692 36 19
5.0391126 -0.27873489 0.78987134 49 19
5.0353332 -0.30952814 0.78957504 34 19
5.0382729 -0.34075108 0.79031581 59 19
5.0429916 -0.37216684 0.79135293 53 19
5.0425844 -0.40326026 0.79164922 30 19
5.0518394 -0.43520927 0.79342705 44 19
5.0559673 -0.4668335 0.79446417 51 19
5.0618658 -0.49871823 0.79579753 45 19
5.0655956 -0.5304873 0.79683465 42 19
1.109764 -0.1240229 0.20110485 92 19
1.1079998 -0.1307151 0.20095669 129 19
1.1091399 -0.13775294 0.201253 170 19
1.107293 -0.14442901 0.20110485 166 19
1.1112859 -0.15188503 0.20184562 182 19
1.1073956 -0.15828416 0.20140116 161 19
1.1142299 -0.16623539 0.2025864 132 19
1.1102568 -0.17261629 0.20214193 81 19
1.08086 -0.17487495 0.19784544 9 19
1.0914721 -0.18345851 0.1996233 8 19
5.1030598 -0.88561594 0.80972409 16 19
5.0955825 -0.91656137 0.8094278 41 19
5.0908351 -0.94799083 0.80957592 31 19
5.0888071 -0.97995692 0.81016856 30 19
5.0875487 -1.0121266 0.81090933 31 19
1.1663278 -0.24039733 0.21221645 55 19
1.1396742 -0.24222873 0.20836443 106 19
1.1314025 -0.2477431 0.20732735 121 19
1.134686 -0.25576305 0.20806812 158 19
1.1330953 -0.26272056 0.20806812 129 19
1.1343486 -0.27035311 0.20851257 142 19
1.1307467 -0.27683982 0.20821626 121 19
1.1510924 -0.28929526 0.21162383 66 19
1.1148119 -0.28749707 0.20629026 6 19
5.1067638 -1.3461213 0.82498401 4 19
5.1241875 -1.384389 0.8289842 23 19
5.1175027 -1.4163316 0.8292805 36 19
5.1210861 -1.4512079 0.8312065 37 19
5.1462812 -1.4925123 0.8365401 52 19
5.1351299 -1.523499 0.83624375 129 19
5.136096 -1.5581348 0.83787346 560 19
5.037641 -1.5621064 0.82394695 300 19
4.9544196 -1.5697054 0.81239086 277 19
4.8694153 -1.5757341 0.80053848 269 19
4.8202124 -1.5925611 0.79431599 232 19
4.7372489 -1.5974756 0.78275996 434 19
4.7236171 -1.6252266 0.78216732 500 19
4.7135558 -1.6541796 0.78216732 422 19
4.7247353 -1.690729 0.78557485 516 19
4.7217054 -1.7223972 0.78676009 432 19
4.7258811 -1.7568469 0.78913057 493 19
4.733511 -1.7928128 0.79209369 392 19
4.7325716 -1.8257365 0.7937234 433 19
4.7286448 -1.8576318 0.79490864 458 19
4.716239 -1.8862442 0.79476047 460 19
4.7430511 -1.930799 0.80098295 558 19
4.7429938 -1.9647831 0.80290896 568 19
4.7490768 -2.0015261 0.80587208 725 19
4.7121625 -2.0201128 0.8018719 91 19
4.743197 -2.0679498 0.80898333 57 19
4.7258983 -2.0950115 0.80824256 83 19
4.7291856 -2.1312802 0.81090933 85 19
4.7259107 -2.1647859 0.81253904 79 19
4.7286787 -2.2012517 0.81520581 70 19
4.7311769 -2.237833 0.81787258 43 19
4.7271628 -2.2715302 0.81950229 54 19
4.7344685 -2.3108993 0.82305801 29 19
4.7264032 -2.3429792 0.82409507 38 19
4.7313738 -2.3817143 0.82735449 26 19
4.7263584 -2.4156494 0.8289842 31 19
4.7254944 -2.4518888 0.83135468 23 19
4.7331142 -2.492815 0.83520669 20 19
4.7360473 -2.5315964 0.83831793 17 19
4.7412901 -2.5719213 0.84187365 25 19
4.7540145 -2.6166959 0.84676272 22 19
4.757731 -2.6569026 0.85017031 18 19
4.753387 -2.6928675 0.85224444 11 19
4.7590714 -2.7347896 0.85609651 15 19
4.7601466 -2.7743933 0.85920775 17 19
4.7583599 -2.8126037 0.86187452 13 19
4.751193 -2.8478467 0.86365235 21 19
4.7505341 -2.8872151 0.86661547 22 19
4.7512546 -2.9277194 0.86987489 24 19
4.7533336 -2.9693885 0.87343055 34 19
4.7609291 -3.0148952 0.87802339 40 19
4.7714734 -3.0627427 0.88320881 37 19
4.7700014 -3.1032841 0.88632005 21 19
4.7715144 -3.1460996 0.89002389 24 19
4.7735028 -3.189599 0.8938759 15 19
4.7726793 -3.2315779 0.89728349 16 19
4.7682571 -3.2714288 0.90009838 16 19
4.7732711 -3.3181188 0.90469122 16 19
4.7835512 -3.3689778 0.91032106 21 19
4.7917752 -3.4189384 0.91565466 17 19
4.7995658 -3.4691262 0.9209882 15 19
4.8077173 -3.5201216 0.92646992 19 19
4.8066835 -3.5648682 0.93032193 22 19
4.8100262 -3.613297 0.93506289 17 19
4.8003597 -3.6523213 0.93743336 27 19
4.7958789 -3.6955874 0.94084096 29 19
4.7965059 -3.7431936 0.94528556 29 19
4.7967286 -3.7909458 0.94973022 25 19
4.797317 -3.8394587 0.95432299 34 19
4.7990265 -3.8893659 0.95921212 45 19
4.802597 -3.9413197 0.96454567 26 19
4.8034277 -3.9915671 0.9694348 33 19
4.7992802 -4.0381527 0.97343498 26 19
4.8037767 -4.0925317 0.979213 43 19
4.80404 -4.143888 0.98425025 33 19
4.8016186 -4.1934495 0.98884302 28 19
4.8002505 -4.2444463 0.99373215 31 19
4.8109651 -4.3067951 1.0011399 32 19
4.8159633 -4.3647857 1.0075105 25 19
4.8116841 -4.4149771 1.0121033 22 19
4.8142166 -4.4720087 1.0181776 41 19
4.8155084 -4.5285592 1.0241039 33 19
4.8220177 -4.5907474 1.0312153 34 19
4.8215342 -4.6470089 1.0369933 38 19
4.8233724 -4.7061987 1.0433639 51 19
4.8253684 -4.7662797 1.0498828 44 19
4.8212123 -4.8209677 1.0552163 33 19
4.8318586 -4.8912592 1.0638093 19 19
4.8335323 -4.9533687 1.0706244 34 19
4.8394303 -5.0206652 1.0784765 36 19
4.8501391 -5.0939484 1.087514 21 19
4.8641953 -5.1718721 1.0974404 29 19
4.8579526 -5.2291493 1.1030703 34 19
4.8632274 -5.2996578 1.1113669 22 19
4.8644967 -5.3667631 1.1189228 25 19
4.8704023 -5.4399757 1.127664 40 19
4.8651075 -5.5016093 1.1340346 29 19
4.8527312 -5.555934 1.1389236 20 19
4.8624849 -5.6365185 1.1489981 25 19
4.8675818 -5.712914 1.1581838 28 19
4.8693752 -5.7865562 1.1667768 15 19
4.8906779 -5.8847694 1.1801107 21 19
4.8795791 -5.9452415 1.1860368 26 19
4.8978181 -6.0426712 1.1990745 35 19
4.900826 -6.1227899 1.2087045 29 19
4.9042606 -6.2047224 1.2186309 30 19
4.889832 -6.2650995 1.2244089 15 19
4.8826957 -6.3357139 1.232113 25 19
4.8850584 -6.4198527 1.2423356 28 19
4.8723116 -6.4852829 1.2490026 40 19
4.8630695 -6.5563564 1.2567066 58 19
4.9273558 -6.7288837 1.2832263 393 19
4.957253 -6.857563 1.3014493 531 19
4.93749 -6.9192433 1.3072274 487 19
4.9274096 -6.995491 1.3156722 170 19
4.9928041 -7.1814837 1.3441179 53 19
4.9872613 -7.2682447 1.3543406 41 19
4.964201 -7.3306427 1.3601185 31 19
4.9455085 -7.4004292 1.3672299 26 19
4.9457488 -7.4999804 1.3796749 41 19
4.9611363 -7.6246767 1.3965646 34 19
4.9580774 -7.7232118 1.4087132 60 19
4.973577 -7.8529043 1.4263437 49 19
4.981904 -7.9738488 1.4423444 30 19
4.9915266 -8.0993967 1.4590858 31 19
4.9833531 -8.1983194 1.4710864 40 19
4.973134 -8.2957468 1.4827906 38 19
4.9739871 -8.4137859 1.4980506 44 19
5.0019712 -8.580842 1.5217552 25 19
4.9778142 -8.6610994 1.5303482 29 19
4.9816294 -8.7921457 1.5476823 44 19
4.9681048 -8.8950691 1.5601273 45 19
4.9701986 -9.0284767 1.5777577 25 19
4.2948833 -7.9166493 1.3830825 24 19
4.2499576 -7.9498301 1.3842678 28 19
4.2753205 -8.1166229 1.4081206 56 19
4.2249818 -8.1418257 1.4079725 67 19
4.1416273 -8.102437 1.397009 42 19
4.0442376 -8.033186 1.3811566 21 19
5.0406308 -10.166512 1.7337645 16 19
3.9405801 -8.0724344 1.3795269 16 19
5.015759 -10.436171 1.7684327 23 19
5.0019679 -10.573128 1.7860631 25 19
4.9841781 -10.704926 1.8028046 31 19
3.8875496 -8.4858742 1.4321218 276 19
3.8244331 -8.4852257 1.4281216 402 19
3.7706928 -8.5049162 1.4275289 421 19
3.7156689 -8.5215473 1.4264919 421 19
3.6598034 -8.536006 1.4251584 436 19
3.6119695 -8.5692358 1.4269363 381 19
3.5888555 -8.6624994 1.4384923 311 19
3.581145 -8.7960987 1.4565672 303 19
3.8276386 -9.5689831 1.5777577 336 19
3.7579997 -9.5646763 1.5733131 472 19
3.6974607 -9.582942 1.5725724 475 19
3.6417453 -9.6137724 1.5739057 353 19
3.627161 -9.7555103 1.5930176 234 19
4.2711263 -11.706238 1.9005866 482 19
4.1875501 -11.699636 1.8954012 623 19
4.1124072 -11.715779 1.8939197 711 19
4.034327 -11.723025 1.8911047 708 19
3.956629 -11.730692 1.888438 725 19
3.8802307 -11.741602 1.8863639 776 19
3.7998874 -11.739786 1.8823637 728 19
3.7212071 -11.742141 1.8791043 764 19
3.6414688 -11.740194 1.8752522 847 19
3.561033 -11.734874 1.8709557 757 19
3.4861476 -11.747023 1.8694742 776 19
3.4090421 -11.751096 1.8668073 776 19
3.3312089 -11.751812 1.8636961 723 19
3.2548151 -11.756781 1.8613256 740 19
3.1771953 -11.756482 1.8582144 706 19
3.0991976 -11.753762 1.8548069 617 19
3.0257878 -11.767768 1.8540661 674 19
2.9516013 -11.778439 1.8528808 661 19
2.8750517 -11.779034 1.8502141 765 19
2.7992923 -11.782021 1.8479917 730 19
2.7242732 -11.787413 1.8462139 727 19
2.6484256 -11.788468 1.8438435 780 19
2.5747774 -11.798699 1.8429545 806 19
2.4959781 -11.784285 1.8383617 520 19
1.8688006 -9.0995541 1.4254547 267 19
1.8123522 -9.1079397 1.4250103 266 19
1.759802 -9.1363678 1.427677 260 19
1.7037091 -9.1469936 1.427677 206 19
1.6457998 -9.147542 1.4261955 217 19
1.5884557 -9.1506481 1.4251584 241 19
1.5317886 -9.1572962 1.424714 219 19
1.4754143 -9.1655464 1.4245658 219 19
1.4173322 -9.1626987 1.4227879 234 19
1.3600671 -9.1643753 1.4217509 270 19
1.3018597 -9.1588402 1.4196767 113 19
1.0434399 -7.6800857 1.1949261 114 19
1.0068598 -7.767745 1.2072229 686 19
0.96063387 -7.7855549 1.2090008 968 19
0.91319019 -7.7942491 1.2094452 978 19
0.86502075 -7.7967567 1.2090008 1035 19
0.81716448 -7.801918 1.2090008 518 19
1.1690592 -11.857682 1.8188053 62 19
1.0940937 -11.840998 1.8152496 495 19
1.0225236 -11.860297 1.8171756 923 19
0.94878298 -11.854519 1.8153977 968 19
0.87566245 -11.855186 1.814657 941 19
0.80277014 -11.858362 1.8143606 948 19
0.73029768 -11.868 1.8151014 996 19
0.65773714 -11.877194 1.8158422 912 19
0.58494508 -11.882982 1.8161385 963 19
0.51176554 -11.88042 1.8152496 921 19
0.43867603 -11.878395 1.8145088 946 19
0.36587489 -11.883828 1.8149533 883 19
0.29317039 -11.894748 1.8162867 763 19
0.2200329 -11.888412 1.8151014 711 19
0.14709516 -11.890528 1.8152496 526 19
0.073983192 -11.867472 1.8116939 377 19
0.00033986167 -7.66856 1.1826293 473 19
-0.046678301 -7.6624842 1.1817404 297 19
-0.093669653 -7.6600757 1.181444 339 19
-0.14054316 -7.6524348 1.1804069 399 19
-0.1874709 -7.6504397 1.1802589 158 19
-0.23374645 -7.6273985 1.1769994 257 19
-0.27920324 -7.5892534 1.1715177 186 19
-0.32508844 -7.5715885 1.1691473 135 19
-0.37207237 -7.580317 1.170777 114 19
-0.41591209 -7.5295053 1.1635174 166 19
-0.45599899 -7.4271131 1.1485537 249 19
-0.50408953 -7.4616709 1.1541836 176 19
-0.55102491 -7.4742179 1.1565541 158 19
-0.59829044 -7.4884415 1.1592208 335 19
-0.64261895 -7.4659081 1.1564059 152 19
-0.68687487 -7.4450827 1.1538873 140 19
-0.73254412 -7.4407282 1.1538873 232 19
-0.77325237 -7.3888803 1.1467758 303 19
-0.81988084 -7.395792 1.1485537 474 19
-0.86455607 -7.3847284 1.1476648 636 19
-0.9120273 -7.3969522 1.1503316 828 19
-0.95815825 -7.3971019 1.1512206 1017 19
-1.0051229 -7.4028435 1.1529983 1085 19
-1.0523328 -7.4092655 1.1549244 1218 19
-1.0986449 -7.4085388 1.1558133 1260 19
-1.1452895 -7.4094772 1.1569985 1304 19
-1.1921439 -7.4110985 1.158332 1269 19
-1.2400386 -7.4182758 1.1605543 1241 19
-1.2875595 -7.4222207 1.1623321 1297 19
-1.3341264 -7.4200211 1.163221 1304 19
-1.3810762 -7.4194736 1.1644063 1194 19
-1.4293772 -7.4254274 1.1666286 1286 19
-1.4764538 -7.4242768 1.1678138 1225 19
-0 -0 0 1234 19
-1.5733844 -7.4336591 1.1721103 1305 19
-1.6221254 -7.4383593 1.1743326 1304 19
-1.6705501 -7.4408107 1.1762587 1217 19
-1.7179539 -7.4381294 1.1774439 1275 19
-1.7688124 -7.4495797 1.1808515 1129 19
-1.8182365 -7.4539595 1.1832219 877 19
-0 -0 0 540 19
-3.0925486 -12.03754 1.8956976 400 19
-3.1784408 -12.064243 1.902809 706 19
-3.2565296 -12.059791 1.9051795 693 19
-3.329675 -12.036722 1.904735 467 19
-3.4088566 -12.035096 1.907698 156 19
-2.1655219 -7.468751 1.1987782 127 19
-2.212714 -7.4600639 1.1995189 112 19
-2.2624629 -7.4595966 1.201593 77 19
-2.3114111 -7.4559655 1.2032228 92 19
-2.3624892 -7.4586139 1.2058896 79 19
-2.3437054 -7.2444863 1.1744808 653 19
-2.3747811 -7.1895876 1.1681101 1358 19
-2.4235878 -7.1889386 1.1703324 968 19
-2.4744048 -7.1935725 1.1734437 899 19
-2.5342062 -7.2230501 1.1805551 742 19
-2.5388525 -7.0965495 1.1629248 897 19
-2.5511882 -6.9953551 1.1492945 1014 19
-2.5857975 -6.9573202 1.1457388 1516 19
-2.6312387 -6.9487224 1.146924 1501 19
-2.676316 -6.9389062 1.1479611 1463 19
-2.7213717 -6.9287977 1.1489981 1496 19
-2.7627337 -6.9092145 1.1485537 1480 19
-2.7860696 -6.8454137 1.1409979 1442 19
-2.8314245 -6.8364134 1.1423312 1476 19
-2.9159293 -6.9200792 1.1587764 1528 19
-2.9735243 -6.93751 1.1645545 1605 19
-3.0219617 -6.9327335 1.1667768 1535 19
-3.0744581 -6.9366655 1.1704806 134 19
-3.8142917 -8.4659309 1.4248621 406 19
-3.8147087 -8.3299656 1.4063427 725 19
-3.8332095 -8.2364626 1.3947867 387 19
-3.3938112 -7.1765294 1.2230755 77 19
-3.9023128 -8.1228323 1.3838233 580 19
-3.9442751 -8.082736 1.3811566 573 19
-3.9599891 -7.9901481 1.3697486 563 19
-3.8427072 -7.6352878 1.3143388 599 19
-3.9560676 -7.7419105 1.3362657 493 19
-4.0467486 -7.8008947 1.3503404 606 19
-3.8674312 -7.3444815 1.2773001 796 19
-3.8709471 -7.2429805 1.2641144 737 19
-3.8714793 -7.1382375 1.2503359 746 19
-3.8894644 -7.0675578 1.2423356 803 19
-3.911067 -7.0046992 1.2356687 644 19
-3.9515369 -6.9762669 1.2349279 949 19
-3.3731487 -5.8704877 1.0481049 178 19
-3.368783 -5.7804627 1.0361043 83 19
-3.3996603 -5.7520204 1.034771 81 19
-3.4338737 -5.7293553 1.0344746 96 19
-3.4653695 -5.702261 1.0334376 82 19
-3.4956248 -5.6733122 1.0321041 90 19
-3.5345602 -5.6584673 1.0332894 94 19
-3.579263 -5.6525502 1.0361043 88 19
-3.6208215 -5.6413026 1.0380304 77 19
-3.6639941 -5.6322446 1.0404009 87 19
-3.8998458 -5.9151869 1.0952181 772 19
-3.9162931 -5.8615398 1.0898845 871 19
-3.9272411 -5.8005438 1.0832175 635 19
-3.9616401 -5.7747064 1.0829213 687 19
-4.0127993 -5.7730298 1.0870695 572 19
-4.0299292 -5.7224216 1.0823286 454 19
-4.0546288 -5.6830935 1.0796618 474 19
-4.0795774 -5.6444802 1.0771432 463 19
-3.9593523 -5.4078569 1.0378822 755 19
-3.9777355 -5.3635993 1.0341784 780 19
-3.9986944 -5.3232751 1.0312153 927 19
-4.0516372 -5.3254032 1.0362525 808 19
-4.0969105 -5.3168955 1.0393637 794 19
-4.1525722 -5.3212886 1.0449936 822 19
-4.2108932 -5.3283014 1.0512161 909 19
-4.2910795 -5.3618259 1.0626241 826 19
-4.3263884 -5.3384695 1.0632167 99 19
-5.3626504 -6.5351872 1.3002641 122 19
-5.4266615 -6.5310678 1.3058939 144 19
-5.4615407 -6.4915924 1.3047087 90 19
-5.291594 -6.2117515 1.2562622 50 19
-5.2630897 -6.1020212 1.2410022 271 19
-5.2340913 -5.9936223 1.2258904 20 19
-5.2412958 -5.9280491 1.2192235 15 19
-5.2518506 -5.8670359 1.2134454 22 19
-5.2605271 -5.8046513 1.2073711 14 19
-5.2505875 -5.7227044 1.1972966 7 19
-5.2755079 -5.6795092 1.1950743 25 19
-5.2743564 -5.6088428 1.1872221 26 19
-5.2657194 -5.5312419 1.1778884 8 19
-5.2878947 -5.486721 1.1753697 15 19
-5.2821007 -5.4138174 1.166925 9 19
-5.3020172 -5.3679347 1.1641099 18 19
-5.3124814 -5.3129187 1.159369 22 19
-5.3126225 -5.2482457 1.1525539 6 19
-5.3383555 -5.209332 1.1512206 17 19
-5.3588285 -5.1654954 1.1488501 16 19
-5.3080683 -5.0540786 1.1318122 670 19
-5.3332176 -5.0159926 1.130627 292 19
-5.3349171 -4.9562449 1.1247008 267 19
-5.3244286 -4.8859658 1.1164042 356 19
-5.3337941 -4.8346033 1.1122558 287 19
-5.3294697 -4.7714348 1.1054407 15 19
-5.3164244 -4.7012944 1.0969959 179 19
-2.7132347 -2.3690343 0.57341743 41 19
-2.7045093 -2.3323121 0.56882465 91 19
-2.7082317 -2.3066926 0.56675047 183 19
-2.7147684 -2.283663 0.56526893 180 19
-2.7043939 -2.2467315 0.56052798 132 19
-2.7250078 -2.2357433 0.5618614 288 19
-2.7210064 -2.2046554 0.5584538 128 19
-2.7190425 -2.1755559 0.55549073 116 19
-2.7144976 -2.1447237 0.55208319 114 19
-2.7151337 -2.1182899 0.54971272 106 19
-2.7147651 -2.0913258 0.54719406 147 19
-2.7204635 -2.0692382 0.54586071 233 19
-2.7149253 -2.0388415 0.54245311 107 19
-2.7202363 -2.0168409 0.54111975 102 19
-2.7293687 -1.9977744 0.54052711 130 19
-2.7367671 -1.9775127 0.53963816 106 19
-2.7456295 -1.9583848 0.53904557 129 19
-2.7592113 -1.9426403 0.53934187 102 19
-2.7816343 -1.9330138 0.54126787 84 19
-2.8162732 -1.9315798 0.54541624 62 19
-2.8403542 -1.9225826 0.54763854 66 19
-2.87183 -1.9183087 0.55119425 76 19
-2.9289513 -1.9306015 0.55934274 350 19
-2.9672658 -1.9298564 0.5640837 80 19
-3.0031841 -1.9271102 0.56838018 303 19
-3.0792799 -1.9493995 0.57978809 51 19
-3.1129882 -1.9440958 0.5836401 55 19
-3.1475885 -1.9389704 0.58764029 59 19
-3.1746371 -1.9288689 0.59030706 68 19
-3.2627473 -1.955127 0.60364097 13 19
-5.4232821 -3.2056065 0.97758329 18 19
-5.4488297 -3.1757565 0.97862035 8 19
-5.4459214 -3.1294479 0.97476834 5 19
-0 -0 0 4 19
-5.4606037 -3.0493593 0.97076815 9 19
-0 -0 0 6 19
-9.5412197 -5.1765056 1.6599835 11 19
-9.5239649 -5.0917478 1.6516869 56 19
-9.5865259 -5.0498104 1.6570204 25 19
-9.6261082 -4.9954495 1.658502 11 19
-5.5753055 -2.8494551 0.97180527 5 19
-0 -0 0 6 19
-8.4432564 -4.1860075 1.4456037 213 19
-8.4465656 -4.1232734 1.4418999 130 19
-8.608078 -4.1369276 1.4645675 33 19
-8.6306181 -4.0827622 1.4641231 17 19
-8.647438 -4.0259714 1.4627897 20 19
-8.62253 -3.9501753 1.4546412 301 19
-8.644803 -3.8963811 1.4543449 371 19
-8.7499113 -3.8793495 1.4676788 14 19
-5.5373979 -2.4140384 0.93876678 212 19
-5.5521059 -2.3800161 0.93876678 374 19
-8.6366701 -3.640403 1.4378997 51 19
-8.6561041 -3.586205 1.4374553 44 19
-6.3506041 -2.5851638 1.0609944 68 19
-6.2864642 -2.5141847 1.0481049 528 19
-6.2916479 -2.471585 1.0464752 551 19
-6.2900877 -2.4265239 1.0438085 436 19
-6.3048582 -2.3878829 1.0438085 389 19
-5.5620918 -2.0674868 0.92276609 274 19
-6.4776855 -2.3628874 1.0667723 161 19
-8.5525599 -3.0608108 1.3946385 876 19
-8.566514 -3.0066376 1.3938978 905 19
-8.5595531 -2.9453263 1.3898976 970 19
-8.5559111 -2.8854787 1.3864901 965 19
-8.5499802 -2.8251662 1.3827862 975 19
-8.5191698 -2.7571149 1.3752303 956 19
-8.4322271 -2.671916 1.3589333 972 19
-8.3662872 -2.5946295 1.3460438 725 19
-8.3896208 -2.5455444 1.3472291 848 19
-8.382328 -2.4872637 1.3436733 750 19
-8.4335241 -2.4462578 1.3493032 1118 19
-8.4008026 -2.3809748 1.3418956 941 19
-8.4238319 -2.3317592 1.3432289 1231 19
-8.4274788 -2.2771885 1.3415992 1134 19
-6.265811 -1.6515878 1.0045475 328 19
-8.5601454 -2.2006993 1.3578962 482 19
-8.5945911 -2.1534247 1.3611556 964 19
-8.6057215 -2.1001794 1.3608593 995 19
-8.6078625 -2.0448205 1.3592296 739 19
-8.6019392 -1.9877323 1.3564147 357 19
-8.6130095 -1.9346975 1.3562665 978 19
-8.6208534 -1.8809688 1.3556739 1007 19
-8.6322327 -1.8280368 1.3556739 1010 19
-8.6268187 -1.7716517 1.3531553 742 19
-8.7442179 -1.7399293 1.3694522 989 19
-6.3512807 -1.2229903 1.0027696 71 19
-6.3469987 -1.1818221 1.0009917 51 19
-6.3395309 -1.1402267 0.9987694 81 19
-6.3317924 -1.0987676 0.9965471 53 19
-6.3237844 -1.0574465 0.99432474 70 19
-6.323319 -1.0175235 0.99328768 49 19
-6.3235793 -0.97779739 0.99239874 48 19
-6.3265252 -0.93854231 0.99195427 57 19
-6.3370605 -0.90040231 0.99269503 61 19
-6.4296808 -0.87336451 1.0058808 112 19
-8.7916384 -1.1397324 1.3618964 48 19
-8.769021 -1.0821289 1.3574518 226 19
-8.7627268 -1.0268048 1.3555257 728 19
-8.7403574 -0.96985167 1.3512293 128 19
-8.6104107 -0.90196669 1.330784 1103 19
-8.8027782 -0.86757165 1.3589333 151 19
-8.8069515 -0.81345141 1.3587852 184 19
-8.8235998 -0.76041824 1.360563 159 19
-8.8359861 -0.70689529 1.3617482 216 19
-8.8318014 0.21545829 1.2457498 251 20
-8.8303127 0.26964515 1.2457498 272 20
-8.8383932 0.32418543 1.2471087 209 20
-8.82337 0.37785906 1.2453421 258 20
-8.6823502 0.42520049 1.2263178 359 20
-8.8497238 0.48785335 1.2496905 667 20
-8.8050308 0.53959799 1.2439833 284 20
-8.6770067 0.58520895 1.2268614 1024 20
-8.7266073 0.64236885 1.2341993 230 20
-8.730402 0.69653291 1.2352864 184 20
-8.715106 0.74915475 1.2337916 244 20
-8.7290888 0.80434352 1.2363735 258 20
-8.7170877 0.85721004 1.2354223 307 20
-8.717576 0.91129929 1.2362376 318 20
-8.7187128 0.96553582 1.2371888 358 20
-8.7145929 1.0192449 1.2374606 422 20
-8.7062082 1.0724552 1.2371888 463 20
-8.7132187 1.127636 1.2390913 623 20
-8.7375517 1.1853412 1.2434397 725 20
-8.713439 1.2365644 1.2411296 975 20
-8.729207 1.2934921 1.244391 915 20
-8.7592916 1.3529288 1.2496905 823 20
-8.7958202 1.413884 1.2559414 854 20
-8.8534279 1.4789305 1.2651819 814 20
-8.9008036 1.5430439 1.2730634 821 20
-8.9126205 1.6014848 1.276053 856 20
-8.9211321 1.6595849 1.2786348 832 20
-8.9263468 1.717288 1.280809 772 20
-8.9321613 1.7753108 1.2831191 622 20
-6.5783005 1.3493761 0.95508432 112 20
-6.5350037 1.3823314 0.95019233 96 20
-6.4973588 1.4160725 0.94611567 89 20
-6.4682474 1.4513566 0.94326204 104 20
-6.4505324 1.4890118 0.94203901 85 20
-6.4325991 1.5265042 0.94081604 106 20
-6.4192615 1.5650063 0.94027245 92 20
-6.4095383 1.6043646 0.94027245 102 20
-6.4120474 1.6468673 0.94203901 79 20
-6.481339 1.7071288 0.95331776 161 20
-8.9833832 2.4253426 1.3102968 93 20
-8.9769258 2.482795 1.3115199 112 20
-8.9729614 2.5410695 1.3131505 127 20
-8.9438791 2.5922172 1.3112481 839 20
-8.7938776 2.607332 1.2920878 1075 20
-8.8279629 2.6764781 1.2992898 954 20
-8.8407097 2.7396874 1.3035024 1119 20
-8.844512 2.8004618 1.306492 1094 20
-8.8497858 2.8619952 1.3097533 1115 20
-8.8442879 2.9202814 1.3115199 1202 20
-8.8440409 2.9805062 1.3141017 1211 20
-8.8415127 3.0401933 1.3164119 1246 20
-8.8460636 3.1025848 1.3198091 1247 20
-8.854846 3.1668148 1.3238857 1317 20
-8.8557253 3.228554 1.3268752 1296 20
-8.8598938 3.2918031 1.3304083 1248 20
-8.8645458 3.3555753 1.3340774 1202 20
-8.8798409 3.4238057 1.3393769 1032 20
-8.8697309 3.4825726 1.3410076 1080 20
-8.8693542 3.5453894 1.344133 1096 20
-8.9217634 3.6299901 1.3551401 1046 20
-8.9395981 3.7013423 1.3611192 1144 20
-8.9276743 3.7607405 1.3627498 1150 20
-8.929018 3.8259854 1.3664187 991 20
-8.9162731 3.8854506 1.3680494 997 20
-8.9004164 3.9436991 1.3692725 955 20
-8.8932133 4.0059686 1.3718543 923 20
-8.8801756 4.0658231 1.3736209 1017 20
-8.868535 4.1265039 1.3756592 1041 20
-8.8564825 4.1871948 1.3776975 1079 20
-8.8538427 4.2526121 1.3812306 997 20
-8.8418283 4.3138094 1.3834049 1065 20
-8.8329477 4.3767786 1.3861226 1107 20
-8.8245106 4.4402466 1.3889762 1056 20
-8.8173904 4.5046768 1.3921016 1046 20
-8.8071737 4.5678177 1.3948195 988 20
-8.8044033 4.6351566 1.3987602 919 20
-8.7923985 4.6979642 1.4013422 875 20
-8.7773409 4.7593813 1.4035163 854 20
-8.7705412 4.8255663 1.4070494 830 20
-8.7563381 4.8879833 1.4094955 926 20
-8.7434225 4.9513841 1.4122132 936 20
-8.730917 5.0153031 1.4150668 935 20
-8.7119627 5.0757632 1.4169693 987 20
-8.8768301 5.2450476 1.4482236 687 20
-8.9524078 5.3640895 1.4654815 800 20
-8.9413404 5.4322953 1.4690145 774 20
-8.9238663 5.4969287 1.4715965 863 20
-8.9168606 5.5683746 1.4759449 829 20
-8.9051266 5.6372914 1.4796139 865 20
-8.9003859 5.7110887 1.4845059 462 20
-6.7664814 4.400568 1.1411157 15 20
-6.7360439 4.4398222 1.1405721 17 20
-6.7086749 4.4810705 1.1405721 18 20
-6.6925392 4.5299249 1.1424745 14 20
-6.6507292 4.5613775 1.1401645 30 20
-8.8427877 6.1450696 1.5110041 324 20
-8.8470392 6.2288718 1.5180703 553 20
-8.8312359 6.2991486 1.5218753 714 20
-8.8108883 6.3665638 1.5250007 725 20
-8.814827 6.452107 1.5323386 539 20
-8.7949667 6.5208244 1.5357358 329 20
-8.7880621 6.5996547 1.5414431 668 20
-8.7576532 6.6612506 1.5432097 661 20
-8.7597809 6.748116 1.5506836 298 20
-8.7221155 6.8047853 1.551363 510 20
-8.6965227 6.8710737 1.5542166 738 20
-8.6789522 6.9441123 1.5585651 306 20
-8.5915356 6.9610596 1.5506836 657 20
-8.616827 7.0695748 1.5627776 240 20
-8.5892897 7.1356091 1.5656313 582 20
-8.5347309 7.1792488 1.5637288 500 20
-8.4218855 7.1730218 1.551363 482 20
-8.3319492 7.1850934 1.5430738 612 20
-8.3041229 7.2504177 1.5460633 716 20
-8.2104902 7.257926 1.5370947 471 20
-8.1126499 7.2605953 1.5273107 440 20
-7.9915953 7.2410507 1.5131783 455 20
-7.8791194 7.227664 1.5005407 334 20
-7.7554965 7.2023845 1.4857289 467 20
-7.6418662 7.1846857 1.4726835 384 20
-7.5495586 7.1856742 1.4635791 450 20
-7.4311328 7.160367 1.4494467 499 20
-7.3374157 7.1574011 1.4399345 448 20
-7.2362633 7.1458993 1.4289274 541 20
-7.1131101 7.111012 1.4135721 526 20
-7.027565 7.1122379 1.4054188 479 20
-6.9249749 7.0949583 1.3938682 479 20
-6.8297396 7.0838218 1.3836766 492 20
-6.5804958 6.9096413 1.3427742 545 20
-6.5128589 6.9231877 1.3377463 536 20
-6.4190049 6.9078598 1.3274188 498 20
-6.323576 6.8894534 1.3166835 548 20
-6.2432556 6.8862863 1.3089379 538 20
-6.1539612 6.8720613 1.2992898 531 20
-6.0768924 6.8703594 1.2920878 528 20
-5.2329249 5.9897785 1.1249449 284 20
-5.2174315 6.0465279 1.1294292 109 20
-5.1776624 6.0754113 1.1288857 79 20
-4.8162122 5.7220025 1.0598544 26 20
-4.9684625 5.9769692 1.1000774 34 20
-4.9662676 6.0494599 1.1075512 40 20
-5.612206 6.9225459 1.2563491 57 20
-2.7586935 3.4454899 0.63941538 67 20
-2.7504025 3.4786735 0.64226902 96 20
-2.7454655 3.5165701 0.64593804 91 20
-2.7407711 3.5553212 0.6497429 109 20
-2.7351038 3.5933578 0.65341187 120 20
-2.7320483 3.6354184 0.65776032 140 20
-2.7244468 3.6720057 0.66115755 169 20
-2.7223523 3.716629 0.66591364 188 20
-2.7134271 3.752532 0.66917497 187 20
-2.7185512 3.8086255 0.67583346 162 20
-2.7105358 3.8471029 0.67950249 169 20
-2.7078056 3.8937585 0.68453032 173 20
-2.7051647 3.9413414 0.68969411 203 20
-2.7009301 3.9873967 0.6945861 225 20
-2.6956806 4.0327239 0.69934219 249 20
-2.6981578 4.0905414 0.70613658 178 20
-2.6865168 4.1277795 0.70953381 195 20
-2.6884365 4.1867042 0.71646416 202 20
-2.681251 4.2324147 0.72122025 206 20
-2.6625807 4.26055 0.72312266 210 20
-2.0552344 3.333884 0.57119936 123 20
-2.0316517 3.3413525 0.57038403 165 20
-2.0080547 3.3486574 0.56956869 35 20
-0 0 0 5 20
-0 0 0 5 20
-1.8853517 3.2794008 0.55285442 80 20
-1.8564025 3.2753921 0.55040842 144 20
-1.8324052 3.2798016 0.54932129 152 20
-1.8089015 3.2849081 0.54837006 110 20
-0 0 0 7 20
-0 0 0 9 20
-0 0 0 7 20
-0 0 0 5 20
-0 0 0 7 20
-0 0 0 8 20
-0 0 0 7 20
-0 0 0 5 20
-0 0 0 14 20
-0 0 0 5 20
-0 0 0 19 20
-0 0 0 29 20
-0 0 0 10 20
-0 0 0 5 20
-0 0 0 7 20
-1.1721115 2.7325258 0.4418335 12 20
-1.1591715 2.7487955 0.44319239 10 20
-0 0 0 26 20
-0 0 0 44 20
-0 0 0 77 20
-0 0 0 73 20
-0 0 0 69 20
-0 0 0 92 20
-0 0 0 80 20
-0 0 0 85 20
-0 0 0 81 20
-0 0 0 92 20
-0 0 0 95 20
-0 0 0 105 20
-0 0 0 100 20
-0 0 0 105 20
-0.82380623 2.5981474 0.40786138 108 20
-0.80432671 2.5917983 0.40623072 95 20
-0 0 0 84 20
-0 0 0 83 20
-0 0 0 87 20
-0.7420997 2.6164758 0.40704605 89 20
-0.72576702 2.6200252 0.40691015 61 20
-0 0 0 8 20
-0.70063359 2.6555576 0.41071504 6 20
-0 0 0 6 20
-0 0 0 6 20
-0 0 0 6 20
-0 0 0 7 20
-0.607467 2.6265707 0.40378472 22 20
-0.58265227 2.5915835 0.3983492 126 20
-0.56631714 2.5931737 0.3980774 137 20
-0.54936862 2.5917537 0.39739797 125 20
-0.53206015 2.5882826 0.39644673 118 20
-0.51500839 2.5856686 0.3956314 127 20
-0.4985711 2.5858614 0.39522374 111 20
-0.48269516 2.588872 0.39522374 129 20
-0.46627465 2.5888598 0.39481607 130 20
-0.45004195 2.5897198 0.3945443 120 20
-0.43365279 2.5895009 0.39413664 43 20
-0.41948816 2.6028724 0.3956314 16 20
-0 0 0 8 20
-0.38678795 2.6029243 0.39495197 45 20
-0.37206456 2.6140764 0.39617497 12 20
-0.35708541 2.6241636 0.39726207 10 20
-0.34110454 2.6272879 0.39739797 16 20
-0.32570568 2.6352308 0.3982133 5 20
-0.31010678 2.6420996 0.39889273 15 20
-0 0 0 5 20
-0.27580208 2.6279702 0.39644673 24 20
-0.25850537 2.6177819 0.39481607 33 20
-0.24152647 2.6094534 0.3934572 54 20
-0.2253404 2.6089122 0.39318541 50 20
-0.20932817 2.6102457 0.39318541 55 20
-0.19323507 2.6104929 0.39304954 45 20
-0.1770799 2.6096525 0.39277777 31 20
-0.16155091 2.6186008 0.39386487 94 20
-0.14602835 2.6294348 0.39522374 74 20
-0.12940449 2.6203861 0.39386487 65 20
-0.11332367 2.6211309 0.39386487 49 20
-0.096945986 2.6138566 0.39277777 61 20
-0.080722854 2.6084607 0.39196244 61 20
-0.064520746 2.6009834 0.39087531 56 20
-0.048523508 2.5993493 0.39060354 57 20
-0.032585554 2.6005886 0.39073944 73 20
-0.016578533 2.592814 0.38965231 59 20
-0.00066901289 2.5928669 0.38965231 61 20
0.015276358 2.5987663 0.39046764 74 20
0.031209752 2.5976331 0.39033177 72 20
0.047129814 2.5964022 0.39019588 50 20
0.063302204 2.6059685 0.39155477 58 20
0.079321221 2.6065211 0.39169064 63 20
0.096185625 2.6297467 0.39495197 47 20
0.12322466 2.8834896 0.42987531 10 20
0 0 0 29 20
0 0 0 92 20
0 0 0 141 20
0 0 0 88 20
0.1898576 2.5829265 0.38924465 79 20
0.20586024 2.583688 0.38951644 53 20
0.22145489 2.5794151 0.38910878 70 20
0.23627728 2.5671558 0.38761398 114 20
0.25192761 2.5646718 0.38747811 104 20
0.26827767 2.5689898 0.38829345 90 20
0.28403565 2.5672953 0.38829345 112 20
0.30047372 2.5714083 0.38910878 75 20
0.31818461 2.5852487 0.39128298 63 20
0.33315104 2.57637 0.39033177 83 20
0.35161757 2.5939119 0.39304954 62 20
0.36919785 2.6034763 0.3946802 66 20
0.39184761 2.6462426 0.40093106 45 20
0.40535435 2.6261644 0.39848506 103 20
0.42429158 2.6412349 0.40093106 27 20
0 0 0 7 20
0.46310389 2.6729231 0.40609482 23 20
0.45268175 2.5208411 0.38530388 25 20
0.4645161 2.4985359 0.38258612 46 20
0 0 0 17 20
0 0 0 43 20
0 0 0 22 20
0 0 0 12 20
0 0 0 56 20
0.54379857 2.4246447 0.37484047 174 20
0.55799699 2.4183664 0.3744328 92 20
0.57351178 2.417789 0.37484047 122 20
0.58833623 2.4142244 0.37484047 119 20
0.60337919 2.41153 0.37497637 127 20
0.61964381 2.4135399 0.3757917 70 20
0.63216972 2.4010699 0.3745687 86 20
0.64973152 2.4076669 0.37606347 105 20
0.66634136 2.4103191 0.3770147 154 20
0.68138826 2.4071383 0.37715057 141 20
0.70276535 2.4257493 0.38041189 44 20
0.72721285 2.4536862 0.38503212 9 20
0.74052978 2.4434893 0.38421679 19 20
0.75433558 2.4351144 0.38367322 29 20
0.77494591 2.4483852 0.38625512 15 20
0.81007719 2.5057986 0.39522374 9 20
1.0534686 3.1912947 0.49496591 72 20
1.0116416 3.0026376 0.46860352 13 20
1.048089 3.0488386 0.47621328 12 20
1.0789101 3.0769405 0.48124117 17 20
0.9512915 2.6607428 0.42158613 10 20
1.1532408 3.1639934 0.49591711 89 20
1.1719428 3.1550004 0.49564534 177 20
1.1923318 3.1505296 0.49605301 159 20
1.2144923 3.1505494 0.49714011 190 20
1.2381463 3.1541042 0.49877077 190 20
0 0 0 195 20
1.277879 3.1414258 0.49917844 188 20
1.2971305 3.1335256 0.49917844 214 20
1.3194101 3.1328118 0.50026554 181 20
1.340559 3.1292102 0.50094497 167 20
1.3621092 3.126375 0.5017603 180 20
0 0 0 181 20
0 0 0 168 20
0 0 0 191 20
1.4534715 3.124342 0.5066523 187 20
1.4730383 3.1162605 0.50678819 187 20
1.4951345 3.1134145 0.50773942 218 20
1.5181199 3.1121955 0.50896239 180 20
0 0 0 191 20
0 0 0 199 20
0 0 0 184 20
0 0 0 192 20
1.6336416 3.1036117 0.51507741 209 20
1.6573236 3.1022675 0.51643628 193 20
1.6829394 3.1042325 0.51833874 150 20
1.7052983 3.0999238 0.51928991 160 20
0 0 0 178 20
0 0 0 165 20
0 0 0 173 20
0 0 0 190 20
1.8237782 3.0870962 0.52581257 185 20
1.8462507 3.0817964 0.5267638 186 20
1.8697554 3.0780303 0.52798682 166 20
1.8953619 3.0774655 0.52975333 167 20
1.9194572 3.0741808 0.53111225 175 20
0 0 0 205 20
0 0 0 165 20
1.9908425 3.0615833 0.53491712 176 20
2.016679 3.0600636 0.53668368 187 20
2.0436721 3.059989 0.53872198 160 20
2.0685184 3.0564163 0.54021674 157 20
2.0950789 3.0551047 0.5421192 204 20
2.1228316 3.0552087 0.5442934 177 20
2.148953 3.0526567 0.54605997 196 20
2.1733966 3.0474789 0.54741883 167 20
2.1949561 3.0381007 0.54809833 156 20
2.2176526 3.0301716 0.5490495 158 20
2.245055 3.0284448 0.55108786 175 20
2.276089 3.0312481 0.55394149 169 20
2.3000438 3.024322 0.55516452 174 20
2.3258131 3.0195701 0.55679518 143 20
2.3564856 3.0208642 0.55951291 180 20
2.3823476 3.0156765 0.56114358 154 20
2.4094725 3.0118318 0.56304604 166 20
2.4378867 3.0093069 0.56522024 185 20
2.4669888 3.0073121 0.56753033 190 20
2.4917259 2.9997387 0.56888926 138 20
2.4884007 2.9586165 0.56426901 16 20
2.4904473 2.924437 0.56087184 21 20
0 0 0 0 20
0 0 0 0 20
0 0 0 0 20
0 0 0 0 20
0 0 0 0 20
0 0 0 0 20
0 0 0 0 20
0 0 0 0 20
0 0 0 0 20
0 0 0 0 20
0 0 0 0 20
0 0 0 0 20
0 0 0 0 20
0 0 0 0 20
0 0 0 0 20
0 0 0 0 20
3.1013925 2.9539495 0.62147808 176 20
3.1324484 2.9470825 0.62392408 198 20
3.1642625 2.9406197 0.62650597 218 20
3.1983042 2.9358866 0.6294955 171 20
3.2492886 2.9461503 0.63561046 198 20
3.2798519 2.9373927 0.63792062 219 20
3.2659025 2.8889894 0.6320774 77 20
3.2596915 2.8480389 0.62772894 30 20
3.294358 2.8428695 0.63085437 53 20
3.3305912 2.8386669 0.63425159 40 20
3.3835723 2.8481605 0.64063835 81 20
3.3918419 2.8197463 0.63900769 104 20
3.4305212 2.8164818 0.64281255 76 20
3.4739051 2.8165915 0.6474328 33 20
3.5004032 2.8026528 0.64906347 46 20
3.5229745 2.7854228 0.65001464 34 20
3.6922879 2.8826277 0.6765129 86 20
3.747571 2.8889487 0.68303555 138 20
3.7888784 2.883899 0.68711221 175 20
3.8191752 2.8701189 0.68928641 157 20
3.8581979 2.8625677 0.69295543 189 20
3.9028656 2.858743 0.69757563 164 20
3.9548569 2.8597009 0.70341885 178 20
3.9989412 2.8543725 0.70790315 164 20
4.0512075 2.8543158 0.71374637 163 20
4.0987415 2.8503306 0.71877426 145 20
4.1439276 2.844187 0.72339445 193 20
4.1891913 2.8375955 0.72801465 237 20
4.2386479 2.8333073 0.73331434 244 20
4.2923436 2.8312457 0.7392934 209 20
4.3420205 2.8259289 0.74459302 226 20
4.3842888 2.8152912 0.74866968 228 20
4.4625788 2.8270359 0.75858957 309 20
4.4890833 2.8053756 0.76008433 260 20
4.5374179 2.7970114 0.76511222 332 20
4.6323795 2.8164637 0.77761394 144 20
4.6546721 2.7910435 0.77842927 212 20
4.7083817 2.7841113 0.78427249 237 20
4.760468 2.7756262 0.78984392 278 20
4.8134851 2.7670996 0.79555124 326 20
4.841579 2.7438619 0.7973178 399 20
4.8479443 2.7083056 0.79568714 402 20
4.8505845 2.6708632 0.79351288 369 20
4.8538194 2.6339633 0.79147458 340 20
4.8506684 2.5938547 0.78848505 337 20
4.8542213 2.5575781 0.78658259 281 20
4.8548737 2.5199869 0.78427249 350 20
4.8561306 2.4829352 0.78209829 301 20
4.8686194 2.451755 0.7816906 317 20
4.8507299 2.4055519 0.77666271 227 20
4.9410734 2.412688 0.78821325 337 20
