# .PCD v0.7 - Point Cloud Data file format
VERSION 0.7
FIELDS x y z intensity ring
SIZE 4 4 4 4 1
TYPE F F F F U
COUNT 1 1 1 1 1
WIDTH 480
HEIGHT 1
VIEWPOINT 0 0 0 1 0 0 0
POINTS 480
DATA ascii
3.5631952 0.15329428 -1.2344519 65 60
3.5866501 0.13225828 -1.2425382 31 60
3.6956193 0.11356278 -1.2812853 6 60
3.5546768 0.13045876 -0.83627033 65 51
3.5796731 0.10939459 -0.84225059 118 51
3.5744529 0.087283947 -0.84081531 99 51
3.571038 0.065277621 -0.83985847 30 51
3.6024399 0.043752305 -0.84751326 27 51
3.5404997 0.02125383 -0.83220369 82 51
3.5386217 -0.00047104983 -0.8317253 97 51
3.5395231 -0.022189382 -0.83196449 102 51
3.5354366 -0.043860171 -0.83100766 94 51
3.5312178 -0.065481648 -0.83005083 100 51
3.529779 -0.087123923 -0.82981157 84 51
3.5934103 0.13313209 -0.89102358 119 52
3.6115763 0.11161724 -0.89553648 51 52
3.5570307 0.088094741 -0.88124555 3 52
3.5565362 0.066249624 -0.88099486 7 52
3.5471959 0.044306032 -0.87848765 8 52
3.547401 0.022540012 -0.87848765 29 52
3.5406961 0.00077240507 -0.87673265 106 52
3.5386982 -0.020941244 -0.87623119 116 52
3.534631 -0.042606797 -0.87522835 88 52
3.5139773 -0.063922107 -0.86996329 24 52
3.5144866 -0.08550591 -0.87021399 50 52
3.523572 -0.10736468 -0.87272114 67 52
3.5671432 0.15346405 -0.92827284 100 53
3.5631955 0.13139418 -0.92696357 116 53
3.5591114 0.10937854 -0.92565435 108 53
3.5433137 0.087129459 -0.92120284 42 53
3.5296407 0.043457966 -0.91727507 27 53
3.5501077 0.021931555 -0.92277396 103 53
3.5356989 0.00014272101 -0.91884619 86 53
3.5346682 -0.021546358 -0.91858429 12 53
3.5354345 -0.043245755 -0.91884619 11 53
3.5433209 -0.086837657 -0.92120284 5 53
3.4858062 -0.10685188 -0.90575355 76 53
3.4841204 -0.1282032 -0.90549171 80 53
3.5845754 0.13280572 -0.97707051 49 54
3.5718608 0.11039407 -0.9732492 6 54
3.5772796 0.088594034 -0.97461396 5 54
3.5508237 0.066143833 -0.96697134 62 54
3.541543 0.044236042 -0.9642418 90 54
3.5330899 0.022450637 -0.96178526 113 54
3.5216167 0.00077032379 -0.9585098 101 54
3.512897 -0.020785743 -0.95605326 67 54
3.4867306 -0.042024165 -0.94868356 15 54
3.4815977 -0.06332954 -0.94731879 11 54
3.4974933 -0.0850906 -0.95195895 35 54
3.4824815 -0.10610814 -0.94786465 73 54
3.4798422 -0.12740363 -0.94731879 101 54
3.4780338 -0.14871195 -0.9470458 63 54
3.5374558 0.065267645 -1.005834 7 55
3.5262835 0.04341552 -1.0024298 89 55
3.5216889 0.021746637 -1.0010115 101 55
3.5102491 0.00013328214 -0.99760729 61 55
3.519773 -0.021460487 -1.0004441 25 55
3.5128629 -0.042977121 -0.99845833 45 55
3.5058219 -0.06440977 -0.99647254 109 55
3.4976916 -0.085734457 -0.99420309 97 55
3.4913487 -0.10701992 -0.99250102 98 55
3.4839184 -0.12819584 -0.99051523 110 55
3.4811502 -0.1494887 -0.98994792 92 55
3.4610116 -0.16991189 -0.98427427 35 55
3.5757487 0.13310184 -1.0631686 55 56
3.5478458 0.11027149 -1.0543224 14 56
3.5532317 0.088618845 -1.0557967 55 56
3.5384228 0.066529214 -1.0510788 113 56
3.5444973 0.044888586 -1.052848 83 56
3.526551 0.023022568 -1.0472454 25 56
3.5008264 0.0013763076 -1.0392838 4 56
3.5084131 -0.020149123 -1.0416428 12 56
3.5063126 -0.041653052 -1.0410531 10 56
3.5222323 -0.063460991 -1.0460659 58 56
3.4912086 -0.084330074 -1.0366299 98 56
3.4848948 -0.1055759 -1.0348606 115 56
3.4851363 -0.12699173 -1.0351555 95 56
3.4852462 -0.14841449 -1.0354505 94 56
3.4842699 -0.16979676 -1.0354505 99 56
3.477438 -0.19085783 -1.0336812 50 56
3.5908339 0.13304727 -1.1117522 4 57
3.5649347 0.11017945 -1.1031973 46 57
3.5360353 0.087562859 -1.0937259 106 57
3.5384099 0.065900601 -1.094337 79 57
3.5301788 0.044078249 -1.0915873 96 57
3.5322871 0.022429371 -1.0921984 76 57
3.4990318 0.00073706702 -1.0815048 12 57
3.497066 -0.020721955 -1.0808938 4 57
3.4987774 -0.042201493 -1.0815048 13 57
3.5013087 -0.063719817 -1.0824214 68 57
3.4903808 -0.084950909 -1.0790606 77 57
3.4812281 -0.10610768 -1.0763108 70 57
3.4738505 -0.1272244 -1.0741721 72 57
3.4720533 -0.14849679 -1.0738666 52 57
3.4920001 -0.17081456 -1.0805882 22 57
3.5771894 0.1538948 -1.1510191 5 58
3.5790145 0.13197754 -1.151335 5 58
3.5462193 0.087211609 -1.1399597 68 58
3.5372016 0.065276757 -1.1367999 100 58
3.5289972 0.04346744 -1.1339561 79 58
3.523505 0.021778546 -1.1320603 117 58
3.5169311 0.00015875025 -1.1298484 87 58
3.5016859 -0.021326598 -1.1247927 94 58
3.4986429 -0.04277702 -1.1238447 78 58
3.5229783 -0.064699158 -1.1320603 42 58
3.5693462 0.15355955 -1.1927216 8 59
3.5484972 0.13084735 -1.1852107 52 59
3.5492332 0.10907172 -1.1852107 81 59
3.5470009 0.087221339 -1.184231 81 59
3.5408542 0.065331474 -1.1819451 89 59
3.5307925 0.043472528 -1.178353 64 59
3.5291023 0.021794874 -1.1776999 26 59
3.6109779 0.13315272 -0.44896007 93 42
3.6097457 0.11093301 -0.4486928 134 42
3.6242287 0.089121528 -0.45056376 71 42
3.6155303 0.13334122 -0.49510795 126 43
3.6073809 0.11087781 -0.49379477 100 43
3.6070044 0.088716611 -0.49364886 119 43
3.60847 0.066601351 -0.49379477 51 43
3.6089146 0.13307686 -0.53844917 127 44
3.6067021 0.1108398 -0.53797573 94 44
3.6221218 0.08906994 -0.54034293 24 44
3.5870574 0.066191331 -0.53466165 102 44
3.6051691 0.044397272 -0.53750229 53 44
3.5999942 0.15363467 -0.58091122 61 45
3.6018538 0.13157892 -0.58108073 9 45
3.606153 0.087441355 -0.58158928 6 45
3.6026802 0.065240122 -0.58091122 24 45
3.5971 0.043060571 -0.57989407 111 45
3.5795574 0.020879135 -0.57684267 47 45
3.6619678 0.13502745 -0.63676536 47 46
3.6161592 0.088923961 -0.62805927 14 46
3.5841897 0.066138722 -0.62207377 82 46
3.5874779 0.044181317 -0.6226179 132 46
3.5827646 0.022138285 -0.62171102 110 46
3.6084018 0.0001527635 -0.62642682 22 46
3.5989337 0.15358907 -0.66940308 67 47
3.5917208 0.10914198 -0.66766578 77 47
3.5844758 0.086908735 -0.66612148 121 47
3.5780745 0.064786591 -0.66477025 85 47
3.573499 0.042770412 -0.66380507 97 47
3.573694 0.020843029 -0.66380507 111 47
3.570811 -0.0010852023 -0.66322595 89 47
3.5677938 -0.02297727 -0.66264683 20 47
3.5885012 0.15375552 -0.71088374 7 48
3.5864425 0.13162661 -0.71027029 4 48
3.5901177 0.1097075 -0.71088374 11 48
3.5672374 0.087105982 -0.70597583 99 48
3.5647688 0.065162838 -0.70536238 111 48
3.5611863 0.043241493 -0.70454437 104 48
3.5437653 0.021285769 -0.70086342 53 48
3.5389347 -0.00045759272 -0.69984096 39 48
3.5535481 -0.022265697 -0.7029084 111 48
3.5935638 0.1331493 -0.75754607 12 49
3.5669901 0.11024366 -0.75148576 65 49
3.5754073 0.088550881 -0.75321728 94 49
3.573931 0.066573918 -0.75278437 30 49
3.6123447 0.045131449 -0.76122552 4 49
3.6018872 0.00079316599 -0.75884467 5 49
3.5520339 -0.021029258 -0.74780625 57 49
3.5508618 -0.042812284 -0.74758983 66 49
3.5858831 0.13285403 -0.80043662 132 50
3.5768988 0.11054923 -0.79815656 120 50
3.566803 0.0883357 -0.7956484 130 50
3.5614369 0.066340379 -0.79428035 107 50
3.563724 0.044510674 -0.79473639 25 50
3.6106648 0.0229351 -0.80568087 6 50
3.5786068 0.00077654043 -0.79815656 22 50
3.5386248 -0.020940803 -0.78880811 107 50
3.5394034 -0.042664845 -0.7890361 140 50
3.5342076 -0.064292334 -0.78789604 105 50
3.6326067 0.13394795 -0.36275223 64 40
3.624475 0.13304329 -0.40657407 107 41
3.6073654 0.11024988 -0.40438354 56 41
3.6293528 0.38014522 -1.2191727 36 59
3.6111443 0.35581884 -1.2566893 44 60
3.6179473 0.33408695 -1.258374 23 60
3.6309958 0.2679894 -1.2610694 9 60
3.5912385 0.24291366 -1.2462445 47 60
3.5729265 0.2196625 -1.239169 79 60
3.5685666 0.19742388 -1.2371473 58 60
3.5668895 0.17538543 -1.2361366 80 60
3.60906 0.33392379 -1.3001554 39 61
3.5998299 0.31080112 -1.2959883 53 61
3.5969954 0.28833094 -1.294252 47 61
3.5865393 0.26535133 -1.2897376 48 61
3.5815508 0.24289344 -1.2873067 47 61
3.5867176 0.22114494 -1.2886958 31 61
3.7092662 0.55102158 -0.83828646 59 50
3.7058296 0.52729219 -0.83669037 111 50
3.6983826 0.50310117 -0.83418226 113 50
3.6936753 0.47939709 -0.83235818 110 50
3.6781871 0.45445758 -0.828026 86 50
3.6731701 0.4309732 -0.82620186 92 50
3.6670361 0.40746012 -0.82414979 110 50
3.6607518 0.38403857 -0.82209766 103 50
3.6572256 0.36099616 -0.82072961 107 50
3.7073007 0.52626377 -0.88243812 68 51
3.6748619 0.49866435 -0.87358731 11 51
3.6749637 0.47573158 -0.87286967 8 51
3.6778135 0.45317346 -0.87286967 6 51
3.6689527 0.42924073 -0.86999911 37 51
3.6715174 0.40672037 -0.86999911 100 51
3.6652529 0.38327312 -0.86784619 123 51
3.6617379 0.36020416 -0.86641091 99 51
3.659045 0.33728224 -0.86521488 77 51
3.6223509 0.31148455 -0.85564643 32 51
3.6387119 0.29041573 -0.85923457 78 51
3.6181538 0.26643631 -0.85373276 125 51
3.6216581 0.24436209 -0.85421115 90 51
3.6027377 0.22088106 -0.84918773 30 51
3.634079 0.2004382 -0.85660326 6 51
3.6216633 0.17746647 -0.85325432 7 51
3.622684 0.15524103 -0.85325432 9 51
3.7222915 0.50635105 -0.93264276 76 52
3.6840475 0.47814852 -0.92186189 6 52
3.6725004 0.45375556 -0.91810113 11 52
3.6617548 0.42963505 -0.91459107 8 52
3.6633599 0.40705204 -0.91434032 41 52
3.6542351 0.38335562 -0.91133171 13 52
3.6430311 0.35959655 -0.90782166 4 52
3.6326377 0.33607855 -0.90456235 5 52
3.6365604 0.31394911 -0.90506375 25 52
3.6229787 0.2903938 -0.9010523 90 52
3.6237268 0.26808682 -0.90080154 107 52
3.622406 0.24565081 -0.90004939 106 52
3.6161153 0.22294378 -0.89804369 123 52
3.5671532 0.19796756 -0.88500631 16 52
3.6166451 0.17845649 -0.89754224 58 52
3.5905914 0.155095 -0.89052212 114 52
3.6890323 0.50124478 -0.9696455 34 53
3.6709833 0.47586372 -0.96388477 94 53
3.669045 0.45273757 -0.9625755 93 53
3.6669612 0.42965311 -0.96126622 98 53
3.6656919 0.40671805 -0.96021885 96 53
3.6566005 0.383008 -0.95707661 58 53
3.6050978 0.35524693 -0.94241285 5 53
3.6052878 0.33294165 -0.94188917 5 53
3.6120703 0.31122956 -0.94319844 5 53
3.6167982 0.28929225 -0.94398397 43 53
3.62043 0.26723725 -0.94450772 67 53
3.6027439 0.24370871 -0.93927068 15 53
3.6070611 0.22177672 -0.9400562 5 53
3.5842636 0.19829936 -0.93350989 22 53
3.5690262 0.17549188 -0.92905843 91 53
3.6564174 0.47456536 -1.0054575 43 54
3.6497126 0.4509424 -1.002728 85 54
3.6552773 0.42887571 -1.0035468 102 54
3.6549716 0.40612087 -1.002728 109 54
3.6516538 0.3830851 -1.0010903 77 54
3.6443617 0.35972777 -0.99836081 75 54
3.6350052 0.33629733 -0.99508536 114 54
3.6226232 0.31274736 -0.99099112 89 54
3.6120074 0.28951558 -0.98744273 111 54
3.6242695 0.2681269 -0.9904452 57 54
3.5836139 0.2430243 -0.97843528 7 54
3.5888784 0.22126748 -0.97952712 4 54
3.5894017 0.17711513 -0.9789812 22 54
3.5769651 0.15450786 -0.97515988 90 54
3.6465685 0.44995689 -1.0461167 65 55
3.6425943 0.42679027 -1.0441309 10 55
3.6375201 0.40358332 -1.0418614 5 55
3.614733 0.33381698 -1.0330673 81 55
3.6090703 0.3109701 -1.030798 86 55
3.6042194 0.28828207 -1.0288122 116 55
3.6078331 0.26630333 -1.0293795 107 55
3.6017456 0.24364085 -1.0271101 40 55
3.595516 0.22106312 -1.0248406 65 55
3.5881877 0.19851774 -1.0222875 96 55
3.5807185 0.17607065 -1.0197344 114 55
3.5855637 0.15426257 -1.0208691 64 55
3.6334906 0.4269619 -1.0879381 75 56
3.6417401 0.40529275 -1.0897073 20 56
3.5874832 0.3547489 -1.0714251 5 56
3.641923 0.3375749 -1.0876431 46 56
3.5944223 0.310945 -1.0723097 13 56
3.5819755 0.28773805 -1.0678866 6 56
3.5855794 0.26589516 -1.0684763 5 56
3.57761 0.24324231 -1.0655276 5 56
3.5914335 0.22205117 -1.069361 58 56
3.5765092 0.19910917 -1.0643481 85 56
3.5738461 0.17697175 -1.0631686 98 56
3.5729554 0.15495712 -1.0625788 89 56
3.6460764 0.40517685 -1.1358889 62 57
3.6447062 0.38239869 -1.1346669 66 57
3.6365609 0.35899568 -1.1313061 93 57
3.6339548 0.33623526 -1.1297784 87 57
3.6350007 0.31384918 -1.1294729 63 57
3.5334046 0.28321281 -1.0961702 10 57
3.5312777 0.26124468 -1.0949481 4 57
3.5432639 0.24028435 -1.0983089 6 57
3.5465722 0.21865658 -1.09892 4 57
3.567812 0.19800568 -1.1053361 64 57
3.5841758 0.1768661 -1.1102245 26 57
3.5709243 0.15424962 -1.1056416 6 57
3.6280174 0.37997058 -1.1734537 65 58
3.6265037 0.35733059 -1.1721897 74 58
3.6248488 0.3347235 -1.1709259 63 58
3.6211629 0.31198752 -1.16903 67 58
3.6211176 0.28961152 -1.168398 45 58
3.6001177 0.26571372 -1.1608144 73 58
3.5865345 0.24259597 -1.1557587 73 58
3.5803797 0.22011991 -1.1532309 82 58
3.575979 0.19783314 -1.151335 64 58
3.5866017 0.17635253 -1.1544949 8 58
3.6240923 0.35712484 -1.2165602 32 59
3.5940616 0.26528236 -1.203498 46 59
3.5852487 0.24251956 -1.1999059 87 59
3.576292 0.21987492 -1.1963137 68 59
3.5681367 0.19740188 -1.1930481 82 59
3.5570085 0.17489702 -1.1888028 54 59
3.7161748 0.36557651 -0.41971722 31 41
3.7593496 0.46381363 -0.47248074 29 42
3.7188151 0.43566871 -0.46660057 97 42
3.7155085 0.41218725 -0.46579874 102 42
3.7120535 0.38876283 -0.4649969 121 42
3.713383 0.36588171 -0.46486327 98 42
3.6642423 0.33835688 -0.45791396 36 42
3.7087069 0.31952056 -0.46366051 75 42
3.6750338 0.29391783 -0.45884946 145 42
3.6579893 0.26997876 -0.45631027 138 42
3.6417789 0.24632676 -0.45390475 143 42
3.6353085 0.22349094 -0.45283562 107 42
3.6415591 0.20145407 -0.45350385 10 42
3.6348078 0.17871758 -0.45243472 6 42
3.6289053 0.15611404 -0.45149922 14 42
3.7524121 0.53334719 -0.52049637 80 43
3.7262065 0.50630766 -0.51611906 119 43
3.7145271 0.48152223 -0.51393038 105 43
3.7125027 0.45811394 -0.51320082 118 43
3.7024708 0.43382514 -0.51130402 101 43
3.6932642 0.40978613 -0.50955307 123 43
3.6799672 0.38546303 -0.50721848 25 43
3.6903813 0.31800255 -0.50780213 13 43
3.6715543 0.2936897 -0.50473803 74 43
3.664408 0.27049765 -0.50342482 128 43
3.6610637 0.24767274 -0.50269526 127 43
3.6259801 0.22294608 -0.4972966 65 43
3.6164143 0.20008861 -0.4956916 44 43
3.629431 0.17848185 -0.49744251 127 43
3.6235392 0.15590879 -0.49642113 142 43
3.7436001 0.53199863 -0.56559306 46 44
3.7653852 0.51154214 -0.56859154 5 44
3.7674737 0.48830169 -0.5684337 14 44
3.7253168 0.45961833 -0.56117427 91 44
3.7172782 0.43548882 -0.55943835 99 44
3.7090843 0.41147527 -0.55770236 126 44
3.7105572 0.38860625 -0.55754459 135 44
3.655874 0.36022139 -0.5483914 27 44
3.6619487 0.33814535 -0.54902267 14 44
3.6541162 0.31482312 -0.54744452 71 44
3.661885 0.29286766 -0.5483914 130 44
3.6537652 0.26966745 -0.54681325 48 44
3.6563363 0.24730983 -0.54697108 9 44
3.6489143 0.22432594 -0.54555076 9 44
3.6679695 0.2029123 -0.5483914 6 44
3.632653 0.17861187 -0.54255229 52 44
3.6139493 0.15547226 -0.53939605 122 44
3.7399042 0.55366993 -0.61142504 86 45
3.7100563 0.525998 -0.60566133 5 45
3.7122374 0.50309098 -0.60549182 10 45
3.7093902 0.47954366 -0.60447466 6 45
3.6887882 0.4538784 -0.60040617 33 45
3.7003131 0.43226779 -0.60193187 107 45
3.6940801 0.40857711 -0.60040617 63 45
3.6651523 0.38261864 -0.59498149 13 45
3.6429114 0.35770696 -0.59074342 17 45
3.6538699 0.33616316 -0.59226912 126 45
3.6499724 0.31322965 -0.59125203 122 45
3.63709 0.2896497 -0.58870918 118 45
3.6309359 0.2667473 -0.58735299 119 45
3.6364374 0.24472922 -0.58803111 25 45
3.6122952 0.22084004 -0.58362353 4 45
3.6283424 0.19948752 -0.58616638 21 45
3.6039054 0.17596282 -0.5817588 94 45
3.724395 0.52927148 -0.65472174 62 46
3.724649 0.5060122 -0.65417761 81 46
3.7159805 0.48163304 -0.65200108 109 46
3.7120337 0.4579809 -0.65073144 118 46
3.7128203 0.43496704 -0.65036869 85 46
3.6274509 0.4024277 -0.63404471 8 46
3.6203718 0.35672706 -0.63186818 4 46
3.6685176 0.33875123 -0.6403929 32 46
3.6509314 0.31454906 -0.63676536 134 46
3.6518123 0.29206315 -0.63658398 96 46
3.6260746 0.2676267 -0.63150543 15 46
3.6384413 0.24610135 -0.63350058 10 46
3.6300671 0.22316927 -0.63168681 115 46
3.6264586 0.20062032 -0.63077992 131 46
3.6158345 0.17778674 -0.6286034 134 46
3.6080148 0.15521759 -0.62697101 139 46
3.7031419 0.54821593 -0.69720024 5 47
3.7074072 0.52562159 -0.6973933 6 47
3.7261188 0.50497663 -0.70048183 66 47
3.7135785 0.48008642 -0.6973933 112 47
3.7086637 0.45633027 -0.695849 108 47
3.7045722 0.43276668 -0.69449776 104 47
3.6974058 0.40894601 -0.69256741 74 47
3.6500766 0.38104004 -0.68272257 22 47
3.6767576 0.36104128 -0.68754846 104 47
3.6671793 0.33739191 -0.68523204 129 47
3.675046 0.31538939 -0.68639022 73 47
3.6172497 0.28806329 -0.67461509 8 47
3.5901647 0.24160028 -0.66863096 4 47
3.601373 0.22016878 -0.67056131 14 47
3.6212702 0.19909643 -0.67422897 115 47
3.6194837 0.17672847 -0.67364991 118 47
3.7185674 0.55108136 -0.74585259 4 48
3.7267246 0.52894151 -0.74687505 6 48
3.72505 0.50540727 -0.74585259 8 48
3.7251687 0.48216465 -0.74523908 35 48
3.71737 0.45798287 -0.74298966 11 48
3.7210824 0.43527853 -0.7431941 7 48
3.712981 0.41125396 -0.74094468 6 48
3.6803861 0.38480303 -0.73358279 61 48
3.6709878 0.36106482 -0.73112887 114 48
3.6672857 0.33799487 -0.72990191 125 48
3.6575871 0.31448147 -0.72744793 123 48
3.6535933 0.29156643 -0.72622097 79 48
3.6435988 0.26828158 -0.72376698 12 48
3.6363864 0.24532779 -0.72192651 85 48
3.6163285 0.22169533 -0.71742761 131 48
3.6176205 0.19950178 -0.71742761 92 48
3.5972672 0.17624921 -0.71292871 12 48
3.723084 0.55315852 -0.79477364 109 49
3.7215755 0.52961445 -0.79369146 86 49
3.7179835 0.5058459 -0.79217637 88 49
3.7074635 0.48125952 -0.78914624 102 49
3.6774044 0.45442063 -0.78178728 25 49
3.6515019 0.36047548 -0.77377903 70 49
3.6371191 0.33652905 -0.77009958 43 49
3.6595411 0.31597596 -0.77464479 10 49
3.629297 0.29093078 -0.76750225 5 49
3.6358819 0.26901811 -0.76858449 63 49
3.6257758 0.24590717 -0.76598722 83 49
3.6164978 0.22299083 -0.76360637 91 49
3.604151 0.20003435 -0.76057619 107 49
3.5926342 0.17728627 -0.75776249 71 49
3.5780485 0.1545597 -0.75429946 5 49
3.6351337 0.33630919 -0.81502932 19 50
3.6283982 0.31324533 -0.81297725 6 50
3.6358531 0.26898265 -0.81388927 7 50
3.6170349 0.24528715 -0.80910105 74 50
3.6194437 0.22314864 -0.80932909 81 50
3.6401882 0.2020129 -0.81388927 16 50
3.6364968 0.17943391 -0.81274921 5 50
3.6219652 0.1564468 -0.80910105 40 50
3.7839584 0.63282681 -0.57443058 79 44
3.7643714 0.60583371 -0.57064307 131 44
3.7592349 0.58136714 -0.56922275 124 44
3.7510099 0.55655205 -0.56732899 91 44
3.7591755 0.65118283 -0.61735833 91 45
3.7582402 0.62729198 -0.61651069 126 45
3.7493691 0.60218447 -0.61430693 120 45
3.7422802 0.57751077 -0.6124422 115 45
3.7655721 0.62975383 -0.66506022 133 46
3.7606268 0.6052314 -0.66342783 123 46
3.7526071 0.58034283 -0.66125131 118 46
3.7463696 0.55586404 -0.65943754 107 46
3.7127464 0.61968428 -0.70125401 24 47
3.7406971 0.60078889 -0.7060799 53 47
3.7006779 0.57107759 -0.6973933 7 47
3.7608149 0.60459113 -0.75628185 45 48
3.7567146 0.58030909 -0.75464588 43 48
3.7225139 0.57644165 -0.79542297 52 49
3.6303995 0.15557413 -0.31728989 76 39
3.6535649 0.24712269 -0.36571038 122 40
3.6470757 0.22421309 -0.36483389 148 40
3.6473904 0.20177604 -0.36472434 143 40
3.6435957 0.17914873 -0.36417654 125 40
3.6317165 0.15623468 -0.36275223 91 40
3.6847441 0.33965933 -0.41557956 126 41
3.6768699 0.31619024 -0.41436261 134 41
3.6698363 0.29290986 -0.41326734 153 41
3.6676049 0.27009383 -0.41278055 119 41
3.6612709 0.24704763 -0.411807 108 41
3.6201184 0.22195229 -0.40657407 6 41
3.618439 0.19957055 -0.40620896 4 41
3.6285176 0.17780454 -0.40730423 6 41
3.6176405 0.15502326 -0.40584388 4 41
