# .PCD v0.7 - Point Cloud Data file format
VERSION 0.7
FIELDS x y z intensity ring
SIZE 4 4 4 4 1
TYPE F F F F U
COUNT 1 1 1 1 1
WIDTH 1316
HEIGHT 1
VIEWPOINT 0 0 0 1 0 0 0
POINTS 1316
DATA ascii
1.0524383 3.1844587 -0.16623038 55 36
1.0694047 3.1703751 -0.16574617 178 36
1.0885127 3.1628098 -0.16568565 102 36
1.0923548 3.1118073 -0.16284093 25 36
1.0723941 2.9960368 -0.15581992 11 36
0.87410831 2.3958647 -0.11750703 22 36
1.1717201 3.1510479 -0.16671459 111 36
1.1924475 3.1475325 -0.16695669 182 36
1.2138947 3.1457438 -0.16731985 182 36
1.2353648 3.14381 -0.16768301 178 36
1.2564859 3.1408045 -0.16798563 200 36
1.2783697 3.1395066 -0.16840932 162 36
1.2979914 3.1325257 -0.16846985 190 36
1.3191271 3.129101 -0.16877247 186 36
1.342237 3.1301215 -0.16937773 181 36
1.365808 3.1318905 -0.17004351 183 36
1.3878322 3.1298382 -0.1704672 212 36
1.4102929 3.1285434 -0.1709514 203 36
1.4311262 3.1234605 -0.17119351 204 36
1.4549004 3.1245737 -0.17185929 220 36
1.4795959 3.1273167 -0.17264614 226 36
1.5022169 3.125376 -0.17313033 222 36
1.5218036 3.1169968 -0.17319086 186 36
1.5417876 3.1093888 -0.17331192 223 36
1.5608374 3.09987 -0.17331192 224 36
1.5839187 3.098233 -0.17385665 783 36
1.5904818 3.0645366 -0.17222245 123 36
1.6046021 3.0458891 -0.1716172 131 36
1.6030191 2.998138 -0.16901457 93 36
1.6004353 2.949645 -0.16635144 87 36
1.5958729 2.898675 -0.16350672 70 36
1.587338 2.841774 -0.16023831 74 36
1.5845646 2.7963774 -0.15775676 85 36
0 0 -0 91 36
1.579541 2.709465 -0.15303573 74 36
1.5534556 2.627552 -0.14795156 146 36
0 0 -0 165 36
0 0 -0 169 36
0 0 -0 173 36
0 0 -0 172 36
1.6472138 2.6005862 -0.14952523 149 36
0 0 -0 151 36
0 0 -0 139 36
0 0 -0 151 36
0 0 -0 132 36
0 0 -0 132 36
0 0 -0 141 36
0 0 -0 149 36
0 0 -0 161 36
0 0 -0 131 36
0 0 -0 179 36
0 0 -0 173 36
0 0 -0 175 36
1.9235609 2.5600061 -0.15703045 159 36
1.9483014 2.5600686 -0.15793833 153 36
0 0 -0 214 36
0 0 -0 187 36
0 0 -0 171 36
0 0 -0 151 36
0 0 -0 157 36
0 0 -0 145 36
2.1170526 2.5469673 -0.16368829 147 36
2.142283 2.5453835 -0.16459619 133 36
2.168221 2.5443451 -0.1655646 122 36
2.191618 2.5400612 -0.16629091 140 36
2.2143867 2.5348341 -0.16695669 129 36
2.2404807 2.5331607 -0.1679251 142 36
2.263973 2.5282881 -0.16865142 129 36
2.2888308 2.5247011 -0.16949879 122 36
2.3184547 2.526051 -0.17076983 135 36
2.3441036 2.5227449 -0.17167771 157 36
2.3670626 2.5163109 -0.17234349 150 36
2.3927846 2.5125809 -0.17325139 135 36
2.8474371 2.9533908 -0.21162482 66 36
2.9003685 2.9715765 -0.21465111 156 36
2.9255636 2.9608238 -0.21525636 134 36
2.9450877 2.9442282 -0.21537742 90 36
3.1932337 3.153322 -0.23498781 28 36
3.2346742 3.1552739 -0.23686412 89 36
3.261162 3.1422923 -0.23746938 76 36
3.2970123 3.1380494 -0.23886147 94 36
3.3358419 3.1362188 -0.24049567 115 36
3.3681891 3.1279166 -0.24158514 103 36
3.4020309 3.1206844 -0.24279566 111 36
3.441828 3.1185155 -0.24449039 99 36
3.4854453 3.119303 -0.24648774 115 36
3.5336883 3.1236377 -0.24884824 98 36
3.5760989 3.1222456 -0.25072455 88 36
3.6103089 3.1132803 -0.25193506 106 36
3.6399832 3.1001291 -0.25278243 91 36
3.6826181 3.0976529 -0.25465873 269 36
3.7176805 3.0883915 -0.25592977 50 36
3.7604845 3.0851464 -0.25780609 11 36
3.7816706 3.0638995 -0.25798765 8 36
3.7933841 3.0350261 -0.25744292 22 36
3.8158517 3.014787 -0.25774556 6 36
3.8350651 2.9919305 -0.25780609 4 36
3.8565145 2.9707789 -0.25804818 8 36
3.8484509 2.9271209 -0.25605083 14 36
3.8647425 2.9022534 -0.25592977 17 36
3.8856852 2.880863 -0.25617188 118 36
3.9169822 2.8669877 -0.25720084 131 36
3.9652462 2.8651118 -0.2595008 119 36
4.022573 2.8691256 -0.26246658 147 36
4.0678535 2.8639245 -0.26452446 122 36
4.1083021 2.8548579 -0.26621917 133 36
4.1463223 2.8437085 -0.26773232 157 36
4.1868396 2.8338778 -0.26942706 156 36
4.2373519 2.8303084 -0.27184808 146 36
4.2929783 2.8295207 -0.27463228 166 36
4.3378739 2.8210824 -0.27662963 148 36
4.3962688 2.8208227 -0.2795954 148 36
4.4455452 2.8140795 -0.2818954 149 36
4.4974427 2.8084228 -0.28437695 179 36
4.5562363 2.806422 -0.28734273 164 36
4.609201 2.8001771 -0.28988481 135 36
4.6622596 2.7933869 -0.29242691 140 36
4.7154069 2.7860503 -0.29496899 132 36
4.7660508 2.7766585 -0.29732952 152 36
4.8262773 2.7722178 -0.30035579 200 36
4.8683863 2.7568138 -0.30211106 347 36
4.8712645 2.7191069 -0.30114263 225 36
4.8668666 2.6776199 -0.29969001 243 36
4.8568792 2.6334357 -0.29787424 244 36
4.8623815 2.5979409 -0.29714793 246 36
4.8702807 2.5638728 -0.2966032 192 36
4.8894653 2.535779 -0.29684529 286 36
4.872931 2.4893849 -0.29466635 180 36
4.8791971 2.4549525 -0.29406109 207 36
4.8923798 2.4240818 -0.29394004 185 36
4.9340754 2.407145 -0.29575583 158 36
4.973947 2.3889232 -0.29745054 271 36
4.9821944 2.3553727 -0.29702687 246 36
4.9929328 2.3230741 -0.29678476 163 36
5.0016475 2.2899017 -0.29642162 215 36
5.0083227 2.2558901 -0.29593742 243 36
5.0120311 2.22067 -0.29527161 250 36
4.8974495 2.1340609 -0.286798 172 36
4.9957814 2.1405241 -0.29242691 297 36
5.0023818 2.1071186 -0.29200321 319 36
5.0133724 2.0756214 -0.29188216 327 36
5.0176921 2.041436 -0.29133743 288 36
5.0106592 2.0028307 -0.29006639 320 36
5.0051999 1.9651185 -0.28891641 314 36
5.0134382 1.9329342 -0.28867429 368 36
5.0112004 1.8968366 -0.2877664 273 36
5.0161953 1.8636198 -0.28734273 305 36
5.0162816 1.8287042 -0.28661641 278 36
5.0170693 1.794194 -0.28595063 269 36
5.0157385 1.7590826 -0.28516379 256 36
5.021718 1.726651 -0.28486118 320 36
5.0303259 1.6951684 -0.28474012 314 36
5.0339975 1.6620809 -0.28431642 276 36
4.9956632 1.6155016 -0.28122962 62 36
5.0083365 1.5857221 -0.2814112 43 36
5.0208325 1.5558478 -0.28159276 26 36
5.0255084 1.5235636 -0.28129014 24 36
5.0271058 1.4904298 -0.28080592 15 36
5.0246515 1.4562227 -0.2800796 25 36
5.0210066 1.4218299 -0.27929279 21 36
5.0161672 1.3872709 -0.27844542 15 36
5.0101299 1.3525649 -0.27753752 21 36
5.0173693 1.3215437 -0.277477 13 36
5.0118484 1.2872576 -0.27662963 15 36
5.0138426 1.2550273 -0.27626649 23 36
5.026298 1.2254211 -0.27656913 14 36
5.0259528 1.1927141 -0.2760849 11 36
5.0195599 1.1587108 -0.27523753 17 36
5.0187836 1.1261418 -0.27475333 17 36
5.0197473 1.094051 -0.27439019 11 36
5.0185528 1.0615779 -0.27390596 21 36
5.0191054 1.0295616 -0.27354282 20 36
5.0233698 0.99835658 -0.27342176 15 36
5.0284209 0.96732652 -0.27336124 27 36
5.032299 0.93608952 -0.27324018 25 36
5.0399132 0.9055472 -0.27336124 30 36
5.0394735 0.87358338 -0.27299809 22 36
5.0398159 0.8418234 -0.27269545 30 36
5.0350313 0.80930054 -0.2720902 18 36
5.0339832 0.77747726 -0.27172706 25 36
5.0317473 0.74555111 -0.27130336 26 36
5.0342507 0.71438253 -0.2711823 28 36
5.0355716 0.68307722 -0.27100074 42 36
5.040658 0.6522947 -0.27106124 39 36
5.0465469 0.62159741 -0.2711823 34 36
5.0542316 0.59108412 -0.27142441 50 36
5.0537949 0.55962169 -0.2711823 36 36
5.0551481 0.52839428 -0.27106124 41 36
5.055315 0.49707371 -0.27087969 46 36
5.0592637 0.46613702 -0.27094021 58 36
5.0640178 0.435256 -0.27106124 68 36
5.068583 0.40433419 -0.2711823 71 36
5.0649958 0.37278718 -0.27081916 67 36
5.0622082 0.34136653 -0.27051651 64 36
5.0582299 0.30993316 -0.27015337 64 36
5.0590396 0.27883574 -0.27009284 86 36
5.0696282 0.24822746 -0.27063757 83 36
5.0790339 0.2174571 -0.27112177 86 36
5.075285 0.18610615 -0.27081916 109 36
5.0643587 0.15459673 -0.27009284 107 36
5.0632162 0.12347098 -0.26997179 88 36
5.0658746 0.09243761 -0.27009284 75 36
5.0713367 0.061412297 -0.27039546 84 36
5.0726166 0.030299889 -0.27045599 90 36
5.0697122 -0.00082495296 -0.27027443 68 36
5.0756006 -0.031970292 -0.27063757 80 36
5.0763073 -0.063125484 -0.2706981 80 36
5.0678401 -0.094123028 -0.2702139 66 36
5.0691628 -0.1252664 -0.27033496 60 36
5.0752831 -0.15658386 -0.27075863 55 36
5.0812087 -0.18798111 -0.2711823 60 36
5.0889349 -0.21954317 -0.27172706 67 36
5.087492 -0.25076416 -0.27172706 52 36
0 -0 -0 41 36
5.092998 -0.31372967 -0.27227178 42 36
5.0889854 -0.34483868 -0.27215073 28 36
5.0867739 -0.37605762 -0.27215073 35 36
5.0843706 -0.40726241 -0.27215073 30 36
5.0827703 -0.43853772 -0.27221125 30 36
5.0829659 -0.4699927 -0.27239284 21 36
5.0829663 -0.50146657 -0.27257439 28 36
5.0867424 -0.53337479 -0.27299809 28 36
5.0923028 -0.56556875 -0.27354282 22 36
5.0956759 -0.59761828 -0.27396649 24 36
5.1028104 -0.63022017 -0.27463228 34 36
5.1097355 -0.6629321 -0.27529806 32 36
5.1144733 -0.69548351 -0.27584282 22 36
5.1140623 -0.72741479 -0.2760849 23 36
5.1104903 -0.75892705 -0.27614543 23 36
5.1057372 -0.79027015 -0.27614543 17 36
5.1047339 -0.82221872 -0.27638754 25 36
5.1005774 -0.85369015 -0.27644807 27 36
5.1011438 -0.88599592 -0.27681121 25 36
5.1015053 -0.9183408 -0.27717438 24 36
5.1065683 -0.9516381 -0.27784017 13 36
5.1270962 -0.98805535 -0.27947435 7 36
5.1140847 -1.0181313 -0.27905068 18 36
5.1204519 -1.0521041 -0.27983752 12 36
5.1178055 -1.0843307 -0.2800796 19 36
5.1139817 -1.1163514 -0.28026119 24 36
5.1138525 -1.1492417 -0.28068489 20 36
5.1105947 -1.1814977 -0.28092697 16 36
5.1100464 -1.2144495 -0.28135067 22 36
5.1131649 -1.2483864 -0.28201646 16 36
5.1179953 -1.2828926 -0.2828033 26 36
5.1196942 -1.316759 -0.28340855 21 36
5.1279259 -1.3524767 -0.28443748 26 36
5.1301298 -1.3867817 -0.28510326 27 36
5.1292195 -1.4203651 -0.28558746 25 36
5.1424947 -1.4580747 -0.28697956 51 36
5.14783 -1.4937747 -0.28788745 51 36
5.1586618 -1.5312994 -0.28915849 135 36
5.1501241 -1.5632135 -0.28921902 410 36
5.054637 -1.5681593 -0.28377169 176 36
4.9859276 -1.5804403 -0.2800191 174 36
4.8726282 -1.5774847 -0.27342176 198 36
4.8164191 -1.5919995 -0.27045599 196 36
4.7526512 -1.6033313 -0.26700601 320 36
4.7493305 -1.6347375 -0.26742971 391 36
4.7533374 -1.6688089 -0.26833758 386 36
4.750526 -1.7006354 -0.26882181 411 36
4.7503157 -1.7335169 -0.26948759 460 36
4.7461386 -1.7650677 -0.26991126 531 36
4.7473531 -1.7987548 -0.2706981 414 36
4.7604375 -1.8371961 -0.27227178 497 36
4.7583652 -1.8700227 -0.27287704 597 36
4.7736759 -1.9099392 -0.27463228 440 36
4.775733 -1.944842 -0.27554017 463 36
4.7766194 -1.9794596 -0.27638754 455 36
4.7699022 -2.0110583 -0.27675068 378 36
4.7583899 -2.0406814 -0.27681121 43 36
4.753098 -2.0730329 -0.27729541 38 36
4.7713118 -2.1159186 -0.27935332 17 36
4.7636986 -2.1476169 -0.27971646 17 36
4.7513385 -2.1772218 -0.27977699 27 36
4.7559867 -2.2147634 -0.2809875 26 36
4.7693744 -2.2567136 -0.2828033 47 36
4.7653332 -2.290693 -0.28346908 39 36
4.7601576 -2.3242698 -0.28407434 35 36
4.7520657 -2.3565385 -0.28449801 41 36
4.7526722 -2.3932853 -0.28552696 33 36
4.7547832 -2.4310367 -0.28667694 38 36
4.7610388 -2.4712036 -0.28812957 38 36
4.7669797 -2.5115383 -0.28958219 42 36
4.7805257 -2.5562751 -0.29157954 60 36
4.7691369 -2.5879405 -0.29188216 51 36
4.7697806 -2.6263034 -0.29303217 36 36
4.7727466 -2.6662319 -0.29436374 49 36
4.7806115 -2.7092483 -0.29605845 46 36
4.787262 -2.7519636 -0.29769266 27 36
4.7909803 -2.7933536 -0.29914528 43 36
4.7917929 -2.8333681 -0.30041632 43 36
4.7965746 -2.8760643 -0.30199 43 36
4.8103929 -2.9246299 -0.30422947 23 36
4.8229456 -2.9729488 -0.30640838 21 36
4.8190022 -3.0114794 -0.30743733 14 36
4.8105516 -3.0474021 -0.30816364 29 36
4.8152795 -3.0919645 -0.30985835 13 36
4.8162942 -3.134521 -0.31131098 10 36
4.8111348 -3.1733582 -0.31233993 11 36
4.8114882 -3.2161331 -0.31379256 14 36
4.8156295 -3.2618303 -0.31554779 27 36
4.8226814 -3.3099585 -0.31754515 15 36
4.8227677 -3.3537359 -0.3190583 21 36
4.8314729 -3.4039629 -0.32123724 11 36
4.8332429 -3.4497826 -0.32293198 17 36
4.8354406 -3.4963365 -0.32468721 10 36
4.839664 -3.5448163 -0.32662404 18 36
4.8402667 -3.5910995 -0.32831877 15 36
4.838089 -3.6357238 -0.32983193 14 36
4.8347511 -3.6798515 -0.33128452 13 36
4.8326344 -3.7252936 -0.3328582 17 36
4.8356481 -3.7751477 -0.33485556 11 36
4.8319678 -3.8202252 -0.33636871 21 36
4.8427191 -3.8772533 -0.33903185 13 36
4.8521762 -3.9339275 -0.34163445 13 36
4.8726902 -4.0003638 -0.34514496 9 36
4.8634033 -4.0429497 -0.3463555 12 36
4.8499589 -4.0823574 -0.34726337 22 36
4.8681188 -4.1489472 -0.35071334 14 36
4.8629727 -4.1963477 -0.35234755 26 36
4.866447 -4.2517219 -0.35470808 23 36
4.8716669 -4.3092794 -0.35725015 21 36
4.871901 -4.3630648 -0.35942909 24 36
4.8694396 -4.4150028 -0.36142644 22 36
4.8643169 -4.4650488 -0.36324221 14 36
4.8675365 -4.5233521 -0.36578432 28 36
4.8585911 -4.5709176 -0.36735797 16 36
4.8716502 -4.6398849 -0.37080795 38 36
4.9091921 -4.7334337 -0.37637633 48 36
4.8893409 -4.772531 -0.37716317 37 36
4.8926234 -4.8347173 -0.37994736 49 36
4.8946199 -4.8964157 -0.38267103 37 36
4.8862243 -4.9483757 -0.38454732 43 36
4.9003725 -5.0239973 -0.388421 21 36
4.893692 -5.0791306 -0.39053941 32 36
4.8906474 -5.1387086 -0.39302096 38 36
4.8979931 -5.2100759 -0.39647093 23 36
4.911437 -5.2890401 -0.40052617 33 36
4.9106016 -5.353651 -0.40337089 12 36
4.9058061 -5.4147506 -0.405913 12 36
4.9124255 -5.4893813 -0.40954453 18 36
4.9315324 -5.5792537 -0.4143866 22 36
4.9326525 -5.6500139 -0.41765502 24 36
4.9265709 -5.7134371 -0.42031816 22 36
4.9315443 -5.7906761 -0.42407075 21 36
4.9261165 -5.8567305 -0.42691547 29 36
4.9404712 -5.9475064 -0.43169701 26 36
4.9399686 -6.021698 -0.43514699 24 36
4.9443946 -6.103086 -0.43914172 25 36
4.9392772 -6.173841 -0.44228905 27 36
4.9396634 -6.2525945 -0.44604167 38 36
4.9589133 -6.3567686 -0.45173109 59 36
4.9685416 -6.4503403 -0.45657316 63 36
4.9651222 -6.5283766 -0.46020472 72 36
4.9261699 -6.5603156 -0.46032578 44 36
4.9833078 -6.7219262 -0.47025204 276 36
4.9484534 -6.7612371 -0.47091782 272 36
4.9407768 -6.8384018 -0.4744283 221 36
4.9416113 -6.9287276 -0.47890723 223 36
4.9938059 -7.093595 -0.48889402 47 36
4.9837894 -7.1724672 -0.49246502 49 36
5.0491986 -7.3626156 -0.50420707 34 36
5.06043 -7.4769511 -0.51032019 22 36
5.0460553 -7.5551748 -0.51377016 17 36
5.0342054 -7.6385031 -0.51758331 31 36
5.0378451 -7.7470727 -0.52321219 24 36
5.0338726 -7.84589 -0.5281148 24 36
5.041153 -7.9643464 -0.53440946 24 36
5.0439954 -8.078104 -0.54034102 29 36
5.0534811 -8.2049427 -0.54718047 56 36
5.056416 -8.3236666 -0.55341464 68 36
5.0493617 -8.4281759 -0.55861986 48 36
5.055429 -8.5569715 -0.56551981 49 36
5.0691471 -8.7016821 -0.57350922 24 36
5.0802832 -8.8451462 -0.58137757 36 36
5.0800114 -8.9716988 -0.58803546 31 36
5.0929689 -9.1247263 -0.59650904 31 36
5.0643067 -9.2056551 -0.59995908 17 36
5.0581527 -9.3295727 -0.6063748 18 36
5.1056938 -9.5567665 -0.61987209 42 36
5.1176248 -9.7221737 -0.62907201 60 36
5.1024442 -9.8393459 -0.63494301 73 36
5.1418629 -10.066032 -0.64825875 35 36
5.126205 -10.189237 -0.65449291 47 36
5.141573 -10.377918 -0.66514546 32 36
5.1447506 -10.546533 -0.67440593 25 36
5.1425939 -10.708373 -0.68318218 19 36
5.1783113 -10.954505 -0.69758731 42 36
5.1985683 -11.174319 -0.71017671 71 36
5.1764364 -11.307658 -0.7169556 63 36
5.1565509 -11.449333 -0.72427928 50 36
0 -0 -0 67 36
0 -0 -0 141 36
5.2428641 -12.237791 -0.77015787 21 36
5.2436085 -12.450034 -0.78202099 51 36
5.2331624 -12.641528 -0.79249197 41 36
5.2243223 -12.842603 -0.80356818 37 36
5.3109984 -13.288737 -0.83062327 11 36
5.2855268 -13.464164 -0.8399443 10 36
0 -0 -0 0 36
0 -0 -0 0 36
0 -0 -0 0 36
0 -0 -0 0 36
0 -0 -0 0 36
0 -0 -0 0 36
0 -0 -0 0 36
0 -0 -0 0 36
0 -0 -0 0 36
0 -0 -0 0 36
0 -0 -0 0 36
0 -0 -0 0 36
0 -0 -0 0 36
0 -0 -0 0 36
0 -0 -0 0 36
0 -0 -0 0 36
4.6549935 -16.835234 -1.0220062 8 36
4.5440645 -16.835533 -1.0202509 12 36
4.4345779 -16.839931 -1.0187984 17 36
4.3281879 -16.855223 -1.018072 16 36
4.2181425 -16.855318 -1.0164378 375 36
4.1077867 -16.852758 -1.0146825 513 36
4.0001554 -16.860165 -1.0135931 513 36
3.8928127 -16.867857 -1.0125642 527 36
3.7866185 -16.879738 -1.0118378 469 36
3.6774504 -16.877298 -1.0102642 359 36
3.5715528 -16.888802 -1.0095984 435 36
3.4612412 -16.87813 -1.007601 355 36
3.3558633 -16.89024 -1.0070564 386 36
3.2591376 -16.946779 -1.0092958 215 36
3.2957761 -17.723078 -1.0559613 97 36
3.2822471 -18.273487 -1.0886452 425 36
3.1598365 -18.234272 -1.0850136 150 36
1.405628 -8.4167862 -0.48029932 25 36
1.3493655 -8.3966713 -0.47854409 185 36
1.2978191 -8.4047928 -0.47854409 351 36
1.2427144 -8.3889008 -0.47709146 497 36
1.1892555 -8.3825321 -0.47624409 641 36
1.1371284 -8.3847256 -0.47594145 666 36
1.0847631 -8.3846159 -0.47551778 632 36
1.0313444 -8.3752632 -0.47454935 688 36
0.97958773 -8.378459 -0.4743678 690 36
0.92859912 -8.3882809 -0.47460988 696 36
0.87638628 -8.3868713 -0.47418621 655 36
0.8243233 -8.3861303 -0.47382304 727 36
0.77230245 -8.385067 -0.4734599 683 36
0.72032571 -8.3836803 -0.47309673 666 36
0.66887087 -8.3879423 -0.47309673 707 36
0.61761039 -8.3948755 -0.47327831 670 36
0.56582046 -8.3945227 -0.47303623 703 36
0.51375324 -8.3888702 -0.47249147 720 36
0.46166703 -8.3809013 -0.47182569 721 36
0.41003916 -8.3795881 -0.4715836 742 36
0.35857263 -8.380949 -0.47152308 736 36
0.30743334 -8.3909721 -0.47200727 773 36
0.25603265 -8.3956928 -0.47218886 790 36
0.20444006 -8.3941126 -0.47200727 848 36
0.1529309 -8.3952093 -0.47200727 852 36
0.10145202 -8.398984 -0.47218886 883 36
0.049909029 -8.3984499 -0.47212833 925 36
-0.0016240678 -8.3995962 -0.47218886 869 36
-0.053162992 -8.3994284 -0.47218886 734 36
-0.1048248 -8.4089251 -0.47279412 743 36
-0.15649347 -8.4121151 -0.47303623 669 36
-0.20798261 -8.4060068 -0.47273359 562 36
-0.26029757 -8.4285173 -0.47418621 414 36
-0.31289658 -8.4507008 -0.47563884 201 36
-0.36577758 -8.4725561 -0.47709146 82 36
-0.42740387 -8.665555 -0.48895451 29 36
-0.48222664 -8.692668 -0.49077031 15 36
-0.53770542 -8.7244148 -0.49288872 27 36
-1.1446053 -16.878185 -0.98865646 173 36
-1.2478516 -16.866863 -0.98841435 523 36
-1.3502045 -16.844959 -0.98756695 520 36
-1.4513907 -16.811495 -0.98605382 577 36
-1.5542409 -16.799292 -0.98587227 609 36
-1.6567017 -16.78348 -0.9855091 600 36
-1.7592354 -16.769028 -0.98526698 570 36
-1.8893288 -17.002954 -1.0002168 303 36
-1.9816381 -16.888931 -0.99398273 173 36
-2.0800874 -16.834848 -0.99144065 607 36
-2.1846299 -16.831667 -0.99204588 606 36
-2.2880006 -16.818935 -0.99210644 382 36
-2.3965008 -16.842131 -0.9944064 526 36
-2.5024376 -16.844881 -0.99549586 626 36
-2.6086512 -16.847952 -0.99664587 519 36
-2.7146788 -16.848381 -0.99767482 588 36
-2.8199856 -16.84322 -0.99840111 527 36
-2.9256728 -16.839367 -0.99924845 579 36
-2.1894784 -12.159785 -0.712053 255 36
-2.24612 -12.049958 -0.7061215 679 36
-2.3081107 -11.974202 -0.70230836 736 36
-2.3799798 -11.951983 -0.70182413 680 36
-2.4584961 -11.962576 -0.70339781 777 36
-2.5359902 -11.966795 -0.70460832 793 36
-2.6132026 -11.968562 -0.70569783 822 36
-2.6911886 -11.972754 -0.70696884 827 36
-2.7684247 -11.972548 -0.7079978 854 36
-6.0294232 -25.363325 -1.543679 154 36
-6.1951194 -25.367548 -1.5462816 133 36
-6.3742037 -25.422972 -1.5521526 217 36
-6.5440035 -25.437517 -1.5555421 188 36
-6.7126932 -25.445141 -1.5585684 41 36
-0 -0 -0 5 36
-8.3553801 -30.165768 -1.8608953 10 36
-8.5490313 -30.144661 -1.8628322 11 36
-0 -0 -0 5 36
-0 -0 -0 5 36
-0 -0 -0 6 36
-0 -0 -0 5 36
-7.2472091 -22.858639 -1.4169377 5 36
-2.3158238 -7.152658 -0.41874447 697 36
-2.3552814 -7.1250458 -0.41789711 1507 36
-2.4005511 -7.1151891 -0.41819975 1555 36
-2.4571617 -7.1380773 -0.42062077 983 36
-2.4979372 -7.1143899 -0.42007604 878 36
-0 -0 -0 765 36
-0 -0 -0 1457 36
-2.5811381 -6.9399729 -0.41184452 1391 36
-2.6282709 -6.9361386 -0.41263136 1298 36
-2.6783295 -6.9394364 -0.4139024 1293 36
-2.7212238 -6.9238009 -0.41396293 1301 36
-2.7388086 -6.8448834 -0.4099077 1317 36
-2.7720962 -6.8066878 -0.4085156 1433 36
-0 -0 -0 1231 36
-2.9306595 -6.9505854 -0.42025763 1518 36
-2.9783678 -6.9443979 -0.42104447 1430 36
-3.057241 -7.0092483 -0.42655233 372 36
-5.3848205 -12.141062 -0.76822108 26 36
-5.4247494 -12.031358 -0.76313692 22 36
-5.4631205 -11.920717 -0.75799221 22 36
-5.4683089 -11.741293 -0.7482475 25 36
-5.4817519 -11.583914 -0.73995548 38 36
-5.5285058 -11.499683 -0.73656601 38 36
-5.5433326 -11.351635 -0.72887921 10 36
-5.605341 -11.302207 -0.72785032 69 36
-5.6741352 -11.266708 -0.72778976 45 36
-5.7158918 -11.178358 -0.72415823 132 36
-5.7793145 -11.133331 -0.72349244 120 36
-5.7288585 -10.872479 -0.7080583 21 36
-0 -0 -0 15 36
-0 -0 -0 162 36
-0 -0 -0 25 36
-5.8858728 -10.535166 -0.69462156 20 36
-0 -0 -0 51 36
-5.8669481 -10.205138 -0.6766454 28 36
-0 -0 -0 24 36
-0 -0 -0 26 36
-5.8792534 -9.8043671 -0.65606654 28 36
-5.5591612 -9.1429567 -0.61170107 33 36
-5.5915842 -9.0704393 -0.60897738 56 36
-5.602695 -8.9648581 -0.60389322 53 36
-5.6020379 -8.8426218 -0.59759855 66 36
-5.6124997 -8.7400513 -0.59269595 61 36
-5.6219158 -8.6376877 -0.58779335 53 36
-5.6176462 -8.5163765 -0.58149862 74 36
-5.6415038 -8.4394274 -0.57841182 94 36
-5.6881423 -8.3972149 -0.57786709 295 36
-5.7469029 -8.3728533 -0.57865393 794 36
-5.7326279 -8.2431955 -0.57169342 67 36
-5.9072881 -8.3841105 -0.58476704 382 36
-5.9661598 -8.3582668 -0.58555388 229 36
-6.0723152 -8.3975325 -0.59124333 800 36
-6.1331654 -8.3729992 -0.59221172 822 36
-6.2040539 -8.361661 -0.59420907 199 36
-5.7946687 -7.710628 -0.5477252 20 36
-6.4029317 -8.4119759 -0.60389322 551 36
-6.4708815 -8.3938732 -0.6055274 609 36
-6.5597353 -8.4020023 -0.60921949 612 36
-6.6637897 -8.4281473 -0.61436421 609 36
-6.7490692 -8.4291744 -0.61763263 569 36
-6.8289528 -8.4224939 -0.62035626 598 36
-6.9508128 -8.4660635 -0.62707466 170 36
-7.0664425 -8.5000086 -0.63312727 110 36
-7.1673198 -8.5145245 -0.6377272 89 36
-7.2479196 -8.5038109 -0.64039034 99 36
-7.336482 -8.5014954 -0.64377981 106 36
-7.4344831 -8.508935 -0.64801663 95 36
-7.5315266 -8.5139952 -0.65213239 97 36
-7.6255808 -8.5144644 -0.65594554 80 36
-7.6998076 -8.4919157 -0.65794289 75 36
-7.8280468 -8.5276003 -0.66478229 379 36
-7.8843007 -8.4837942 -0.66514546 655 36
-7.999136 -8.5021381 -0.67071384 386 36
-8.0959034 -8.4998751 -0.67464805 297 36
-8.0509024 -8.3494473 -0.66617441 36 36
-8.1005878 -8.2984629 -0.66605335 371 36
-8.0825939 -8.1790257 -0.6601218 554 36
-8.1057997 -8.1024637 -0.65782183 582 36
-8.1383162 -8.0357437 -0.65636921 616 36
-8.2246275 -8.0218973 -0.65951651 88 36
-8.3333588 -8.02876 -0.66454017 154 36
-8.4865894 -8.0765638 -0.67325592 519 36
-8.5847149 -8.0701437 -0.67731118 585 36
-8.6808853 -8.0607843 -0.68118483 568 36
-8.8088942 -8.0795584 -0.68766111 524 36
-8.8967705 -8.0602036 -0.69080842 541 36
-9.0249081 -8.0760155 -0.6972242 225 36
-9.115427 -8.0568438 -0.70055312 118 36
-2.6707349 -2.3319156 -0.17785135 58 36
-2.6895287 -2.3193953 -0.17821451 108 36
-2.7105494 -2.3086731 -0.17875925 324 36
-2.6742456 -2.2495952 -0.17476453 141 36
-2.720248 -2.2599304 -0.17730662 307 36
-2.7008784 -2.2159758 -0.17470402 133 36
-2.7043414 -2.1911938 -0.17391717 107 36
-2.7052643 -2.1645827 -0.17294876 129 36
-2.7059627 -2.1380429 -0.17198034 129 36
-2.7001414 -2.1066654 -0.17052773 146 36
-2.7090628 -2.0870125 -0.1702251 272 36
-2.7114887 -2.0624959 -0.16943826 165 36
-2.7153125 -2.0392272 -0.16877247 145 36
-2.7181513 -2.0153949 -0.16804616 140 36
-2.7208002 -1.991605 -0.16731985 139 36
-2.7256873 -1.9696122 -0.16677512 110 36
-2.7352831 -1.951112 -0.16659354 134 36
-2.7496521 -1.9360156 -0.16677512 109 36
-2.7713163 -1.9259421 -0.16750142 94 36
-2.7995458 -1.9201912 -0.16871195 71 36
-2.8145819 -1.9052151 -0.16895404 69 36
-2.8760238 -1.9211705 -0.17258561 106 36
-2.9102612 -1.9183171 -0.1742198 367 36
-2.9646547 -1.9281743 -0.17730662 114 36
-3.0016344 -1.9261166 -0.1791224 234 36
-3.0741234 -1.9460973 -0.18348026 68 36
-3.0978601 -1.9345989 -0.18432763 77 36
-3.1249709 -1.9249761 -0.1854171 64 36
-3.1537857 -1.9161294 -0.18662761 55 36
-10.481533 -6.2794271 -0.70376098 234 36
-10.476895 -6.189611 -0.70073467 447 36
-10.481901 -6.1061177 -0.69843471 451 36
-0 -0 -0 4 36
-10.423146 -5.9017859 -0.68917423 254 36
-10.42517 -5.818748 -0.68681371 465 36
-10.429192 -5.7373514 -0.6846348 513 36
-10.322042 -5.5961857 -0.6748296 55 36
-10.336816 -5.5223985 -0.67349803 125 36
-10.371389 -5.4593339 -0.67355853 491 36
-10.365703 -5.3753762 -0.6708954 539 36
-10.355822 -5.2898784 -0.66799015 557 36
-10.344392 -5.2042565 -0.6650244 600 36
-10.32783 -5.1167598 -0.66175598 570 36
-10.329427 -5.0388522 -0.65975863 507 36
-10.307062 -4.9498844 -0.65618759 599 36
-10.301143 -4.8694859 -0.65376657 616 36
-10.287385 -4.7859793 -0.65086132 640 36
-10.264825 -4.6990862 -0.64741135 610 36
-10.26252 -4.6220784 -0.6453535 536 36
-10.261483 -4.5460849 -0.64341664 577 36
-10.239769 -4.4615078 -0.64014822 681 36
-10.228415 -4.3820858 -0.63760614 690 36
-10.220155 -4.3045211 -0.63530618 655 36
-10.210405 -4.2268419 -0.63294566 659 36
-10.199164 -4.1490684 -0.63052464 618 36
-10.192916 -4.0738153 -0.62846673 672 36
-10.180554 -3.9966075 -0.6260457 701 36
-10.165769 -3.918987 -0.62350363 707 36
-10.072929 -3.812376 -0.61593789 644 36
-10.012855 -3.7195654 -0.61055106 764 36
-10.003603 -3.6464362 -0.60849321 738 36
-10.00699 -3.5782657 -0.6072827 717 36
-9.9694157 -3.4959893 -0.60346955 263 36
-1.6404833 -0.56433725 -0.068057358 18 36
-1.6363478 -0.55171132 -0.067573152 26 36
-1.6368586 -0.54072183 -0.067391574 21 36
-1.6391958 -0.53036106 -0.067331046 26 36
-1.630048 -0.51637721 -0.066544212 13 36
-1.6246046 -0.50370735 -0.065999478 24 36
-1.6219332 -0.49199232 -0.065636322 19 36
-1.6230074 -0.48146373 -0.065515272 18 36
-1.6077151 -0.46621829 -0.064365275 25 36
-1.5961392 -0.4522664 -0.063457385 44 36
-1.5931118 -0.4408682 -0.063094236 35 36
-1.5928957 -0.4303045 -0.062912658 42 36
-1.5366249 -0.40501839 -0.059220575 96 36
-1.5110438 -0.38838327 -0.057465322 148 36
-1.5124301 -0.37886208 -0.057404798 151 36
-1.5098774 -0.36839306 -0.057102166 182 36
-1.5062821 -0.3577393 -0.056739014 188 36
-1.5065036 -0.3480413 -0.05661796 190 36
-1.504715 -0.33791715 -0.056375857 181 36
-1.50676 -0.32867804 -0.056375857 163 36
-1.5058186 -0.31880707 -0.056194279 179 36
-1.4999239 -0.30795753 -0.055710074 220 36
-1.5076594 -0.29991534 -0.056073226 188 36
-1.5084912 -0.29047039 -0.056012701 183 36
-1.507301 -0.28066158 -0.055831123 186 36
-1.5089947 -0.27140769 -0.055831123 163 36
-1.5066975 -0.26146191 -0.05558902 188 36
-1.5063044 -0.2518833 -0.055467967 185 36
-1.5028939 -0.2418444 -0.055165339 196 36
-1.5004036 -0.23200914 -0.054923236 216 36
-1.4978493 -0.22221358 -0.05468113 203 36
-1.4972081 -0.21273844 -0.05456008 194 36
-1.495518 -0.20314544 -0.054378502 213 36
-1.4967363 -0.1939653 -0.054378502 188 36
-1.4959168 -0.18453395 -0.054257449 213 36
-1.497021 -0.17535169 -0.054257449 236 36
-1.4970766 -0.16605307 -0.054196924 216 36
-1.5000528 -0.15707144 -0.054317977 224 36
-1.4980083 -0.14757153 -0.054136399 247 36
-1.4968976 -0.13819414 -0.054015346 219 36
-1.4927448 -0.12857975 -0.053712718 251 36
-1.4964907 -0.11965591 -0.053894296 223 36
-1.4932148 -0.1101786 -0.05365219 245 36
-1.4938627 -0.10101433 -0.05365219 214 36
-1.4914656 -0.091663353 -0.053470612 227 36
-1.4890099 -0.082345605 -0.053289037 211 36
-1.4874932 -0.073110186 -0.053167984 240 36
-1.4859192 -0.063896477 -0.053046931 210 36
-1.4872808 -0.054814346 -0.053107459 233 36
-1.4865915 -0.045657154 -0.053046931 206 36
-1.4888394 -0.036583252 -0.053167984 220 36
-1.4880378 -0.027429083 -0.053107459 249 36
-1.4911724 -0.018334167 -0.053289037 236 36
-1.4912568 -0.0091841612 -0.053289037 207 36
-1.4932815 -3.3328855e-05 -0.053410087 222 36
-1.4912572 0.0091165463 -0.053289037 236 36
-1.4931694 0.018291535 -0.053410087 192 36
-1.4910331 0.027415881 -0.053289037 226 36
-1.4841005 -0.10834011 -0.071162917 176 37
-1.4837422 -0.099164516 -0.071090199 203 37
-1.4833273 -0.089997403 -0.071017481 197 37
-1.4838516 -0.08089418 -0.071017481 179 37
-1.4853162 -0.071836874 -0.071090199 191 37
-1.485729 -0.062721796 -0.071090199 206 37
-1.4860859 -0.053604353 -0.071090199 186 37
-1.4853899 -0.044454277 -0.071017481 196 37
-1.4846376 -0.035314761 -0.070944764 190 37
-1.4838293 -0.026186151 -0.070872054 172 37
-1.4829646 -0.017068792 -0.070799336 159 37
-1.4830415 -0.0079691717 -0.070799336 185 37
-1.4820651 0.0011307717 -0.070726618 183 37
-1.4820303 0.010224531 -0.070726618 193 37
-1.4809424 0.019305687 -0.070653901 159 37
-1.480796 0.028392216 -0.070653901 196 37
-0 0 -0 0 37
-0 0 -0 0 37
-0 0 -0 0 37
-0 0 -0 0 37
-0 0 -0 0 37
-0 0 -0 0 37
-0 0 -0 0 37
-0 0 -0 0 37
-0 0 -0 0 37
-0 0 -0 0 37
-0 0 -0 0 37
-0 0 -0 0 37
-0 0 -0 0 37
-0 0 -0 0 37
-0 0 -0 0 37
-0 0 -0 0 37
-1.4816693 0.18388557 -0.071526498 168 37
-1.4824913 0.19322973 -0.071671925 182 37
-1.4822659 0.2024567 -0.071744643 174 37
-1.4819833 0.21168816 -0.071817361 180 37
-1.4816431 0.22092378 -0.071890071 161 37
-1.4842021 0.23062029 -0.072180942 201 37
-1.4857132 0.24019809 -0.072399087 173 37
-1.4871626 0.24980311 -0.072617233 187 37
-1.4885498 0.25943491 -0.072835386 197 37
-1.4888932 0.26891664 -0.072980814 184 37
-1.4901567 0.27859485 -0.073198959 179 37
-1.4903779 0.28811014 -0.073344395 181 37
-1.4905384 0.2976386 -0.07348983 191 37
-1.490638 0.30717987 -0.073635258 191 37
-1.4926281 0.31714663 -0.073926121 192 37
-1.4935774 0.32693684 -0.074144274 175 37
-1.4964088 0.33718759 -0.074507847 186 37
-1.4991705 0.34748536 -0.074871428 196 37
-1.5047731 0.35852098 -0.075453155 173 37
-1.5054517 0.36845645 -0.075671308 152 37
-1.5089674 0.3791407 -0.076107599 177 37
-1.5124084 0.38988191 -0.076543897 181 37
-1.5138453 0.40017119 -0.076834761 168 37
-1.5132872 0.40997261 -0.076980196 156 37
-1.5155493 0.42058018 -0.077343777 164 37
-1.5158188 0.43068713 -0.077561922 161 37
-1.5150634 0.44053546 -0.077707358 164 37
-1.5152004 0.4506743 -0.077925503 131 37
-1.5162243 0.4611209 -0.078216366 86 37
-1.5905284 0.49433863 -0.084106363 40 37
-1.6235952 0.51553369 -0.086869568 20 37
-1.6336863 0.52978438 -0.087887593 23 37
-1.6332459 0.54073697 -0.088105738 25 37
-1.6384031 0.55361593 -0.088760182 10 37
-1.6264874 0.56073874 -0.088105738 7 37
-1.6164284 0.56839663 -0.087596729 12 37
-1.606337 0.57595229 -0.087087721 8 37
-1.6018357 0.58545601 -0.087015003 8 37
-0 0 -0 7 37
-4.7368493 1.7950186 -0.33199519 266 37
-4.7369123 1.8283566 -0.33286777 369 37
-4.7256045 1.8573873 -0.33286777 409 37
-4.7233796 1.8900512 -0.33359495 345 37
-4.7218547 1.9231337 -0.33439481 368 37
-4.7191801 1.9558867 -0.33512199 397 37
-4.712605 1.98713 -0.33555827 380 37
-4.7049069 2.0179734 -0.33592185 343 37
-4.6997504 2.0499926 -0.33650357 441 37
-4.6934657 2.08162 -0.33701259 394 37
-4.6842422 2.1120183 -0.33730346 448 37
-4.6702881 2.1403053 -0.33723074 411 37
-4.6670136 2.1735508 -0.33803061 502 37
-4.6580973 2.2042782 -0.33839419 427 37
-8.8103209 4.2343712 -0.67536008 914 37
-8.7922401 4.2922873 -0.67601454 935 37
-8.7827168 4.3545704 -0.67739618 902 37
-8.7745399 4.4177947 -0.67892319 877 37
-8.7650299 4.480628 -0.68037754 807 37
-8.7586193 4.5453482 -0.68212271 752 37
-8.749979 4.6092286 -0.68372244 794 37
-8.7373657 4.6712928 -0.68503135 855 37
-8.7173052 4.7295718 -0.68575847 834 37
-8.6994801 4.7892227 -0.6867038 680 37
-8.4818382 4.7374835 -0.67099714 64 37
-8.6678238 4.9113483 -0.68903071 433 37
-8.6876812 4.9932604 -0.69324827 672 37
-8.6861773 5.0635471 -0.69572061 66 37
-7.9852366 4.7209268 -0.63900214 53 37
-8.5968657 5.1538644 -0.69346642 390 37
-8.7057114 5.2919803 -0.70546454 236 37
-8.7418547 5.3876758 -0.71135455 406 37
-8.7356997 5.4581218 -0.71368146 288 37
-0 0 -0 5 37
-2.736455 1.7577546 -0.19979751 13 37
-2.7130778 1.7663541 -0.19870678 44 37
-2.7080173 1.7868108 -0.19921578 40 37
-2.7061248 1.8094882 -0.20001566 42 37
-2.7048814 1.8327684 -0.20088825 44 37
-2.7083883 1.8594867 -0.20219713 46 37
-2.7116687 1.8863165 -0.20350602 59 37
-2.7122748 1.9115336 -0.20459676 52 37
-2.7159209 1.9391457 -0.20597836 43 37
-2.712863 1.9622003 -0.20677824 38 37
-2.7056003 1.9823443 -0.20721453 50 37
-2.692585 1.998314 -0.20714183 52 37
-2.6834626 2.0171938 -0.20743269 19 37
-2.6615098 2.0263746 -0.20656009 18 37
-2.6324356 2.0298834 -0.20503306 35 37
-2.6034193 2.0331123 -0.20350602 23 37
-2.5721154 2.0342066 -0.20176084 42 37
-2.5385609 2.0331244 -0.19979751 32 37
-2.4958191 2.0241723 -0.19696158 21 37
-2.4579098 2.0185692 -0.19456196 19 37
-2.4439435 2.0323379 -0.19441652 32 37
-2.4169276 2.0350952 -0.19303492 32 37
-2.3884516 2.0363045 -0.19150789 29 37
-2.3630733 2.0398471 -0.19027172 27 37
-2.3362398 2.0418434 -0.18889011 40 37
-2.3087239 2.042927 -0.18743579 45 37
-2.2790539 2.0417547 -0.18576333 37 37
-2.248008 2.0389562 -0.18394542 38 37
-2.2178178 2.0365283 -0.18220024 38 37
-2.1935885 2.0392377 -0.18103679 35 37
-2.1665037 2.0389938 -0.17958246 31 37
-2.1402273 2.0391827 -0.17820086 35 37
-2.1161849 2.0412025 -0.1770374 41 37
-2.0943406 2.045094 -0.17609209 36 37
-2.074657 2.0508974 -0.17536494 38 37
-2.0521603 2.0537157 -0.17434691 31 37
-2.0233994 2.0499494 -0.17267445 31 37
-1.9989418 2.0501914 -0.17143828 42 37
-1.9143409 1.9877375 -0.1638758 8 37
-0 0 -0 5 37
-1.8863877 2.0074472 -0.16351223 34 37
-1.8638525 2.0080235 -0.16242149 38 37
-1.8494735 2.0172176 -0.16220334 41 37
-1.8437592 2.0359175 -0.1629305 31 37
-1.8385501 2.055366 -0.16373038 43 37
-1.8364748 2.0785627 -0.16489384 46 37
-1.8368081 2.1048155 -0.16634814 43 37
-1.8362364 2.1303949 -0.16772975 31 37
-1.8360661 2.1568053 -0.16918407 37 37
-1.8362827 2.1840563 -0.17071112 37 37
-1.8324088 2.2067881 -0.17180185 46 37
-1.8352847 2.2380347 -0.17369246 38 37
-0 0 -0 26 37
-1.8351041 2.2946489 -0.17689197 37 37
-1.8370692 2.3262098 -0.17878258 41 37
-1.8331927 2.3508043 -0.18001875 44 37
-1.8315184 2.3785982 -0.18154579 30 37
-0 0 -0 37 37
-0 0 -0 30 37
-0 0 -0 42 37
-0 0 -0 44 37
-0 0 -0 34 37
-1.7873334 2.5069134 -0.18714492 37 37
-0 0 -0 5 37
-2.6684339 3.8405619 -0.30363595 187 37
-2.6521537 3.8675539 -0.30458125 285 37
-2.5841963 3.8185132 -0.29883671 125 37
-2.5507438 3.819371 -0.29752782 111 37
-2.5140841 3.8149667 -0.29578263 89 37
-2.4563627 3.7776535 -0.2912015 57 37
-2.4309824 3.7892971 -0.29091066 95 37
-2.3906107 3.7771785 -0.28858373 75 37
-2.3515368 3.7664001 -0.28640226 63 37
-2.3173947 3.7629271 -0.28487521 74 37
-2.0290463 3.3407059 -0.24764463 137 37
-2.0095356 3.3548038 -0.24779007 129 37
-1.9437453 3.2906575 -0.24131835 12 37
-0 0 -0 12 37
-0 0 -0 16 37
-1.8558071 3.2781506 -0.23731896 127 37
-1.8303087 3.2798975 -0.23651908 139 37
-1.8053399 3.2823288 -0.23579192 148 37
-1.5112456 2.7883797 -0.19390751 72 37
-0 0 -0 80 37
-0 0 -0 67 37
-0 0 -0 78 37
-0 0 -0 79 37
-0 0 -0 62 37
-0 0 -0 73 37
-0 0 -0 81 37
-0 0 -0 83 37
-0 0 -0 93 37
-0 0 -0 95 37
-0 0 -0 111 37
-0 0 -0 87 37
-0 0 -0 99 37
-0 0 -0 113 37
-0 0 -0 64 37
-1.1911511 2.8293362 -0.18649048 57 37
-0 0 -0 52 37
-1.1589733 2.8502066 -0.1869995 51 37
-0 0 -0 43 37
-1.0611873 2.7045476 -0.17449234 8 37
-1.0381112 2.6942587 -0.17318346 15 37
-1.0226197 2.7033758 -0.17340161 13 37
-1.0014951 2.6974466 -0.17245629 29 37
-0.98116553 2.6932342 -0.17165641 23 37
-0.96058947 2.6879354 -0.17078383 10 37
-0 0 -0 11 37
-0 0 -0 18 37
-0.8985222 2.6683035 -0.1679479 13 37
-0.87368536 2.6481974 -0.16598457 5 37
-0.86724567 2.6838734 -0.16831148 8 37
-0 0 -0 5 37
-0.82656503 2.6695459 -0.16642086 3 37
-0.81364387 2.6860204 -0.16729346 6 37
-0.80735976 2.7253838 -0.16991124 11 37
-0.78951073 2.726455 -0.16962036 17 37
-0.77167898 2.7274096 -0.16932951 15 37
-0.7530672 2.7253647 -0.1688205 10 37
-0 0 -0 4 37
-0.71575284 2.7199347 -0.16772975 5 37
-0.69979507 2.7271731 -0.1679479 5 37
-0.68183649 2.7265782 -0.16758433 4 37
-0.66414797 2.726835 -0.16729346 11 37
-0.64394695 2.7163033 -0.16620272 4 37
-0.62659436 2.717288 -0.16598457 14 37
-0.60685003 2.707458 -0.16496655 10 37
-0 0 -0 4 37
-0.56800187 2.6883566 -0.16300322 9 37
-0 0 -0 5 37
-0.53010392 2.6706698 -0.16118531 8 37
-0.51370704 2.6738722 -0.16118531 5 37
-0.49363926 2.6573639 -0.159731 4 37
-0.47785437 2.6632876 -0.15994914 5 37
-0 0 -0 5 37
-0 0 -0 6 37
-0.42970175 2.6775403 -0.16038544 12 37
-0.41402665 2.6850548 -0.16074902 6 37
-0.39725095 2.6855714 -0.16060358 7 37
-0.38104573 2.6899333 -0.16074902 6 37
-0.36453342 2.6922207 -0.16074902 7 37
-0.34800741 2.6944067 -0.16074902 9 37
-0.32633975 2.6549177 -0.15769495 39 37
-0.30830285 2.6420114 -0.15660422 49 37
-0.29241583 2.6468272 -0.15682235 38 37
-0.26931444 2.5831041 -0.15202311 73 37
-0.24896188 2.5390508 -0.14867817 106 37
-0.23328619 2.5395377 -0.14860545 112 37
-0.21718593 2.5349591 -0.14816916 132 37
-0.20138915 2.5332615 -0.14795101 148 37
-0.18642868 2.5424068 -0.14853273 107 37
-0.1711617 2.5484781 -0.14889631 132 37
-0.15594956 2.5564487 -0.14940533 133 37
-0.14059098 2.5633326 -0.14984162 126 37
-0 0 -0 114 37
-0 0 -0 121 37
-0 0 -0 152 37
-0 0 -0 140 37
-0 0 -0 45 37
-0.045135681 2.5119252 -0.14584224 10 37
-0.029758731 2.5151467 -0.14606039 9 37
-0.014356227 2.5202687 -0.14642397 17 37
0.0011083384 2.5103357 -0.1456968 10 37
0.016468763 2.5033004 -0.1451878 15 37
0.031681806 2.4911847 -0.1443152 16 37
0.046820145 2.4829659 -0.14373347 20 37
0.061761003 2.4706674 -0.14286089 18 37
0.076858424 2.4682481 -0.14271545 14 37
0.09192849 2.4657369 -0.14257002 15 37
0.10684222 2.460144 -0.14220645 10 37
0.12164187 2.4534652 -0.14177014 23 37
0.13685885 2.4556603 -0.14198829 22 37
0.15192391 2.4547744 -0.14198829 14 37
0.16738673 2.4597664 -0.14242458 14 37
0.18254977 2.4596877 -0.1424973 27 37
0.19771814 2.4595153 -0.14257002 16 37
0.21229243 2.4522939 -0.14213373 20 37
0 0 -0 14 37
0 0 -0 26 37
0 0 -0 22 37
0 0 -0 22 37
0 0 -0 15 37
0.30143419 2.4348993 -0.141552 23 37
0.3171376 2.4389386 -0.14198829 14 37
0.3326335 2.4408998 -0.14227916 26 37
0.34928748 2.4506621 -0.14315175 26 37
0.36490315 2.452419 -0.14344262 26 37
0.38253435 2.4668899 -0.14467879 16 37
0.39956471 2.4763126 -0.14555138 13 37
0.41623166 2.4826677 -0.14620583 12 37
0.54244477 3.119787 -0.19354394 47 37
0.56881428 3.1566458 -0.19652529 296 37
0.4591209 2.459878 -0.14511508 68 37
0.4738287 2.4550557 -0.14496964 72 37
0.48966193 2.4560149 -0.14526051 72 37
0.50512362 2.4549181 -0.14540595 91 37
0.52368844 2.4683599 -0.14664212 42 37
0.541587 2.4777679 -0.14758742 171 37
0.55765408 2.4782908 -0.14787829 96 37
0.57487029 2.4835684 -0.14853273 111 37
0.59078962 2.4829054 -0.14875089 104 37
0.60530418 2.4763267 -0.14853273 116 37
0.62072957 2.4735336 -0.14860545 101 37
0.6363917 2.4716103 -0.14875089 94 37
0.65052855 2.4638011 -0.14846002 103 37
0.66303307 2.4501348 -0.14773285 87 37
0.67566049 2.4373693 -0.14707841 89 37
0.68625313 2.4178243 -0.14591496 36 37
0.70163119 2.4154837 -0.14606039 74 37
0.71927547 2.4206948 -0.14678755 111 37
0.7355625 2.4210081 -0.14715113 105 37
0.74981302 2.4145439 -0.14700569 94 37
0.76822847 2.4213071 -0.14787829 107 37
0.78337789 2.4174967 -0.14795101 83 37
1.0462713 3.1636324 -0.20561479 55 37
1.072036 3.1760547 -0.20706911 183 37
1.0863129 3.1543274 -0.20590565 98 37
1.1069679 3.1513667 -0.20619652 8 37
0 0 -0 4 37
0 0 -0 6 37
1.1693039 3.1426105 -0.20714183 105 37
1.1949223 3.1521654 -0.20845072 197 37
1.2135233 3.1429131 -0.20830528 224 37
1.2338789 3.1381929 -0.20852342 186 37
1.2545924 3.1342671 -0.20881429 183 37
1.2768083 3.1339002 -0.20939602 183 37
1.2994484 3.1343 -0.21005046 200 37
1.3198174 3.129025 -0.21026862 161 37
1.3425283 3.129118 -0.21092306 197 37
1.3656884 3.1299641 -0.21165022 160 37
1.3885051 3.1297317 -0.21230467 229 37
1.4105508 3.1275182 -0.21281368 195 37
1.4342828 3.1287787 -0.21361355 201 37
1.4559788 3.1253445 -0.21404985 206 37
1.4764073 3.1190567 -0.214268 226 37
1.4976773 3.1144338 -0.21463157 270 37
1.5180713 3.1078744 -0.21484973 194 37
1.5406556 3.1056502 -0.21543145 215 37
1.5632697 3.1032653 -0.21601318 221 37
1.5877279 3.1042721 -0.21688576 688 37
1.6007746 3.0829625 -0.21594046 122 37
1.5796949 2.9971905 -0.20968689 76 37
1.5801907 2.9540164 -0.20692368 64 37
1.5878251 2.9249778 -0.20532392 65 37
1.590835 2.8880932 -0.20306973 82 37
0 0 -0 61 37
0 0 -0 47 37
0 0 -0 67 37
0 0 -0 89 37
0 0 -0 143 37
0 0 -0 178 37
0 0 -0 149 37
0 0 -0 168 37
0 0 -0 161 37
0 0 -0 168 37
0 0 -0 166 37
0 0 -0 174 37
0 0 -0 170 37
0 0 -0 135 37
0 0 -0 150 37
0 0 -0 155 37
0 0 -0 142 37
0 0 -0 126 37
0 0 -0 160 37
0 0 -0 130 37
0 0 -0 135 37
0 0 -0 169 37
1.9261445 2.5622525 -0.19637986 167 37
1.9520961 2.5638795 -0.19761603 162 37
1.9878798 2.577924 -0.20001566 226 37
0 0 -0 169 37
0 0 -0 170 37
0 0 -0 139 37
0 0 -0 145 37
0 0 -0 139 37
2.1209388 2.5505679 -0.20452406 131 37
0 0 -0 126 37
0 0 -0 118 37
0 0 -0 120 37
0 0 -0 127 37
2.2503698 2.5433345 -0.21026862 123 37
2.2699244 2.5339372 -0.21070491 117 37
2.2921271 2.5273516 -0.21143207 109 37
0 0 -0 139 37
0 0 -0 102 37
0 0 -0 137 37
0 0 -0 116 37
2.5249934 2.618145 -0.22786589 56 37
2.9011071 2.9716637 -0.26546004 153 37
2.9234917 2.9580643 -0.26589635 155 37
2.9846053 2.9830906 -0.27033204 81 37
3.1937175 3.153266 -0.28989261 45 37
3.2308509 3.1510239 -0.29171053 103 37
3.263768 3.1442914 -0.29309213 96 37
3.3003352 3.1407115 -0.29483733 89 37
3.334801 3.1347511 -0.29636434 82 37
3.367856 3.1271274 -0.29774594 87 37
3.4024122 3.1205645 -0.29927298 90 37
3.43997 3.116374 -0.3010909 102 37
3.4768605 3.1111741 -0.30283606 87 37
3.5175519 3.1089416 -0.30494484 100 37
3.5681114 3.1148551 -0.3079989 73 37
3.6158538 3.1176584 -0.31076211 85 37
3.6554129 3.1128774 -0.31272545 92 37
3.6889439 3.1025903 -0.31410706 89 37
3.7194173 3.0894587 -0.3151978 101 37
3.7529519 3.0786004 -0.3165794 103 37
3.7849431 3.0661907 -0.31781557 88 37
3.7811046 3.0248353 -0.31570679 6 37
0 0 -0 4 37
0 0 -0 5 37
3.8306115 2.9504638 -0.3151978 6 37
3.8343561 2.9160333 -0.31388891 15 37
3.8489869 2.8900552 -0.31359804 11 37
3.8810666 2.8770783 -0.31490692 172 37
3.9203737 2.8691192 -0.31687027 178 37
3.9589202 2.8602011 -0.31876087 212 37
4.0039992 2.8555517 -0.32123321 188 37
4.0507998 2.8516047 -0.32385099 179 37
4.0870557 2.8397894 -0.32552347 172 37
4.1562142 2.8502061 -0.33010456 116 37
4.1975741 2.840867 -0.33221334 121 37
4.2514133 2.8394389 -0.33541283 144 37
4.2995634 2.8336129 -0.33810332 147 37
4.3553252 2.8321974 -0.34144828 137 37
4.3944435 2.8194282 -0.34333888 128 37
4.4411516 2.8110871 -0.34588394 124 37
4.4963803 2.8075628 -0.34915617 111 37
4.5542789 2.8050351 -0.35264653 122 37
4.6029391 2.7962039 -0.35533702 118 37
4.6593599 2.7914951 -0.35868195 137 37
4.7244811 2.7912734 -0.36275405 142 37
4.7785711 2.7838275 -0.36588085 142 37
4.8310165 2.7748284 -0.36886218 183 37
4.8679104 2.7564406 -0.37053466 373 37
4.8638334 2.7148492 -0.36878949 230 37
4.8734102 2.6811068 -0.36820775 208 37
4.8783727 2.6449714 -0.36726245 251 37
4.8769183 2.6055851 -0.36580813 241 37
4.8831072 2.5704994 -0.36500823 193 37
4.8766556 2.5290055 -0.36319035 326 37
4.8734317 2.4895034 -0.36166331 292 37
4.8716893 2.4510334 -0.36028171 298 37
4.8812752 2.4184372 -0.3598454 256 37
4.9533849 2.4164391 -0.36449924 144 37
4.9816031 2.3924799 -0.36558998 323 37
5.0061064 2.366559 -0.36638984 331 37
4.9861741 2.3198032 -0.36362666 220 37
5.0012212 2.2895803 -0.36369935 268 37
5.0088105 2.2559819 -0.36319035 300 37
5.021647 2.2248018 -0.36311764 268 37
4.8962383 2.1333625 -0.35206479 145 37
5.0009036 2.1425767 -0.35933641 268 37
5.0084419 2.1095273 -0.3589001 280 37
5.0176053 2.0772295 -0.35860923 336 37
5.0228667 2.0433948 -0.35802752 301 37
5.0149374 2.0043888 -0.35642776 333 37
5.0104322 1.967016 -0.35511887 333 37
5.0186853 1.9347997 -0.354828 397 37
5.0202026 1.9000834 -0.35402814 350 37
5.0242882 1.8664641 -0.35344639 355 37
5.0159698 1.8284234 -0.35191938 243 37
5.0261555 1.7972755 -0.35184667 316 37
5.0088558 1.7564943 -0.34966516 210 37
5.0280271 1.7286476 -0.35031962 249 37
5.0366492 1.6971264 -0.35017419 288 37
5.0346565 1.6621227 -0.34922889 231 37
4.9935193 1.6146184 -0.34530222 28 37
5.0004802 1.5830446 -0.34508407 33 37
5.0129571 1.5532187 -0.34530222 23 37
5.0128493 1.5195352 -0.34457505 16 37
5.012517 1.4859115 -0.3438479 21 37
5.0138769 1.4529049 -0.34326616 13 37
5.0111823 1.4188499 -0.34239358 11 37
5.0072985 1.3846169 -0.34144828 14 37
5.0089598 1.3520457 -0.34093925 13 37
5.0113754 1.3197606 -0.34050295 13 37
5.0097194 1.2865036 -0.3397758 18 37
5.018486 1.2559826 -0.33984852 22 37
5.0260983 1.2251662 -0.33984852 30 37
5.0286694 1.1931512 -0.33948493 22 37
5.034924 1.1620489 -0.33941221 22 37
5.0390401 1.1304777 -0.33919406 17 37
5.0400352 1.0982621 -0.33875778 18 37
5.0378976 1.065457 -0.33810332 18 37
5.0384784 1.0333215 -0.33766705 23 37
5.0466805 1.0027757 -0.33781245 14 37
5.0507793 0.97141379 -0.33766705 16 37
5.0576253 0.94058704 -0.33773974 12 37
5.047596 0.90671146 -0.33657628 23 37
5.0707521 0.87879246 -0.33788517 10 37
5.070147 0.8466754 -0.33744889 10 37
5.0722923 0.81507421 -0.33723074 10 37
5.0673418 0.78241175 -0.33650357 11 37
5.0463967 0.74749893 -0.33461297 17 37
5.0400267 0.71497738 -0.3338131 16 37
5.0393772 0.68336767 -0.33344951 14 37
5.0494099 0.65320283 -0.33388579 8 37
5.0543127 0.62233007 -0.33395851 8 37
5.0481305 0.59014535 -0.33323136 14 37
5.0506654 0.55904955 -0.33315864 15 37
5.055984 0.52825642 -0.33330408 17 37
5.0561528 0.49693021 -0.33308592 13 37
0 0 -0 25 37
5.0638576 0.4350172 -0.33323136 22 37
5.0614605 0.40354031 -0.33286777 30 37
5.0578732 0.37203583 -0.3324315 21 37
5.051105 0.34038872 -0.33177704 29 37
5.0471258 0.30902222 -0.33134073 27 37
5.0439477 0.27777249 -0.33097717 46 37
5.0445609 0.2467692 -0.33090445 36 37
0 0 -0 39 37
5.0521927 0.18502976 -0.33126801 45 37
5.0542297 0.15405722 -0.33134073 38 37
5.0580711 0.12311564 -0.33155888 30 37
5.0647144 0.092187859 -0.33199519 30 37
5.0701714 0.061170924 -0.33235878 31 37
5.0834165 0.030139623 -0.33330408 18 37
5.0745296 -0.0010523964 -0.33264962 29 37
5.0804114 -0.032225691 -0.33308592 19 37
5.0801182 -0.063397907 -0.33308592 14 37
5.0736504 -0.094457708 -0.33264962 32 37
5.0739722 -0.12561172 -0.33272234 27 37
5.0780907 -0.15689552 -0.33308592 26 37
5.0889926 -0.1884914 -0.33395851 9 37
5.0807648 -0.21941371 -0.33344951 22 37
5.0793228 -0.25058457 -0.33344951 20 37
5.076694 -0.28169096 -0.3333768 16 37
5.070888 -0.31259114 -0.33308592 19 37
5.0748453 -0.34410307 -0.33352223 13 37
5.0815902 -0.37589541 -0.33417666 21 37
5.0811763 -0.40722728 -0.33432209 16 37
5.0765948 -0.43822601 -0.33417666 13 37
5.0837417 -0.47028363 -0.33490384 20 37
5.0827456 -0.50166351 -0.33504927 18 37
5.0815554 -0.53304881 -0.33519468 17 37
5.0841365 -0.56487811 -0.33563098 18 37
5.0875092 -0.59687507 -0.33614001 22 37
5.0867205 -0.6284464 -0.33635816 17 37
5.0946379 -0.66118371 -0.33723074 13 37
5.0825787 -0.69135773 -0.336649 9 37
5.0900903 -0.72421402 -0.33752161 22 37
5.0806179 -0.75470102 -0.33715802 11 37
5.0906758 -0.78814644 -0.33824876 9 37
5.0877137 -0.81968427 -0.33839419 11 37
5.1002951 -0.85384661 -0.33970308 22 37
5.1057692 -0.88700074 -0.34050295 19 37
5.1169181 -0.92131317 -0.34173912 23 37
5.1209736 -0.95451802 -0.34246629 17 37
5.124814 -0.98780721 -0.34319344 31 37
5.126482 -1.0207903 -0.34377518 25 37
5.1289148 -1.0540315 -0.34442961 17 37
5.125278 -1.0861018 -0.34464777 25 37
5.1243644 -1.1188046 -0.34508407 18 37
5.119349 -1.150663 -0.34522951 22 37
5.1189947 -1.1836244 -0.3457385 16 37
5.1193986 -1.216855 -0.34632024 14 37
5.1283078 -1.2522626 -0.34755641 12 37
5.1360068 -1.2875828 -0.34871987 8 37
5.1270437 -1.3188242 -0.34864715 19 37
5.1294641 -1.3530542 -0.34944701 16 37
5.1355081 -1.3884038 -0.35053778 20 37
5.1240082 -1.4190905 -0.35031962 17 37
5.1411133 -1.4578449 -0.35228294 31 37
5.1531448 -1.4954735 -0.3538827 52 37
5.1572585 -1.5310353 -0.35490072 186 37
5.154448 -1.5646772 -0.35540974 484 37
5.0466304 -1.5658543 -0.34792 189 37
4.9760771 -1.5775144 -0.34326616 178 37
4.8761563 -1.5788511 -0.33635816 170 37
4.826602 -1.595602 -0.33330408 157 37
4.7600155 -1.6060693 -0.32894111 320 37
4.7415833 -1.6323261 -0.32828668 395 37
4.7352428 -1.6627101 -0.32857755 274 37
4.7127438 -1.6873659 -0.32763222 253 37
4.7191668 -1.7224022 -0.32894111 302 37
4.7244024 -1.7572331 -0.33017728 326 37
4.7060695 -1.7833627 -0.32959557 222 37
4.7564535 -1.835894 -0.33439481 381 37
4.7673783 -1.8737955 -0.33614001 537 37
4.7687564 -1.9081967 -0.33715802 444 37
4.7708144 -1.9430611 -0.33824876 460 37
4.772624 -1.9780225 -0.33933949 492 37
4.7659116 -2.0095932 -0.3397758 397 37
4.7424908 -2.0340834 -0.33890322 64 37
4.7390633 -2.0671299 -0.33963037 56 37
4.7454381 -2.1046565 -0.34115741 39 37
4.7533488 -2.1431582 -0.34282988 45 37
4.757338 -2.1801748 -0.34421146 28 37
4.7637634 -2.2185831 -0.34581122 35 37
