# .PCD v0.7 - Point Cloud Data file format
VERSION 0.7
FIELDS x y z intensity ring
SIZE 4 4 4 4 1
TYPE F F F F U
COUNT 1 1 1 1 1
WIDTH 1405
HEIGHT 1
VIEWPOINT 0 0 0 1 0 0 0
POINTS 1405
DATA ascii
0 0 -0 59 60
0 0 -0 45 60
0 0 -0 37 60
2.1619856 2.4757316 -1.1343834 73 60
2.1540577 2.4363234 -1.121917 62 60
2.2204659 2.4805796 -1.1495453 80 60
2.2609382 2.4948118 -1.1630225 76 60
2.3048508 2.5121081 -1.1781845 82 60
2.3420103 2.5213709 -1.1896402 98 60
2.3458257 2.4946082 -1.1835754 49 60
0 0 -0 28 60
0 0 -0 42 60
0 0 -0 73 60
0 0 -0 85 60
0 0 -0 77 60
0 0 -0 23 60
0 0 -0 20 60
0 0 -0 35 60
0 0 -0 54 60
0 0 -0 57 60
2.3562722 2.1891084 -1.1091136 68 60
2.37521 2.1797016 -1.111809 47 60
2.3717957 2.1499126 -1.1037227 85 60
2.33794 2.093246 -1.0811484 3149 60
2.3450968 2.0738723 -1.0784529 4977 60
2.3599052 2.0613017 -1.0794637 5628 60
2.3717957 2.0461681 -1.0791267 5584 60
2.3721216 2.0211971 -1.0733989 4340 60
2.4039314 2.0229697 -1.082496 559 60
2.4286098 2.0184104 -1.0882239 85 60
2.4351261 1.9986928 -1.0855285 65 60
0 0 -0 43 60
0 0 -0 76 60
0 0 -0 57 60
0 0 -0 65 60
0 0 -0 52 60
0 0 -0 37 60
3.5237217 2.6471634 -1.5353312 9 60
3.5580487 2.638952 -1.5434176 19 60
3.6015236 2.6370926 -1.5555471 28 60
3.6176367 2.6149445 -1.5555471 24 60
3.6236494 2.5855894 -1.551167 27 60
3.639446 2.5633066 -1.551167 26 60
3.7594779 2.6134701 -1.5966526 10 60
3.669075 2.5173867 -1.5504931 19 60
3.6665201 2.4826863 -1.5427437 33 60
3.7983346 2.5380743 -1.5929464 35 60
3.714004 2.4489062 -1.5501562 23 60
3.7250142 2.4235046 -1.5484716 21 60
3.7255516 2.391449 -1.5424068 38 60
3.7329957 2.3640115 -1.5393745 23 60
3.7314594 2.3310862 -1.5326358 28 60
3.7448909 2.3076527 -1.5322989 26 60
3.7517383 2.2802305 -1.5292665 15 60
3.7608132 2.2542636 -1.5272449 22 60
3.769711 2.228271 -1.5252234 24 60
3.772737 2.198936 -1.5208433 17 60
3.7771783 2.1705861 -1.5171369 17 60
3.7797754 2.1413367 -1.5127568 22 60
3.7879109 2.11535 -1.5107353 17 60
3.7983444 2.0907063 -1.5097245 48 60
3.797859 2.0601788 -1.5043336 25 60
4.5968018 2.4570961 -1.8234072 17 60
4.6142912 2.4301603 -1.8244179 27 60
4.6090569 2.3913965 -1.8163316 33 60
4.6186132 2.3605003 -1.8143101 45 60
4.6203947 2.3257675 -1.8092561 33 60
4.6286731 2.2944469 -1.8068976 36 60
4.6358953 2.2626994 -1.8042021 39 60
4.6564808 2.2374732 -1.8068976 40 60
4.6624618 2.2052369 -1.8038652 31 60
4.6733441 2.1753953 -1.8028544 38 60
4.7028689 2.1541278 -1.8092561 21 60
4.6850944 2.1113074 -1.7971265 35 60
4.6945181 2.0809946 -1.7957789 34 60
4.7184186 2.0570409 -1.800159 32 60
4.7309518 2.0280504 -1.800159 37 60
4.7372327 1.9964247 -1.7978004 45 60
4.7615719 1.9723635 -1.8025175 30 60
4.7596312 1.9374315 -1.7971265 42 60
4.7714295 1.9081904 -1.7971265 36 60
4.766397 1.8723382 -1.7907249 48 60
4.7250881 1.8227292 -1.770509 84 60
4.7951784 1.8160399 -1.7930834 33 60
4.8071136 1.7869111 -1.7934203 18 60
4.807373 1.7535107 -1.7893772 28 60
4.7985382 1.7170033 -1.7819647 14 60
4.8196449 1.691268 -1.7860079 50 60
4.8165765 1.6570699 -1.7809539 42 60
4.7891808 1.6148527 -1.7668028 27 60
4.7668142 1.5748063 -1.7546732 34 60
4.7602625 1.5403118 -1.7486086 34 60
4.7489796 1.5045357 -1.7408592 29 60
4.741035 1.4700714 -1.7344574 32 60
4.7391539 1.4376743 -1.7304143 42 60
4.7370539 1.4053557 -1.726371 46 60
4.741971 1.3752146 -1.7250234 27 60
4.747602 1.3453226 -1.7240126 25 60
4.7521377 1.3151623 -1.7226648 23 60
4.757391 1.2852426 -1.7216541 30 60
4.7670083 1.2565074 -1.7223279 34 60
4.7728047 1.2267653 -1.7216541 30 60
4.7793288 1.1972281 -1.7213172 37 60
4.7810965 1.1665415 -1.7192955 28 60
4.7854161 1.1365308 -1.7182847 32 60
4.7840433 1.1052399 -1.7152524 27 60
4.7870603 1.0750399 -1.7139046 23 60
4.7889667 1.0446438 -1.71222 25 60
4.7925229 1.0146548 -1.7112092 26 60
4.796814 0.9848507 -1.7105353 23 60
4.7990727 0.95466501 -1.7091876 21 60
4.803916 0.92502248 -1.7088506 33 60
4.8085756 0.89535654 -1.7085137 27 60
4.8130522 0.86566824 -1.7081769 24 60
4.8173456 0.83595872 -1.7078398 29 60
4.8214555 0.80622905 -1.707503 24 60
4.8216639 0.77588248 -1.7058183 25 60
4.8244729 0.74599504 -1.7051444 24 60
4.8233714 0.71555007 -1.7031229 40 60
4.8276711 0.68594098 -1.7031229 31 60
4.8327217 0.65643269 -1.7034597 25 60
4.8413272 0.62737191 -1.7051444 32 60
4.8478889 0.59799987 -1.7061552 41 60
4.8542724 0.56857085 -1.7071661 37 60
4.8576698 0.53877491 -1.7071661 40 60
4.8552656 0.50837082 -1.7051444 32 60
3.6111443 0.35581884 -1.2566893 44 60
3.6179473 0.33408695 -1.258374 23 60
0 0 -0 5 60
0 0 -0 8 60
3.6309958 0.2679894 -1.2610694 9 60
3.5912385 0.24291366 -1.2462445 47 60
3.5729265 0.2196625 -1.239169 79 60
3.5685666 0.19742388 -1.2371473 58 60
3.5668895 0.17538543 -1.2361366 80 60
3.5631952 0.15329428 -1.2344519 65 60
3.5866501 0.13225828 -1.2425382 31 60
3.6956193 0.11356278 -1.2812853 6 60
4.8088007 0.11812356 -1.6795377 10 60
3.9866769 0.073522098 -1.3850601 12 60
0 0 -0 5 60
4.8996038 0.030132221 -1.7115462 25 60
4.8978138 6.8371693e-05 -1.7108723 43 60
4.8958387 -0.029972373 -1.7101984 46 60
4.8927383 -0.059977263 -1.7091876 56 60
4.9035745 -0.090206116 -1.7132307 41 60
4.9076352 -0.12040803 -1.7149154 41 60
4.9115095 -0.15066315 -1.7166001 36 60
4.912374 -0.18086621 -1.717274 45 60
4.9168158 -0.2112475 -1.7192955 40 60
4.9173079 -0.24150506 -1.7199694 38 60
0 -0 -0 42 60
4.9120946 -0.30171421 -1.7192955 30 60
4.910151 -0.33184859 -1.7192955 33 60
4.9052052 -0.36176249 -1.7182847 29 60
4.9047704 -0.39200363 -1.7189586 29 60
4.9032106 -0.42217219 -1.7192955 35 60
4.900528 -0.45224977 -1.7192955 39 60
4.9014087 -0.48267972 -1.7206433 27 60
4.899291 -0.51284319 -1.7209802 25 60
4.8951163 -0.54279119 -1.7206433 30 60
4.8944993 -0.57314557 -1.7216541 32 60
4.8927593 -0.60339749 -1.7223279 26 60
4.8908319 -0.63364965 -1.7230018 30 60
4.887785 -0.66377407 -1.7233387 24 60
4.8864164 -0.69414997 -1.7243495 33 60
4.8820653 -0.72411937 -1.7243495 24 60
4.8793912 -0.75434935 -1.7250234 28 60
4.8802481 -0.78517234 -1.7270449 26 60
4.8874106 -0.81712151 -1.731425 20 60
4.8869433 -0.84789985 -1.7331097 33 60
4.8909154 -0.87953675 -1.736479 38 60
4.8900547 -0.91039228 -1.7381637 24 60
4.8834519 -0.94020188 -1.7378267 37 60
4.8803611 -0.97069973 -1.7388375 25 60
4.8890696 -1.0036572 -1.7442285 21 60
4.8763719 -1.0322717 -1.7418699 30 60
4.8690262 -1.0619724 -1.7415329 27 60
4.8679299 -1.0930663 -1.7435546 47 60
4.856545 -1.1218549 -1.7418699 42 60
4.8568983 -1.1533738 -1.7445654 22 60
4.8405828 -1.1809212 -1.741196 48 60
4.8378124 -1.2117444 -1.7428807 44 60
4.8339334 -1.2423437 -1.7442285 47 60
4.8280406 -1.2724607 -1.7449023 35 60
4.8274136 -1.3040259 -1.7475977 40 60
4.8247657 -1.3351289 -1.7496194 46 60
4.825541 -1.3672754 -1.7529886 31 60
4.8288159 -1.4002684 -1.7573687 38 60
4.8291597 -1.4325495 -1.760738 32 60
4.8301892 -1.4651607 -1.7644442 45 60
4.8292017 -1.4972807 -1.7674767 36 60
4.8306947 -1.5302968 -1.7715198 57 60
4.8292756 -1.5625178 -1.7745522 48 60
4.8321133 -1.5962558 -1.7792692 67 60
4.8124142 -1.6225654 -1.775563 167 60
4.8085999 -1.6542077 -1.7779216 146 60
4.8028011 -1.6852406 -1.7796062 188 60
4.7941432 -1.7153128 -1.78028 167 60
4.8029871 -1.7517959 -1.7876925 168 60
4.8124456 -1.7887799 -1.795442 120 60
4.8031406 -1.8189418 -1.7961158 76 60
4.7945247 -1.8493958 -1.7971265 59 60
4.787468 -1.8805012 -1.7988112 79 60
4.8011909 -1.9199812 -1.8085822 60 60
4.8050165 -1.955795 -1.814647 40 60
4.7920556 -1.9848809 -1.8143101 54 60
4.7797866 -2.0142469 -1.8143101 51 60
4.7664719 -2.0431664 -1.8139732 65 60
4.7590237 -2.0746322 -1.8159947 43 60
4.7470655 -2.1041756 -1.8163316 31 60
4.729773 -2.1313291 -1.814647 22 60
4.7191744 -2.1614866 -1.8156577 20 60
4.7135048 -2.1939788 -1.8186902 26 60
4.7076144 -2.2264824 -1.8217225 24 60
4.7031989 -2.2598121 -1.8254288 40 60
4.7027822 -2.2952361 -1.8308197 35 60
4.6945152 -2.3269763 -1.8331782 27 60
4.6893992 -2.3603945 -1.8368844 27 60
4.6857266 -2.3946946 -1.8412645 34 60
4.6742878 -2.4251354 -1.8426123 30 60
4.6634846 -2.4559643 -1.8442969 34 60
4.6474967 -2.4840889 -1.8439599 30 60
4.6387882 -2.5161505 -1.8466555 25 60
4.6273861 -2.5468364 -1.84834 19 60
4.6092057 -2.5738041 -1.8473293 24 60
4.5974221 -2.604358 -1.8490139 24 60
4.5797229 -2.6315799 -1.84834 21 60
4.5569825 -2.6558378 -1.8456446 24 60
4.5430322 -2.6851864 -1.8466555 18 60
4.5288935 -2.7144637 -1.8476663 28 60
4.5169797 -2.7451355 -1.8496878 25 60
4.4992495 -2.7723055 -1.8493509 25 60
4.4861465 -2.8023546 -1.8510356 26 60
4.4784122 -2.8358736 -1.8550787 31 60
4.460135 -2.8627906 -1.8547418 22 60
4.4416962 -2.88959 -1.8544048 24 60
4.4270263 -2.9188628 -1.8557526 25 60
4.4160786 -2.9506798 -1.8587849 27 60
4.3963313 -2.9766648 -1.8581111 22 60
4.3849711 -3.0083785 -1.8611435 26 60
4.370295 -3.037915 -1.8628281 22 60
4.3600392 -3.0706375 -1.8665344 19 60
4.344182 -3.09952 -1.8678821 23 60
4.3296599 -3.1294265 -1.8699037 24 60
4.3156943 -3.1598277 -1.8722622 34 60
4.3075676 -3.1946628 -1.8773161 17 60
4.2871318 -3.2204678 -1.8769792 15 60
4.2710371 -3.2495632 -1.8786639 19 60
4.2457972 -3.2716854 -1.8763053 32 60
4.2182207 -3.2918825 -1.872936 22 60
4.1935105 -3.3141999 -1.8709145 18 60
4.1730962 -3.3398685 -1.8709145 15 60
4.151793 -3.3648183 -1.8705776 15 60
4.1405301 -3.3979955 -1.8749577 11 60
4.1217747 -3.4251428 -1.8759685 10 60
4.1086049 -3.4570374 -1.8796747 17 60
4.0994987 -3.4925632 -1.8854024 20 60
4.0936751 -3.5311823 -1.892815 7 60
2.0360854 -1.7779633 -0.92548627 12 60
2.0300746 -1.7947891 -0.92784476 18 60
2.0127106 -1.8015592 -0.92481238 13 60
2.0037115 -1.8157721 -0.92582321 13 60
1.9869828 -1.8229396 -0.92312771 13 60
1.9750702 -1.8344563 -0.92279083 13 60
1.9370297 -1.8213829 -0.9096505 29 60
1.9305905 -1.8377788 -0.912009 20 60
1.893519 -1.8247594 -0.89920563 36 60
1.8627455 -1.8172735 -0.88943464 41 60
1.8562485 -1.8333008 -0.89179313 73 60
1.8363103 -1.8360006 -0.88741308 47 60
1.8031768 -1.8251275 -0.87629431 23 60
1.780109 -1.8240265 -0.8702296 16 60
1.7708436 -1.8369485 -0.87124038 31 60
1.7556438 -1.843688 -0.86921877 50 60
1.7288187 -1.8379638 -0.86113244 24 60
1.7085378 -1.8388791 -0.85641539 34 60
1.6844922 -1.8354523 -0.84967679 23 60
1.6643469 -1.8359863 -0.84495974 23 60
1.6473986 -1.8398501 -0.84192741 27 60
1.6342076 -1.8478076 -0.84091657 17 60
1.6172652 -1.8514174 -0.83788419 27 60
1.6114091 -1.8677227 -0.84091657 41 60
1.6072452 -1.8861758 -0.84495974 28 60
1.6035215 -1.9053682 -0.84933984 18 60
1.598419 -1.9231373 -0.85304612 19 60
1.5931585 -1.9409151 -0.85675234 25 60
1.5824047 -1.9521171 -0.85742623 21 60
1.5686321 -1.9595844 -0.85641539 26 60
1.54899 -1.9595691 -0.85203528 20 60
1.5265114 -1.9556754 -0.84597057 24 60
1.4955196 -1.9403927 -0.83485186 48 60
1.4761747 -1.9397911 -0.83047175 33 60
1.4495429 -1.9292388 -0.82171154 44 60
1.4309483 -1.9290214 -0.81766838 42 60
1.4107425 -1.9263695 -0.81261438 50 60
1.391175 -1.9243059 -0.80789733 34 60
1.3700459 -1.9197757 -0.80216956 27 60
1.3566142 -1.9258366 -0.80115873 38 60
1.3393985 -1.926393 -0.79778945 46 60
1.3232923 -1.9283639 -0.79509395 29 60
1.3051013 -1.9270912 -0.79105079 31 60
1.2922062 -1.9334972 -0.79037696 40 60
1.2740995 -1.9319566 -0.7863338 35 60
1.2581141 -1.933424 -0.78363836 42 60
1.2447016 -1.9387301 -0.78262752 35 60
1.231775 -1.9447399 -0.78195369 34 60
1.222313 -1.9562542 -0.78363836 30 60
1.2117683 -1.9661222 -0.78464913 36 60
1.2045709 -1.9815667 -0.78801841 37 60
1.2073933 -2.0139563 -0.79846328 33 60
1.212258 -2.0505071 -0.81059283 39 60
1.2072382 -2.0709226 -0.81598371 36 60
1.1945086 -2.0782909 -0.81598371 33 60
1.1826619 -2.0872197 -0.81665754 34 60
1.1735047 -2.1010137 -0.81935298 34 60
1.1633146 -2.1131239 -0.8213746 53 60
1.1400028 -2.1011863 -0.81362516 29 60
1.1230948 -2.1006682 -0.81059283 31 60
1.1018493 -2.091691 -0.80419111 25 60
1.0777217 -2.0766826 -0.7954309 22 60
1.0653876 -2.0840948 -0.79576784 27 60
1.0445377 -2.0746131 -0.78936619 20 60
1.025517 -2.0683291 -0.78431219 25 60
1.0041355 -2.0568135 -0.77723664 14 60
0.99475789 -2.0697253 -0.77993208 17 60
0.97761208 -2.0664272 -0.77622586 13 60
0.9633252 -2.0689726 -0.77487814 19 60
0.95061213 -2.0748444 -0.77487814 12 60
0.94095731 -2.0875056 -0.77757359 17 60
0.92317152 -2.0820498 -0.77319348 20 60
0.91037893 -2.0876751 -0.77319348 19 60
0.90051925 -2.1001449 -0.77588892 14 60
0.89127189 -2.1143074 -0.77925825 19 60
0.8764807 -2.115387 -0.77757359 22 60
0.86703348 -2.1294458 -0.78094286 16 60
0.85430068 -2.1356001 -0.7812798 14 60
0.83670652 -2.1294088 -0.7768997 28 60
0.8266741 -2.1424088 -0.77993208 18 60
0.81451315 -2.1500826 -0.78094286 19 60
0.80130517 -2.1550398 -0.78094286 18 60
0.79516345 -2.1793761 -0.78835535 7 60
0.76877362 -2.1478672 -0.7745412 12 60
0.75651515 -2.1552091 -0.77555197 14 60
0.73837709 -2.145565 -0.77016109 14 60
0.7248975 -2.149163 -0.76982415 12 60
1.7634915 -5.338098 -1.9699721 18 60
1.7312839 -5.3506098 -1.970646 27 60
1.6984206 -5.3611321 -1.970646 35 60
1.6557362 -5.3399768 -1.9588535 8 60
0.68076468 -2.2433691 -0.79711556 5 60
0.66297102 -2.233964 -0.79206163 11 60
0 -0 -0 5 60
0 -0 -0 3 60
0 -0 -0 4 60
0.60843813 -2.2513793 -0.79273546 5 60
0.59533215 -2.2578015 -0.79374623 4 60
0.58287323 -2.2668834 -0.79576784 8 60
0.56941032 -2.2722437 -0.79644173 5 60
0.55501121 -2.2738655 -0.79576784 6 60
0.54257101 -2.2836406 -0.79812634 7 60
0.52981979 -2.2924311 -0.80014795 7 60
0 -0 -0 4 60
0 -0 -0 4 60
0 -0 -0 3 60
0 -0 -0 4 60
0 -0 -0 10 60
0.4217709 -2.1892617 -0.75601 18 60
0.40402296 -2.1686676 -0.74758673 40 60
0.38904274 -2.161839 -0.7442174 34 60
0.37496608 -2.1595469 -0.74253273 33 60
0.36139789 -2.1599498 -0.7418589 42 60
0.34813789 -2.1621265 -0.7418589 42 60
0.33457714 -2.1623611 -0.74118501 28 60
0.32047433 -2.1587851 -0.73916346 29 60
0.30748698 -2.1625752 -0.73983729 28 60
0.29459181 -2.1672201 -0.74084812 39 60
0.28201401 -2.1745894 -0.74286968 43 60
0.26935682 -2.1818857 -0.74489129 39 60
0.25618288 -2.1853676 -0.74556512 31 60
0.24359861 -2.1943848 -0.74826056 19 60
0.23052143 -2.1995838 -0.74960828 12 60
0.5525341 -5.6097689 -1.975363 18 60
0.51983231 -5.6318045 -1.9821017 29 60
0.48567 -5.6395783 -1.9837863 26 60
0.45128193 -5.645268 -1.9847971 23 60
0.41954121 -5.6873679 -1.9989482 9 60
0 -0 -0 4 60
0.13194071 -2.1435497 -0.72669703 12 60
0.11888947 -2.146199 -0.72737086 19 60
0 -0 -0 5 60
0.092462614 -2.1456151 -0.72669703 18 60
0.079295628 -2.146142 -0.72669703 29 60
0.065808639 -2.1362362 -0.72299075 27 60
0.052538391 -2.1300111 -0.72063226 21 60
0.039450631 -2.1293519 -0.72029531 18 60
0.026292494 -2.1220222 -0.71759987 31 60
0.01322579 -2.1146114 -0.71490443 25 60
0.00025083724 -2.1099453 -0.71321976 28 60
-0.01268387 -2.1080239 -0.71254593 10 60
-0.025525298 -2.1003749 -0.70985043 28 60
-0.038360298 -2.0973547 -0.70883965 14 60
-0.051112864 -2.0923734 -0.70715499 11 60
-0.064182006 -2.0995491 -0.70985043 20 60
-0.076855086 -2.0934706 -0.70782888 24 60
-0.089496493 -2.0882561 -0.70614421 22 60
-0.10166046 -2.0745022 -0.70142716 17 60
-0.11355498 -2.0587981 -0.69603628 22 60
-0.12329555 -2.0110748 -0.67918974 46 60
-0.13372609 -1.9820989 -0.66908181 72 60
-0.14734133 -2.0009596 -0.67615736 42 60
-0.15826468 -1.9831243 -0.67009258 48 60
-0.18110108 -2.1059387 -0.71456748 16 60
-0.19705035 -2.1376019 -0.72636008 14 60
-0.21256374 -2.1607141 -0.7351203 5 60
-0.22405192 -2.142514 -0.72905552 9 60
-0.2451895 -2.2131543 -0.75499922 62 60
-0.25120363 -2.1470842 -0.73175097 4 60
-0.26345065 -2.138027 -0.72905552 8 60
-0.73327041 -5.6592803 -2.0002959 10 60
-0.77520734 -5.7078528 -2.019501 54 60
-0.80981797 -5.7001925 -2.0184903 44 60
-0.84229064 -5.6783524 -2.0124254 66 60
-0.87826788 -5.680521 -2.015121 57 60
-0.91430342 -5.6824617 -2.0178163 56 60
-0.94853181 -5.6730299 -2.0164685 66 60
-0.98380607 -5.6698861 -2.0174794 56 60
-1.0215782 -5.6804228 -2.0235441 42 60
-1.0572754 -5.6786757 -2.0252287 54 60
-1.0901403 -5.6619115 -2.0215225 52 60
-1.1287193 -5.6745076 -2.0285981 58 60
-1.1621903 -5.6610193 -2.0262396 51 60
-1.2000248 -5.668519 -2.0316305 47 60
-1.235185 -5.662889 -2.0323043 50 60
-1.2694958 -5.6533661 -2.0316305 46 60
-1.3011926 -5.6326275 -2.0269134 62 60
-1.3359469 -5.6254535 -2.0272505 62 60
-1.3697692 -5.6144061 -2.0262396 61 60
-1.4041928 -5.605896 -2.0262396 67 60
-1.4423144 -5.6117644 -2.0316305 40 60
-0.63567948 -2.4126935 -0.85102451 17 60
-0.64826107 -2.4005673 -0.84799212 66 60
-0.66147143 -2.3910999 -0.84597057 91 60
-0.67484677 -2.382467 -0.84428591 80 60
-0.68709195 -2.3701429 -0.84125352 107 60
-0.69974709 -2.3595641 -0.83889502 92 60
-0.71175158 -2.3471174 -0.83586264 98 60
-0.7244665 -2.3373103 -0.83384103 96 60
-0.72571164 -2.2915339 -0.81834221 9 60
-0 -0 -0 5 60
-0 -0 -0 5 60
-0 -0 -0 4 60
-0.78448725 -2.2810466 -0.8213746 7 60
-0 -0 -0 4 60
-0.81844783 -2.2880909 -0.82777631 3 60
-0.83505338 -2.290102 -0.83047175 7 60
-0.85827637 -2.3096454 -0.8399058 8 60
-0.87443304 -2.3096185 -0.84192741 6 60
-0.89163828 -2.3121154 -0.84495974 8 60
-0.91097277 -2.3197458 -0.85001373 8 60
-0.92938524 -2.3246026 -0.85405689 6 60
-0.94718146 -2.3275766 -0.85742623 11 60
-0.96432829 -2.3286798 -0.86012167 10 60
-0.97896433 -2.3235865 -0.86045861 6 60
-0.99839735 -2.3296509 -0.8651756 8 60
-0 -0 -0 5 60
-0 -0 -0 5 60
-1.0515552 -2.3340549 -0.87427276 4 60
-1.0642883 -2.3241348 -0.87292504 7 60
-0 -0 -0 6 60
-1.1076255 -2.3423903 -0.88539147 47 60
-1.1223851 -2.3363986 -0.88572842 51 60
-1.1371129 -2.3303139 -0.88606536 31 60
-1.159336 -2.3393204 -0.89246702 52 60
-1.1757848 -2.3363676 -0.89415169 43 60
-1.1896698 -2.3282707 -0.89381474 59 60
-1.2087038 -2.3301201 -0.89752096 67 60
-1.2128863 -2.3034999 -0.88977158 46 60
-1.2061348 -2.2569892 -0.87393582 24 60
-1.2118791 -2.2346494 -0.86787105 30 60
-1.2042278 -2.188405 -0.85203528 21 60
-1.2107464 -2.1686447 -0.84698135 39 60
-0 -0 -0 0 60
-0 -0 -0 0 60
-0 -0 -0 0 60
-0 -0 -0 0 60
-0 -0 -0 0 60
-0 -0 -0 0 60
-0 -0 -0 0 60
-0 -0 -0 0 60
-0 -0 -0 0 60
-0 -0 -0 0 60
-0 -0 -0 0 60
-0 -0 -0 0 60
-0 -0 -0 0 60
-0 -0 -0 0 60
-0 -0 -0 0 60
-0 -0 -0 0 60
-1.3817134 -1.9622849 -0.81699449 37 60
-1.3970091 -1.9583684 -0.8190161 39 60
-1.4117571 -1.9535748 -0.82070071 51 60
-1.4326178 -1.9570298 -0.82609165 31 60
-1.4462817 -1.9504712 -0.82710242 33 60
-1.459919 -1.9438184 -0.8281132 34 60
-1.5088786 -1.9835263 -0.85001373 6 60
-0 -0 -0 6 60
-0 -0 -0 5 60
-0 -0 -0 3 60
-0 -0 -0 3 60
-0 -0 -0 4 60
-0 -0 -0 4 60
-0 -0 -0 4 60
-0 -0 -0 7 60
-0 -0 -0 4 60
-0 -0 -0 5 60
-0 -0 -0 4 60
-0 -0 -0 4 60
-0 -0 -0 5 60
-0 -0 -0 8 60
-0 -0 -0 5 60
-0 -0 -0 6 60
-0 -0 -0 4 60
-1.9526991 -2.0512793 -0.97164577 4 60
-1.9881191 -2.0629842 -0.98343837 14 60
-2.0645258 -2.1161089 -1.0161207 46 60
-2.0748243 -2.1007221 -1.014773 61 60
-2.0876751 -2.0879517 -1.014773 52 60
-2.095758 -2.0704713 -1.0124145 67 60
-2.1097705 -2.058888 -1.0130883 66 60
-2.1474481 -2.0700779 -1.0255548 44 60
-2.1778398 -2.0737412 -1.034315 36 60
-2.2042413 -2.0732386 -1.0410535 34 60
-2.2272687 -2.0692861 -1.0461075 27 60
-2.2524118 -2.0670383 -1.0521723 25 60
-2.2755175 -2.0626624 -1.0572263 38 60
-2.2965493 -2.0561967 -1.0612694 25 60
-2.3211141 -2.0526686 -1.0669973 26 60
-2.3379204 -2.0421035 -1.0690188 45 60
-2.3539715 -2.0307946 -1.0707035 34 60
-2.3699715 -2.0193653 -1.0723882 38 60
-2.3837583 -2.0059979 -1.0730621 30 60
-2.3967462 -1.9919353 -1.0733989 27 60
-2.4081955 -1.9765943 -1.0730621 28 60
-0 -0 -0 28 60
-2.4374161 -1.9510112 -1.0754205 29 60
-2.4220085 -1.9144199 -1.0629541 80 60
-2.4411325 -1.9053148 -1.0663234 48 60
-2.4460649 -1.8851286 -1.063291 42 60
-2.4470949 -1.8621036 -1.058574 41 60
-2.4411597 -1.834048 -1.0508245 46 60
-2.4432919 -1.8123051 -1.0467814 74 60
-2.4422107 -1.7883805 -1.0413905 72 60
-2.44627 -1.7683983 -1.0383581 59 60
-2.4601405 -1.7555422 -1.0397059 52 60
-2.4616282 -1.7339089 -1.0356627 48 60
-2.4760866 -1.7214588 -1.0373473 33 60
-2.4811678 -1.7025051 -1.0349888 37 60
-2.4814317 -1.6803871 -1.0306087 95 60
-2.5026562 -1.6724522 -1.0353258 52 60
-2.5537474 -1.6840123 -1.0528462 14 60
-2.6177011 -1.7032214 -1.0757575 8 60
-2.5464871 -1.6347483 -1.0410535 33 60
-2.5604472 -1.6216109 -1.0427382 21 60
-2.5639606 -1.6018796 -1.0400428 22 60
-2.561717 -1.5787092 -1.0349888 33 60
-2.5641141 -1.5585607 -1.0319564 31 60
-2.5639377 -1.5369904 -1.0279132 32 60
-2.566025 -1.5169182 -1.0248809 48 60
-2.5736575 -1.5001967 -1.024207 29 60
-2.5754666 -1.4801555 -1.0211747 43 60
-2.5885963 -1.466645 -1.0228593 28 60
-2.5917923 -1.4475211 -1.0205008 44 60
-2.6014502 -1.4320449 -1.0208377 44 60
-2.6085329 -1.4151579 -1.0201639 38 60
-2.6188278 -1.4000132 -1.0208377 40 60
-2.6123731 -1.3760219 -1.014773 18 60
-2.6291246 -1.3643023 -1.0181422 22 60
-2.6315775 -1.3451457 -1.0157838 18 60
-2.6507149 -1.3344758 -1.0201639 27 60
-2.6622276 -1.3198586 -1.0215116 24 60
-2.6787376 -1.3076277 -1.0248809 18 60
-2.6943488 -1.2948362 -1.0279132 30 60
-2.7099035 -1.2819021 -1.0309457 28 60
-2.71345 -1.2632639 -1.029261 20 60
-2.6817725 -1.2285576 -1.0137621 4 60
-0 -0 -0 4 60
-0 -0 -0 5 60
-0 -0 -0 4 60
-1.0841688 -0.46508449 -0.38033199 8 60
-1.1121641 -0.46902528 -0.39010301 11 60
-1.108062 -0.45931032 -0.38740754 14 60
-1.1631842 -0.47379714 -0.40762341 3 60
-1.1695663 -0.46804926 -0.40897113 3 60
-0 -0 -0 4 60
-0 -0 -0 4 60
-1.2537086 -0.47511426 -0.43794718 131 60
-1.2460096 -0.46347684 -0.43390402 91 60
-1.2541373 -0.45775816 -0.4359256 27 60
-1.2445112 -0.44561443 -0.43120858 61 60
-1.2356722 -0.43391791 -0.42682847 40 60
-1.2472149 -0.4293901 -0.43019778 51 60
-1.2382275 -0.41781935 -0.42581767 118 60
-1.2398739 -0.40991858 -0.42548075 86 60
-1.2316158 -0.39882565 -0.42143756 49 60
-1.2439132 -0.39438826 -0.42514381 102 60
-1.2490077 -0.38758466 -0.42615461 137 60
-1.2252332 -0.37198928 -0.41638362 43 60
-1.2482539 -0.37062192 -0.42413303 120 60
-0 -0 -0 5 60
-0 -0 -0 6 60
-2.5978754 -0.71914947 -0.92279083 4 60
-0 -0 -0 4 60
-2.6083257 -0.68769515 -0.92346466 6 60
-2.5906105 -0.66605431 -0.91537833 5 60
-0 -0 -0 4 60
-0 -0 -0 4 60
-0 -0 -0 4 60
-0 -0 -0 4 60
-0 -0 -0 5 60
-1.242699 -0.2713716 -0.41335124 36 60
-1.2406563 -0.26296166 -0.41200352 29 60
-1.2376349 -0.25439775 -0.41031885 66 60
-1.2308615 -0.24514638 -0.40728647 23 60
-1.2378899 -0.23865706 -0.40930808 25 60
-0 -0 -0 11 60
-1.2286786 -0.22128256 -0.40492797 9 60
-0 -0 -0 6 60
-0 -0 -0 5 60
-0 -0 -0 5 60
-0 -0 -0 5 60
-0 -0 -0 4 60
-0 -0 -0 8 60
-0 -0 -0 4 60
-0 -0 -0 5 60
-0 -0 -0 4 60
-0 -0 -0 4 60
-0 -0 -0 4 60
-0 -0 -0 4 60
-0 -0 -0 4 60
-0 -0 -0 3 60
-0 -0 -0 4 60
-0 -0 -0 4 60
-0 -0 -0 4 60
-0 -0 -0 3 60
-0 -0 -0 5 60
-0 -0 -0 6 60
-0 -0 -0 5 60
-0 -0 -0 9 60
-0 -0 -0 4 60
-0 -0 -0 4 60
-0 -0 -0 5 60
-0 -0 -0 4 60
-0 -0 -0 5 60
-0 -0 -0 5 60
-0 0 -0 5 60
-1.2503072 0.0073647806 -0.40560183 11 60
-0 0 -0 6 60
-1.2924843 0.023490064 -0.4207637 6 60
-0 -0 -0 4 61
-0 -0 -0 6 61
-0 -0 -0 4 61
-0 -0 -0 3 61
-0 -0 -0 8 61
-1.2601581 -0.053675067 -0.42505264 12 61
-1.2567152 -0.045801759 -0.42366362 14 61
-1.249474 -0.037855621 -0.4208855 30 61
-1.2412456 -0.029976552 -0.41776013 22 61
-1.2460941 -0.022448711 -0.41949645 27 61
-1.2368315 -0.014682206 -0.41602382 27 61
-1.2275208 -0.0070302193 -0.41255119 15 61
-1.2294164 0.00050081627 -0.41324571 6 61
-1.2228259 0.0080076661 -0.41081488 12 61
-1.244321 0.015763551 -0.41880193 4 61
-1.2160722 0.02289577 -0.40838403 10 61
-0 0 -0 5 61
-0 0 -0 4 61
-0 0 -0 3 61
-0 0 -0 5 61
-0 0 -0 5 61
-0 0 -0 3 61
-0 0 -0 4 61
-0 0 -0 6 61
-0 0 -0 4 61
-0 0 -0 4 61
-0 0 -0 4 61
-0 0 -0 4 61
-0 0 -0 4 61
-0 0 -0 4 61
-0 0 -0 4 61
-0 0 -0 5 61
-0 0 -0 3 61
-0 0 -0 4 61
-1.1689113 0.15928997 -0.39484078 7 61
-1.1604838 0.16540809 -0.39206266 3 61
-1.1613024 0.17279975 -0.39275721 7 61
-0 0 -0 3 61
-1.1646502 0.18792851 -0.39484078 6 61
-1.1745753 0.19692089 -0.39900792 9 61
-1.2093828 0.21035716 -0.41255119 17 61
-0 0 -0 5 61
-1.2140864 0.22655147 -0.41532928 8 61
-1.2274088 0.23682551 -0.4208855 15 61
-1.2314516 0.24544698 -0.42296907 6 61
-1.2473779 0.25657207 -0.42956707 6 61
-0 0 -0 4 61
-0 0 -0 5 61
-0 0 -0 3 61
-0 0 -0 5 61
-0 0 -0 5 61
-0 0 -0 3 61
-0 0 -0 5 61
-0 0 -0 5 61
-0 0 -0 3 61
-0 0 -0 5 61
-0 0 -0 4 61
-0 0 -0 4 61
-0 0 -0 5 61
-0 0 -0 5 61
-0 0 -0 4 61
-0 0 -0 3 61
-0 0 -0 3 61
-0 0 -0 6 61
-0 0 -0 4 61
-0 0 -0 5 61
-0 0 -0 8 61
-0 0 -0 4 61
-0 0 -0 5 61
-0 0 -0 4 61
-0 0 -0 4 61
-0 0 -0 5 61
-0 0 -0 3 61
-0 0 -0 4 61
-0 0 -0 4 61
-1.0342578 0.42159438 -0.37157416 7 61
-1.0099869 0.41897264 -0.36289257 6 61
-1.0108546 0.42661673 -0.36428162 3 61
-0 0 -0 6 61
-0 0 -0 6 61
-0 0 -0 5 61
-0 0 -0 3 61
-0 0 -0 4 61
-4.6724124 2.1730967 -1.8661941 92 61
-4.6276164 2.1869071 -1.8533454 229 61
-4.7502322 2.280575 -1.9092548 52 61
-4.8870416 2.3832231 -1.9714148 24 61
-4.8193789 2.3869548 -1.9495373 35 61
-4.7937498 2.4110057 -1.9450228 51 61
-4.9367313 2.5209465 -2.0106556 30 61
-4.9661326 2.574487 -2.0294077 34 61
-5.0124903 2.6376495 -2.0554526 48 61
-4.9788389 2.6590822 -2.0481601 37 61
-4.9583063 2.6873484 -2.0464237 28 61
-4.9409022 2.7172697 -2.0460763 37 61
-4.9069371 2.7379432 -2.0387838 29 61
-4.8753533 2.7596881 -2.0325332 47 61
-4.8046479 2.7587433 -2.0096138 26 61
-4.7779045 2.782511 -2.0054467 31 61
-4.7801228 2.8232167 -2.0137808 27 61
-4.8166189 2.8847659 -2.0370476 43 61
-4.8124557 2.9225378 -2.0429511 45 61
-4.7896409 2.9490626 -2.0408676 33 61
-4.7770247 2.9818704 -2.0432982 40 61
-4.7364469 2.9970901 -2.0335751 21 61
-0 0 -0 4 61
-2.7122331 1.7637935 -1.1560413 16 61
-2.7021427 1.780918 -1.1563885 9 61
-2.6966245 1.8011085 -1.1588194 15 61
-2.6932902 1.8228742 -1.162292 16 61
-2.6952052 1.8483773 -1.1681955 32 61
-2.6861238 1.8664845 -1.1692373 15 61
-2.6907277 1.8942618 -1.1765298 16 61
-2.686691 1.9161787 -1.1800025 15 61
-2.6893289 1.9430575 -1.1866004 17 61
-2.6818976 1.9628438 -1.188684 29 61
-2.676585 1.9842867 -1.1918094 18 61
-2.6613591 1.9984212 -1.1904204 9 61
-2.6453137 2.0118763 -1.188684 14 61
-0 0 -0 5 61
-2.5997169 2.0280437 -1.1789607 16 61
-2.5629344 2.0247817 -1.167501 12 61
-2.5358131 2.028758 -1.1605557 8 61
-2.5123842 2.0354285 -1.1553468 5 61
-2.4795413 2.0341594 -1.1456234 6 61
-2.4460878 2.0319655 -1.1355528 16 61
-2.4206519 2.0360754 -1.129302 11 61
-2.3888309 2.0344803 -1.119926 22 61
-2.3585422 2.0337961 -1.1112443 9 61
-2.3325922 2.0365164 -1.1046463 13 61
-2.3045897 2.0371327 -1.0970066 15 61
-2.2745709 2.0356073 -1.088325 16 61
-2.2453535 2.0344203 -1.0799907 17 61
-2.2162368 2.0329518 -1.0716563 10 61
-2.1879108 2.031841 -1.0636693 13 61
-2.1624162 2.0330281 -1.0570713 15 61
-2.1369901 2.0339792 -1.0504733 21 61
-2.1116343 2.0346954 -1.0438753 12 61
-2.0917227 2.0404139 -1.0400555 23 61
-2.0671482 2.0413542 -1.0338048 22 61
-2.0512664 2.0506859 -1.0320684 22 61
-2.0485358 2.0732355 -1.0372773 18 61
-2.0115309 2.0609453 -1.0244286 31 61
-1.9942892 2.0685251 -1.0219978 20 61
-0 0 -0 4 61
-2.087677 2.2191567 -1.0862415 5 61
-1.9015938 2.0465126 -0.9924804 16 61
-1.8801193 2.0484734 -0.98761874 17 61
-1.8681449 2.0606656 -0.987966 10 61
-1.8598468 2.076978 -0.99039686 15 61
-0 0 -0 4 61
-1.836688 2.1024685 -0.99178588 13 61
-1.8353983 2.1271839 -0.99838388 9 61
-1.8302227 2.1476812 -1.0028983 18 61
-0 0 -0 21 61
-0 0 -0 21 61
-0 0 -0 17 61
-0 0 -0 22 61
-1.8203598 2.2737999 -1.0365828 23 61
-1.8151019 2.2959578 -1.0417918 12 61
-1.8154136 2.325526 -1.0504733 15 61
-1.8125664 2.3514714 -1.0574186 14 61
-0 0 -0 20 61
-0 0 -0 25 61
-0 0 -0 33 61
-0 0 -0 38 61
-0 0 -0 34 61
-1.7618527 2.468483 -1.0810325 21 61
-1.7423501 2.4731159 -1.0782543 23 61
-0 0 -0 10 61
-0 0 -0 18 61
-0 0 -0 111 61
-0 0 -0 157 61
-0 0 -0 138 61
-0 0 -0 156 61
-1.6730828 2.6056054 -1.1046463 21 61
-1.6892004 2.6665103 -1.1268712 15 61
-1.6787744 2.6863656 -1.1310383 19 61
-1.6558586 2.6862404 -1.126524 23 61
-1.6393449 2.6963501 -1.126524 13 61
-1.6237347 2.7079663 -1.1272185 25 61
-1.5956259 2.6985097 -1.1188842 24 61
-1.5535153 2.6645122 -1.100132 5 61
-0 0 -0 4 61
-0 0 -0 5 61
-0 0 -0 14 61
-1.4428471 2.6205258 -1.0657529 15 61
-1.377955 2.5395064 -1.0279013 27 61
-0.70654458 1.3226018 -0.51325744 37 61
-0.69316679 1.3169583 -0.5090903 48 61
-0.68161434 1.3145294 -0.50631219 55 61
-0.66926354 1.3103389 -0.50283957 88 61
-0.66036671 1.3127459 -0.50214505 92 61
-0.6510486 1.3142532 -0.50110328 104 61
-0.64297223 1.3182232 -0.50110328 84 61
-0.63365185 1.3196086 -0.50006145 102 61
-0.62433869 1.3209292 -0.49901968 89 61
-0.6166181 1.3255851 -0.49936694 91 61
-0.60690892 1.3259342 -0.49797788 123 61
-0.59799021 1.3279237 -0.49728337 132 61
-0.58716756 1.3255681 -0.49485251 76 61
-0.57677162 1.3239894 -0.49276894 54 61
-0.56752712 1.3249183 -0.49172714 21 61
-0.56777382 1.3482468 -0.4997142 6 61
-0 0 -0 4 61
-0 0 -0 4 61
-0.55018318 1.3767505 -0.5070067 6 61
-0.53623188 1.366138 -0.50145054 13 61
-0 0 -0 6 61
-0.5280745 1.3954123 -0.51047933 6 61
-0.51917523 1.3977475 -0.51013207 3 61
-0.50994545 1.3991451 -0.50943756 8 61
-0.49850318 1.3943027 -0.50631219 9 61
-0.49367031 1.4079517 -0.51047933 5 61
-0 0 -0 12 61
-0.85268497 2.5280223 -0.94594717 39 61
-0.83627331 2.5305357 -0.9449054 37 61
-0.81870627 2.5293748 -0.94247454 35 61
-0.80061764 2.5263064 -0.93934917 48 61
-0.78231931 2.5222158 -0.93587655 21 61
-0.76410151 2.5179961 -0.93240392 25 61
-0.74623221 2.5145471 -0.92927855 23 61
-0.72974247 2.5154765 -0.92788953 21 61
-0.71301329 2.5153964 -0.92615318 31 61
-0.69531024 2.511591 -0.92302781 21 61
-0.67866105 2.5112841 -0.92129153 25 61
-0.66204178 2.5108676 -0.91955519 26 61
-0.6417104 2.4958119 -0.91226268 13 61
-0.62866783 2.5087979 -0.9157353 21 61
-0.61103463 2.5034988 -0.91226268 19 61
-0.59414166 2.5008152 -0.90983182 16 61
-0.57730478 2.4980185 -0.90740097 23 61
-0.56155443 2.4996839 -0.90670645 21 61
-0.54480362 2.4966698 -0.9042756 16 61
-0.52947408 2.4999657 -0.9042756 29 61
-0.51355737 2.5004117 -0.90323383 36 61
-0.49783856 2.5016766 -0.90253931 44 61
-0.48176798 2.5010011 -0.90115023 50 61
-0.4655523 2.499301 -0.89941394 33 61
-0.44954214 2.498419 -0.89802486 36 61
-0.43420365 2.5011303 -0.89802486 40 61
-0.42071068 2.5148456 -0.90219206 34 61
-0.40661725 2.5257115 -0.90531743 42 61
-0.3945632 2.5503993 -0.9136517 40 61
-0.38387859 2.5861638 -0.92615318 28 61
-0.37171048 2.614465 -0.93587655 26 61
-0.35743538 2.629705 -0.94073826 29 61
-0.34201914 2.6374283 -0.9428218 39 61
-0.32594505 2.6404078 -0.94316906 42 61
-0.30864179 2.6330447 -0.93969643 36 61
-0.2914412 2.6255689 -0.9362238 47 61
-0.27424589 2.617049 -0.93240392 47 61
-0.25725856 2.6093504 -0.9289313 38 61
-0.24054945 2.6034098 -0.92615318 53 61
-0.22400393 2.5982969 -0.92372233 43 61
-0.20753022 2.5930791 -0.92129153 45 61
-0.191268 2.5896277 -0.91955519 44 61
-0.17524722 2.5888815 -0.91886067 51 61
-0.15906878 2.5852282 -0.91712433 43 61
-0.14309858 2.5842829 -0.91642982 37 61
-0 0 -0 39 61
-0 0 -0 45 61
-0 0 -0 51 61
-0 0 -0 54 61
-0.063594192 2.580894 -0.91399896 38 61
-0.047739152 2.5802979 -0.9136517 37 61
-0.031857766 2.5767915 -0.91226268 49 61
-0.016046271 2.5769386 -0.91226268 52 61
-0.00023417037 2.5769885 -0.91226268 54 61
0.015567454 2.5750659 -0.91156816 55 61
0.031367466 2.5749218 -0.91156816 61 61
0.04721655 2.5774939 -0.91260993 44 61
0.063008361 2.5762181 -0.91226268 35 61
0.078729793 2.5729709 -0.91122085 41 61
0.094413742 2.569628 -0.91017908 43 61
0.11021867 2.5699372 -0.91052634 49 61
0.12589443 2.5673392 -0.90983182 60 61
0.14143994 2.562773 -0.9084428 47 61
0.15704818 2.5599849 -0.90774822 51 61
0.17269026 2.5580373 -0.90740097 60 61
0.18824588 2.555059 -0.90670645 46 61
0.2040683 2.5557256 -0.90740097 73 61
0.21998595 2.5572283 -0.9084428 48 61
0.23601538 2.5595658 -0.90983182 43 61
0 0 -0 52 61
0 0 -0 36 61
0 0 -0 51 61
0 0 -0 57 61
0.31293279 2.5390215 -0.90531743 59 61
0.32778609 2.5314732 -0.90323383 42 61
0.34306133 2.5275557 -0.90253931 53 61
0.35856366 2.525403 -0.90253931 74 61
0.37377831 2.5213001 -0.9018448 41 61
0.39024118 2.5254469 -0.9042756 60 61
0.4060266 2.5248568 -0.90497017 67 61
0.42074046 2.517693 -0.90323383 51 61
0.43474245 2.5067475 -0.90010846 64 61
0.45061183 2.5068018 -0.90115023 89 61
0.46016583 2.4726412 -0.88934332 78 61
0.4654282 2.4181979 -0.86989659 58 61
0.47697318 2.3987393 -0.86364585 54 61
0.48773271 2.3764746 -0.85635334 32 61
0.50308019 2.3771074 -0.85774237 55 61
0.51725769 2.372143 -0.85704786 49 61
0.53241807 2.3716698 -0.85808963 36 61
0.54759204 2.3710997 -0.8591314 52 61
0.5623467 2.3686078 -0.85947871 40 61
0.57753497 2.367846 -0.86052048 53 61
0.59296238 2.367897 -0.86190951 59 61
0.60864508 2.3687561 -0.86364585 63 61
0.62364501 2.3667908 -0.86434036 58 61
0.63888788 2.3656359 -0.86538213 44 61
0.65389037 2.3634791 -0.86607671 60 61
0.66863525 2.3603246 -0.86642396 65 61
0.68284464 2.3552768 -0.86607671 53 61
0.69808215 2.3537402 -0.86711848 53 61
0.71305472 2.3512075 -0.86781299 49 61
0.72913146 2.3521633 -0.86989659 56 61
0.74411577 2.3494334 -0.8705911 72 61
0.76197606 2.3555319 -0.87475824 49 61
0.77876437 2.3579369 -0.87753636 43 61
0.79501259 2.3584468 -0.87961996 42 61
0.80916417 2.3526373 -0.8792727 49 61
0.82885474 2.3626738 -0.88517612 42 61
0.87614232 2.4493883 -0.92129153 17 61
0.99190366 2.7206535 -1.0303321 11 61
0 0 -0 7 61
0.92605376 2.4460039 -0.92650044 16 61
0.93767452 2.4315245 -0.92302781 18 61
0.94025064 2.3942962 -0.91052634 40 61
0.95909685 2.3989329 -0.91469353 32 61
0 0 -0 37 61
0.98810482 2.386116 -0.91434622 38 61
1.0074553 2.3912449 -0.91886067 31 61
0 0 -0 45 61
0 0 -0 57 61
0 0 -0 44 61
0 0 -0 44 61
1.0943739 2.3899171 -0.93136215 46 61
0 0 -0 49 61
0 0 -0 69 61
1.3036968 2.714323 -1.0730455 41 61
1.3741497 2.8167019 -1.1185369 88 61
1.4242728 2.8746116 -1.1459707 1371 61
1.4435689 2.86917 -1.1473597 5679 61
1.4581625 2.8544114 -1.1449289 4861 61
1.4877293 2.8687243 -1.1546522 1285 61
0 0 -0 93 61
0 0 -0 181 61
0 0 -0 194 61
0 0 -0 155 61
0 0 -0 213 61
1.4477742 2.5565534 -1.0459589 4688 61
1.4695017 2.5581954 -1.0504733 5718 61
1.4861144 2.5507514 -1.0511678 5660 61
1.5117487 2.5585434 -1.0584604 3099 61
0 0 -0 334 61
0 0 -0 706 61
1.499606 2.4344466 -1.0167888 3964 61
1.5135225 2.4236081 -1.0160943 5282 61
1.5263599 2.4111054 -1.0147053 5374 61
1.5497296 2.4151154 -1.0206088 5135 61
1.5604316 2.3992701 -1.0178306 4248 61
0 0 -0 1250 61
1.5330147 2.2949195 -0.97997898 5193 61
1.5386616 2.2730412 -0.97442275 5658 61
1.5520496 2.2627838 -0.9740755 5684 61
1.5739272 2.2647724 -0.97928441 5506 61
1.5883335 2.2558393 -0.97963166 5284 61
0 0 -0 2589 61
0 0 -0 1163 61
0 0 -0 378 61
0 0 -0 321 61
0 0 -0 380 61
0 0 -0 1256 61
1.6968863 2.2026503 -0.98761874 2070 61
1.7922384 2.2972202 -1.0369301 5393 61
1.8039758 2.2832358 -1.0355411 5578 61
1.8179516 2.2721241 -1.0355411 5580 61
1.8330389 2.2623842 -1.0362356 5530 61
1.8421301 2.2452924 -1.0334574 4424 61
1.8486847 2.2252882 -1.0292903 661 61
0 0 -0 16 61
0 0 -0 8 61
0 0 -0 26 61
0 0 -0 87 61
2.2196505 2.511229 -1.1991019 76 61
2.2462695 2.5101447 -1.2053527 88 61
2.2767344 2.5129991 -1.2136869 76 61
2.3035166 2.5114255 -1.2199377 83 61
2.3246238 2.5034308 -1.2230631 80 61
2.3431511 2.4925375 -1.2247994 72 61
1.9777548 2.0778711 -1.0202614 46 61
0 0 -0 32 61
1.9625225 2.0118086 -0.99873114 56 61
1.9629741 1.9877137 -0.9924804 71 61
2.0274899 2.0280454 -1.0199142 34 61
0 0 -0 32 61
0 0 -0 34 61
0 0 -0 53 61
0 0 -0 44 61
0 0 -0 57 61
0 0 -0 49 61
2.3758259 2.1808224 -1.1522214 40 61
2.374578 2.1529706 -1.1449289 57 61
2.3227971 2.0801537 -1.1126335 2312 61
2.3502626 2.0789154 -1.119926 5397 61
2.3636804 2.0650725 -1.1202732 5261 61
2.3755972 2.0499175 -1.119926 5365 61
2.373147 2.0225229 -1.1126335 4589 61
2.3769057 2.0006738 -1.1084663 813 61
2.4230196 2.0142395 -1.1247877 46 61
2.4295366 1.9945718 -1.1220095 43 61
2.4380882 1.9766726 -1.1202732 26 61
2.4428527 1.9558119 -1.1168005 25 61
2.4548073 1.940786 -1.1168005 28 61
2.4637136 1.9233776 -1.1154115 31 61
2.4791815 1.9110883 -1.1171478 25 61
2.4677351 1.8782251 -1.1063827 43 61
2.5309267 1.9019397 -1.1303438 12 61
3.4415324 2.5538661 -1.5449759 29 61
3.4601634 2.534919 -1.5463649 29 61
3.4726131 2.511441 -1.5449759 24 61
3.4833794 2.4868157 -1.5428923 25 61
3.503171 2.4686377 -1.5449759 29 61
3.5128644 2.4433463 -1.5425451 18 61
3.5208335 2.4169674 -1.5394197 25 61
3.5410309 2.3990016 -1.5418506 21 61
3.5549049 2.3767078 -1.5415032 23 61
3.5647254 2.3517509 -1.5394197 24 61
3.5680873 2.3226683 -1.5345579 10 61
3.5846386 2.3022523 -1.5355998 18 61
3.5963216 2.2787075 -1.5345579 13 61
3.5983095 2.2491391 -1.5293491 18 61
3.6120424 2.2270179 -1.5293491 26 61
3.6232357 2.2033505 -1.5283072 13 61
3.6318624 2.1781819 -1.5262237 20 61
3.6387029 2.1520355 -1.5234456 25 61
3.6461694 2.1263597 -1.5210147 15 61
3.6615865 2.1053503 -1.5220565 9 61
3.6695416 2.0800674 -1.5199729 16 61
3.6912391 2.0625467 -1.5237929 15 61
3.7030039 2.0394061 -1.5234456 20 61
3.7294569 2.0242553 -1.5293491 14 61
3.7492485 2.0053163 -1.5324744 10 61
3.7838786 1.9940842 -1.5418506 8 61
3.8284972 1.9876902 -1.5553938 25 61
4.4333305 2.2674866 -1.8019505 25 61
4.4706073 2.2520599 -1.8116739 37 61
4.4851813 2.2250032 -1.8120211 32 61
4.5004344 2.1982644 -1.8127156 32 61
4.510458 2.1689825 -1.8113266 24 61
4.5372419 2.1476884 -1.8168828 39 61
4.538435 2.1142612 -1.8120211 28 61
4.5240464 2.0738628 -1.8009087 20 61
4.5563455 2.0549369 -1.8088958 26 61
4.5662975 2.0257995 -1.8078539 26 61
4.5872359 2.0014954 -1.8113266 42 61
4.5796108 1.9648021 -1.8033396 26 61
4.5786209 1.9311955 -1.7981306 22 61
4.6051097 1.909174 -1.8040341 29 61
4.6150007 1.8801736 -1.8033396 25 61
4.6308031 1.8535645 -1.8050759 24 61
4.6464524 1.8268323 -1.8068122 27 61
4.6540751 1.7969358 -1.8054231 26 61
4.6597524 1.7663496 -1.8033396 17 61
4.668745 1.7370702 -1.8026451 23 61
4.6564145 1.7000233 -1.7936162 16 61
4.6676407 1.6717365 -1.7939634 21 61
4.669848 1.6402661 -1.7908381 20 61
4.6629796 1.6057762 -1.7842401 19 61
4.6638598 1.5741334 -1.7807674 22 61
4.6591864 1.5407726 -1.7752112 10 61
4.6489272 1.5057933 -1.7675714 13 61
4.6473532 1.4738353 -1.7634044 31 61
4.6383982 1.4397278 -1.756459 24 61
4.6354809 1.4076948 -1.7519447 25 61
4.6350417 1.3765535 -1.748472 31 61
4.6361971 1.3459941 -1.7456939 30 61
4.6398578 1.3162409 -1.7439576 35 61
4.6442323 1.286744 -1.7425685 32 61
4.6502299 1.2577332 -1.741874 30 61
4.6524196 1.2277392 -1.7397904 23 61
4.6553245 1.1979998 -1.7380542 31 61
4.6616783 1.1691843 -1.7377069 31 61
4.6669426 1.1401132 -1.7370123 25 61
4.6774993 1.1123247 -1.7384014 29 61
4.6851501 1.0838147 -1.7387487 35 61
4.685308 1.0536051 -1.7363178 19 61
4.6880202 1.0240353 -1.7349287 19 61
4.6960497 0.99564034 -1.7356232 23 61
4.6974778 0.96586168 -1.733887 16 61
4.7060752 0.93757069 -1.7349287 19 61
4.7108183 0.9084993 -1.7345815 21 61
4.7135386 0.87906069 -1.7335397 24 61
4.7160754 0.84962296 -1.7324979 31 61
4.717504 0.82002634 -1.7311089 30 61
4.7178226 0.7902891 -1.7293725 25 61
4.7207313 0.76102722 -1.728678 20 61
4.7243853 0.73190325 -1.7283307 22 61
4.72786 0.70276308 -1.7279835 21 61
4.7339396 0.67400509 -1.728678 27 61
4.7333403 0.6443119 -1.7269417 18 61
4.7381344 0.61537755 -1.727289 17 61
4.7436824 0.58652395 -1.7279835 24 61
4.7397413 0.55652952 -1.7252054 16 61
4.7505231 0.5282675 -1.7279835 31 61
4.753675 0.49910888 -1.7279835 25 61
4.7547817 0.46974665 -1.727289 24 61
3.60906 0.33392379 -1.3001554 39 61
3.5998299 0.31080112 -1.2959883 53 61
3.5969954 0.28833094 -1.294252 47 61
3.5865393 0.26535133 -1.2897376 48 61
3.5815508 0.24289344 -1.2873067 47 61
3.5867176 0.22114494 -1.2886958 31 61
4.7527766 0.26415822 -1.720691 18 61
4.7561812 0.23508382 -1.7213855 26 61
0 0 -0 19 61
4.7512107 0.17642024 -1.7186074 18 61
0 0 -0 4 61
4.7652054 0.11840811 -1.7231218 22 61
0 0 -0 4 61
4.0874114 0.051220834 -1.4717034 12 61
4.7271919 0.030413056 -1.7085367 8 61
4.8013735 0.0014473842 -1.7359705 38 61
4.8106694 -0.028065741 -1.7394432 34 61
4.8085313 -0.057560932 -1.7387487 32 61
4.8099627 -0.087097943 -1.7394432 30 61
4.8084002 -0.11658718 -1.7390959 22 61
4.8085318 -0.14611703 -1.7394432 39 61
4.8037958 -0.17548285 -1.7380542 28 61
4.803566 -0.20499484 -1.7384014 25 61
4.8050275 -0.23460162 -1.7394432 29 61
4.8034978 -0.26408029 -1.7394432 32 61
4.803659 -0.29366302 -1.7401377 25 61
4.8064451 -0.32344586 -1.741874 28 61
4.8043699 -0.35293156 -1.741874 18 61
4.802114 -0.382404 -1.741874 26 61
4.796874 -0.41162217 -1.7408322 27 61
4.7942581 -0.44104746 -1.7408322 27 61
4.7895951 -0.47027338 -1.7401377 29 61
4.7884846 -0.49984717 -1.7408322 27 61
4.7918525 -0.52993935 -1.743263 35 61
4.7931676 -0.55987448 -1.7449994 33 61
4.7915039 -0.58950281 -1.7456939 29 61
4.7896566 -0.61913186 -1.7463884 33 61
4.7876263 -0.64876038 -1.7470829 39 61
4.7909832 -0.67917567 -1.749861 22 61
4.7904367 -0.70910817 -1.7512501 30 61
4.7952638 -0.73991621 -1.7547227 29 61
4.7952633 -0.77006781 -1.756459 31 61
4.7932229 -0.79993892 -1.7575009 31 61
4.786376 -0.8290149 -1.7568064 31 61
4.7793531 -0.85803699 -1.7561117 26 61
4.7712326 -0.88683295 -1.75507 28 61
4.7638593 -0.9157384 -1.7543755 33 61
4.76091 -0.94549894 -1.7554172 28 61
4.7522631 -0.97412932 -1.7543755 28 61
4.7517014 -1.0044327 -1.756459 34 61
4.7445326 -1.0333703 -1.7561117 27 61
4.739018 -1.0626677 -1.756459 34 61
4.7360635 -1.092568 -1.7578481 31 61
4.7420454 -1.124634 -1.7627097 48 61
4.7304997 -1.1526005 -1.7609735 33 61
4.726068 -1.1822867 -1.7620152 39 61
4.7250834 -1.2128937 -1.7644461 33 61
4.7184591 -1.2421019 -1.7647934 29 61
4.7134652 -1.2717627 -1.7658352 28 61
4.7119007 -1.3024074 -1.768266 39 61
4.7101374 -1.3330806 -1.7706969 27 61
4.7198849 -1.3671703 -1.7776421 37 61
4.724895 -1.4000986 -1.7828511 37 61
4.7287807 -1.4328679 -1.7877127 30 61
4.7405047 -1.4682325 -1.7956998 34 61
4.7340889 -1.4981402 -1.7967416 23 61
4.7337313 -1.5300418 -1.8002142 21 61
4.7376127 -1.5634638 -1.8054231 32 61
4.7465949 -1.5987856 -1.8127156 40 61
4.7473383 -1.6315351 -1.8168828 45 61
4.7540541 -1.6665238 -1.8234808 52 61
4.7269597 -1.6896694 -1.8168828 32 61
4.7447004 -1.728909 -1.8279952 54 61
4.7287278 -1.7560319 -1.8259116 39 61
4.7169867 -1.784682 -1.8255644 39 61
4.7103229 -1.8152765 -1.8273007 42 61
4.6964765 -1.8431171 -1.8262589 30 61
4.6946592 -1.8757246 -1.8300788 35 61
4.6847992 -1.9052013 -1.8307734 33 61
4.6825533 -1.9378532 -1.8345932 44 61
4.660202 -1.9621838 -1.8304261 27 61
4.6446261 -1.9892653 -1.8290371 18 61
4.6409311 -2.0214696 -1.8325096 25 61
4.6353006 -2.0529442 -1.8352878 27 61
4.6234717 -2.081732 -1.8356351 34 61
4.6182866 -2.1135724 -1.8387604 23 61
4.6077824 -2.1430557 -1.8398021 22 61
4.5843706 -2.1664824 -1.8356351 16 61
4.5811367 -2.199439 -1.8398021 22 61
4.5726128 -2.2299721 -1.8418858 21 61
4.5563226 -2.2567389 -1.8408439 23 61
4.5407143 -2.2838113 -1.8401494 27 61
4.5307918 -2.313761 -1.8418858 24 61
4.5248361 -2.3458321 -1.8453584 22 61
4.5103569 -2.3735518 -1.8453584 25 61
4.4973626 -2.4020655 -1.8460529 33 61
4.4899602 -2.4336357 -1.8491783 22 61
4.4741216 -2.4606879 -1.8488311 27 61
4.4638529 -2.490835 -1.8509146 32 61
4.4517503 -2.5200248 -1.8523036 33 61
4.4410839 -2.5500934 -1.8543873 36 61
4.4229217 -2.5758803 -1.8533454 21 61
4.4094558 -2.6044004 -1.8543873 25 61
4.3950019 -2.6323707 -1.8550818 28 61
4.3819737 -2.6612346 -1.8564708 21 61
4.3687568 -2.690038 -1.8578598 35 61
4.349782 -2.7153044 -1.8568181 21 61
4.3370018 -2.7444494 -1.8585544 14 61
4.3208699 -2.7715151 -1.8589016 21 61
4.3100739 -2.802063 -1.8616798 19 61
4.2959323 -2.8305194 -1.8630688 18 61
4.2847238 -2.86099 -1.8658469 29 61
4.2810707 -2.896683 -1.8720976 20 61
4.2724991 -2.9292579 -1.8762648 16 61
4.2590671 -2.9586272 -1.8783484 12 61
2.9039536 -2.0442584 -1.2730689 14 61
2.9127383 -2.0772774 -1.2827923 13 61
2.9083011 -2.1011486 -1.2866122 9 61
2.896868 -2.1200614 -1.2873067 14 61
2.8890796 -2.1417038 -1.2897376 10 61
2.8803844 -2.1627674 -1.2918211 10 61
2.8640733 -2.1781309 -1.2904321 8 61
2.8484251 -2.1939473 -1.2893903 7 61
4.0951891 -3.1938097 -1.8811265 13 61
4.0806675 -3.2229447 -1.8835573 20 61
4.063745 -3.2502649 -1.8849463 18 61
2.0378945 -1.6513014 -0.92927855 12 61
2.0364265 -1.6709088 -0.93344569 8 61
2.0326297 -1.6887633 -0.93657106 9 61
2.0243831 -1.7030135 -0.93761289 10 61
2.0138955 -1.7154028 -0.93761289 13 61
2.0019112 -1.7265034 -0.93691832 25 61
1.9926933 -1.7399873 -0.93761289 17 61
1.9798708 -1.750319 -0.93657106 13 61
1.9683948 -1.7618092 -0.9362238 23 61
1.9547668 -1.7713363 -0.93483478 15 61
1.94317 -1.7826636 -0.93448752 13 61
1.9280707 -1.7907259 -0.93240392 18 61
1.9108953 -1.7967439 -0.92927855 23 61
1.8984756 -1.8071426 -0.92858404 27 61
1.885325 -1.8168062 -0.92754221 24 61
1.863397 -1.8178673 -0.92198604 37 61
1.8408599 -1.8180696 -0.91608256 71 61
1.8290063 -1.8286679 -0.9157353 42 61
1.8091793 -1.8311876 -0.91122085 32 61
1.7893907 -1.8335333 -0.90670645 38 61
1.7768043 -1.8431286 -0.90601194 49 61
1.7486397 -1.8363467 -0.89698309 34 61
1.7276968 -1.8368 -0.89177412 35 61
1.7017057 -1.8315719 -0.8837871 24 61
1.6764786 -1.8267853 -0.87614733 13 61
1.6652381 -1.8370377 -0.87614733 11 61
1.6520573 -1.8451257 -0.8751055 19 61
1.6400832 -1.8545257 -0.87475824 14 61
1.6237351 -1.8589063 -0.87198013 29 61
1.6141372 -1.8709636 -0.87302196 38 61
1.611755 -1.891535 -0.87823087 38 61
1.6115974 -1.9150162 -0.88482887 20 61
1.6130111 -1.9407288 -0.89246869 13 61
1.5992867 -1.9484158 -0.89142686 18 61
1.5896647 -1.961105 -0.89281595 15 61
1.5723244 -1.9642355 -0.88969058 23 61
1.5422044 -1.9510484 -0.87892544 28 61
1.5238532 -1.9523457 -0.8751055 22 61
1.4958067 -1.9408692 -0.86538213 33 61
1.4702319 -1.9321067 -0.85704786 32 61
1.4459487 -1.9246031 -0.84940803 31 61
1.4274039 -1.924404 -0.84524089 34 61
1.4078075 -1.9225376 -0.84037924 48 61
1.3882879 -1.9205034 -0.83551753 27 61
1.3666662 -1.9152502 -0.82926679 26 61
1.3521868 -1.9197677 -0.8275305 27 61
1.3360964 -1.9218708 -0.82475239 30 61
1.3147218 -1.9161191 -0.81850165 28 61
1.2939947 -1.9109541 -0.81259817 24 61
1.2791164 -1.9141812 -0.81051463 29 61
1.2611476 -1.9126023 -0.80634743 26 61
1.2411993 -1.907732 -0.80079126 24 61
1.2279494 -1.9129453 -0.79974943 28 61
1.2131758 -1.9156917 -0.79766589 31 61
1.1974204 -1.9167391 -0.79488778 23 61
1.1797284 -1.9144729 -0.79072058 26 61
1.1694217 -1.9240789 -0.79176241 25 61
1.1590413 -1.9336303 -0.79280418 23 61
1.1442894 -1.9358635 -0.79072058 43 61
1.1314443 -1.9412284 -0.79002607 28 61
1.1199795 -1.9489472 -0.79037333 42 61
1.1112386 -1.9614923 -0.79280418 28 61
1.0978092 -1.9658183 -0.79176241 35 61
1.0916107 -1.9831942 -0.79627681 31 61
1.0825545 -1.9956234 -0.79870766 31 61
1.083122 -2.0262053 -0.80877829 26 61
1.0824797 -2.0552094 -0.81815439 44 61
1.0707134 -2.063477 -0.81884891 42 61
1.0516237 -2.0574861 -0.81363994 29 61
1.0440445 -2.0739489 -0.81780714 29 61
1.0275469 -2.0727561 -0.81468177 34 61
1.0094562 -2.0680692 -0.81016731 25 61
0.99512136 -2.0708439 -0.80877829 25 61
0.97557217 -2.0625033 -0.8028748 13 61
0.95893651 -2.0599508 -0.79940218 14 61
0.94901574 -2.0717626 -0.80183303 24 61
0.93165684 -2.0672896 -0.79766589 28 61
0.91667175 -2.0678246 -0.79558229 30 61
0.90133995 -2.0673943 -0.79315144 18 61
0.8849383 -2.0642686 -0.78967881 13 61
0.8722555 -2.0696597 -0.78967881 16 61
0.8577432 -2.0706418 -0.78794253 13 61
0.84572989 -2.0776026 -0.78863704 12 61
0.83122259 -2.0784001 -0.7869007 14 61
0.81570745 -2.0764802 -0.78412259 23 61
0.80159914 -2.0779471 -0.78273356 14 61
0.790497 -2.0872104 -0.7844699 20 61
0.77571195 -2.0867486 -0.7823863 19 61
0.76385874 -2.0941114 -0.78342807 14 61
0.74941313 -2.0943451 -0.78169179 20 61
0.73717034 -2.1006734 -0.7823863 14 61
0.72426695 -2.1051571 -0.7823863 22 61
0.7128368 -2.1140037 -0.78412259 21 61
0.69955748 -2.1174476 -0.78377533 14 61
0.68597353 -2.119916 -0.78308082 21 61
0.6706835 -2.1169345 -0.7803027 17 61
0.65935087 -2.1263831 -0.7823863 14 61
0.64683658 -2.1321833 -0.78308082 6 61
0.63374162 -2.136112 -0.78308082 7 61
0.62009937 -2.1381593 -0.7823863 9 61
0.60952967 -2.1509449 -0.78585893 18 61
0.59431541 -2.1474154 -0.78308082 12 61
0.58504885 -2.1655045 -0.78863704 20 61
0.57366651 -2.1763067 -0.79141515 15 61
0.56006825 -2.1788776 -0.7910679 17 61
0.54554659 -2.1777256 -0.78933156 16 61
0.53306514 -2.1846757 -0.79072058 12 61
0.52269065 -2.2006772 -0.79558229 20 61
0.51065874 -2.210238 -0.79801315 17 61
0.49502769 -2.204181 -0.79454052 16 61
0.48489967 -2.2227509 -0.80044395 13 61
0 -0 -0 6 61
