# .PCD v0.7 - Point Cloud Data file format
VERSION 0.7
FIELDS x y z intensity ring
SIZE 4 4 4 4 1
TYPE F F F F U
COUNT 1 1 1 1 1
WIDTH 1430
HEIGHT 1
VIEWPOINT 0 0 0 1 0 0 0
POINTS 1430
DATA ascii
0 0 -0 52 53
0 0 -0 59 53
0 0 -0 102 53
1.4019017 2.9641833 -0.84919345 70 53
1.397092 2.9076726 -0.8347916 121 53
1.4288654 2.9276721 -0.84343272 78 53
0 0 -0 184 53
0 0 -0 97 53
0 0 -0 78 53
0 0 -0 96 53
0 0 -0 157 53
1.4742813 2.7581677 -0.80808264 94 53
1.476922 2.7227659 -0.7999652 109 53
0 0 -0 72 53
0 0 -0 138 53
0 0 -0 131 53
0 0 -0 176 53
0 0 -0 108 53
0 0 -0 85 53
0 0 -0 98 53
0 0 -0 136 53
0 0 -0 143 53
0 0 -0 132 53
0 0 -0 125 53
0 0 -0 161 53
0 0 -0 176 53
0 0 -0 152 53
0 0 -0 146 53
1.7291168 2.5537004 -0.79629928 139 53
0 0 -0 103 53
1.7663807 2.5410085 -0.79917967 146 53
0 0 -0 126 53
0 0 -0 140 53
0 0 -0 108 53
0 0 -0 83 53
0 0 -0 120 53
0 0 -0 53 53
0 0 -0 12 53
0 0 -0 7 53
0 0 -0 10 53
0 0 -0 37 53
0 0 -0 64 53
0 0 -0 15 53
0 0 -0 8 53
0 0 -0 12 53
0 0 -0 5 53
0 0 -0 10 53
0 0 -0 98 53
0 0 -0 107 53
2.2308037 2.5229723 -0.87328386 103 53
2.2610421 2.5257809 -0.8793065 113 53
2.2888067 2.5254512 -0.88428164 115 53
0 0 -0 102 53
0 0 -0 128 53
0 0 -0 117 53
2.4033129 2.5244584 -0.90522987 119 53
2.4375033 2.5291281 -0.91256171 115 53
2.4954224 2.5576577 -0.92905843 103 53
2.5558155 2.5876307 -0.94634068 104 53
2.5095663 2.5097752 -0.92251211 37 53
2.506387 2.4760103 -0.91544211 28 53
2.5166988 2.4558649 -0.91360915 32 53
2.5226901 2.4316664 -0.91020507 32 53
0 0 -0 25 53
0 0 -0 26 53
3.3728271 3.1339319 -1.2087166 93 53
3.4090538 3.1288438 -1.2150011 87 53
3.4403405 3.11889 -1.2194526 89 53
3.4615693 3.0996537 -1.2202382 71 53
0 0 -0 119 53
0 0 -0 48 53
3.6327345 3.1344252 -1.261349 31 53
3.6577737 3.1170852 -1.2634438 91 53
3.6893811 3.1051509 -1.2678953 104 53
3.7276576 3.0984993 -1.2747035 92 53
3.7667363 3.0921071 -1.2817734 85 53
3.797631 3.0786636 -1.2859631 112 53
3.8721921 3.0999508 -1.3053402 9 53
0 0 -0 5 53
0 0 -0 6 53
0 0 -0 5 53
3.8964243 2.9654007 -1.2880579 9 53
3.8991177 2.9298379 -1.2828208 6 53
3.8743982 2.874222 -1.268419 91 53
3.9324422 2.8800578 -1.2820354 152 53
3.9586415 2.8620968 -1.2849157 166 53
3.9345012 2.8080287 -1.2710376 89 53
3.955601 2.7866142 -1.2723467 62 53
4.1120605 2.8592944 -1.3184328 306 53
4.0770168 2.7979546 -1.3011506 101 53
4.0781288 2.762058 -1.2959135 135 53
4.0982089 2.7391288 -1.2969609 101 53
4.1270218 2.7219045 -1.3008887 101 53
4.3045931 2.8013232 -1.3529973 99 53
4.4029002 2.8270204 -1.3791826 205 53
4.4649987 2.8283663 -1.3935844 162 53
4.515821 2.821893 -1.4043204 155 53
4.5576949 2.809329 -1.4121759 167 53
4.602057 2.7978613 -1.420817 184 53
4.6596909 2.7938981 -1.4336478 194 53
4.7207708 2.7912977 -1.447526 178 53
4.7761564 2.7846477 -1.4595712 205 53
4.8140683 2.7673182 -1.4661175 165 53
4.8989615 2.7762845 -1.4873276 311 53
4.8889456 2.7311056 -1.4789482 192 53
3.771179 2.076123 -1.1275425 34 53
4.6557665 2.526315 -1.3967266 45 53
4.6558623 2.4895055 -1.3920133 61 53
4.8708296 2.5661988 -1.4532868 170 53
0 0 -0 4 53
4.6880093 2.3967917 -1.3880855 13 53
4.6871133 2.3601651 -1.3833722 12 53
4.7162037 2.3386531 -1.3878237 38 53
4.7191916 2.3041639 -1.3844196 40 53
4.7288923 2.2730725 -1.3831103 64 53
4.7340274 2.2398841 -1.3804917 23 53
4.7503066 2.2120173 -1.3812773 29 53
4.7699308 2.1856439 -1.3831103 40 53
4.7911696 2.1599066 -1.3854669 37 53
4.817565 2.1363394 -1.3893948 44 53
5.0074925 2.1839409 -1.4417652 168 53
4.8567219 2.0827682 -1.3933226 39 53
4.8142781 2.029671 -1.3770877 130 53
4.8204007 1.9975052 -1.3752548 110 53
4.8316731 1.967526 -1.3749928 91 53
4.7961679 1.9188316 -1.3611147 137 53
5.0341873 1.9783704 -1.4271015 264 53
5.0417304 1.9457057 -1.4257922 246 53
5.0472569 1.9123386 -1.4239593 285 53
5.043519 1.8756111 -1.4195077 245 53
5.0449605 1.8409878 -1.4166274 260 53
5.0425334 1.8051158 -1.4126996 208 53
5.043498 1.7706226 -1.4098192 174 53
5.0323677 1.7320998 -1.4035348 208 53
5.0566168 1.7058196 -1.4074626 273 53
5.062407 1.6732452 -1.4061533 219 53
5.0028009 1.6195453 -1.3862525 22 53
5.0098844 1.5879427 -1.3854669 20 53
5.0167685 1.5563143 -1.3846815 25 53
5.0234528 1.5246612 -1.3838959 23 53
5.0354891 1.4946337 -1.3846815 20 53
5.0427113 1.4631701 -1.3841578 12 53
5.045095 1.4303569 -1.3823247 23 53
5.0472665 1.3975695 -1.3804917 8 53
5.0454988 1.3638014 -1.3776114 16 53
5.0388417 1.328876 -1.3734218 14 53
5.0431619 1.2969708 -1.3723744 15 53
5.0360475 1.2622446 -1.3681847 12 53
5.0324473 1.2285711 -1.3650424 12 53
5.0342579 1.1963294 -1.3634714 15 53
5.0302205 1.1628062 -1.3603292 8 53
5.0382023 1.1321312 -1.3605911 17 53
5.0412827 1.1003721 -1.3595436 15 53
5.0413303 1.068017 -1.3577106 12 53
5.0440078 1.0362861 -1.3566632 13 53
5.050271 1.0053171 -1.3566632 17 53
5.055397 0.97412747 -1.3564013 12 53
5.0669713 0.94415182 -1.3579725 19 53
5.0717192 0.91287255 -1.3577106 7 53
5.0753236 0.88140517 -1.3571869 15 53
5.076829 0.84960896 -1.3561395 20 53
5.0771823 0.81767374 -1.3548303 15 53
5.0735207 0.78517497 -1.3524736 16 53
5.0686965 0.75261003 -1.3498551 10 53
3.7269723 0.52972329 -0.98090518 54 53
3.732065 0.50710553 -0.98142886 92 53
3.7293639 0.48345026 -0.97985774 107 53
3.7207665 0.45913628 -0.97671551 88 53
3.7091358 0.43460822 -0.97278774 59 53
3.7088552 0.41152099 -0.97200221 12 53
3.7017121 0.3877477 -0.96938366 21 53
3.6761694 0.36227348 -0.96178997 83 53
3.6792841 0.33979917 -0.96205181 74 53
3.6755307 0.31671813 -0.96048069 53 53
0 0 -0 4 53
3.69069 0.27244613 -0.96362293 6 53
3.6229644 0.24508312 -0.94476956 30 53
3.6138041 0.22219349 -0.94188917 81 53
3.6044996 0.19942553 -0.93900877 56 53
3.6181865 0.17792524 -0.94241285 11 53
0 0 -0 5 53
0 0 -0 5 53
3.5552528 0.10925869 -0.92460692 28 53
3.5703285 0.087802656 -0.92853469 58 53
3.555361 0.065603919 -0.92434508 10 53
3.5701721 0.043970421 -0.92827284 4 53
0 0 -0 4 53
0 0 -0 4 53
3.5491445 -0.021629816 -0.92251211 27 53
3.5421896 -0.043326151 -0.92067915 34 53
0 -0 -0 4 53
3.4680645 -0.085018143 -0.90077835 9 53
3.4327495 -0.10524331 -0.8913517 5 53
3.4522932 -0.12704276 -0.89685059 13 53
3.4832683 -0.14957896 -0.90549171 59 53
3.476501 -0.17066708 -0.90392059 78 53
3.4782794 -0.19215402 -0.90470612 57 53
5.1088881 -0.31314033 -1.348284 15 53
5.1107225 -0.34474093 -1.3493314 11 53
5.1152487 -0.37658772 -1.3511643 14 53
5.1263103 -0.40903884 -1.3548303 13 53
5.1323586 -0.44122761 -1.3571869 15 53
5.1305156 -0.47279921 -1.3574488 13 53
5.1361623 -0.50511873 -1.3598055 12 53
5.1310463 -0.53642386 -1.3592818 17 53
5.1247807 -0.56757921 -1.3584962 14 53
5.12216 -0.5991255 -1.3587581 12 53
5.1212611 -0.63089657 -1.3595436 17 53
5.1230369 -0.66305012 -1.3611147 19 53
5.1236539 -0.69511962 -1.362424 16 53
5.1212034 -0.72681546 -1.3629477 13 53
5.1242847 -0.75935495 -1.3650424 15 53
5.1281137 -0.79210669 -1.3673992 17 53
5.1260157 -0.82401621 -1.3681847 24 53
5.1246705 -0.85608852 -1.3692322 30 53
5.1231251 -0.88817537 -1.3702796 26 53
5.1223288 -0.92044598 -1.3715888 22 53
5.1241755 -0.95326906 -1.3736836 49 53
5.1258121 -0.98614943 -1.3757784 40 53
5.1319709 -1.0200254 -1.3791826 52 53
5.1397972 -1.0544014 -1.3831103 56 53
5.1398406 -1.0873154 -1.3849432 52 53
5.1453314 -1.1215017 -1.3883474 45 53
5.1496539 -1.1555851 -1.3914896 60 53
5.1575136 -1.190631 -1.3956792 56 53
5.164197 -1.2255943 -1.3996071 63 53
5.1640811 -1.2590854 -1.4017018 43 53
5.1684299 -1.2937919 -1.4051059 37 53
5.1688075 -1.3276395 -1.4074626 28 53
5.1642971 -1.3603122 -1.40851 40 53
5.1642394 -1.3942363 -1.4108666 42 53
5.174192 -1.4310385 -1.4161037 37 53
5.1941023 -1.4709054 -1.4242212 32 53
5.2146435 -1.5113388 -1.4326004 27 53
5.1886158 -1.5383723 -1.4278871 247 53
5.1790786 -1.5701801 -1.4278871 306 53
5.0633259 -1.5690991 -1.397774 197 53
4.9827514 -1.5777208 -1.3776114 211 53
4.8985906 -1.5842264 -1.3564013 181 53
4.833787 -1.59611 -1.3406903 196 53
4.7909756 -1.614651 -1.3312635 335 53
4.7901053 -1.6471536 -1.3338821 265 53
4.7935705 -1.6813024 -1.3378099 291 53
4.7922521 -1.7139316 -1.3404284 289 53
4.7907133 -1.7466077 -1.3430469 293 53
4.7934775 -1.781009 -1.3469747 297 53
4.8014154 -1.8175585 -1.3524736 314 53
4.7982779 -1.8501083 -1.3548303 284 53
4.8021088 -1.8855081 -1.3592818 318 53
4.8029966 -1.9199501 -1.3629477 329 53
4.8000655 -1.9530199 -1.3655663 300 53
4.8058276 -1.9898157 -1.3708032 418 53
4.7615056 -2.0057855 -1.3613765 55 53
4.7828217 -2.0494006 -1.3713269 28 53
4.7860842 -2.0856452 -1.3760403 26 53
4.7846684 -2.1200528 -1.3794444 37 53
4.7847705 -2.155314 -1.3833722 34 53
4.7872524 -2.1918604 -1.3880855 38 53
4.78509 -2.2264836 -1.3914896 62 53
4.7852998 -2.2623994 -1.3956792 63 53
4.7887292 -2.300072 -1.4009162 69 53
4.8040204 -2.3437936 -1.4098192 41 53
4.8033862 -2.3800793 -1.4140089 27 53
4.8059363 -2.4181795 -1.419246 18 53
4.7961655 -2.4502559 -1.420817 26 53
4.7938933 -2.4863009 -1.4247448 24 53
4.8178353 -2.5363412 -1.43679 5 53
4.8047361 -2.567219 -1.4375756 18 53
4.8084092 -2.6072285 -1.4435982 22 53
4.8253026 -2.6548202 -1.4538105 11 53
4.8266206 -2.6942525 -1.4593093 13 53
4.8259563 -2.7328496 -1.4642845 21 53
4.8258367 -2.7720203 -1.4695215 14 53
4.8187451 -2.8074069 -1.4726638 27 53
4.8172178 -2.8462458 -1.477639 30 53
4.8087707 -2.8812046 -1.4805194 46 53
4.8190489 -2.9276881 -1.4894223 24 53
4.8223619 -2.9703577 -1.4962305 20 53
4.8286071 -3.0152216 -1.504086 21 53
4.8426375 -3.0654337 -1.5145602 16 53
4.8692307 -3.1242671 -1.5292239 6 53
4.8540149 -3.1567154 -1.5305332 12 53
4.8514786 -3.1975896 -1.5360321 17 53
4.8558474 -3.2433741 -1.5438876 20 53
4.8494439 -3.2823017 -1.5483391 24 53
4.8538895 -3.328912 -1.5564566 21 53
4.854774 -3.3734977 -1.5635265 36 53
4.8576608 -3.4198852 -1.5713822 30 53
4.8585892 -3.4653141 -1.578714 26 53
4.8591418 -3.5108826 -1.5860459 28 53
4.8671064 -3.5622861 -1.5959963 13 53
4.8598895 -3.6030011 -1.6009715 16 53
4.860074 -3.6495547 -1.6085651 15 53
4.8683209 -3.7026708 -1.6190393 13 53
4.8638625 -3.7466037 -1.6253237 24 53
4.8697023 -3.7989297 -1.6352741 38 53
4.8614488 -3.8407011 -1.6405112 37 53
4.8671865 -3.8939662 -1.6507233 28 53
4.863452 -3.9401569 -1.6577934 29 53
4.8735123 -3.9980755 -1.6698385 10 53
4.8689365 -4.0445504 -1.6769086 16 53
4.8706207 -4.0967088 -1.6863353 17 53
4.8674383 -4.1452856 -1.6941909 25 53
4.8696909 -4.199018 -1.7041413 23 53
4.8751016 -4.2561059 -1.7154009 47 53
4.8691454 -4.3038321 -1.7227328 31 53
4.8563128 -4.3458533 -1.727708 19 53
4.8424315 -4.3872304 -1.7324213 13 53
0 -0 -0 5 53
0 -0 -0 4 53
0 -0 -0 5 53
0 -0 -0 4 53
0 -0 -0 5 53
0 -0 -0 4 53
1.8945886 -1.8717341 -0.68213171 6 53
1.8919431 -1.8921922 -0.68553579 12 53
1.8721553 -1.8955292 -0.68239355 21 53
1.8544209 -1.9007661 -0.68003684 28 53
1.8393731 -1.9086357 -0.67872763 32 53
1.8269615 -1.9191873 -0.67846572 36 53
1.8105211 -1.9254415 -0.67663276 51 53
1.799987 -1.9379282 -0.67715651 46 53
1.7854512 -1.9460927 -0.67610908 30 53
1.7754217 -1.959156 -0.67689466 40 53
1.7646551 -1.9714506 -0.67741835 44 53
1.7570024 -1.9873005 -0.67925131 56 53
1.7409647 -1.9936838 -0.67768019 35 53
1.7280682 -2.003598 -0.67741835 32 53
1.7138634 -2.0119603 -0.67663276 28 53
1.7002426 -2.020962 -0.67610908 27 53
1.6970668 -2.0424871 -0.68003684 49 53
1.6869525 -2.0558448 -0.68108428 33 53
1.6743063 -2.0661571 -0.68108428 25 53
1.6670271 -2.0831711 -0.68344092 34 53
1.6613981 -2.1024439 -0.68658316 37 53
1.6550009 -2.1209655 -0.68946356 42 53
1.6449026 -2.1349015 -0.69077283 33 53
1.6370342 -2.151865 -0.69312948 37 53
1.6191602 -2.1556978 -0.69103467 24 53
1.586921 -2.1400182 -0.68239355 12 53
1.5823168 -2.1613925 -0.68632132 8 53
1.575247 -2.1796622 -0.68920171 5 53
1.5741817 -2.2065661 -0.69496244 9 53
0 -0 -0 4 53
0 -0 -0 6 53
0 -0 -0 4 53
0 -0 -0 4 53
3.9971812 -5.9795065 -1.9110045 31 53
3.9699843 -6.0184197 -1.915718 34 53
3.9340343 -6.0442834 -1.9162416 32 53
3.8942652 -6.0642481 -1.9149324 26 53
3.8786809 -6.1222668 -1.9259301 50 53
3.8384843 -6.1418586 -1.9246209 35 53
3.8032591 -6.1694031 -1.9259301 48 53
3.766336 -6.1942725 -1.9264538 39 53
3.7282577 -6.2172656 -1.9264538 53 53
3.6875823 -6.2358713 -1.9251446 39 53
3.6609209 -6.278388 -1.931429 59 53
3.6141489 -6.2865105 -1.9269775 47 53
3.589788 -6.3337545 -1.9348332 67 53
3.5437944 -6.3430252 -1.9309053 59 53
3.5071359 -6.3688765 -1.9322146 54 53
3.4656889 -6.3860354 -1.9309053 60 53
3.4278054 -6.4097333 -1.9316909 61 53
3.3902116 -6.4340601 -1.9327383 62 53
3.3560066 -6.4650187 -1.9358805 57 53
3.3118796 -6.4768972 -1.933262 47 53
3.2929194 -6.5384674 -1.9458309 80 53
3.2570276 -6.5671949 -1.9484495 80 53
3.1997254 -6.5523696 -1.9379754 59 53
3.1561141 -6.5649214 -1.9358805 66 53
3.1347694 -6.624289 -1.9479257 82 53
3.0867276 -6.6276522 -1.9432124 68 53
3.0468075 -6.648222 -1.9437361 65 53
3.0111163 -6.6782284 -1.9471402 76 53
2.9673426 -6.6904035 -1.9453073 74 53
2.9289374 -6.7146764 -1.9471402 67 53
2.8998601 -6.7609024 -1.9555194 70 53
2.8733263 -6.8141375 -1.9659935 106 53
2.8159359 -6.7941961 -1.9549958 69 53
2.7756512 -6.8149219 -1.9560431 79 53
2.7395225 -6.8461599 -1.9602329 80 53
2.6790977 -6.8161364 -1.9466165 77 53
2.6570415 -6.8837643 -1.961542 82 53
2.6062 -6.8773775 -1.9549958 83 53
2.5764062 -6.9267058 -1.9646842 86 53
2.4981039 -6.8444757 -1.9364042 44 53
2.4840505 -6.9378123 -1.9589236 69 53
2.4491115 -6.9747767 -1.9652079 71 53
2.4081547 -6.9951477 -1.9667791 73 53
2.3667314 -7.0143642 -1.9680884 62 53
2.3154645 -7.0040145 -1.9610183 58 53
2.2804763 -7.0428796 -1.9680884 68 53
2.2287567 -7.0300617 -1.9604946 60 53
2.1881545 -7.0519004 -1.9628513 61 53
2.149051 -7.0790453 -1.9667791 55 53
2.1129947 -7.1170774 -1.9738492 64 53
2.0676706 -7.1243477 -1.972278 82 53
2.0223367 -7.13133 -1.9707069 60 53
1.9855008 -7.168716 -1.9777769 78 53
1.9399649 -7.1751742 -1.9762058 66 53
1.8991045 -7.1990733 -1.9796098 61 53
1.8594671 -7.2283487 -1.984585 73 53
1.8106177 -7.2218361 -1.9796098 55 53
1.7685623 -7.2421851 -1.9822284 53 53
1.7261019 -7.2613506 -1.984585 61 53
1.6849959 -7.2868495 -1.9887747 55 53
1.6402528 -7.297051 -1.9887747 61 53
1.5942119 -7.301321 -1.9872036 55 53
1.5523854 -7.3251271 -1.9911314 59 53
1.5130488 -7.3619285 -1.9987251 56 53
1.4635098 -7.3493047 -1.9927025 40 53
1.4127202 -7.3287697 -1.984585 34 53
1.3824166 -7.4160452 -2.0063188 59 53
1.3433914 -7.4604802 -2.0162692 75 53
1.2936211 -7.4457626 -2.0099847 43 53
1.2522172 -7.4792595 -2.0170548 57 53
1.2069165 -7.4906135 -2.0181022 74 53
1.1625582 -7.508369 -2.0209825 56 53
1.1191632 -7.5334983 -2.0259578 61 53
1.0715563 -7.5306692 -2.0233393 53 53
1.0263708 -7.5447526 -2.025434 62 53
0.97980899 -7.5489941 -2.0249102 77 53
0.93098241 -7.53475 -2.0194113 90 53
0.88687223 -7.5585322 -2.0243866 89 53
0.83556753 -7.5197091 -2.0123415 68 53
0.78870583 -7.5179758 -2.0105085 70 53
0.74322623 -7.5293965 -2.0123415 70 53
0.70102036 -7.5770597 -2.0241249 77 53
0.65701002 -7.610064 -2.0319803 79 53
0.60891253 -7.5966358 -2.027267 78 53
0.56150407 -7.589642 -2.0243866 68 53
0.51426989 -7.5833158 -2.0217681 73 53
0.46963507 -7.6171532 -2.0301473 81 53
0.42181572 -7.6006188 -2.0249102 72 53
0.37746146 -7.6493325 -2.0374792 91 53
0.32968301 -7.6322207 -2.0322423 93 53
0.28334868 -7.6476021 -2.0359082 76 53
0.23767696 -7.6897116 -2.046906 96 53
0.18984015 -7.6649752 -2.0398359 74 53
0.1426602 -7.6582766 -2.0377412 112 53
0.095581807 -7.6522522 -2.0359082 94 53
0.048683185 -7.6613808 -2.0382648 76 53
0.0016739952 -7.6644306 -2.0390503 117 53
-0.045415301 -7.6749125 -2.0419307 81 53
-0.092725046 -7.6928248 -2.046906 66 53
-0.14032593 -7.7143049 -2.0529284 8 53
-0.05634914 -2.2822933 -0.57896185 6 53
-0 -0 -0 4 53
-0.28173465 -7.694984 -2.048739 19 53
-0.33231366 -7.7721772 -2.0702107 61 53
-0.11892218 -2.4151778 -0.61562121 4 53
-0.13749595 -2.4828224 -0.63421273 15 53
-0.15355121 -2.4954183 -0.63787866 17 53
-0.16918358 -2.499244 -0.63918793 11 53
-0.18599893 -2.5183716 -0.64468682 25 53
-0.2016775 -2.5200691 -0.64547235 44 53
-0.21771368 -2.5255153 -0.64730531 44 53
-0.23205736 -2.5116382 -0.64390123 12 53
-0.75325501 -7.6651473 -2.0492625 68 53
-0.80307698 -7.6872587 -2.0565944 73 53
-0.85044205 -7.6841049 -2.0571182 76 53
-0.89455342 -7.6528597 -2.0500481 76 53
-0.94620502 -7.6855426 -2.0605223 89 53
-0.99247921 -7.6728921 -2.0586894 77 53
-1.039929 -7.6695271 -2.0594747 92 53
-1.088729 -7.6754241 -2.0628788 82 53
-1.1448444 -7.729701 -2.0796375 77 53
-1.1931341 -7.7282538 -2.0812085 104 53
-1.2367072 -7.6969647 -2.0746622 82 53
-1.2837529 -7.6882796 -2.0744004 90 53
-1.3284334 -7.6659932 -2.0704727 78 53
-1.3764689 -7.6633978 -2.0720437 79 53
-1.4333376 -7.7079439 -2.0867074 97 53
-1.4807878 -7.6999521 -2.0869694 117 53
-1.5310129 -7.7058673 -2.0911589 104 53
-1.5827223 -7.7180738 -2.0971816 92 53
-1.6298501 -7.7072725 -2.0969198 101 53
-1.6699241 -7.6641216 -2.087755 90 53
-1.7194521 -7.6650314 -2.0908971 109 53
-1.761897 -7.6345882 -2.0853982 92 53
-1.8118259 -7.6367807 -2.0890641 86 53
-1.8689283 -7.667716 -2.1008475 119 53
-1.918283 -7.6654668 -2.103466 106 53
-1.9660009 -7.6563563 -2.1042516 101 53
-2.0158899 -7.6553493 -2.1073937 102 53
-2.0650866 -7.6512218 -2.1097505 106 53
-2.1076245 -7.6225924 -2.105299 104 53
-2.1572466 -7.6197324 -2.1081793 138 53
-2.2077184 -7.6193304 -2.1118453 125 53
-2.0507414 -6.9181027 -1.917289 401 53
-2.2985346 -7.5833516 -2.1094887 126 53
-2.3524444 -7.5930753 -2.1162968 159 53
-2.3200948 -7.3291368 -2.0453348 107 53
-2.3053715 -7.1301751 -1.9927025 502 53
-2.3463566 -7.1076469 -1.9903458 946 53
-2.3942363 -7.1059213 -1.9940118 828 53
-2.4406149 -7.0993114 -1.9963684 601 53
-2.4678495 -7.0377522 -1.983014 561 53
-2.4888997 -6.9606781 -1.9652079 1157 53
-2.5209908 -6.9162574 -1.9568287 717 53
-2.5774899 -6.9386587 -1.9678265 1073 53
-2.6244552 -6.9344478 -1.9712306 1171 53
-2.6697307 -6.9254184 -1.9733254 1131 53
-2.6832671 -6.8352365 -1.9518535 986 53
-2.7158482 -6.795341 -1.9450454 1193 53
-2.7734873 -6.8178864 -1.9565668 1035 53
-2.8768919 -6.9496675 -2.0002961 1178 53
-2.9243481 -6.9434481 -2.0037003 1277 53
-2.9737358 -6.9413428 -2.0084136 748 53
-3.2047083 -7.3556514 -2.1364594 166 53
-3.2532985 -7.343791 -2.1388161 187 53
-3.3054292 -7.3395319 -2.1435294 170 53
-3.3528109 -7.3243775 -2.1451006 186 53
-3.3940268 -7.2957911 -2.1427438 186 53
-3.4436767 -7.2852998 -2.1458862 157 53
-3.4983375 -7.284914 -2.1521707 158 53
-3.5560837 -7.2902031 -2.1602879 153 53
-3.5904694 -7.2474895 -2.1540036 153 53
-3.627934 -7.2115269 -2.1498139 181 53
-3.6650925 -7.1753778 -2.1456242 210 53
-3.7081625 -7.1510406 -2.1451006 177 53
-3.7636552 -7.1503592 -2.1519086 164 53
-3.8006384 -7.1143618 -2.1479809 146 53
-3.8474388 -7.0968471 -2.1498139 130 53
-3.9048631 -7.0984759 -2.1576695 105 53
-3.9779694 -7.1274796 -2.1741662 42 53
-1.445973 -2.5523357 -0.75545031 20 53
-1.445749 -2.5157952 -0.74680918 34 53
-1.4601871 -2.505209 -0.7462855 34 53
-1.4632621 -2.4754269 -0.73973918 43 53
-4.1595254 -6.943315 -2.1555746 62 53
-4.221086 -6.9490094 -2.165525 37 53
-0 -0 -0 4 53
-0 -0 -0 4 53
-0 -0 -0 7 53
-0 -0 -0 5 53
-1.6186988 -2.4879947 -0.76487702 8 53
-1.6626059 -2.5215359 -0.77901703 16 53
-1.6855488 -2.5225239 -0.78268296 9 53
-1.7128927 -2.5297198 -0.78844374 13 53
-1.7180142 -2.5040379 -0.78346854 11 53
-1.7355487 -2.4966197 -0.78451592 12 53
-1.754723 -2.4914484 -0.78634888 8 53
-1.7531694 -2.4570596 -0.77849334 4 53
-1.7653873 -2.4423442 -0.77718407 11 53
-1.7962961 -2.4532754 -0.78451592 15 53
-1.8072929 -2.4367795 -0.78268296 15 53
-1.8291632 -2.4349065 -0.78582519 6 53
-1.8312188 -2.4067349 -0.78006446 12 53
-1.845363 -2.3946888 -0.77980262 14 53
-1.8469652 -2.3665774 -0.77404183 18 53
-1.8644422 -2.3589871 -0.77535111 18 53
-1.886115 -2.3565474 -0.77849334 6 53
-1.8956797 -2.3389299 -0.77639854 7 53
-1.8959199 -2.3100901 -0.77037591 21 53
-1.9291717 -2.3214309 -0.77849334 6 53
-1.9315786 -2.2955148 -0.77351815 18 53
-1.9475042 -2.2858243 -0.77430367 12 53
-1.9539317 -2.2650592 -0.77116144 21 53
-1.9658893 -2.2508461 -0.77037591 15 53
-1.9764681 -2.2351251 -0.76906663 17 53
-1.9849976 -2.2172012 -0.76697183 16 53
-1.9888468 -2.1942496 -0.76304406 15 53
-1.9990119 -2.1784482 -0.76173478 8 53
-2.0399177 -2.1958497 -0.77273256 39 53
-2.0593011 -2.1896212 -0.77508926 81 53
-2.0467539 -2.1496747 -0.76487702 31 53
-2.0706177 -2.1481977 -0.76906663 35 53
-2.075001 -2.1264689 -0.76566255 72 53
-2.0866537 -2.1123233 -0.76513886 61 53
-2.0968466 -2.0967493 -0.76409143 35 53
-2.1014364 -2.075702 -0.76094925 75 53
-2.112752 -2.0614202 -0.76042551 74 53
-2.1420319 -2.0644982 -0.76670998 51 53
-2.1679351 -2.0639651 -0.77168518 44 53
-2.2058594 -2.0744359 -0.78111184 28 53
-2.2234943 -2.0654616 -0.7829448 30 53
-2.2553191 -2.0694044 -0.7900148 34 53
-2.3030024 -2.0872984 -0.8028456 20 53
-2.3236735 -2.0802119 -0.80572599 32 53
-2.3573537 -2.0844626 -0.81331968 35 53
-2.3839061 -2.0820262 -0.81829488 29 53
-2.4170918 -2.0850179 -0.82562673 30 53
-2.4518721 -2.0889325 -0.83348233 21 53
-2.5067229 -2.1092823 -0.84840792 14 53
-2.5448475 -2.1148429 -0.85731089 9 53
-2.5823877 -2.1194019 -0.86595201 14 53
-0 -0 -0 4 53
-0 -0 -0 18 53
-2.6648653 -2.1062343 -0.88113946 56 53
-2.6754568 -2.0880613 -0.88035387 71 53
-2.6836331 -2.0680695 -0.87878275 66 53
-2.6924326 -2.0486407 -0.87747347 82 53
-2.6949236 -2.0245423 -0.87406945 80 53
-2.6956708 -1.9993405 -0.87014163 86 53
-2.7008815 -1.9776286 -0.86778498 83 53
-2.7106192 -1.9593221 -0.86699939 103 53
-2.7241611 -1.9437749 -0.86752313 95 53
-2.750236 -1.9370314 -0.87223643 71 53
-2.7818758 -1.9338987 -0.87878275 56 53
-2.8088064 -1.9271725 -0.88375795 65 53
-2.8477428 -1.9283092 -0.89266092 55 53
-2.881182 -1.9252845 -0.89973092 54 53
-2.9203293 -1.9256424 -0.90863395 46 53
-2.9515007 -1.9203256 -0.91491836 60 53
-3.0030158 -1.927739 -0.92774916 39 53
-3.0408735 -1.9258088 -0.93612844 37 53
-3.082093 -1.9255325 -0.94555509 59 53
-3.1061718 -1.9141837 -0.94948292 38 53
-3.1401215 -1.9086301 -0.95655292 20 53
-6.9389472 -4.161181 -2.154789 39 53
-6.9635186 -4.1180348 -2.1545272 53 53
-6.9711485 -4.0650182 -2.1490283 33 53
-7.0135288 -4.0322714 -2.1545272 33 53
-7.0616455 -4.0024896 -2.161859 34 53
-7.0523734 -3.9402509 -2.1513851 29 53
-7.1271372 -3.9248445 -2.1670961 49 53
-7.1587191 -3.8851838 -2.1694529 49 53
-7.0913682 -3.7924721 -2.1414347 20 53
-7.1469479 -3.7659903 -2.1513851 39 53
-7.1622124 -3.7180634 -2.1490283 39 53
-7.1479449 -3.6551476 -2.1377687 58 53
-7.186614 -3.6194704 -2.1427438 43 53
-7.2060938 -3.5740192 -2.1419582 36 53
-7.2261534 -3.5288887 -2.1414347 57 53
-7.2189689 -3.4706795 -2.1327934 41 53
-0 -0 -0 5 53
-7.2505183 -3.3769391 -2.1296513 53 53
-7.2596974 -3.3271582 -2.1262472 55 53
-7.1612096 -3.2289784 -2.0908971 9 53
-0 -0 -0 4 53
-0 -0 -0 4 53
-0 -0 -0 5 53
-0 -0 -0 6 53
-0 -0 -0 5 53
-0 -0 -0 5 53
-0 -0 -0 4 53
-0 -0 -0 6 53
-0 -0 -0 4 53
-0 -0 -0 4 53
-0 -0 -0 5 53
-0 -0 -0 4 53
-0 -0 -0 4 53
-0 -0 -0 4 53
-0 -0 -0 4 53
-0 -0 -0 4 53
-0 -0 -0 4 53
-0 -0 -0 4 53
-0 -0 -0 4 53
-0 -0 -0 3 53
-0 -0 -0 4 53
-0 -0 -0 6 53
-0 -0 -0 4 53
-0 -0 -0 5 53
-0 -0 -0 5 53
-0 -0 -0 5 53
-0 -0 -0 4 53
-0 -0 -0 4 53
-0 -0 -0 5 53
-0 -0 -0 4 53
-0 -0 -0 5 53
-0 -0 -0 3 53
-0 -0 -0 4 53
-0 -0 -0 4 53
-0 -0 -0 5 53
-0 -0 -0 5 53
-0 -0 -0 5 53
-0 -0 -0 5 53
-0 -0 -0 7 53
-3.2585406 -0.58608902 -0.85783458 8 53
-0 -0 -0 4 53
-0 -0 -0 5 53
-0 -0 -0 5 53
-0 -0 -0 5 53
-0 -0 -0 4 53
-0 -0 -0 4 53
-0 -0 -0 4 53
-0 -0 -0 3 53
-0 -0 -0 5 53
-0 -0 -0 4 53
-0 -0 -0 4 53
-0 -0 -0 4 53
-0 -0 -0 5 53
-0 -0 -0 6 53
-0 -0 -0 4 53
-0 -0 -0 4 53
-7.5781579 0.18481991 -2.1100941 6 54
-7.5739965 0.23122692 -2.1092751 4 54
-7.5628214 0.27734268 -2.1065457 7 54
-7.53791 0.32275319 -2.0999949 6 54
-0 0 -0 3 54
-7.0655856 0.3894223 -1.9670672 9 54
-6.6780133 0.40915468 -1.8576134 17 54
-0 0 -0 4 54
-0 0 -0 3 54
-0 0 -0 3 54
-0 0 -0 3 54
-2.5756395 0.2370594 -0.69320053 4 54
-2.5703068 0.252482 -0.69210869 5 54
-0 0 -0 4 54
-2.5564971 0.28283936 -0.68910623 4 54
-0 0 -0 4 54
-0 0 -0 3 54
-2.5174654 0.32552516 -0.67955291 3 54
-2.5259068 0.34238896 -0.68255538 8 54
-0 0 -0 5 54
-2.5386443 0.37589893 -0.68746853 3 54
-2.547699 0.39323136 -0.69074398 4 54
-0 0 -0 4 54
-2.5654547 0.42827109 -0.69729483 5 54
-0 0 -0 4 54
-2.5921991 0.46550703 -0.70657516 6 54
-2.602535 0.4838675 -0.71039647 4 54
-2.6051853 0.50091797 -0.71203423 11 54
-2.6067805 0.51783156 -0.71339899 4 54
-2.5969572 0.53246313 -0.71148831 21 54
-2.606818 0.55117577 -0.71530962 8 54
-2.6033869 0.56716055 -0.71530962 11 54
-2.6139381 0.5862841 -0.71940392 6 54
-2.6102915 0.60231191 -0.71940392 3 54
-2.6346271 0.62498248 -0.72759247 13 54
-2.6485009 0.64546698 -0.73277855 4 54
-2.6640882 0.66661245 -0.73851055 8 54
-2.6534255 0.68127078 -0.73659986 5 54
-0 0 -0 6 54
-0 0 -0 4 54
-0 0 -0 3 54
-0 0 -0 3 54
-0 0 -0 4 54
-0 0 -0 4 54
-0 0 -0 5 54
-0 0 -0 3 54
-0 0 -0 3 54
-5.5586247 1.7974923 -1.6168699 3 54
-0 0 -0 3 54
-0 0 -0 3 54
-0 0 -0 3 54
-0 0 -0 4 54
-0 0 -0 4 54
-0 0 -0 3 54
-0 0 -0 4 54
-0 0 -0 3 54
-0 0 -0 5 54
-0 0 -0 3 54
-0 0 -0 3 54
-0 0 -0 4 54
-0 0 -0 6 54
-0 0 -0 6 54
-0 0 -0 4 54
-0 0 -0 3 54
-0 0 -0 3 54
-0 0 -0 3 54
-2.0089869 0.91949379 -0.58620334 14 54
-1.9972017 0.92896223 -0.58429271 25 54
-1.9992914 0.94490039 -0.58674926 32 54
-1.9977918 0.95923281 -0.58811402 13 54
-4.7369599 2.3108995 -1.4547365 45 54
-4.7183814 2.3377857 -1.4533716 156 54
-4.7030888 2.3662608 -1.4530987 159 54
-4.6816278 2.391572 -1.4509151 125 54
-4.673697 2.4237967 -1.4530987 109 54
-4.6740594 2.4604957 -1.4580119 131 54
-4.676692 2.4986503 -1.4637438 130 54
-4.6739578 2.534178 -1.4678382 145 54
-4.6642203 2.5660555 -1.4697487 162 54
-4.6551075 2.5983779 -1.4719324 133 54
-4.6549816 2.6359 -1.4771185 160 54
-4.6554041 2.6739972 -1.4825776 157 54
-4.6571956 2.713167 -1.4885825 117 54
-4.6586814 2.7524593 -1.4945874 112 54
-6.412611 3.8421702 -2.0803423 48 54
-6.4226241 3.9019263 -2.0915332 52 54
-6.3453212 3.9084637 -2.0737915 73 54
-6.3530426 3.9671986 -2.0844367 61 54
-6.3415861 4.014339 -2.0888038 20 54
-6.3038807 4.0448613 -2.0844367 4 54
-2.6837776 1.7451115 -0.86761683 16 54
-2.6922965 1.7742532 -0.87416768 32 54
-2.6885588 1.7955489 -0.87662423 23 54
-2.6918306 1.8217189 -0.88153738 25 54
-2.6909156 1.8452755 -0.88508576 22 54
-2.6874423 1.8672421 -0.88781524 18 54
-2.698746 1.8997587 -0.89573085 38 54
-2.6933041 1.9207515 -0.89791447 22 54
-2.6939437 1.9462566 -0.9022817 35 54
-2.6889374 1.9678639 -0.90473825 40 54
-2.6760395 1.9837528 -0.90446532 31 54
-2.6568937 1.9949359 -0.90200877 26 54
-2.6346493 2.003629 -0.89846039 5 54
-2.6146846 2.013886 -0.89573085 15 54
-2.5946937 2.0239737 -0.89300132 23 54
-2.5671294 2.0279276 -0.88754231 42 54
-2.5396149 2.03162 -0.88208324 20 54
-2.5121522 2.0350518 -0.87662423 18 54
-2.4839997 2.0376129 -0.87089223 25 54
-2.4581311 2.0417502 -0.86597908 26 54
-2.4293609 2.04317 -0.85997415 13 54
-2.3984694 2.0424426 -0.85315037 19 54
-2.3669505 2.0407853 -0.8460536 17 54
-2.3333688 2.0369205 -0.83813798 23 54
-2.3035283 2.035907 -0.83158714 20 54
-2.2694879 2.030755 -0.82339859 20 54
-2.2398753 2.0291386 -0.81684774 27 54
-2.208951 2.0259352 -0.80975097 12 54
-2.1852 2.028976 -0.80538374 24 54
-2.1614954 2.0318019 -0.80101651 26 54
-2.140626 2.0370669 -0.79774112 22 54
-2.1183882 2.0408177 -0.7939198 18 54
-2.0996284 2.0477314 -0.7914632 22 54
-2.076757 2.050436 -0.78736895 32 54
-2.0580134 2.0570185 -0.78491235 27 54
-2.0331826 2.0572894 -0.77999926 25 54
-2.0084262 2.0573335 -0.7750861 30 54
-1.9697248 2.0426071 -0.76444095 18 54
-0 0 -0 4 54
-0 0 -0 3 54
-1.8853002 2.0284791 -0.7450614 18 54
-1.8643616 2.0307949 -0.74151301 26 54
-1.8499274 2.0400579 -0.74069417 18 54
-1.8399421 2.0542374 -0.74178594 20 54
-1.8343136 2.0734153 -0.74478847 19 54
-1.8285187 2.0926011 -0.74779093 25 54
-1.8269565 2.1168921 -0.75270402 13 54
-1.8282844 2.1449037 -0.75898194 16 54
-1.8262395 2.1693301 -0.76389509 23 54
-1.8270378 2.197511 -0.77017295 21 54
-1.8300002 2.2287571 -0.77754265 17 54
-1.8253775 2.2511537 -0.78163695 28 54
-1.8265606 2.2810872 -0.78846073 15 54
-1.8244617 2.3073459 -0.7939198 21 54
-1.8238846 2.3359389 -0.80019766 20 54
-1.817152 2.3569918 -0.80374604 16 54
-1.8178033 2.3880017 -0.81084281 23 54
-1.8175639 2.4183383 -0.81766659 17 54
-1.8170201 2.4487612 -0.82449043 29 54
-1.8110552 2.4722826 -0.82885766 26 54
-1.8065605 2.4981613 -0.83404374 20 54
-1.7984631 2.5193789 -0.83759212 19 54
-1.791281 2.5421638 -0.84168637 27 54
-0 0 -0 4 54
-2.5160329 3.6657345 -1.2208166 9 54
-2.597069 3.8340399 -1.2732234 77 54
-2.5547853 3.8219087 -1.2636701 67 54
-2.5122192 3.8086009 -1.2538438 59 54
-2.4793582 3.8094299 -1.2489307 91 54
-2.4476213 3.8116186 -1.2445635 50 54
-2.3907275 3.7737384 -1.2268215 118 54
-2.356312 3.7703876 -1.2208166 95 54
-2.3205142 3.7643006 -1.2139928 98 54
-2.2888777 3.7644932 -1.2093526 94 54
-2.016422 3.3626139 -1.0717849 116 54
-1.9947723 3.3732667 -1.071239 95 54
-1.8858562 3.2341805 -1.0215617 5 54
-0 0 -0 5 54
-1.8725851 3.303951 -1.036847 9 54
-1.8640054 3.336376 -1.0436708 113 54
-1.837931 3.3376377 -1.0403954 144 54
-1.8109941 3.337014 -1.036574 135 54
-1.7764232 3.3217633 -1.0281125 78 54
-0 0 -0 4 54
-0 0 -0 9 54
-0 0 -0 9 54
-0 0 -0 6 54
-0 0 -0 7 54
-0 0 -0 7 54
-0 0 -0 11 54
-0 0 -0 7 54
-0 0 -0 10 54
-0 0 -0 17 54
-0 0 -0 5 54
-0 0 -0 10 54
-0 0 -0 6 54
-1.144797 2.6688249 -0.78327465 7 54
-1.1328841 2.6864369 -0.7865501 4 54
-0 0 -0 16 54
-0 0 -0 51 54
-0 0 -0 62 54
-0 0 -0 51 54
-0 0 -0 52 54
-0 0 -0 55 54
-0 0 -0 62 54
-0 0 -0 52 54
-0 0 -0 65 54
-0 0 -0 63 54
-0 0 -0 51 54
-0 0 -0 66 54
-0 0 -0 67 54
-0 0 -0 62 54
-0 0 -0 69 54
-0.78459561 2.5281863 -0.71039647 66 54
-0 0 -0 58 54
-0 0 -0 68 54
-0 0 -0 71 54
-0.71811658 2.5318708 -0.70602924 71 54
-0.69948757 2.5251038 -0.70275384 89 54
-0.68498462 2.5330629 -0.70384562 81 54
-0.670165 2.540009 -0.70466453 57 54
-0.65241098 2.5356877 -0.70220792 60 54
-0.63824314 2.5452421 -0.70384562 47 54
-0 0 -0 77 54
-0 0 -0 65 54
-0.58630276 2.5350006 -0.69756776 53 54
-0.57221341 2.5451207 -0.69947845 56 54
-0.55863726 2.5579829 -0.70220792 37 54
-0.5441274 2.5670094 -0.70384562 46 54
-0.53049552 2.5806656 -0.70684814 34 54
-0.51446313 2.5829287 -0.70657516 39 54
-0.49951482 2.59076 -0.70793992 47 54
-0.48466599 2.5994506 -0.70957762 36 54
-0.46495843 2.5815456 -0.70357269 41 54
-0.44976792 2.5881414 -0.70466453 50 54
-0.43959406 2.6250105 -0.71449077 28 54
-0.42133802 2.6143613 -0.71066946 46 54
-0.40572995 2.6197495 -0.71148831 40 54
-0.39501581 2.6583505 -0.72186047 25 54
-0.38018668 2.6712012 -0.72486293 26 54
-0.36171615 2.6582315 -0.7204957 37 54
-0.34020239 2.6203313 -0.70903176 65 54
-0.32305712 2.6137762 -0.70657516 68 54
-0.30522111 2.6004217 -0.70220792 75 54
-0.28894106 2.5993769 -0.70138907 74 54
-0.27268532 2.5982306 -0.70057023 70 54
-0.25645456 2.5969827 -0.69975138 80 54
-0.24078052 2.6013813 -0.70057023 92 54
-0.22497949 2.6047266 -0.70111614 87 54
-0.20906971 2.607017 -0.70138907 75 54
-0.19306943 2.6082506 -0.70138907 88 54
-0.17563213 2.5882699 -0.69538414 36 54
-0.15992479 2.5921795 -0.69620299 31 54
-0.14391007 2.5911911 -0.69565707 35 54
-0.12810272 2.5939469 -0.69620299 61 54
-0.11205991 2.5918007 -0.69538414 64 54
-0.09608379 2.5905168 -0.69483823 59 54
-0.080098018 2.5881729 -0.69401938 70 54
-0.064168356 2.5866921 -0.69347346 56 54
-0.048259877 2.5851135 -0.6929276 74 54
-0.03237319 2.583437 -0.69238168 83 54
-0.016502885 2.5807009 -0.69156283 84 54
-0.00066748168 2.5788295 -0.69101691 62 54
0.015138538 2.5758991 -0.69019806 61 54
0.030920271 2.5738337 -0.68965214 72 54
0.046624422 2.5687864 -0.68828738 53 54
0.062385321 2.5684519 -0.68828738 75 54
0.078114465 2.567059 -0.68801445 55 54
0.093864173 2.5665314 -0.68801445 78 54
0.10961035 2.5659072 -0.68801445 85 54
0 0 -0 59 54
0 0 -0 76 54
0 0 -0 71 54
0 0 -0 96 54
0.18833813 2.5622969 -0.68828738 90 54
0.20382689 2.5582161 -0.68746853 76 54
0.21951997 2.5569174 -0.68746853 56 54
0.23591131 2.5631859 -0.68965214 31 54
0.25106913 2.5559459 -0.68801445 44 54
0.26694754 2.5562708 -0.68856037 33 54
0.28241563 2.5526724 -0.68801445 56 54
0.29773781 2.5480249 -0.6871956 67 54
0.31336659 2.54615 -0.6871956 79 54
0.32898358 2.5441792 -0.6871956 84 54
0.34471753 2.543066 -0.68746853 92 54
0.36045024 2.5418556 -0.68774146 79 54
0.37646315 2.5424509 -0.68856037 80 54
0.39190933 2.5391424 -0.68828738 81 54
0.40732911 2.5357401 -0.68801445 70 54
0.42272192 2.5322442 -0.68774146 90 54
0.4374297 2.5248632 -0.68637675 89 54
0.45512605 2.5344408 -0.68992507 187 54
0.45940539 2.4710698 -0.6724562 20 54
0 0 -0 27 54
0 0 -0 49 54
0 0 -0 43 54
0 0 -0 34 54
0 0 -0 49 54
0.53635317 2.3914719 -0.65471429 60 54
0.55036759 2.3853238 -0.65389544 80 54
0.56654859 2.388454 -0.65580612 51 54
0.58073735 2.3830636 -0.65526021 66 54
0.59558225 2.3803885 -0.65553313 70 54
0.60874057 2.3710988 -0.65389544 59 54
0.62768948 2.384064 -0.65880859 41 54
0.64205521 2.3792388 -0.6585356 25 54
0.65535945 2.3706186 -0.65717089 46 54
0.66936862 2.3647015 -0.65662497 79 54
0.68359768 2.3596258 -0.65635198 83 54
0.69861025 2.3572316 -0.6568979 96 54
0.71333992 2.3538213 -0.65717089 81 54
0.7283389 2.3512378 -0.65771675 81 54
0.74362344 2.3494759 -0.6585356 74 54
0.75950587 2.3494456 -0.65990037 89 54
0.77541584 2.3493087 -0.66126513 77 54
0.79043084 2.3463299 -0.66181105 61 54
0.80575138 2.3441648 -0.6626299 76 54
0.82107502 2.3419001 -0.66344875 68 54
0.86102509 2.4083784 -0.68501198 12 54
0 0 -0 4 54
0 0 -0 4 54
1.1858779 3.1334825 -0.90992439 68 54
1.206813 3.130635 -0.9112891 95 54
1.2277577 3.1276486 -0.91265386 81 54
0 0 -0 75 54
1.2667714 3.1141286 -0.91319978 83 54
1.2818069 3.0965202 -0.91019732 84 54
1.2921921 3.0682058 -0.9039194 83 54
1.2958366 3.0248492 -0.89300132 120 54
0 0 -0 116 54
0 0 -0 81 54
0 0 -0 60 54
0 0 -0 134 54
0 0 -0 198 54
1.3861448 2.9324877 -0.87962669 75 54
1.4028624 2.9213257 -0.87880784 80 54
1.4317294 2.9351425 -0.88590461 92 54
0 0 -0 115 54
0 0 -0 85 54
0 0 -0 80 54
0 0 -0 115 54
0 0 -0 92 54
1.4803046 2.7710013 -0.85069376 64 54
1.4807696 2.7314215 -0.84086752 43 54
0 0 -0 69 54
0 0 -0 93 54
0 0 -0 125 54
0 0 -0 97 54
0 0 -0 119 54
0 0 -0 117 54
0 0 -0 121 54
0 0 -0 140 54
0 0 -0 122 54
0 0 -0 108 54
0 0 -0 127 54
0 0 -0 76 54
0 0 -0 116 54
0 0 -0 161 54
0 0 -0 91 54
0 0 -0 95 54
0 0 -0 174 54
0 0 -0 115 54
0 0 -0 75 54
0 0 -0 106 54
0 0 -0 110 54
0 0 -0 86 54
0 0 -0 167 54
0 0 -0 120 54
0 0 -0 76 54
0 0 -0 34 54
0 0 -0 38 54
0 0 -0 85 54
0 0 -0 120 54
0 0 -0 76 54
0 0 -0 57 54
0 0 -0 14 54
1.939127 2.3056827 -0.81411821 7 54
0 0 -0 8 54
2.1808941 2.5294113 -0.90692186 91 54
2.2064972 2.5275764 -0.9112891 101 54
2.237257 2.5312884 -0.91783994 117 54
2.2687864 2.535434 -0.92466378 114 54
2.2946365 2.5328715 -0.92903101 93 54
2.3231416 2.5329223 -0.93449003 101 54
2.3523879 2.5334232 -0.94022202 105 54
2.3777733 2.5294547 -0.94431633 102 54
2.4065146 2.5287535 -0.94977534 145 54
2.4186478 2.5104761 -0.94841057 91 54
0 0 -0 35 54
0 0 -0 74 54
2.5175018 2.5185974 -0.96970081 49 54
2.5246961 2.4949892 -0.96642542 39 54
2.5323842 2.4720595 -0.96342295 38 54
2.5267272 2.4364438 -0.95523441 56 54
2.5130658 2.3936934 -0.94404334 76 54
2.5333116 2.3835018 -0.94622695 118 54
2.4886889 2.3129067 -0.92329901 77 54
2.4603078 2.258563 -0.90692186 45 54
2.439908 2.2124097 -0.89382023 28 54
0 0 -0 50 54
0 0 -0 85 54
0 0 -0 70 54
0 0 -0 44 54
3.6642802 3.1230195 -1.3253572 52 54
3.7025108 3.1165831 -1.332454 111 54
3.73932 3.1085646 -1.3390048 121 54
3.7746825 3.0989907 -1.3450098 83 54
3.8003523 3.0812235 -1.3474663 123 54
3.8304522 3.0668652 -1.3515606 16 54
0 0 -0 7 54
0 0 -0 9 54
0 0 -0 10 54
0 0 -0 4 54
0 0 -0 4 54
3.8881996 2.8848236 -1.3329998 74 54
3.9337687 2.8813746 -1.3428261 147 54
3.9630687 2.8656378 -1.3469204 192 54
3.9476886 2.8177955 -1.3354564 88 54
3.9664769 2.7946279 -1.3360023 62 54
4.1241455 2.8679938 -1.3845878 216 54
4.0456862 2.7767699 -1.3515606 32 54
4.0809684 2.7643013 -1.3578385 104 54
4.0890546 2.7333288 -1.354836 148 54
4.1185989 2.7166617 -1.3592032 109 54
4.3206482 2.8120215 -1.4219822 96 54
4.413918 2.8343139 -1.4476397 232 54
4.4531693 2.8210762 -1.4550093 218 54
4.4997663 2.8120508 -1.4648356 211 54
4.5472379 2.8030639 -1.4749348 228 54
4.5931234 2.7926002 -1.4844881 266 54
4.6514273 2.7890983 -1.4981358 232 54
4.707375 2.7835162 -1.5109645 239 54
4.7650905 2.7783208 -1.5243392 211 54
4.8245859 2.7734799 -1.5382597 272 54
4.8950806 2.774178 -1.5557287 452 54
4.8851337 2.7290781 -1.5469942 303 54
3.7792401 2.0810492 -1.1834222 41 54
4.5994706 2.4959621 -1.4440913 70 54
4.899756 2.6200993 -1.5358032 351 54
4.8978662 2.5805697 -1.5300711 311 54
4.893115 2.5398328 -1.5235204 263 54
4.7115912 2.4090455 -1.4607414 25 54
4.728003 2.3809555 -1.4612873 19 54
4.7226996 2.3420711 -1.4550093 43 54
4.7145042 2.3020756 -1.4479126 27 54
4.7216039 2.2697706 -1.445729 24 54
4.7250071 2.2358198 -1.4424536 37 54
4.7334037 2.204349 -1.4408159 45 54
4.7520881 2.1776683 -1.4424536 53 54
4.7741308 2.1524224 -1.4451832 51 54
4.7643824 2.1129496 -1.4380864 22 54
4.7763758 2.0832918 -1.4378134 21 54
4.8040996 2.0603905 -1.4424536 25 54
4.8379269 2.0398428 -1.4490044 56 54
4.9872208 2.0668299 -1.491039 202 54
5.0791078 2.0684781 -1.5153317 385 54
4.7469249 1.8993509 -1.4099723 218 54
4.905333 1.9278882 -1.4547365 149 54
4.8264198 1.8627744 -1.4271683 707 54
4.8665471 1.844031 -1.4359027 77 54
4.8894925 1.8184944 -1.4394511 90 54
5.0270834 1.8346235 -1.4776644 211 54
5.0110731 1.7940174 -1.4694759 99 54
5.0356026 1.7680157 -1.4735701 154 54
5.0308919 1.7317626 -1.4689299 178 54
5.0450692 1.702091 -1.4700217 254 54
5.0481105 1.6686881 -1.4678382 252 54
5.0088296 1.621684 -1.4530987 33 54
5.0067639 1.5871415 -1.4495504 15 54
5.0200834 1.5575308 -1.4506421 36 54
5.0212607 1.5241845 -1.4481856 30 54
5.0351295 1.4947145 -1.4495504 39 54
5.0294232 1.4595027 -1.4451832 22 54
5.0336561 1.4273033 -1.4438183 21 54
5.0349021 1.3943371 -1.4416348 34 54
5.0340757 1.3609073 -1.4389052 29 54
5.0395408 1.3292574 -1.4380864 20 54
5.0308309 1.2939979 -1.4331732 14 54
5.0368099 1.2626373 -1.4326273 14 54
5.047266 1.2323925 -1.4334462 19 54
5.0481811 1.1998432 -1.4315355 21 54
5.0479498 1.1671125 -1.4293519 15 54
5.0521998 1.1354842 -1.4285331 12 54
5.059072 1.1044631 -1.4285331 13 54
5.061048 1.0724037 -1.4271683 13 54
5.0637636 1.0405552 -1.4260764 11 54
5.0842056 1.0122817 -1.4301708 4 54
5.0742621 0.97797269 -1.4255306 8 54
5.0744929 0.94576204 -1.4238929 16 54
5.0792537 0.91443735 -1.4236199 12 54
5.0809774 0.88259614 -1.4225281 16 54
5.0787067 0.85013318 -1.4203445 14 54
5.0781283 0.81803721 -1.4187068 17 54
5.0792494 0.78627461 -1.4176149 26 54
5.0801721 0.75452906 -1.4165231 22 54
5.0837536 0.72320813 -1.4162502 19 54
5.087142 0.69187158 -1.4159772 25 54
5.0922456 0.66076815 -1.4162502 24 54
3.7280045 0.46060747 -1.0251101 79 54
3.7011404 0.43425199 -1.0166485 13 54
3.7008669 0.41121563 -1.0158297 6 54
3.7023637 0.38839951 -1.0155568 8 54
3.6893589 0.36416453 -1.0111896 3 54
3.670449 0.3395727 -1.0051845 58 54
3.6715052 0.31696221 -1.0049117 51 54
0 0 -0 5 54
3.678956 0.27216682 -1.0060035 6 54
3.6575208 0.24802834 -0.99945259 5 54
3.64169 0.22451781 -0.99453944 65 54
3.6333935 0.20163655 -0.99180996 89 54
3.6259146 0.17891288 -0.98935336 51 54
3.590421 0.15508765 -0.9789812 8 54
3.5480433 0.13145617 -0.96669835 6 54
3.5814764 0.11069021 -0.97597873 69 54
3.5667005 0.088333175 -0.9716115 102 54
3.5642898 0.066393211 -0.97079265 102 54
3.5665538 0.044545714 -0.97133857 64 54
3.5215456 0.022378543 -0.9585098 6 54
3.5524015 0.00077368191 -0.96724427 59 54
3.5263653 -0.020866914 -0.95987457 111 54
3.5271327 -0.042515591 -0.9601475 91 54
3.5268054 -0.064156868 -0.9601475 110 54
3.5196133 -0.085631207 -0.95823687 80 54
3.4969053 -0.10654922 -0.95195895 36 54
3.4952242 -0.12796851 -0.95168602 94 54
3.4809172 -0.14883555 -0.94786465 96 54
3.4837821 -0.17037965 -0.94895649 24 54
0 -0 -0 28 54
5.1147695 -0.31328583 -1.4132477 28 54
5.1204295 -0.34518179 -1.4154314 12 54
5.1182151 -0.37659365 -1.4154314 19 54
5.1206031 -0.4083741 -1.4167961 26 54
5.1132083 -0.43937367 -1.4154314 14 54
5.1161637 -0.47126934 -1.4170691 17 54
5.1170053 -0.50302941 -1.4181609 8 54
5.1186066 -0.53491765 -1.4195256 16 54
5.1094913 -0.56567913 -1.4178879 13 54
5.121212 -0.59880853 -1.4222552 15 54
5.1269894 -0.63139701 -1.4249847 14 54
5.1363759 -0.66457289 -1.4288059 17 54
5.1341081 -0.69633538 -1.4293519 15 54
5.134501 -0.7285006 -1.4307166 25 54
5.1280313 -0.75970948 -1.4301708 14 54
5.1261253 -0.79160088 -1.4309896 24 54
5.1297202 -0.82441378 -1.4334462 19 54
5.1274118 -0.85634929 -1.434265 15 54
5.1296439 -0.88910931 -1.4364487 20 54
5.1307197 -0.92175871 -1.4383593 19 54
5.1353712 -0.95515871 -1.4413618 20 54
5.1331925 -0.98737794 -1.4424536 22 54
5.141191 -1.0216697 -1.4465479 36 54
5.1329403 -1.0528095 -1.446002 15 54
5.1452079 -1.0882677 -1.451461 30 54
5.1544123 -1.1233011 -1.4561012 44 54
5.1633806 -1.1584885 -1.4607414 48 54
5.1664858 -1.1925293 -1.4637438 54 54
5.1674957 -1.2262075 -1.4662004 53 54
5.1570706 -1.2572078 -1.4653815 63 54
5.1576586 -1.2909302 -1.4678382 63 54
5.1720028 -1.3282976 -1.474389 50 54
5.1767793 -1.3634387 -1.4782103 52 54
5.1692448 -1.3954279 -1.4784832 43 54
5.1661482 -1.4286585 -1.4801209 34 54
5.1628389 -1.4619035 -1.4817587 39 54
5.1565433 -1.4943581 -1.4825776 30 54
5.183248 -1.5366366 -1.4932226 220 54
5.1755629 -1.5689698 -1.4937686 306 54
5.0620027 -1.568514 -1.462925 195 54
4.9908347 -1.580085 -1.4446372 182 54
4.887681 -1.5804803 -1.4167961 190 54
4.834043 -1.5959606 -1.4036944 178 54
4.7940755 -1.6154518 -1.3946871 274 54
4.8040872 -1.6517202 -1.400692 330 54
4.7993088 -1.683077 -1.4023297 328 54
4.7961378 -1.7150853 -1.4045132 365 54
4.8026967 -1.750743 -1.4096993 357 54
4.8008814 -1.7835298 -1.4124289 397 54
4.7934465 -1.8143163 -1.4135207 449 54
4.7867117 -1.8454248 -1.4148854 427 54
4.7976851 -1.8835516 -1.4217093 454 54
4.8083696 -1.9218822 -1.4285331 442 54
4.8071795 -1.9557008 -1.4318085 387 54
4.8021998 -1.9881047 -1.433992 447 54
4.7890244 -2.0171595 -1.4337192 62 54
4.7995477 -2.0563588 -1.4408159 23 54
4.7868395 -2.0857694 -1.4408159 36 54
4.789783 -2.1221173 -1.445729 23 54
4.783689 -2.154628 -1.4479126 27 54
4.7843733 -2.1903481 -1.4522798 33 54
4.7804379 -2.2241278 -1.4552823 34 54
4.7753978 -2.2575305 -1.4580119 50 54
4.782268 -2.2967865 -1.4645627 51 54
4.7974815 -2.3404303 -1.4738431 77 54
4.7994084 -2.377939 -1.4790292 98 54
4.8001957 -2.415127 -1.4839423 65 54
4.8135571 -2.4589794 -1.4929497 29 54
4.8120422 -2.4955559 -1.497317 31 54
4.8068542 -2.5304132 -1.5005924 45 54
4.80651 -2.5680211 -1.5055054 16 54
4.8058848 -2.6057198 -1.5104187 21 54
4.7999201 -2.6407247 -1.513694 29 54
4.8172264 -2.6888845 -1.5246121 18 54
4.8240757 -2.7316663 -1.5322548 19 54
4.818068 -2.7674446 -1.5358032 17 54
4.8209457 -2.8085794 -1.542354 17 54
4.8317819 -2.8547475 -1.5516343 37 54
4.8282032 -2.8927474 -1.5562745 35 54
4.8448935 -2.9432993 -1.5677385 45 54
4.8365712 -2.9790266 -1.5710139 25 54
4.8377848 -3.0208774 -1.5775648 26 54
4.841917 -3.0649133 -1.5852075 11 54
4.8392129 -3.1049564 -1.5906665 12 54
4.8466835 -3.1519003 -1.5996739 14 54
4.8489394 -3.1958752 -1.6070436 16 54
4.8492374 -3.2389274 -1.6138674 22 54
4.8627319 -3.2912707 -1.6253314 13 54
4.8630724 -3.3351941 -1.6324282 16 54
4.8614764 -3.3781471 -1.638979 36 54
4.8618951 -3.4228671 -1.6463487 32 54
4.8619471 -3.4677188 -1.6537184 21 54
4.859292 -3.5110092 -1.6602693 11 54
4.8578405 -3.5555334 -1.667366 20 54
4.8482971 -3.5944417 -1.6717333 9 54
4.8538432 -3.6449206 -1.6815594 21 54
4.8581858 -3.69502 -1.6911128 22 54
4.8605714 -3.7441347 -1.7001202 34 54
4.8716373 -3.8005185 -1.7124031 41 54
4.8746452 -3.8512137 -1.7219564 31 54
4.8712044 -3.89728 -1.7293261 32 54
4.8800874 -3.9537442 -1.741336 21 54
4.8825097 -4.0055814 -1.7511622 17 54
4.8800392 -4.0539079 -1.7593508 13 54
4.8727412 -4.0986381 -1.7659017 32 54
4.8760629 -4.1527882 -1.7765467 29 54
4.8745313 -4.2033625 -1.7855542 27 54
4.8718371 -4.2534409 -1.7942886 17 54
4.866549 -4.3017321 -1.8022043 21 54
4.8601336 -4.3494763 -1.8098469 24 54
4.8490381 -4.3934274 -1.8158518 21 54
4.8404207 -4.4400067 -1.8229486 23 54
1.9060576 -1.7697226 -0.69729483 22 54
1.8902568 -1.7767717 -0.69538414 10 54
0 -0 -0 3 54
1.8281322 -1.7611166 -0.67955291 3 54
0 -0 -0 3 54
1.8145968 -1.79153 -0.68282837 6 54
1.8069715 -1.8060313 -0.68419313 5 54
0 -0 -0 4 54
1.7846727 -1.8280697 -0.68419313 3 54
0 -0 -0 4 54
1.787979 -1.877003 -0.69483823 11 54
1.7823607 -1.894245 -0.69729483 20 54
1.7674301 -1.9016219 -0.69593006 38 54
1.7466216 -1.9025081 -0.69210869 29 54
1.7349153 -1.9131894 -0.69210869 32 54
1.7212182 -1.9216485 -0.69128984 45 54
1.7062081 -1.9285705 -0.68992507 30 54
1.6924437 -1.9368297 -0.68910623 37 54
1.6798992 -1.9464495 -0.6888333 42 54
1.6679244 -1.9567205 -0.6888333 41 54
1.6546479 -1.9654458 -0.68828738 30 54
1.633948 -1.9652039 -0.68446606 21 54
1.6230797 -1.9766798 -0.68501198 18 54
1.6206135 -1.9985588 -0.68937922 24 54
1.5993018 -1.9971997 -0.68528491 14 54
1.6001421 -2.0235786 -0.69128984 5 54
0 -0 -0 3 54
1.591046 -2.0636353 -0.69865954 5 54
1.5870929 -2.0848424 -0.70275384 3 54
0 -0 -0 4 54
1.5791572 -2.1281135 -0.71121538 4 54
0 -0 -0 3 54
1.5968869 -2.2081423 -0.73250562 17 54
1.5983968 -2.2390418 -0.73987532 11 54
1.5896144 -2.2558856 -0.74233186 12 54
1.5878248 -2.2829738 -0.74833679 16 54
1.5797746 -2.301399 -0.75133932 18 54
1.5699394 -2.3174212 -0.75352287 4 54
3.8521652 -5.7631168 -1.9261245 48 54
3.8045492 -5.7681732 -1.9198465 41 54
3.7727578 -5.7970533 -1.9217572 38 54
3.7397153 -5.824141 -1.9231219 53 54
3.698761 -5.838851 -1.9203924 50 54
3.6730604 -5.8777533 -1.9258515 26 54
3.6344023 -5.8960853 -1.9244868 36 54
3.598156 -5.9182744 -1.9244868 55 54
3.5622692 -5.9410658 -1.9247596 40 54
3.5228107 -5.9578433 -1.9231219 54 54
3.4953935 -5.9951377 -1.928308 33 54
3.4566245 -6.0131359 -1.9272162 44 54
3.4225092 -6.0392542 -1.928854 42 54
3.39008 -6.0685396 -1.9315834 49 54
3.3523164 -6.0883837 -1.9313105 51 54
3.3181071 -6.1147575 -1.9332212 49 54
3.2732677 -6.1214275 -1.928854 74 54
3.2482002 -6.1652293 -1.9364966 65 54
3.2142982 -6.1927285 -1.9389532 60 54
3.1744883 -6.2089081 -1.9378613 56 54
3.1328704 -6.2213955 -1.9356778 59 54
3.0813897 -6.2137828 -1.9272162 78 54
3.0583987 -6.2636948 -1.9370425 47 54
3.0178242 -6.2780075 -1.9356778 56 54
2.9870629 -6.3129292 -1.9408638 52 54
2.9470532 -6.3285222 -1.940045 65 54
2.9025567 -6.3342414 -1.9362236 57 54
2.8731239 -6.3729811 -1.9427745 65 54
2.8327961 -6.3878517 -1.9419557 56 54
2.7820113 -6.3786583 -1.9337671 62 54
2.750782 -6.414176 -1.939499 71 54
2.7102523 -6.4282742 -1.9386802 62 54
2.680701 -6.4687796 -1.9460499 61 54
2.6344285 -6.4690681 -1.9411367 63 54
2.6004026 -6.499402 -1.945504 71 54
2.572788 -6.5465741 -1.9550573 59 54
2.5263367 -6.546082 -1.9501442 73 54
2.4844191 -6.5569615 -1.9487795 93 54
2.4515159 -6.5919199 -1.9547844 77 54
2.4017894 -6.581533 -1.9471418 92 54
2.3652511 -6.6070156 -1.9504172 96 54
2.3294461 -6.6350198 -1.9545114 79 54
2.2890036 -6.6500978 -1.9547844 65 54
2.2570729 -6.6904531 -1.9627 97 54
2.2153749 -6.7023497 -1.962154 64 54
2.1665056 -6.6920195 -1.9550573 86 54
2.1341224 -6.7326994 -1.9632459 81 54
2.0967612 -6.7585311 -1.9670672 71 54
2.0577664 -6.7795544 -1.9695238 71 54
2.0177715 -6.7975864 -1.9711615 72 54
1.9728078 -6.7987523 -1.9678861 85 54
1.9289553 -6.8033247 -1.9657024 77 54
1.8879446 -6.8178139 -1.9665213 82 54
1.8448209 -6.8246264 -1.9651566 69 54
1.8092885 -6.8600035 -1.9722533 74 54
1.7714746 -6.8877468 -1.9771664 69 54
1.7263726 -6.8872886 -1.973891 59 54
1.6875024 -6.9117708 -1.9779853 73 54
1.6495085 -6.9407144 -1.9834443 58 54
1.6079732 -6.9553914 -1.984809 62 54
1.5635784 -6.9576178 -1.9826255 61 54
1.5224987 -6.9745998 -1.984809 57 54
1.4780799 -6.9762816 -1.9826255 59 54
1.4371822 -6.9946427 -1.985355 53 54
1.3938613 -7.0014424 -1.984809 59 54
1.3486911 -6.9985275 -1.9815336 52 54
1.3027283 -6.9905934 -1.9768934 42 54
0.40242669 -2.2340631 -0.60339934 4 54
0.39496493 -2.2725084 -0.6137715 12 54
0.38006112 -2.269196 -0.6121338 14 54
0.3664363 -2.273385 -0.61267972 8 54
0.35262728 -2.2765412 -0.61295265 15 54
0.33752194 -2.2710493 -0.61076903 9 54
0.32276818 -2.2673628 -0.60913134 10 54
0.30949768 -2.2740669 -0.6104961 12 54
