# .PCD v0.7 - Point Cloud Data file format
VERSION 0.7
FIELDS x y z intensity ring
SIZE 4 4 4 4 1
TYPE F F F F U
COUNT 1 1 1 1 1
WIDTH 1372
HEIGHT 1
VIEWPOINT 0 0 0 1 0 0 0
POINTS 1372
DATA ascii
-1.4855748 -0.31452647 -0.09238302 216 38
-1.4845486 -0.30480483 -0.092127293 230 38
-1.4834591 -0.29510763 -0.091871567 228 38
-1.4823066 -0.28543532 -0.091615833 236 38
-1.4820709 -0.2759704 -0.091445349 231 38
-1.4798137 -0.2661669 -0.091104373 211 38
-1.4804373 -0.25691181 -0.091019131 208 38
-1.4819858 -0.24782318 -0.091019131 245 38
-1.4785599 -0.23793499 -0.090592921 259 38
-1.4790072 -0.22870624 -0.090507671 266 38
-1.4803827 -0.21962692 -0.090507671 231 38
-1.4797294 -0.21025951 -0.090337187 225 38
-1.4750677 -0.20037298 -0.089825727 244 38
-1.4742932 -0.19106278 -0.089655243 254 38
-1.4764266 -0.18213481 -0.089740485 226 38
-1.4735579 -0.17260957 -0.089399517 240 38
-1.4716183 -0.16323599 -0.089143783 255 38
-1.4745742 -0.15441024 -0.089314274 243 38
-1.4764855 -0.14545694 -0.089399517 226 38
-1.4773501 -0.13639466 -0.089399517 186 38
-1.4771665 -0.127242 -0.089314274 193 38
-1.4828856 -0.11857165 -0.089740485 146 38
-1.4726547 -0.10866696 -0.088802814 101 38
-1.4613645 -0.09882535 -0.087779894 65 38
-1.4718883 -0.090465315 -0.08863233 50 38
-1.4515238 -0.080282412 -0.086842224 28 38
-1.4420373 -0.070888013 -0.085989796 13 38
-1.4394588 -0.061910875 -0.085734062 15 38
-1.4437944 -0.053223096 -0.086075038 5 38
-1.4401101 -0.044241842 -0.085734062 16 38
-1.4373662 -0.03533202 -0.085478336 12 38
-1.4435332 -0.026620444 -0.085989796 20 38
-1.4436693 -0.01776259 -0.085989796 7 38
-1.4497292 -0.0089393137 -0.086501256 12 38
-1.4577277 -4.1861145e-05 -0.0871832 13 38
-1.4676639 0.0089661153 -0.088035628 14 38
-1.4855143 0.01819575 -0.089570001 54 38
-1.4953367 0.02749614 -0.090422429 74 38
-1.4442785 -0.10565247 -0.10376074 10 39
-1.4478785 -0.096990511 -0.10405245 15 39
-1.4395059 -0.087553643 -0.10317732 10 39
-1.4439909 -0.07893987 -0.10356627 11 39
-1.4345076 -0.069587916 -0.10259391 12 39
-1.4309303 -0.060612913 -0.10220497 8 39
-1.4253078 -0.051610779 -0.10162156 8 39
-1.4355456 -0.043171532 -0.10259391 7 39
-1.4318036 -0.034263894 -0.10220497 7 39
-1.4230311 -0.025311235 -0.10132986 9 39
-1.4291307 -0.016653657 -0.10191327 9 39
-1.4192536 -0.0078213401 -0.10094091 58 39
-1.4212654 0.00088679179 -0.10113538 34 39
-1.4510905 0.0097848373 -0.10405245 18 39
-1.4599597 0.018796539 -0.10492756 8 39
-1.4628023 0.027808702 -0.10521927 7 39
-0 0 -0 3 39
-0 0 -0 4 39
-0 0 -0 3 39
-0 0 -0 2 39
-0 0 -0 4 39
-0 0 -0 5 39
-0 0 -0 3 39
-0 0 -0 4 39
-0 0 -0 3 39
-0 0 -0 3 39
-0 0 -0 3 39
-0 0 -0 4 39
-0 0 -0 5 39
-0 0 -0 3 39
-1.5361601 0.17122459 -0.11328982 3 39
-0 0 -0 4 39
-0 0 -0 3 39
-1.5080723 0.19627889 -0.11085893 3 39
-0 0 -0 3 39
-1.4720467 0.21001734 -0.10755292 4 39
-1.479591 0.22035827 -0.10842805 5 39
-0 0 -0 3 39
-0 0 -0 3 39
-1.4801925 0.24837506 -0.10891422 5 39
-0 0 -0 3 39
-1.4946656 0.26968813 -0.11066446 6 39
-1.4988536 0.27994603 -0.11124787 10 39
-1.4971077 0.28913754 -0.11124787 15 39
-1.5060433 0.3004519 -0.11231747 15 39
-1.4641978 0.30148879 -0.10833081 27 39
-1.4837422 0.31499791 -0.11046999 50 39
-1.4934508 0.32663897 -0.11163682 67 39
-1.4914185 0.33579645 -0.11163682 84 39
-1.4844811 0.34382218 -0.11115064 128 39
-1.4842802 0.35338384 -0.1113451 171 39
-1.4830509 0.36272028 -0.11144234 191 39
-1.4817629 0.3720549 -0.11153958 187 39
-1.4804161 0.38138741 -0.11163682 205 39
-1.4809355 0.39122429 -0.11192852 189 39
-1.4813896 0.40108189 -0.11222023 173 39
-1.4817785 0.41095975 -0.11251193 171 39
-1.4821019 0.42085746 -0.11280364 185 39
-1.4852272 0.43160561 -0.11338706 173 39
-1.4854137 0.44155928 -0.11367876 153 39
-1.4883912 0.45239764 -0.11426217 154 39
-1.4903406 0.46299452 -0.11474835 152 39
-1.4960113 0.47483388 -0.11562347 166 39
-1.4968575 0.4852291 -0.11601241 170 39
-1.5014127 0.49690059 -0.11679029 152 39
-1.5030514 0.50769275 -0.11727647 166 39
-1.5046139 0.51852363 -0.11776265 163 39
-1.5051607 0.52906346 -0.11815159 167 39
-1.5065719 0.5399645 -0.11863777 168 39
-1.5060356 0.55022109 -0.11892948 150 39
-1.5110278 0.56257081 -0.1198046 118 39
-1.5243022 0.57817316 -0.12155484 85 39
-1.5792304 0.61006969 -0.12768067 12 39
-4.7688541 1.8734173 -0.46285141 15 39
-4.7221508 1.8886069 -0.45915648 321 39
-4.7261457 1.9239216 -0.46080947 405 39
-4.7142515 1.9528844 -0.46080947 391 39
-4.7122698 1.9860233 -0.46187907 434 39
-4.6981654 2.014116 -0.46168458 382 39
-4.6939301 2.0464835 -0.4625597 428 39
-4.6931143 2.0804873 -0.46382377 451 39
-4.6829829 2.1104705 -0.46411547 433 39
-4.6771846 2.1424794 -0.46489337 475 39
-4.6738768 2.1757557 -0.46596295 522 39
-4.6721358 2.2099228 -0.46722701 471 39
-8.7979946 4.226562 -0.91587156 812 39
-8.7817354 4.2852659 -0.91694117 789 39
-8.7775707 4.3501148 -0.91937208 815 39
-8.7560482 4.4065747 -0.91995549 729 39
-8.6995974 4.4452772 -0.91674668 599 39
-8.669507 4.4971986 -0.91645497 530 39
-8.4805822 4.4654713 -0.8986609 426 39
-8.4609232 4.5216441 -0.89953601 373 39
-8.4382696 4.5763202 -0.90011942 424 39
-8.4649677 4.6582332 -0.90624529 734 39
-8.5857029 4.7935176 -0.92296976 113 39
-8.6002979 4.8711181 -0.92792881 93 39
-8.685894 4.9902205 -0.94095832 782 39
-8.6267319 5.0268898 -0.93774956 37 39
-7.8502336 4.6392894 -0.85315472 152 39
-8.4388914 5.0571842 -0.92345595 315 39
-8.6067448 5.2297831 -0.94620907 234 39
-8.5744934 5.2824945 -0.94620907 183 39
-8.5503616 5.3402786 -0.9471814 241 39
-0 0 -0 3 39
-2.7134569 1.7423278 -0.27732611 12 39
-2.7219052 1.7714238 -0.2795625 34 39
-2.717633 1.7924732 -0.2803404 48 39
-2.7148597 1.8146423 -0.28131276 47 39
-2.7160378 1.8396339 -0.28277129 35 39
-2.715369 1.8635821 -0.28403535 42 39
-2.7202296 1.8915665 -0.28598005 51 39
-2.7248485 1.9196804 -0.28792477 54 39
-2.7251728 1.9450321 -0.28938329 46 39
-2.7188339 1.9657968 -0.29006395 43 39
-2.7115397 1.9859692 -0.29064736 36 39
-2.6977041 2.001384 -0.2904529 37 39
-2.6805978 2.0143135 -0.28986949 35 39
-2.652344 2.0186737 -0.28792477 22 39
-2.6343884 2.0306587 -0.28724411 39 39
-2.6053996 2.0339293 -0.28520218 35 39
-2.5764704 2.0369213 -0.28316024 25 39
-2.5406089 2.0340395 -0.28024316 28 39
-2.5087471 2.0339274 -0.27781227 27 39
-2.4746747 2.0316081 -0.27508968 36 39
-2.4422572 2.0302196 -0.27256155 23 39
-2.4129975 2.0310729 -0.27042237 21 39
-2.3868506 2.0342252 -0.26867214 34 39
-2.3607564 2.0371337 -0.26692191 37 39
-2.3362164 2.0411079 -0.26536614 42 39
-2.3109713 2.044199 -0.26371312 32 39
-2.28281 2.0444028 -0.26167119 37 39
-2.2539961 2.0436702 -0.259532 30 39
-2.2238111 2.0413163 -0.25719836 37 39
-2.1959283 2.0407009 -0.2551564 44 39
-2.165962 2.0377758 -0.25282276 50 39
-2.1418824 2.0400493 -0.25126699 25 39
-2.11499 2.0393426 -0.24932228 35 39
-2.0910375 2.0411627 -0.24776651 37 39
-2.0692673 2.0448639 -0.24650244 30 39
-2.0524578 2.0533004 -0.24591903 39 39
-2.0251296 2.0509892 -0.24387708 40 39
-1.9972123 2.047708 -0.2417379 43 39
-1.9258901 1.9990253 -0.23347288 11 39
-0 0 -0 3 39
-1.8943942 2.0152597 -0.23250054 36 39
-1.8738629 2.0180969 -0.2313337 44 39
-1.8614448 2.0295568 -0.2313337 34 39
-1.8549733 2.047576 -0.23220883 42 39
-1.8483506 2.0655918 -0.23308395 33 39
-1.8455329 2.0880761 -0.23454247 42 39
-1.8438182 2.112102 -0.23619547 45 39
-1.842528 2.1369386 -0.23794572 42 39
-1.8410019 2.1618385 -0.23969597 36 39
-1.8405211 2.1883223 -0.24164067 38 39
-0 0 -0 33 39
-1.8375268 2.239974 -0.24533562 29 39
-0 0 -0 38 39
-1.8316723 2.2895465 -0.24873886 31 39
-1.825614 2.3108919 -0.25000292 44 39
-1.8236496 2.3377399 -0.25194764 39 39
-1.8208165 2.363862 -0.25379512 37 39
-0 0 -0 36 39
-0 0 -0 34 39
-0 0 -0 38 39
-0 0 -0 27 39
-0 0 -0 27 39
-1.801962 2.5264874 -0.26546335 39 39
-1.8649596 2.6489592 -0.27878463 5 39
-2.4021332 3.456208 -0.373492 41 39
-2.3927085 3.4881141 -0.37553394 46 39
-2.3829823 3.5200341 -0.3775759 50 39
-2.378485 3.5602396 -0.3805902 43 39
-2.3637192 3.585567 -0.38185427 32 39
-2.3525321 3.6166861 -0.38379896 20 39
-2.335674 3.6394274 -0.38477132 35 39
-2.3894646 3.773917 -0.39867598 90 39
-2.3578241 3.7750034 -0.39712024 90 39
-2.3267827 3.7766914 -0.39566168 78 39
-2.0352104 3.3495359 -0.34519649 112 39
-2.0115488 3.3568394 -0.34461305 115 39
-1.897195 3.2106314 -0.32662448 13 39
-0 0 -0 4 39
-0 0 -0 7 39
-1.8510262 3.2683871 -0.32924986 122 39
-1.8280244 3.2744701 -0.32866645 143 39
-1.8078982 3.285625 -0.32866645 163 39
-1.5213907 2.8059194 -0.27411732 75 39
-0 0 -0 97 39
-0 0 -0 82 39
-0 0 -0 103 39
-0 0 -0 93 39
-0 0 -0 91 39
-0 0 -0 78 39
-0 0 -0 77 39
-0 0 -0 89 39
-0 0 -0 99 39
-0 0 -0 103 39
-0 0 -0 113 39
-0 0 -0 98 39
-0 0 -0 98 39
-0 0 -0 87 39
-0 0 -0 85 39
-1.1879942 2.820477 -0.26128224 59 39
-0 0 -0 55 39
-0 0 -0 46 39
-1.1525154 2.8834479 -0.26565784 56 39
-1.1027638 2.8089521 -0.25710112 28 39
-1.0385609 2.694032 -0.24436326 6 39
-1.023069 2.7031457 -0.24465497 7 39
-1.0075045 2.7121708 -0.24494667 9 39
-0.99152637 2.7201717 -0.24514115 9 39
-0 0 -0 7 39
-0 0 -0 8 39
-0 0 -0 7 39
-0.92065328 2.7323692 -0.24397433 8 39
-0.90043426 2.7275722 -0.24290474 14 39
-0.86988527 2.6904368 -0.23852913 31 39
-0.85005236 2.6852877 -0.23745954 31 39
-0.83179009 2.6847496 -0.23687613 35 39
-0.81241018 2.6802793 -0.23590377 40 39
-0.80104744 2.7023876 -0.23765402 28 39
-0.79027599 2.7273242 -0.23969597 22 39
-0.78547335 2.7742522 -0.24397433 11 39
-0.76817042 2.7780604 -0.24387708 4 39
-0.74643463 2.7654278 -0.24212685 12 39
-0.72742146 2.7622569 -0.24134897 28 39
-0 0 -0 3 39
-0.68427289 2.7342908 -0.23765402 7 39
-0 0 -0 3 39
-0.64100093 2.7018142 -0.23357013 6 39
-0 0 -0 3 39
-0.60081315 2.6784036 -0.23045859 10 39
-0.58351827 2.6781502 -0.23006965 4 39
-0.56686819 2.6807065 -0.22997241 6 39
-0 0 -0 4 39
-0.53587264 2.697222 -0.23094477 7 39
-0.5172407 2.6897094 -0.22987518 5 39
-0.50127435 2.6957676 -0.23016688 5 39
-0.48613483 2.7066288 -0.23094477 4 39
-0 0 -0 5 39
-0.45140481 2.7035561 -0.23006965 3 39
-0.43290803 2.694484 -0.22890282 4 39
-0.41484416 2.687254 -0.22793047 4 39
-0.39469197 2.6651373 -0.22549959 13 39
-0.3788923 2.6714504 -0.22588852 12 39
-0.36303002 2.6776695 -0.22627746 8 39
-0.34608096 2.6758988 -0.22588852 6 39
-0.32867926 2.6700699 -0.22511064 5 39
-0.3084631 2.6394165 -0.22190186 33 39
-0.28632784 2.5878439 -0.21665114 47 39
-0.26587555 2.5459995 -0.21237278 88 39
-0.25015083 2.5465925 -0.21227555 68 39
-0.2343372 2.5460975 -0.21208107 80 39
-0.21853904 2.5455043 -0.21188661 70 39
-0.20283651 2.5458052 -0.21178937 82 39
-0.18713853 2.5460093 -0.21169214 83 39
-0.17144565 2.5461166 -0.21159491 80 39
-0.15588097 2.5481141 -0.21169214 106 39
-0.14018798 2.5480287 -0.21159491 121 39
-0 0 -0 101 39
-0 0 -0 56 39
-0 0 -0 43 39
-0 0 -0 33 39
-0 0 -0 19 39
-0.045436926 2.504693 -0.20702483 9 39
-0.029955883 2.4959679 -0.20614971 11 39
-0.014665556 2.5000858 -0.20653866 21 39
0.00067632541 2.4931619 -0.20585801 14 39
0.015920864 2.4841535 -0.20498289 14 39
0.031054882 2.4750524 -0.20410778 17 39
0.046259057 2.4758103 -0.20420501 24 39
0.061255638 2.4675202 -0.20342712 17 39
0.076607242 2.4740615 -0.20410778 18 39
0.091822796 2.4745395 -0.20420501 10 39
0.106409 2.4600086 -0.20284371 10 39
0.12164725 2.4622915 -0.20313542 18 39
0.13669856 2.460505 -0.20303819 23 39
0.15161085 2.4566398 -0.20274647 10 39
0.16614622 2.4477191 -0.2019686 7 39
0.18160014 2.4526091 -0.20255201 5 39
0.19791141 2.4673223 -0.20410778 15 39
0.2128765 2.4640784 -0.2039133 14 39
0 0 -0 17 39
0 0 -0 16 39
0 0 -0 16 39
0 0 -0 36 39
0 0 -0 24 39
0.30391467 2.4585245 -0.20430224 13 39
0.31873879 2.4546394 -0.20410778 8 39
0.33432916 2.4565823 -0.20449671 8 39
0.35121354 2.4672949 -0.20576078 35 39
0.36824194 2.4778922 -0.20702483 40 39
0.38131273 2.4618156 -0.20566353 19 39
0.39656889 2.460412 -0.20576078 7 39
0.41674033 2.4883642 -0.20877507 35 39
0.4345502 2.5004699 -0.2102336 41 39
0.44372556 2.4634712 -0.20683037 100 39
0.45391929 2.434283 -0.20420501 185 39
0.47072703 2.4412255 -0.20517737 178 39
0.48608521 2.4402437 -0.20537183 172 39
0.5010491 2.4372151 -0.20537183 169 39
0.51537633 2.4311736 -0.20508012 194 39
0.53155547 2.4338002 -0.20566353 149 39
0.54626113 2.4295218 -0.2055663 167 39
0.56093431 2.4251544 -0.20546907 161 39
0.57534462 2.4197302 -0.2052746 184 39
0.59065241 2.4180884 -0.20546907 179 39
0.60572004 2.4153841 -0.2055663 156 39
0.62300473 2.4212618 -0.20653866 182 39
0.63937044 2.4231682 -0.20712207 180 39
0.65396732 2.4182386 -0.20702483 161 39
0.66799724 2.4113026 -0.20673312 105 39
0.6811533 2.4014127 -0.20614971 35 39
0.69587529 2.3971882 -0.20614971 94 39
0.71566272 2.4100492 -0.20789996 176 39
0.73130322 2.4084699 -0.20819166 150 39
0.74724579 2.4077401 -0.2085806 140 39
0.76350725 2.4078538 -0.20906678 126 39
0.78102309 2.4116466 -0.20994189 123 39
0.80797434 2.4436677 -0.21373409 56 39
0 0 -0 62 39
0 0 -0 100 39
0 0 -0 20 39
1.114007 3.1119068 -0.28520218 24 39
0.92106956 2.5233965 -0.2247217 14 39
1.1812241 3.1763711 -0.29336995 92 39
0 0 -0 202 39
0 0 -0 192 39
0 0 -0 215 39
0 0 -0 171 39
0 0 -0 196 39
1.3019054 3.1417761 -0.29453677 174 39
1.3223175 3.1364803 -0.29482847 185 39
1.3415376 3.1283076 -0.29482847 165 39
0 0 -0 182 39
0 0 -0 192 39
0 0 -0 185 39
0 0 -0 217 39
1.4553387 3.1253889 -0.29910684 196 39
1.4808687 3.1298971 -0.30056539 230 39
1.5090936 3.1395922 -0.30260733 311 39
1.5200386 3.1132779 -0.30075985 190 39
0 0 -0 192 39
0 0 -0 220 39
0 0 -0 682 39
0 0 -0 99 39
0 0 -0 69 39
1.5735688 2.942857 -0.28831372 68 39
1.5892245 2.9287717 -0.28782752 78 39
0 0 -0 87 39
0 0 -0 90 39
0 0 -0 66 39
0 0 -0 80 39
0 0 -0 80 39
0 0 -0 145 39
0 0 -0 194 39
0 0 -0 171 39
0 0 -0 159 39
0 0 -0 149 39
0 0 -0 184 39
0 0 -0 140 39
0 0 -0 152 39
0 0 -0 158 39
0 0 -0 157 39
0 0 -0 168 39
0 0 -0 122 39
0 0 -0 135 39
0 0 -0 150 39
0 0 -0 149 39
0 0 -0 148 39
0 0 -0 140 39
0 0 -0 144 39
1.9264642 2.5636055 -0.27557585 147 39
1.9481827 2.5596585 -0.27654821 153 39
1.9887526 2.5799839 -0.28053486 223 39
0 0 -0 223 39
0 0 -0 160 39
0 0 -0 156 39
0 0 -0 154 39
0 0 -0 144 39
2.1205237 2.5509701 -0.286369 158 39
0 0 -0 160 39
0 0 -0 102 39
0 0 -0 119 39
0 0 -0 114 39
2.2419381 2.5346861 -0.29288378 112 39
2.2687314 2.5334902 -0.29453677 137 39
2.2949255 2.531323 -0.29609254 120 39
0 0 -0 139 39
0 0 -0 139 39
0 0 -0 133 39
0 0 -0 129 39
0 0 -0 85 39
2.9070418 2.9787822 -0.36892194 158 39
2.933656 2.9693873 -0.37008876 190 39
2.9518204 2.9513309 -0.37008876 171 39
3.2070284 3.1675169 -0.40266263 38 39
3.2349501 3.156122 -0.40382949 85 39
3.2635686 3.1451941 -0.40509352 85 39
3.295778 3.1374652 -0.40684378 104 39
3.3330889 3.1342332 -0.40927467 90 39
3.3734 3.1333709 -0.4120945 89 39
3.4079595 3.1267467 -0.41413644 86 39
3.4455135 3.1224902 -0.41656733 87 39
3.4831429 3.1178896 -0.41899821 91 39
3.5200992 3.1122849 -0.42133185 107 39
3.5631132 3.1115823 -0.42444339 88 39
3.6092641 3.1130688 -0.42794389 82 39
3.6472344 3.1070042 -0.43037477 83 39
3.6791739 3.0954623 -0.43202776 80 39
3.7172315 3.0887353 -0.43445864 86 39
3.7768824 3.0993402 -0.43961215 154 39
3.7873247 3.0692124 -0.43854254 93 39
3.8154087 3.0533807 -0.43970937 6 39
0 0 -0 3 39
3.8400393 2.9965303 -0.43815359 4 39
3.8693886 2.9814188 -0.43951491 3 39
3.861475 2.9377284 -0.43630612 13 39
3.8722672 2.9085982 -0.435431 15 39
3.8876433 2.8830044 -0.4351393 186 39
3.9165006 2.8673298 -0.43650061 211 39
3.9549897 2.8584073 -0.43902871 217 39
3.997566 2.852011 -0.44204304 207 39
4.0426526 2.8469188 -0.44534904 200 39
4.0919118 2.8442211 -0.4491412 171 39
4.1355448 2.8370829 -0.45225275 161 39
4.1866598 2.8345392 -0.4562394 144 39
4.2453442 2.8364518 -0.46110117 139 39
4.2983928 2.833914 -0.46528229 140 39
4.3557396 2.8335457 -0.4699496 140 39
4.4048672 2.8272016 -0.47364455 144 39
4.4523988 2.8192952 -0.47714505 140 39
4.4949336 2.8077464 -0.4800621 149 39
4.5502019 2.8036153 -0.4844377 148 39
4.6217451 2.8087351 -0.49066076 187 39
4.6892524 2.8105218 -0.49639767 154 39
4.7449598 2.8044927 -0.50077325 166 39
4.7852926 2.788861 -0.5033986 154 39
4.8230228 2.7713513 -0.5057323 203 39
4.871974 2.7598629 -0.50932997 371 39
4.8723083 2.7206943 -0.50748253 220 39
4.8706021 2.6806657 -0.50544059 250 39
4.8790855 2.6464572 -0.50456542 248 39
4.8829451 2.6098993 -0.50320417 224 39
4.884779 2.5724659 -0.50164837 191 39
4.8845711 2.5341916 -0.49989814 408 39
4.875217 2.4914858 -0.49717554 285 39
4.8753014 2.4539149 -0.49552256 313 39
4.8902664 2.4239545 -0.49552256 311 39
4.9488697 2.4153018 -0.50028706 171 39
4.9940944 2.3995519 -0.50359309 347 39
4.960144 2.3458755 -0.49834237 192 39
4.9627156 2.3099341 -0.4970783 226 39
4.9704623 2.2765377 -0.49639767 202 39
4.9698205 2.2394514 -0.4948419 187 39
4.9507151 2.1943889 -0.49134141 227 39
4.9358068 2.1516354 -0.48832712 248 39
4.9123287 2.1056173 -0.4844377 161 39
5.0306191 2.1199048 -0.49561977 468 39
5.0159492 2.0775661 -0.49270272 365 39
5.02215 2.044122 -0.49202207 353 39
5.0244336 2.009201 -0.49095246 353 39
5.0218468 1.9725088 -0.48939672 359 39
5.0254989 1.9384328 -0.48852158 451 39
5.0326447 1.9057971 -0.48803541 379 39
5.0358486 1.8717589 -0.4871603 369 39
5.0023613 1.8244457 -0.48249298 140 39
5.0453205 1.8051237 -0.48579898 368 39
5.0074706 1.7569867 -0.48074275 222 39
5.0322728 1.7310877 -0.48220128 306 39
5.0390277 1.698905 -0.48181233 307 39
5.0295129 1.6613941 -0.47977039 246 39
5.0206747 1.6243708 -0.47782567 29 39
5.0295987 1.5932331 -0.47772846 38 39
5.0240707 1.5576231 -0.47617269 14 39
5.0278196 1.5250322 -0.47558928 14 39
5.0342202 1.4933035 -0.47529757 13 39
5.039465 1.4612765 -0.47490862 12 39
5.0378036 1.4273407 -0.47383901 15 39
5.0368752 1.3937461 -0.47286668 15 39
5.033803 1.3596972 -0.47169983 19 39
5.0285783 1.325231 -0.47033855 14 39
5.0183015 1.2896404 -0.46849108 28 39
5.0193624 1.2571303 -0.46781042 27 39
5.001843 1.22017 -0.46528229 49 39
5.0150456 1.1908373 -0.46586573 46 39
5.0319548 1.1622852 -0.46683806 37 39
5.0399628 1.1316061 -0.46693531 32 39
5.0458388 1.1004479 -0.46683806 34 39
5.0476279 1.0684348 -0.4663519 29 39
5.0511642 1.036842 -0.46606019 31 39
5.0535264 1.0050517 -0.46567124 35 39
5.0517802 0.97251803 -0.46489337 47 39
5.0547171 0.94095552 -0.46460167 37 39
5.0535388 0.90868813 -0.46392101 38 39
5.0443106 0.87510794 -0.46246248 32 39
5.0446773 0.84331852 -0.46197629 36 39
5.0428786 0.81124097 -0.46129566 27 39
5.0448108 0.7798264 -0.46100393 30 39
5.0475316 0.7485649 -0.46080947 34 39
5.0559711 0.71814048 -0.46119842 26 39
5.0612688 0.68723822 -0.46129566 35 39
5.0663772 0.65629798 -0.46139288 28 39
5.0683331 0.62495488 -0.46119842 24 39
5.071084 0.59372848 -0.46110117 25 39
5.0686965 0.56194234 -0.46051776 30 39
5.0661101 0.53020787 -0.45993435 40 39
5.0603542 0.49823311 -0.45905924 37 39
0 0 -0 42 39
5.0571628 0.43532699 -0.45818412 42 39
5.0597391 0.40428862 -0.45818412 49 39
5.0482287 0.37220728 -0.45682281 76 39
5.0524035 0.34135959 -0.4570173 66 39
5.0603628 0.31071955 -0.45760071 79 39
5.0681367 0.27999467 -0.45818412 89 39
5.0737357 0.249088 -0.45857304 142 39
5.0652251 0.21752216 -0.45760071 179 39
5.072432 0.1866594 -0.45818412 125 39
5.0784554 0.15568565 -0.45867029 93 39
3.8007958 0.092884824 -0.33372268 91 39
3.8012941 0.069561832 -0.33372268 121 39
3.8076205 0.046310671 -0.33430609 86 39
5.0827374 0.031019829 -0.45886475 53 39
5.0848227 -0.00016745401 -0.45905924 56 39
5.0867162 -0.03137916 -0.4592537 42 39
5.0874233 -0.062602088 -0.45935094 42 39
5.0879383 -0.093834877 -0.45944819 45 39
5.0882616 -0.12507634 -0.4595454 58 39
5.0883932 -0.15632531 -0.45964265 37 39
5.0883331 -0.1875806 -0.45973989 38 39
5.0910635 -0.21896864 -0.46012881 28 39
5.0926065 -0.25034863 -0.46042052 43 39
5.0999184 -0.2820842 -0.46129566 26 39
5.1010714 -0.3135539 -0.46158737 30 39
5.1040168 -0.34518224 -0.46207353 34 39
5.1037879 -0.37663946 -0.46226799 34 39
5.1023726 -0.40802771 -0.46236524 33 39
5.0987816 -0.43924242 -0.46226799 41 39
5.0949993 -0.47042841 -0.46217078 34 39
5.0930076 -0.5017792 -0.46226799 44 39
5.087853 -0.53281301 -0.46207353 36 39
5.0854769 -0.56413096 -0.46217078 29 39
5.0829086 -0.59543985 -0.46226799 31 39
5.0870614 -0.62758982 -0.4630459 29 39
5.091011 -0.65981323 -0.46382377 25 39
5.0996881 -0.6927774 -0.46508783 28 39
5.105195 -0.72545344 -0.46606019 13 39
5.112462 -0.75851476 -0.46722701 19 39
5.1155801 -0.791085 -0.46800491 17 39
5.1204567 -0.82403785 -0.46897724 17 39
5.1251206 -0.85708028 -0.4699496 16 39
5.1305523 -0.8903808 -0.47101921 19 39
5.1318493 -0.92307633 -0.47169983 25 39
5.1358738 -0.95636719 -0.47267219 32 39
5.1367502 -0.98917824 -0.47335285 22 39
5.1354651 -1.0216479 -0.47383901 17 39
5.1300745 -1.0533394 -0.47393626 13 39
5.1332521 -1.0868564 -0.47490862 16 39
5.1342664 -1.1200283 -0.47568649 15 39
5.1340952 -1.1530355 -0.47636715 26 39
5.1356516 -1.1865305 -0.47724226 25 39
5.1360211 -1.2198582 -0.47802016 21 39
5.1371422 -1.2534707 -0.47889528 27 39
5.1351471 -1.2864177 -0.47947869 28 39
5.1300492 -1.3186449 -0.47977039 19 39
5.1247492 -1.3508579 -0.4800621 15 39
5.1182857 -1.382796 -0.48025656 13 39
5.1116228 -1.4147058 -0.48045105 12 39
5.1334901 -1.45472 -0.48356259 27 39
5.1502776 -1.4936705 -0.48618793 42 39
5.1410155 -1.5252438 -0.48618793 214 39
5.1734686 -1.5694635 -0.4904663 488 39
5.0449071 -1.5643576 -0.47831187 194 39
4.9687939 -1.5742561 -0.47150537 192 39
4.8624482 -1.5734814 -0.46158737 167 39
4.8120632 -1.5898708 -0.45740622 155 39
4.7616615 -1.6057016 -0.45322511 333 39
4.7093658 -1.6203271 -0.4488495 162 39
4.7218757 -1.6570972 -0.45118317 255 39
4.7219276 -1.6897252 -0.45225275 269 39
4.7198863 -1.7217342 -0.45312786 263 39
4.7222948 -1.7555146 -0.45448917 252 39
4.7244658 -1.7893893 -0.45585045 267 39
4.7273269 -1.8237145 -0.45730901 263 39
4.7308707 -1.8585056 -0.45886475 262 39
4.7332406 -1.8930393 -0.4603233 285 39
4.7307553 -1.9257967 -0.46129566 318 39
4.7280455 -1.9585948 -0.46226799 312 39
4.7517104 -2.0026352 -0.46606019 151 39
4.766778 -2.0435119 -0.46897724 55 39
4.7696605 -2.0794802 -0.47063026 42 39
4.7768302 -2.1175764 -0.47276944 35 39
4.7737293 -2.1513424 -0.47383901 45 39
4.7722034 -2.1859787 -0.47510308 40 39
4.7686267 -2.2198372 -0.47617269 43 39
4.7648139 -2.2537341 -0.47724226 34 39
4.7562785 -2.2855132 -0.47782567 27 39
4.7511106 -2.3190176 -0.47879803 24 39
4.7555199 -2.3574049 -0.48084 18 39
4.7676377 -2.3999591 -0.48375705 11 39
4.7820706 -2.4441085 -0.48696584 19 39
4.794373 -2.4876084 -0.48998013 14 39
4.811605 -2.5341322 -0.49357784 17 39
4.8135219 -2.5729878 -0.49552256 22 39
4.8212671 -2.6152825 -0.4981479 14 39
4.8094893 -2.6472147 -0.49863407 26 39
4.8009772 -2.681041 -0.49950919 23 39
4.8026237 -2.720747 -0.50155115 17 39
4.7996478 -2.7580953 -0.50310689 21 39
4.7972536 -2.7960103 -0.50475991 13 39
4.796288 -2.8350117 -0.50660741 23 39
4.8001466 -2.8771753 -0.50903827 18 39
4.8079205 -2.9220762 -0.51195532 15 39
4.8060017 -2.9614389 -0.51380283 16 39
4.808845 -3.0040503 -0.51623368 25 39
4.8105049 -3.0462754 -0.51856738 17 39
4.8135023 -3.0897083 -0.52109545 19 39
4.8128095 -3.1311221 -0.52323467 17 39
4.8159442 -3.1753814 -0.52586001 26 39
4.8162332 -3.2181385 -0.52819365 23 39
4.8285413 -3.2693856 -0.53198588 21 39
4.8280888 -3.3124607 -0.53431952 33 39
4.8338275 -3.3601961 -0.53743106 23 39
4.8342781 -3.4046886 -0.53995919 38 39
4.8335538 -3.4487348 -0.54239005 25 39
4.8356967 -3.4952309 -0.54520988 18 39
4.8326316 -3.5383558 -0.54744631 18 39
4.837214 -3.5875015 -0.55065507 18 39
4.8381906 -3.6344454 -0.5534749 25 39
4.846694 -3.6875606 -0.55726707 23 39
4.8492074 -3.7366645 -0.56037861 17 39
4.8481607 -3.783489 -0.56310123 14 39
4.8443785 -3.8285897 -0.56553209 12 39
4.8503275 -3.8818684 -0.56922704 17 39
4.8418841 -3.9240866 -0.57117176 13 39
4.8508024 -3.980865 -0.57535291 25 39
4.8546119 -4.0340838 -0.57895058 20 39
4.8594728 -4.0887799 -0.58274281 21 39
4.8630862 -4.1430411 -0.5864377 22 39
4.8745074 -4.2046494 -0.59120226 16 39
4.8711085 -4.2541156 -0.59411931 19 39
4.8739972 -4.3096304 -0.59791154 16 39
4.8734198 -4.3626847 -0.60131478 17 39
4.8760619 -4.4192348 -0.60520416 31 39
4.8745255 -4.4726167 -0.60860741 24 39
4.876163 -4.529531 -0.61249685 36 39
4.8685822 -4.5784531 -0.61521941 38 39
4.8814921 -4.6473494 -0.62076187 21 39
4.888721 -4.711741 -0.62562364 29 39
4.8896422 -4.7708359 -0.62970752 27 39
4.8836474 -4.8238249 -0.63291627 30 39
4.8792973 -4.8790298 -0.63641679 20 39
4.8653584 -4.925159 -0.63865322 8 39
4.8788443 -4.9997883 -0.64477903 18 39
4.8839974 -5.0668859 -0.64983529 15 39
4.9166522 -5.1637816 -0.65887815 25 39
4.9169283 -5.2279215 -0.66344821 19 39
4.9301515 -5.3068395 -0.669963 27 39
4.9439359 -5.3875804 -0.67667228 8 39
4.9281669 -5.4369845 -0.67920041 26 39
4.9232645 -5.499001 -0.6833815 21 39
4.921083 -5.564888 -0.68804884 41 39
4.9143481 -5.6264567 -0.69213271 52 39
4.9278488 -5.7122631 -0.69932812 39 39
4.9333782 -5.790113 -0.70545399 36 39
4.9330091 -5.8621526 -0.7108019 31 39
4.9293957 -5.9313426 -0.71576095 22 39
4.9301696 -6.0068612 -0.72149783 16 39
4.9276934 -6.0795188 -0.7268458 19 39
4.944416 -6.1772318 -0.73530525 27 39
4.9539499 -6.2675691 -0.74279243 24 39
4.9625602 -6.358254 -0.75027955 34 39
4.9629498 -6.4398189 -0.75659984 58 39
4.9619217 -6.5208344 -0.76282293 68 39
4.9343734 -6.5678658 -0.76486486 43 39
4.9900522 -6.7275028 -0.780617 235 39
5.0198417 -6.8551469 -0.79238248 341 39
4.9992623 -6.9156594 -0.79598022 432 39
5.010509 -7.0215402 -0.80502313 222 39
5.0481582 -7.1668692 -0.81873333 27 39
5.0194306 -7.2197709 -0.82135868 36 39
5.0274148 -7.3267469 -0.8304016 24 39
5.0426464 -7.4464498 -0.84090304 21 39
5.0117946 -7.4995914 -0.84352839 27 39
5.0341849 -7.6340518 -0.85568279 44 39
5.0279665 -7.7273579 -0.86297548 72 39
5.0466042 -7.8610716 -0.87493545 41 39
5.0499396 -7.9734411 -0.88436729 32 39
5.0557761 -8.0920525 -0.89447975 25 39
5.0911589 -8.2610188 -0.91032916 11 39
5.068296 -8.3380241 -0.91557986 22 39
5.0723171 -8.4611502 -0.9260813 23 39
5.0800824 -8.5932035 -0.93755507 40 39
5.0899253 -8.7316847 -0.94970953 57 39
5.0635347 -8.8102083 -0.9550575 43 39
5.0677781 -8.94415 -0.96662849 32 39
0 -0 -0 17 39
5.1016593 -9.2672129 -0.99579918 22 39
5.109736 -9.4181833 -1.0091205 29 39
5.1213126 -9.5792503 -1.0235113 54 39
5.1088333 -9.6985455 -1.0332348 57 39
5.1056271 -9.8383608 -1.0451947 37 39
5.122191 -10.020147 -1.0617248 23 39
0 -0 -0 64 39
0 -0 -0 539 39
5.1740203 -10.598354 -1.1145236 70 39
5.166676 -10.750099 -1.1275532 42 39
5.1521277 -10.890452 -1.1393187 22 39
5.179328 -11.123958 -1.1610996 33 39
5.1972189 -11.343721 -1.1813245 55 39
5.1766062 -11.484274 -1.1929927 76 39
5.228303 -11.79149 -1.2224551 129 39
5.1757488 -11.868961 -1.2273169 150 39
5.2060008 -12.141057 -1.2528898 89 39
5.2474122 -12.447893 -1.2820605 43 39
5.2684836 -12.71523 -1.3069527 16 39
5.2661967 -12.93351 -1.3265944 28 39
5.2580986 -13.143918 -1.3453608 62 39
5.2800155 -13.437146 -1.3727812 22 39
5.2659163 -13.646634 -1.3913531 22 39
5.3069277 -14.00815 -1.4257746 55 39
5.3024087 -14.259664 -1.4486248 19 39
5.2973886 -14.518186 -1.4721558 19 39
1.1881807 -3.3221469 -0.30698293 41 39
1.1717306 -3.3406436 -0.30814976 54 39
1.1525066 -3.3515346 -0.30853868 78 39
1.1255568 -3.3396823 -0.30659398 122 39
1.1053561 -3.3474708 -0.30669123 65 39
1.0863285 -3.3589244 -0.30717739 109 39
1.0629913 -3.3569882 -0.30630228 102 39
1.0417832 -3.3615463 -0.30610779 60 39
1.0222939 -3.3716848 -0.30649674 37 39
1.0041357 -3.3864808 -0.30737185 26 39
1.004974 -3.4671328 -0.31495622 127 39
2.6692619 -9.41745 -0.91859418 13 39
2.614615 -9.4451609 -0.919761 39 39
2.5488188 -9.4322023 -0.91684395 50 39
2.4863267 -9.4303427 -0.91509372 40 39
2.4110608 -9.3779488 -0.90828723 72 39
2.3433087 -9.3520203 -0.9042033 21 39
2.0285432 -8.3123512 -0.79821664 255 39
1.9694461 -8.2907515 -0.79481339 487 39
1.9122601 -8.2755289 -0.79209077 165 39
1.8509701 -8.2404966 -0.78742349 41 39
1.7530316 -8.0348635 -0.76573998 127 39
1.7016344 -8.0357323 -0.76476765 116 39
1.8316032 -8.9185476 -0.85179341 23 39
1.78909 -8.9911118 -0.85791922 6 39
1.7380319 -9.0234203 -0.86005843 3 39
0 -0 -0 3 39
0 -0 -0 4 39
0 -0 -0 4 39
0 -0 -0 4 39
2.9284809 -18.185045 -1.7618204 29 39
2.8127332 -18.176117 -1.759195 25 39
2.6989603 -18.178267 -1.7577364 28 39
0 -0 -0 3 39
1.1089637 -8.1618214 -0.76700407 3 39
2.3531418 -18.141958 -1.7495687 10 39
1.0157996 -8.2321053 -0.77264369 24 39
0.96677673 -8.2510328 -0.77390778 21 39
0.91909826 -8.2835178 -0.77653313 18 39
0.87344539 -8.3384924 -0.7813949 10 39
0.83067119 -8.428874 -0.78975713 9 39
0.78086197 -8.4546232 -0.79179907 7 39
0.72802925 -8.448348 -0.79072952 16 39
0.73627919 -9.2026701 -0.86423951 5 39
0 -0 -0 6 39
0 -0 -0 3 39
0.50639534 -8.2351942 -0.76836532 3 39
0 -0 -0 4 39
0 -0 -0 5 39
0.35262296 -8.1943979 -0.76360083 3 39
0.30274156 -8.2073469 -0.76467037 4 39
0.25280666 -8.2229776 -0.76603168 8 39
0 -0 -0 3 39
0 -0 -0 5 39
0.10234878 -8.3018713 -0.77342159 5 39
0.050884441 -8.219738 -0.76535106 43 39
0 -0 -0 5 39
-0.050762616 -8.3501205 -0.77808887 6 39
-0.10166053 -8.3217869 -0.77536631 8 39
-0.17272918 -9.4195929 -0.88271427 10 39
-0.20328942 -8.3000135 -0.77342159 4 39
-0.29164582 -9.5261917 -0.89341021 13 39
-0.30425355 -8.2730236 -0.77108794 8 39
-0.35377648 -8.2421646 -0.76826811 745 39
-0.4043428 -8.2398386 -0.76826811 876 39
-0.45538652 -8.2461462 -0.76914322 912 39
-0.50634038 -8.249157 -0.76972663 874 39
-0.55734831 -8.251853 -0.77031004 812 39
-0.60870045 -8.2582035 -0.77128243 863 39
-0.65999323 -8.2622509 -0.77206028 881 39
-0.71212536 -8.2749023 -0.77371329 748 39
-0.76462013 -8.2892075 -0.7755608 349 39
-0.82364541 -8.3675613 -0.78372854 5 39
-1.7530226 -16.765373 -1.6091607 117 39
-1.8733809 -16.912577 -1.6247183 185 39
-1.9677578 -16.820692 -1.6168423 241 39
-2.0732417 -16.82707 -1.6186898 622 39
-2.1782393 -16.82785 -1.620051 532 39
-2.284127 -16.833893 -1.6219957 565 39
-2.3904505 -16.84124 -1.6241349 559 39
-2.4954915 -16.83807 -1.6253017 553 39
-2.6014948 -16.840145 -1.6270519 540 39
-2.7071438 -16.838606 -1.6285105 556 39
-2.8123798 -16.833458 -1.6296773 555 39
-2.919184 -16.836477 -1.6317192 611 39
-2.2263334 -12.386625 -1.1918259 319 39
-2.2367814 -12.020478 -1.1568211 667 39
-2.2930133 -11.915634 -1.1477783 5910 39
-2.3684108 -11.913054 -1.1489451 1148 39
-2.4438629 -11.909997 -1.1501119 222 39
-2.477149 -11.706849 -1.1313454 98 39
-2.5133336 -11.528059 -1.1150099 68 39
-2.57901 -11.490085 -1.1127734 77 39
-2.7488425 -11.90462 -1.155946 149 39
-2.8273506 -11.91077 -1.1582797 1426 39
-5.5471749 -22.751041 -2.2501371 13 39
-0 -0 -0 6 39
-5.7764354 -22.488461 -2.23069 66 39
-5.8773069 -22.312077 -2.2164936 48 39
-6.1484542 -22.773325 -2.2668614 23 39
-6.2509365 -22.600874 -2.2532485 59 39
-6.321981 -22.323647 -2.229037 75 39
-6.5826616 -22.711739 -2.2725012 21 39
-6.753859 -22.778746 -2.2834888 19 39
-6.9165974 -22.813074 -2.2912676 24 39
-6.9159398 -22.316734 -2.2448864 69 39
-7.195127 -22.723633 -2.290976 44 39
-2.3160284 -7.1588912 -0.6973834 739 39
-2.3505507 -7.1161928 -0.69446635 1298 39
-2.3970308 -7.1101246 -0.69534147 1322 39
-2.4561446 -7.14046 -0.70000881 882 39
-2.4920068 -7.1027141 -0.69767511 738 39
-2.50069 -6.9898267 -0.68756264 930 39
-2.5350103 -6.950974 -0.68513173 1603 39
-2.5807323 -6.9436855 -0.6860069 1481 39
-2.6282215 -6.9407511 -0.68736815 1380 39
-2.6768458 -6.9402809 -0.68902117 1321 39
-2.7237446 -6.9348426 -0.69018799 1155 39
-2.7293072 -6.8255816 -0.68046445 1412 39
-2.7711368 -6.8087063 -0.68046445 1368 39
-2.8749144 -6.9414659 -0.69631386 1233 39
-2.9294283 -6.9521289 -0.69932812 1427 39
-2.9767342 -6.9450016 -0.70049495 1347 39
-3.0542762 -7.0068979 -0.70905167 309 39
-5.3955269 -12.17569 -1.2633913 31 39
-5.4235401 -12.038903 -1.2523063 29 39
-5.4368229 -11.873277 -1.2381101 34 39
-5.4558358 -11.724189 -1.2256639 30 39
-5.4757786 -11.580717 -1.2138011 38 39
-5.5096788 -11.469745 -1.2054389 36 39
-5.5406799 -11.355217 -1.1966877 10 39
-5.586832 -11.27374 -1.1915342 67 39
-5.6572433 -11.241915 -1.1918259 31 39
-5.7016673 -11.15913 -1.1865752 80 39
-5.7791944 -11.141605 -1.18852 63 39
-5.7579756 -10.935961 -1.1697534 11 39
-5.7743177 -10.805619 -1.159252 11 39
-5.8191648 -10.730613 -1.1548765 115 39
-5.8225322 -10.581344 -1.1422358 19 39
-5.8335061 -10.448953 -1.1314427 17 39
-5.8313065 -10.296044 -1.1183159 24 39
-5.8487682 -10.180671 -1.1093702 11 39
-5.8820682 -10.094713 -1.1037306 25 39
-5.8942852 -9.9744568 -1.0942014 11 39
-5.9006457 -9.8467493 -1.0837973 18 39
-5.5393033 -9.1162605 -1.0044531 41 39
-5.5502486 -9.009222 -0.99609089 80 39
-5.5674706 -8.9142141 -0.98908991 58 39
-5.5933185 -8.8344736 -0.98383921 59 39
-5.6226978 -8.7614536 -0.97936636 65 39
-5.6318598 -8.658371 -0.97139305 35 39
-5.6377797 -8.5521851 -0.96303082 55 39
-5.6481376 -8.4545307 -0.95564091 96 39
-5.6798253 -8.3900423 -0.95214045 406 39
-5.7345757 -8.3599586 -0.95272386 615 39
-5.7488489 -8.2714882 -0.9464035 35 39
-5.8991818 -8.3776636 -0.96332252 383 39
-5.9724355 -8.3721008 -0.96701747 458 39
-6.0574994 -8.3820877 -0.97265708 665 39
-6.126451 -8.3688555 -0.9755742 734 39
-6.2144346 -8.3806772 -0.98160279 65 39
-6.2950234 -8.3813858 -0.98636734 56 39
-6.3969412 -8.4091454 -0.99453509 589 39
-0 -0 -0 577 39
-0 -0 -0 368 39
-0 -0 -0 406 39
-0 -0 -0 427 39
-0 -0 -0 562 39
-0 -0 -0 105 39
-0 -0 -0 91 39
-7.1465125 -8.4949102 -1.0468478 102 39
-7.2443175 -8.5046988 -1.0537515 93 39
-7.3392606 -8.5098352 -1.0601691 93 39
-7.4391193 -8.5193739 -1.0672673 87 39
-7.5281644 -8.5153284 -1.0727124 84 39
-7.6187658 -8.5119925 -1.0783521 73 39
-7.7069354 -8.5049124 -1.0836028 85 39
-7.8121223 -8.5154066 -1.0912844 367 39
-7.8682885 -8.4716883 -1.0918678 585 39
-7.9439812 -8.4486303 -1.0952711 300 39
-7.7918901 -8.185605 -1.0663922 218 39
-7.826087 -8.1211567 -1.0641557 132 39
-7.8632612 -8.0601587 -1.0624055 120 39
-7.8489347 -7.9473133 -1.053557 116 39
-7.827189 -7.8286142 -1.0438335 75 39
-7.8687057 -7.7741437 -1.0429584 73 39
-7.8977413 -7.7076406 -1.0404303 112 39
-8.1368961 -7.8441768 -1.0664893 36 39
-8.2209082 -7.8284225 -1.0713512 14 39
-8.2731371 -7.7819247 -1.0719346 18 39
-8.2813616 -7.6944294 -1.0666839 10 39
-8.8057261 -8.0816154 -1.1299841 516 39
-8.8964376 -8.0648699 -1.1354294 508 39
-9.0095148 -8.0672331 -1.1437916 166 39
-9.0871725 -8.0368576 -1.1474866 102 39
-2.665225 -2.3270879 -0.30795527 75 39
-2.6930165 -2.3223946 -0.30970553 118 39
-2.7117605 -2.3097003 -0.31028894 307 39
-2.6847651 -2.2584076 -0.30503821 120 39
-2.7062254 -2.2482541 -0.30601057 326 39
-2.6968927 -2.2126606 -0.30309349 117 39
-2.7026877 -2.1898029 -0.30212113 134 39
-2.7036426 -2.1632257 -0.30056539 114 39
-2.6942241 -2.1286948 -0.29774556 119 39
-2.6891916 -2.0980363 -0.29550913 111 39
-2.7130497 -2.0900033 -0.29687044 319 39
-2.702064 -2.055233 -0.29395336 102 39
-2.7090545 -2.0344293 -0.2932727 115 39
-2.7094972 -2.0088732 -0.29181418 117 39
-2.7137434 -1.986329 -0.29084182 121 39
-2.7186217 -1.9643917 -0.2899667 136 39
-2.7257633 -1.9442043 -0.28938329 143 39
-2.7408957 -1.9297357 -0.28977224 119 39
-2.7812834 -1.9327698 -0.29317549 65 39
-2.8045783 -1.9235528 -0.29453677 71 39
-2.8336325 -1.9180294 -0.29657874 77 39
-2.8900287 -1.9304739 -0.30182943 125 39
-2.9117889 -1.9192809 -0.30299628 331 39
-2.9618814 -1.9263519 -0.3074691 143 39
-2.9795077 -1.9119064 -0.30814976 151 39
-3.0718944 -1.9447207 -0.31748435 81 39
-3.1006491 -1.9363844 -0.31942907 60 39
-3.1226387 -1.9235901 -0.32059589 62 39
-3.1522415 -1.915252 -0.32263783 42 39
-7.3472495 -4.4043736 -0.79918897 63 39
-0 -0 -0 3 39
-7.4480329 -4.3414526 -0.80453694 112 39
-7.4598627 -4.2872381 -0.80288392 164 39
-7.4453325 -4.2183199 -0.79831386 131 39
-7.4762888 -4.1754694 -0.79889727 199 39
-7.5906944 -4.1784844 -0.8088153 106 39
-10.073374 -5.4652948 -1.0819498 114 39
-9.9987669 -5.345655 -1.0699898 506 39
-10.001442 -5.2684288 -1.0666839 610 39
-10.003547 -5.1913719 -1.0633779 566 39
-10.004197 -5.1140351 -1.0599746 602 39
-9.9900532 -5.0297236 -1.0550156 562 39
-10.023402 -4.9696579 -1.0553073 312 39
-10.271029 -5.0141835 -1.0789355 193 39
-10.235225 -4.919157 -1.07174 257 39
-9.9539461 -4.7089682 -1.0380965 762 39
-9.9140844 -4.6158695 -1.0307066 380 39
-9.9304581 -4.5495605 -1.0294427 414 39
-9.9164505 -4.4697256 -1.0249698 418 39
-9.917305 -4.3970938 -1.0221499 407 39
-10.224161 -4.4583178 -1.0520012 698 39
-10.214738 -4.3798075 -1.0481119 741 39
-10.207487 -4.3027411 -1.0445142 709 39
-10.198758 -4.2255483 -1.0408192 685 39
-10.182094 -4.1456218 -1.0363463 805 39
-10.176846 -4.0708661 -1.0331376 852 39
-10.190517 -4.0039768 -1.0319707 770 39
-10.139685 -3.9123456 -1.0240947 60 39
-1.5314162 -0.57906002 -0.12223548 63 39
-1.5190823 -0.56375432 -0.12058248 105 39
-1.5169032 -0.5523755 -0.11999907 136 39
-1.5155789 -0.54138017 -0.11951289 143 39
-1.5141768 -0.53042191 -0.11902671 132 39
-1.5145798 -0.52014929 -0.11873501 135 39
-1.5111417 -0.50861901 -0.11805436 162 39
-1.5085642 -0.49746293 -0.11747094 145 39
-1.5040132 -0.48574457 -0.11669306 153 39
-1.5003242 -0.47440165 -0.11601241 168 39
-1.4965531 -0.46312237 -0.11533176 166 39
-1.4917477 -0.45161819 -0.11455388 164 39
-1.4887661 -0.44075704 -0.11397047 192 39
-1.4866633 -0.43022689 -0.11348429 162 39
-1.4825727 -0.41919619 -0.11280364 162 39
-1.4822394 -0.40929449 -0.11251193 175 39
-1.4818406 -0.39941269 -0.11222023 172 39
-1.480414 -0.38929737 -0.11183129 188 39
-1.4779555 -0.37896672 -0.1113451 186 39
-1.4792875 -0.36964899 -0.11124787 228 39
-1.4766935 -0.35938486 -0.11076169 216 39
-1.475966 -0.34962681 -0.11046999 161 39
-1.4771138 -0.34033966 -0.11037275 178 39
-1.4782033 -0.33105159 -0.11027551 156 39
-1.4763173 -0.3211261 -0.10988658 128 39
-1.4665762 -0.30958569 -0.10871975 87 39
-1.505494 -0.30819416 -0.1124147 55 39
-1.5395679 -0.30536464 -0.11562347 27 39
-1.5423899 -0.29610065 -0.1157207 29 39
-1.5226527 -0.28261912 -0.11358152 17 39
-1.5253377 -0.27344733 -0.11367876 9 39
-0 -0 -0 4 39
-0 -0 -0 3 39
-1.5124259 -0.24247515 -0.11192852 5 39
-1.5109346 -0.23273371 -0.11163682 6 39
-1.4660645 -0.21658568 -0.10706674 6 39
-1.4545565 -0.20576359 -0.10580269 6 39
-1.4557916 -0.19683473 -0.10580269 5 39
-1.4411801 -0.18584913 -0.10424691 10 39
-1.4343914 -0.17602651 -0.10346904 4 39
-1.4314905 -0.16675809 -0.10308009 4 39
-1.4216058 -0.15676266 -0.1020105 8 39
-1.4225409 -0.1480369 -0.1020105 11 39
-1.4234225 -0.13930556 -0.1020105 13 39
-1.4311877 -0.13121067 -0.10269115 14 39
-1.4309742 -0.12234101 -0.10259391 14 39
-1.4326901 -0.11363791 -0.10269115 11 39
-0 0 -0 6 40
-0 0 -0 4 40
-0 0 -0 5 40
-0 0 -0 5 40
-0 0 -0 4 40
-0 0 -0 6 40
-0 0 -0 4 40
-0 0 -0 8 40
-0 0 -0 6 40
-0 0 -0 4 40
-0 0 -0 4 40
-0 0 -0 4 40
-1.4482985 0.14234984 -0.12248534 6 40
-0 0 -0 4 40
-0 0 -0 8 40
-1.4750496 0.17245466 -0.12577216 5 40
-0 0 -0 3 40
-0 0 -0 5 40
-0 0 -0 5 40
-1.4930072 0.2118194 -0.12829207 5 40
-0 0 -0 8 40
-0 0 -0 6 40
-1.5555871 0.25000659 -0.1357422 7 40
-0 0 -0 6 40
-0 0 -0 5 40
-1.5781133 0.28352556 -0.1388099 5 40
-0 0 -0 4 40
-0 0 -0 3 40
-0 0 -0 4 40
-0 0 -0 4 40
-0 0 -0 7 40
-0 0 -0 5 40
-0 0 -0 4 40
-0 0 -0 6 40
-0 0 -0 5 40
-0 0 -0 4 40
-0 0 -0 4 40
-0 0 -0 5 40
-0 0 -0 6 40
-1.4740819 0.39791289 -0.13037372 4 40
-0 0 -0 4 40
-1.4690878 0.41597217 -0.13037372 13 40
-1.4789181 0.42857826 -0.13179801 57 40
-1.4695902 0.43566537 -0.13103108 86 40
-1.483059 0.44958058 -0.13289362 161 40
-1.4812219 0.45896643 -0.13300318 197 40
-1.4802729 0.46864691 -0.1332223 192 40
-1.4783152 0.47802693 -0.13333187 206 40
-1.4800732 0.48864797 -0.13387966 198 40
-1.4836401 0.49994382 -0.13464659 160 40
-1.4880637 0.51162517 -0.13552308 169 40
-1.4942753 0.52403784 -0.13661869 149 40
-1.5078771 0.53922528 -0.13859078 123 40
-1.4961361 0.54540139 -0.13760473 165 40
-1.5067365 0.55976695 -0.13924815 134 40
-1.5079211 0.57076204 -0.13979594 127 40
-1.5108821 0.58250827 -0.14056288 106 40
-1.5072795 0.59176791 -0.14056288 108 40
-1.5091574 0.60322011 -0.14122024 93 40
-1.5358078 0.6248371 -0.14483574 53 40
-4.7037292 1.948288 -0.52325886 66 40
-4.7173324 1.9879228 -0.52632654 406 40
-4.7013917 2.0152636 -0.52588832 461 40
-4.6916709 2.0452647 -0.52621698 467 40
-4.6835766 2.0760281 -0.52676481 491 40
-4.6761875 2.1071775 -0.52742219 463 40
-4.6740141 2.1407981 -0.52873689 479 40
-4.6743069 2.1757298 -0.53038031 456 40
-4.6698542 2.2086203 -0.5314759 413 40
-8.5667944 4.1165624 -1.009709 823 40
-8.5628119 4.1795149 -1.0123384 875 40
-8.548583 4.2377162 -1.0137627 862 40
-8.5339613 4.2958999 -1.015187 873 40
-8.5030165 4.3459206 -1.0146391 429 40
-8.3262053 4.3201818 -0.99601382 85 40
-8.4719105 4.4619823 -1.0174878 446 40
-8.4417429 4.512475 -1.0171591 368 40
-8.4549599 4.5864649 -1.0223085 194 40
-8.4667139 4.6603069 -1.0273483 855 40
-8.4900274 4.74125 -1.0339218 62 40
-8.6864929 4.9211416 -1.0625173 418 40
-8.6621666 4.9778152 -1.0632842 186 40
-7.9247179 4.6189079 -0.97311562 16 40
-7.9047842 4.6725044 -0.97421122 17 40
-7.8597674 4.7112088 -0.97212958 11 40
-8.800704 5.3489447 -1.0972481 305 40
-8.771102 5.4049301 -1.0976863 370 40
-8.68888 5.4280996 -1.0913317 225 40
-0 0 -0 5 40
-2.7112327 1.7400557 -0.31717494 12 40
-2.7263324 1.7734637 -0.32057133 45 40
-2.7195482 1.7928948 -0.32111913 25 40
-2.721719 1.8183844 -0.3228721 35 40
-2.7187405 1.8406237 -0.3239677 38 40
-2.7180502 1.8645818 -0.32539201 26 40
-2.7188001 1.8897353 -0.3270354 36 40
-2.7185304 1.9143956 -0.32856926 34 40
-2.7156327 1.9373912 -0.32977444 39 40
-2.7093327 1.9580938 -0.33054134 29 40
-2.7020788 1.9782046 -0.33119872 38 40
-2.6906884 1.9953392 -0.33130828 41 40
-2.6775999 2.0112143 -0.33119872 40 40
-2.6588807 2.0227907 -0.33032224 28 40
-2.6401207 2.0342131 -0.32944575 40 40
-2.6142688 2.0399773 -0.32758322 27 40
-2.5884461 2.0455015 -0.32572067 31 40
-2.5595505 2.0483012 -0.3234199 37 40
-2.5260854 2.0470684 -0.32046175 28 40
-2.4881229 2.0417192 -0.31684625 28 40
-2.4579663 2.042335 -0.31432635 33 40
-2.4271362 2.0420182 -0.31169689 30 40
-2.3956463 2.040756 -0.30895787 44 40
-2.3687799 2.0430803 -0.30687621 27 40
-2.3427243 2.0458064 -0.30490413 40 40
-2.3137465 2.045656 -0.30249378 33 40
-2.2818973 2.0425756 -0.29964519 31 40
-2.2568016 2.0451899 -0.29778266 36 40
-2.2237048 2.0401809 -0.29471496 26 40
-2.1922114 2.0361967 -0.29186639 37 40
-2.1659195 2.0366702 -0.28978473 37 40
-2.1397049 2.0368984 -0.28770307 40 40
-2.1157167 2.0389516 -0.28595009 43 40
-2.091784 2.0407877 -0.28419712 42 40
-2.0728586 2.047297 -0.28321108 32 40
-2.0532296 2.0529482 -0.28211546 43 40
-2.0384989 2.0633864 -0.2817868 55 40
-1.9709638 2.0196497 -0.27313149 20 40
-1.9302548 2.0023611 -0.26863948 8 40
-0 0 -0 5 40
-1.8912382 2.0106909 -0.26633871 23 40
-1.8666891 2.0091481 -0.26436663 40 40
-1.8516381 2.0176344 -0.26392838 41 40
-1.8405582 2.030431 -0.26414749 46 40
-1.8360204 2.0505736 -0.26546222 30 40
-1.8332794 2.0729706 -0.26710564 35 40
-1.8322937 2.097657 -0.26907772 42 40
-1.8323721 2.123914 -0.27126893 43 40
-1.8334858 2.1517639 -0.27367929 31 40
-1.8330464 2.1781855 -0.2758705 38 40
-1.8323514 2.2046821 -0.27806172 33 40
-1.8326608 2.2327886 -0.28047204 27 40
-1.8314421 2.2594366 -0.28266329 40 40
-1.8262386 2.2814965 -0.28419712 27 40
-1.8257632 2.3098164 -0.28660747 47 40
-1.8237857 2.3366485 -0.28879869 28 40
-1.8185138 2.3596058 -0.29044208 39 40
-1.8184448 2.3897054 -0.29307154 32 40
-1.8132988 2.4135344 -0.29482451 40 40
-1.8102967 2.4405835 -0.29701573 38 40
-1.8023332 2.4612696 -0.29833046 29 40
-1.7970951 2.4859776 -0.30019301 44 40
-1.7910438 2.5099044 -0.30194598 46 40
-0 0 -0 5 40
-2.4164646 3.4760339 -0.42870787 47 40
-2.3956528 3.4916153 -0.42881742 41 40
-2.3936865 3.5350573 -0.43265206 26 40
-2.3719509 3.5496783 -0.43265206 9 40
-2.3665385 3.5890615 -0.43593886 23 40
-2.3531437 3.6168463 -0.43769184 112 40
-2.3394966 3.6446011 -0.43944481 134 40
-2.3346367 3.6866009 -0.44306034 164 40
-2.3540969 3.7683005 -0.4518252 133 40
-2.3293664 3.7801354 -0.45149651 121 40
-2.038234 3.3534937 -0.39463443 140 40
-2.0114875 3.3557057 -0.3933197 129 40
-1.9089342 3.2293584 -0.37557086 23 40
-0 0 -0 4 40
-0 0 -0 6 40
-1.8628854 3.2881653 -0.37863857 72 40
-1.8291068 3.2752335 -0.37557086 121 40
-1.8017876 3.2733326 -0.37392744 114 40
-1.7736131 3.2694728 -0.37206492 127 40
-1.7488335 3.2715275 -0.3709693 96 40
-1.7264113 3.2777991 -0.3704215 184 40
-1.5762775 3.0377498 -0.33930624 58 40
-0 0 -0 84 40
-0 0 -0 84 40
-0 0 -0 74 40
-0 0 -0 70 40
-0 0 -0 77 40
-0 0 -0 85 40
-0 0 -0 79 40
-0 0 -0 91 40
-0 0 -0 81 40
-0 0 -0 90 40
-0 0 -0 84 40
-1.2063993 2.8138378 -0.29953563 44 40
-1.1941285 2.8330951 -0.30095994 50 40
-0 0 -0 92 40
-0 0 -0 82 40
-0 0 -0 101 40
-0 0 -0 75 40
-0 0 -0 59 40
-0 0 -0 65 40
-0 0 -0 45 40
-0 0 -0 48 40
-0 0 -0 50 40
-0 0 -0 50 40
-0 0 -0 51 40
-0 0 -0 41 40
-0 0 -0 40 40
-0 0 -0 22 40
-0 0 -0 34 40
-0 0 -0 20 40
-0 0 -0 18 40
-0 0 -0 13 40
-0 0 -0 23 40
-0.78145432 2.7571301 -0.27795216 13 40
-0.76372701 2.7589991 -0.27762347 11 40
-0.74600625 2.7607546 -0.27729478 10 40
-0.72297412 2.7422118 -0.27466533 29 40
-0.70588726 2.7456336 -0.27455577 17 40
-0 0 -0 9 40
-0 0 -0 8 40
-0 0 -0 7 40
-0 0 -0 7 40
-0 0 -0 5 40
-0.59227926 2.7143986 -0.26831082 5 40
-0 0 -0 5 40
-0 0 -0 5 40
-0.54357266 2.7316651 -0.26907772 5 40
-0.52604979 2.7310445 -0.26863948 7 40
-0.50891876 2.7322667 -0.26842037 6 40
-0.49319953 2.7412076 -0.26907772 6 40
-0.47840893 2.7559345 -0.27039245 6 40
-0.46001512 2.7499948 -0.26940641 9 40
-0.44108093 2.7400076 -0.26798213 8 40
-0 0 -0 5 40
-0.40582001 2.7343986 -0.26677695 5 40
-0.38791642 2.7289643 -0.26590046 5 40
-0.37049598 2.7263684 -0.26535267 4 40
-0.35146245 2.7108469 -0.26338056 9 40
-0.33664653 2.7277501 -0.26502398 8 40
-0.3172453 2.707058 -0.26250407 25 40
-0.29405949 2.6496778 -0.25593042 45 40
-0.26900426 2.5674024 -0.24661776 65 40
-0.25207758 2.5571344 -0.24530303 69 40
-0.23601738 2.5546737 -0.24486479 65 40
-0.21974124 2.5491416 -0.24409786 88 40
-0.20425415 2.5524235 -0.24431698 64 40
-0.18888114 2.5575941 -0.24475522 89 40
-0.17325146 2.5596964 -0.24486479 111 40
-0.15778574 2.5646799 -0.24530303 65 40
-0.14314216 2.585449 -0.24749425 17 40
-0.12610647 2.5624518 -0.24486479 6 40
-0 0 -0 5 40
-0.093994379 2.5459268 -0.2428927 8 40
-0.077975571 2.53354 -0.2414684 6 40
-0.06213665 2.5220466 -0.24015367 7 40
-0.046459954 2.5114484 -0.23894849 14 40
-0.030976327 2.5057228 -0.23829113 15 40
-0.015552646 2.4979138 -0.23741464 8 40
-0.00022596204 2.4900105 -0.23653816 12 40
0.01502164 2.4849951 -0.23599036 18 40
0.030183163 2.4778988 -0.23522343 12 40
0.04544178 2.4806485 -0.23555212 12 40
0.06058852 2.4773419 -0.23522343 18 40
0.075696401 2.473943 -0.23489475 19 40
0.0908015 2.4714453 -0.23467563 17 40
0 0 -0 13 40
0 0 -0 21 40
0 0 -0 16 40
0 0 -0 21 40
0 0 -0 15 40
0 0 -0 19 40
0.19723365 2.4702213 -0.23522343 18 40
0.21315505 2.4778774 -0.23620948 14 40
0.22780648 2.4705842 -0.23555212 18 40
0.24364385 2.4760642 -0.23631904 20 40
0.25841787 2.4705684 -0.23588079 17 40
0.27379137 2.470912 -0.23609991 20 40
0.28941017 2.4731345 -0.23653816 26 40
0.30445787 2.4703257 -0.2364286 22 40
0.32012093 2.4723539 -0.23686685 26 40
0.33515114 2.4693582 -0.23675728 28 40
0.35113579 2.4731598 -0.23741464 16 40
0.3664501 2.4719419 -0.23752421 21 40
0.38343406 2.4814346 -0.23883894 19 40
0.40339163 2.5084755 -0.24212576 6 40
0.4212355 2.5206585 -0.24376918 17 40
0.47239339 2.7236869 -0.26677695 9 40
0.47906455 2.6649754 -0.26053199 19 40
0.47192928 2.5359302 -0.24639864 29 40
0.47958481 2.491993 -0.24179707 50 40
0 0 -0 65 40
0 0 -0 45 40
0 0 -0 97 40
0 0 -0 58 40
0.55405778 2.4683506 -0.24092059 51 40
0.56896907 2.4639361 -0.24081104 46 40
0.58430648 2.4613657 -0.24092059 54 40
0.6019904 2.4683561 -0.24212576 60 40
0.61833251 2.4694369 -0.24267358 57 40
0.63050318 2.4540441 -0.24135883 29 40
0.64478886 2.4472458 -0.24103016 40 40
0.65849626 2.4384456 -0.24048235 26 40
0.67318076 2.4334013 -0.24037279 72 40
0.68782812 2.4282687 -0.24026322 47 40
0.70271474 2.4240024 -0.24026322 64 40
0.72068524 2.4301271 -0.2414684 95 40
0.74770379 2.4656081 -0.24606995 179 40
0.76193511 2.4581258 -0.24574128 172 40
0.78060657 2.4647748 -0.24705601 74 40
0.79510331 2.4580474 -0.24683689 92 40
0.84821701 2.568265 -0.2602033 25 40
1.0688376 3.1705122 -0.33087003 112 40
1.089565 3.1676538 -0.33130828 157 40
1.0941681 3.1187036 -0.32637805 16 40
0 0 -0 6 40
0 0 -0 5 40
