# .PCD v0.7 - Point Cloud Data file format
VERSION 0.7
FIELDS x y z intensity ring
SIZE 4 4 4 4 1
TYPE F F F F U
COUNT 1 1 1 1 1
WIDTH 1338
HEIGHT 1
VIEWPOINT 0 0 0 1 0 0 0
POINTS 1338
DATA ascii
1.0773787 3.0742841 0.40037909 183 22
0 0 0 213 22
0 0 0 161 22
0 0 0 191 22
0 0 0 164 22
0 0 0 163 22
0 0 0 195 22
1.2264575 3.0704055 0.40584958 178 22
1.247146 3.067425 0.40640777 164 22
0 0 0 186 22
0 0 0 181 22
0 0 0 187 22
0 0 0 184 22
0 0 0 180 22
0 0 0 175 22
1.3938349 3.0462861 0.41076183 139 22
1.4141768 3.0412807 0.41120839 168 22
0 0 0 191 22
0 0 0 175 22
0 0 0 177 22
0 0 0 185 22
0 0 0 214 22
0 0 0 185 22
1.5654155 3.0201001 0.41656724 199 22
1.5876195 3.0174732 0.41746038 199 22
0 0 0 171 22
0 0 0 198 22
0 0 0 218 22
0 0 0 181 22
0 0 0 162 22
0 0 0 200 22
1.7492301 3.0040543 0.42494041 214 22
1.7742001 3.0043879 0.42639175 194 22
1.7941332 2.9960027 0.4267267 184 22
1.8171253 2.9925818 0.42773148 200 22
1.8443115 2.9957609 0.42962939 167 22
1.8673947 2.9919748 0.43063417 157 22
1.8915634 2.9896972 0.43186224 160 22
1.9179207 2.9905813 0.43353689 142 22
1.9421929 2.9879215 0.43476495 179 22
1.9632238 2.9800971 0.43532315 154 22
1.9847835 2.9729533 0.43599302 150 22
2.0074432 2.9673033 0.43688613 150 22
2.0306702 2.9623063 0.43789092 192 22
2.056179 2.9604003 0.43934229 169 22
2.0828848 2.9599175 0.44101691 165 22
2.1113923 2.9616456 0.44302648 183 22
2.1376717 2.9599123 0.44458947 154 22
2.1610746 2.9539578 0.44559425 173 22
2.1850765 2.9486256 0.44671068 169 22
2.2150607 2.951057 0.44894353 151 22
2.2451563 2.9532306 0.45117638 179 22
2.2717235 2.9504216 0.45273936 171 22
2.29284 2.940345 0.45329759 176 22
2.288048 2.8973675 0.4491668 126 22
2.2716424 2.8405919 0.44302648 91 22
2.2833998 2.8196502 0.4420217 97 22
2.2830122 2.7840724 0.4388957 31 22
2.3006868 2.770776 0.43900734 28 22
2.4500399 2.9140441 0.46211731 131 22
2.4839802 2.9178717 0.46490839 167 22
2.5128682 2.9153707 0.46680629 139 22
2.5398579 2.9103785 0.46836931 128 22
2.5721452 2.9111214 0.47082543 133 22
2.6038742 2.9108367 0.47316992 110 22
2.6390316 2.913954 0.47607261 137 22
2.6608915 2.9021008 0.47674248 134 22
2.6887906 2.8966432 0.4784171 160 22
2.7153611 2.8895037 0.47986847 137 22
2.7392049 2.8792675 0.48087323 117 22
2.8953958 3.0062609 0.50331336 7 22
2.9359891 3.011205 0.50688589 12 22
2.9565046 2.995255 0.50722086 7 22
2.9804475 2.982681 0.50811398 7 22
0 0 0 5 22
3.0410011 2.9694848 0.51190984 16 22
3.0455735 2.9376628 0.50978863 6 22
3.0412362 2.8976719 0.50632769 3 22
0 0 0 3 22
0 0 0 7 22
0 0 0 3 22
3.1894622 2.8929257 0.51816177 4 22
0 0 0 5 22
0 0 0 5 22
0 0 0 4 22
3.3858826 2.922864 0.53691769 6 22
0 0 0 3 22
0 0 0 4 22
3.4903049 2.9026141 0.54439777 6 22
0 0 0 4 22
0 0 0 4 22
0 0 0 3 22
0 0 0 5 22
3.5957143 2.8082507 0.54696554 10 22
3.6168125 2.7891688 0.54752374 12 22
3.6575792 2.7849824 0.55087298 144 22
3.6976354 2.779803 0.55411065 145 22
3.7465432 2.7807505 0.55857635 129 22
3.7931955 2.7794397 0.56270713 135 22
3.8311143 2.7712543 0.56560981 123 22
3.8706923 2.7638624 0.56873578 128 22
3.9103229 2.7560885 0.5718618 135 22
3.9646873 2.7581458 0.57699734 154 22
4.0126691 2.7551394 0.58123976 142 22
4.0574708 2.7494173 0.58503556 148 22
4.1056566 2.7454581 0.58927798 168 22
4.1531162 2.7404628 0.59340876 139 22
4.2006683 2.7349877 0.59753954 148 22
4.2449632 2.7268836 0.60122371 153 22
4.3010678 2.7257845 0.60647094 177 22
4.3320374 2.7082968 0.60836881 212 22
4.3824091 2.7025268 0.61283451 85 22
4.4286265 2.6936584 0.61674201 93 22
4.5226231 2.7129469 0.62690145 146 22
4.5562911 2.6952634 0.6291343 150 22
4.6036468 2.6852787 0.63315344 187 22
4.6493273 2.6738229 0.6369493 345 22
4.6561365 2.639854 0.63572121 285 22
4.6583667 2.6034789 0.63393492 285 22
4.6568446 2.5652583 0.63170207 290 22
4.6585226 2.5290511 0.62991583 301 22
4.6634378 2.4947951 0.6285761 279 22
4.6496463 2.4508443 0.62489188 242 22
4.6619511 2.4208949 0.62455696 277 22
4.6661005 2.3868141 0.62321728 276 22
4.663795 2.3496447 0.62109607 256 22
4.6718926 2.3178926 0.6203146 165 22
4.7574615 2.3240731 0.62924594 371 22
4.7698412 2.2939768 0.62902266 368 22
4.7856236 2.2655168 0.62924594 297 22
4.7805176 2.227298 0.62690145 199 22
4.7877703 2.1950247 0.62611997 279 22
4.789372 2.1602952 0.6246686 272 22
4.7907281 2.1256292 0.62321728 251 22
4.7690687 2.0810931 0.61897486 175 22
4.7963605 2.0580602 0.62076116 271 22
4.8052359 2.0270467 0.6203146 317 22
4.7918792 1.9868687 0.61718857 400 22
4.7993784 1.9555544 0.61663038 372 22
4.7928352 1.918684 0.61439753 394 22
4.7860208 1.8819678 0.61216468 371 22
4.7844996 1.8475552 0.61060166 513 22
4.7892413 1.8156978 0.60982019 454 22
4.7881842 1.7817729 0.60836881 373 22
4.7980933 1.7520187 0.60825717 401 22
4.8096886 1.7228802 0.60836881 434 22
4.7901664 1.6827985 0.60479629 191 22
4.8032203 1.6543455 0.60513121 405 22
4.8029237 1.6213468 0.60390311 439 22
4.8052335 1.5893502 0.60301 425 22
4.7799153 1.5485069 0.59887922 216 22
4.7599616 1.5098367 0.59541833 46 22
4.7615433 1.4782451 0.59452516 62 22
4.8323312 1.4677691 0.6017819 142 22
4.9355564 1.466098 0.61283451 149 22
5.0026746 1.4526863 0.6196447 128 22
14.085173 3.9958105 1.6792425 128 22
14.073033 3.8992281 1.6750001 342 22
14.065997 3.8045022 1.6714275 272 22
14.186123 3.7437313 1.6827034 165 22
14.204977 3.6556258 1.6822568 297 22
14.196296 3.5606616 1.6786842 312 22
14.194708 3.467828 1.6760049 302 22
14.190582 3.3746886 1.6731021 339 22
14.177135 3.2797151 1.6691947 273 22
14.165967 3.1856878 1.6656221 253 22
14.157092 3.0925574 1.6623845 273 22
14.147609 2.9996564 1.6591469 247 22
14.136546 2.9067881 1.6557976 334 22
14.124878 2.8141687 1.6524483 296 22
14.107728 2.7208614 1.6485409 273 22
14.09778 2.629328 1.6455265 245 22
14.095066 2.5394289 1.6434053 288 22
14.075136 2.4467692 1.6393862 258 22
14.074203 2.3577332 1.6375999 251 22
14.062897 2.2672195 1.6346972 274 22
14.038243 2.1749558 1.6303432 328 22
14.024785 2.0848334 1.6273288 331 22
14.019605 1.9962186 1.6253192 323 22
14.002048 1.9061377 1.6219699 340 22
13.9918 1.8173715 1.6195139 342 22
13.98395 1.7291685 1.6173927 339 22
13.976531 1.6412464 1.615383 315 22
13.962635 1.5528216 1.6127037 323 22
13.950157 1.4648368 1.6102475 358 22
13.938114 1.3771613 1.607903 361 22
13.928491 1.2899636 1.6058935 436 22
13.918323 1.2029359 1.6038839 382 22
13.90464 1.1158433 1.6015394 354 22
13.89735 1.0294777 1.5999764 332 22
12.79098 0.86867124 1.4747137 214 22
12.784167 0.78943628 1.473374 207 22
12.853264 0.71456277 1.4806308 370 22
12.857407 0.63568318 1.4806308 477 22
12.856101 0.55656493 1.4800725 211 22
12.855302 0.47752345 1.4796259 255 22
12.85799 0.3986358 1.4796259 262 22
12.85622 0.31963447 1.4791794 216 22
12.85794 0.24074417 1.4791794 233 22
12.867124 0.16194463 1.4800725 264 22
12.868869 0.082996771 1.4801842 262 22
12.864167 0.0040319008 1.4796259 234 22
12.868918 -0.074930303 1.4801842 263 22
12.872191 -0.15393874 1.4806308 253 22
12.873985 -0.23297215 1.4809656 257 22
12.873306 -0.31198516 1.4810773 253 22
12.88009 -0.39124021 1.482082 245 22
12.89135 -0.47077173 1.4836451 241 22
12.893183 -0.55007464 1.4842032 289 22
12.894527 -0.62941778 1.4847615 276 22
12.889431 -0.7084707 1.4846499 240 22
12.893768 -0.7880913 1.4856546 282 22
12.892655 -0.86745811 1.4861012 289 22
12.888082 -0.94662249 1.4862128 271 22
12.891936 -1.0264734 1.4873292 270 22
12.909158 -1.1075971 1.4900087 314 22
12.913004 -1.1877869 1.4912367 294 22
12.915363 -1.2679685 1.4923532 302 22
12.91327 -1.347811 1.493023 315 22
12.922536 -1.4289864 1.4950325 350 22
12.920434 -1.509058 1.4958141 272 22
12.916849 -1.589036 1.4964839 288 22
12.925581 -1.6706833 1.4986051 254 22
12.930842 -1.7520971 1.5003914 231 22
12.92772 -1.8325223 1.5012846 267 22
12.926063 -1.9132661 1.502401 264 22
12.929793 -1.9949679 1.5041872 274 22
12.932027 -2.0766299 1.5058619 234 22
12.935705 -2.1587214 1.5077598 226 22
12.949633 -2.2428021 1.5108858 290 22
12.943452 -2.3236222 1.511779 245 22
12.937744 -2.4046326 1.5127838 257 22
12.920794 -2.4835966 1.5125605 141 22
12.044643 -2.3918867 1.4139802 388 22
12.0239 -2.4645488 1.4133104 299 22
12.965255 -2.7405319 1.5231664 173 22
12.968586 -2.824475 1.5255109 285 22
12.955859 -2.9050829 1.5260692 247 22
12.965871 -2.9910026 1.5293068 222 22
12.975315 -3.0771542 1.5325444 231 22
12.973569 -3.1609461 1.534554 243 22
12.970318 -3.2445912 1.5364519 225 22
12.973267 -3.3300447 1.5391313 222 22
12.970848 -3.4143915 1.5412525 238 22
12.968843 -3.4990928 1.5434854 259 22
12.971074 -3.5852215 1.5462765 215 22
12.999509 -3.6790874 1.5521935 283 22
12.996735 -3.7645881 1.554538 260 22
5.1290689 -1.5195994 0.63538629 100 22
5.0644879 -1.5343266 0.62891102 110 22
4.9837842 -1.5433205 0.62053788 103 22
4.9259019 -1.5585791 0.61484408 80 22
4.9710889 -1.6065027 0.62131935 42 22
4.8979115 -1.6161071 0.61383933 91 22
4.9246316 -1.658502 0.61819339 483 22
4.8419986 -1.6638159 0.60959691 237 22
4.7726178 -1.6727819 0.60256344 254 22
4.6958256 -1.6782839 0.5946368 224 22
4.6238165 -1.6846086 0.58726841 217 22
4.5342088 -1.6835401 0.57777882 298 22
4.5070634 -1.7049994 0.57576925 508 22
4.5039349 -1.7354813 0.57666242 512 22
4.5070772 -1.7685302 0.57833701 592 22
4.4970636 -1.7965206 0.57844865 465 22
4.5006843 -1.8300704 0.58023494 385 22
0.98088372 -0.40555447 0.15364943 159 22
4.5108585 -1.8990467 0.58425409 436 22
4.5183043 -1.9349056 0.58659858 81 22
4.5291238 -1.9725147 0.58938962 471 22
4.5414677 -2.0111339 0.59240395 387 22
4.5353851 -2.0418181 0.59318548 418 22
4.5408435 -2.0778797 0.59541833 399 22
4.5343156 -2.1086364 0.59619981 426 22
4.4862518 -2.1198583 0.59184575 98 22
4.4937644 -2.1572385 0.59441352 85 22
4.5384998 -2.2130864 0.60167027 36 22
4.53374 -2.2453034 0.60278672 31 22
4.5243168 -2.2753124 0.60334492 43 22
4.5270858 -2.3116181 0.60546613 36 22
4.5260501 -2.3462133 0.60714078 39 22
4.5273976 -2.3822711 0.60915035 59 22
4.5232139 -2.4156244 0.61049002 36 22
4.5187902 -2.4490156 0.61182976 42 22
4.5158687 -2.4834013 0.61339277 51 22
4.5187693 -2.5212326 0.61573726 32 22
4.5170507 -2.5567451 0.61752349 48 22
4.5219603 -2.5962899 0.6202029 31 22
4.5239773 -2.6344903 0.62254739 32 22
4.5299735 -2.6753399 0.62545013 28 22
4.5347857 -2.7158511 0.62824118 26 22
4.5392699 -2.7565215 0.63103223 16 22
4.5425792 -2.7968278 0.63371164 16 22
4.5405064 -2.8341205 0.63572121 18 22
4.5398254 -2.8725555 0.63795406 7 22
4.5371704 -2.9100151 0.63996363 19 22
4.5300603 -2.9448419 0.641415 20 22
4.5309911 -2.9851582 0.64398277 14 22
4.5282912 -3.0233891 0.64610398 15 22
4.5343456 -3.0678251 0.64945322 16 22
4.5318284 -3.1068287 0.65168607 17 22
4.5338993 -3.1493185 0.65458876 16 22
4.5323682 -3.1896622 0.65704489 19 22
4.5321302 -3.2312591 0.65972435 17 22
4.533968 -3.2747185 0.66273868 22 22
4.547472 -3.3271239 0.66742766 12 22
4.5493255 -3.3715329 0.67055362 13 22
4.5611358 -3.4238458 0.67513096 13 22
4.5645633 -3.4704144 0.67859191 15 22
4.5644412 -3.5147281 0.68160623 11 22
4.5561104 -3.5530586 0.68350416 9 22
4.5669761 -3.6068177 0.68819314 23 22
4.565712 -3.6515322 0.69120747 21 22
4.5687037 -3.700119 0.69489169 15 22
4.5705018 -3.7482491 0.69846421 21 22
4.5718799 -3.7965398 0.7020368 18 22
4.5751185 -3.8469064 0.7059443 20 22
4.571857 -3.8923011 0.70895863 13 22
4.5704684 -3.9397466 0.71230787 25 22
4.5686684 -3.9873207 0.71565717 17 22
4.5686898 -4.0369945 0.71934134 21 22
4.5504985 -4.0709152 0.72034615 19 22
4.5497389 -4.1207757 0.72403032 19 22
4.5800309 -4.1996608 0.73251516 31 22
4.5876765 -4.2587867 0.73765069 39 22
4.5889745 -4.3127189 0.74189311 18 22
4.5890627 -4.3661408 0.74602389 25 22
4.595108 -4.4259305 0.75115943 22 22
4.5913424 -4.4769378 0.75484365 35 22
4.5920734 -4.5329518 0.75930935 30 22
4.5943975 -4.5912499 0.76410997 28 22
4.6087518 -4.6624684 0.77092016 69 22
4.6057425 -4.7169685 0.77505088 63 22
4.6043067 -4.7737522 0.77951658 37 22
4.6016607 -4.8299751 0.78387064 40 22
4.597816 -4.8856211 0.78811306 40 22
4.5975204 -4.9457674 0.79302531 35 22
4.5973301 -5.006825 0.79804921 31 22
4.6105819 -5.0835242 0.80541766 29 22
4.6177597 -5.1546507 0.81189287 32 22
4.6354308 -5.2387075 0.82026607 27 22
4.6358948 -5.3044662 0.82584816 26 22
4.6396208 -5.3749399 0.83210015 19 22
4.6336298 -5.43507 0.83678913 26 22
4.6277146 -5.4960876 0.84158975 40 22
4.637743 -5.5771031 0.84929305 67 22
4.6355982 -5.6446228 0.85498685 52 22
4.6353016 -5.7154121 0.8611272 34 22
4.6343098 -5.7864084 0.86726749 30 22
4.6474137 -5.8763142 0.87608725 28 22
4.6644797 -5.9728618 0.88580012 23 22
4.6623302 -6.0462279 0.89216375 21 22
4.6642704 -6.1261168 0.8994205 18 22
4.6665983 -6.2078433 0.90690053 20 22
4.6621752 -6.2818475 0.91326416 31 22
4.6517329 -6.348814 0.91862297 39 22
4.6720905 -6.4593701 0.9300105 68 22
4.65662 -6.5218849 0.93469948 42 22
4.6394124 -6.5828271 0.93916517 34 22
4.6397896 -6.669908 0.94720346 64 22
4.6690798 -6.8006611 0.96115875 283 22
4.7114301 -6.9534116 0.97801673 518 22
4.6880074 -7.0111032 0.98192424 540 22
4.6908689 -7.1094136 0.99130219 248 22
4.7420349 -7.2838078 1.0108396 20 22
4.6934938 -7.3069143 1.010058 36 22
4.7123981 -7.436306 1.0234551 24 22
4.7240944 -7.5569315 1.0356243 25 22
4.7094517 -7.6373749 1.0424343 40 22
4.7172341 -7.7561288 1.0542685 62 22
4.7089119 -7.8505483 1.0628649 85 22
4.7319837 -7.999897 1.0786065 29 22
4.7328715 -8.114624 1.0897708 25 22
4.7330232 -8.2305222 1.1010467 25 22
4.7270284 -8.3380785 1.1112061 30 22
4.7373409 -8.4770985 1.1253847 44 22
4.7394109 -8.6043682 1.1380002 49 22
4.7396221 -8.7311058 1.1505042 32 22
4.7403288 -8.8616714 1.1634548 27 22
4.7623119 -9.0356474 1.1818757 25 22
4.7411237 -9.130846 1.1902488 41 22
4.7610269 -9.308403 1.2090048 39 22
4.7516565 -9.4324055 1.2209506 27 22
4.7789192 -9.6331997 1.2424976 37 22
4.7607174 -9.7462769 1.2529919 44 22
4.7740345 -9.9275551 1.2719711 41 22
4.7921057 -10.12373 1.2927366 54 22
4.7760553 -10.252032 1.3050172 27 22
4.7979469 -10.466334 1.327904 36 22
4.7781663 -10.594319 1.340073 48 22
4.7997088 -10.81874 1.364076 49 22
4.791254 -10.980968 1.3803759 12 22
4.8084121 -11.207424 1.4044906 38 22
4.8368707 -11.467459 1.4326245 51 22
4.844049 -11.684193 1.4553995 64 22
4.8588696 -11.926288 1.4811889 224 22
4.8206792 -12.043524 1.4917949 148 22
4.9095788 -12.487206 1.5418108 30 22
4.8836894 -12.648738 1.5576639 25 22
4.8552961 -12.808559 1.5732939 34 22
4.8427954 -13.016004 1.5946176 45 22
4.9202814 -13.476746 1.6461964 19 22
4.8606153 -13.571236 1.6538997 30 22
4.8529916 -13.816453 1.6795775 21 22
4.8208618 -13.999125 1.6977751 22 22
3.8435245 -11.387334 1.3846183 29 22
3.7554853 -11.35598 1.3781431 282 22
3.673794 -11.341939 1.373789 586 22
3.6002271 -11.351953 1.3723376 559 22
3.5296214 -11.370982 1.3720027 606 22
3.4577627 -11.38577 1.3712212 566 22
3.398586 -11.442971 1.3754636 383 22
3.6607683 -12.608827 1.5094345 342 22
3.5825195 -12.628183 1.5090995 770 22
3.5001915 -12.632689 1.50709 669 22
3.4218345 -12.651051 1.506755 664 22
4.4394584 -16.822721 1.9890501 196 22
4.3331809 -16.838097 1.9877104 445 22
4.2276073 -16.855692 1.9867057 458 22
3.4034503 -13.931163 1.6455265 161 22
4.009409 -16.859896 1.9813467 366 22
3.311516 -14.314617 1.6850479 155 22
3.2345212 -14.383143 1.6906301 134 22
3.3137293 -15.1697 1.7788275 91 22
3.3294041 -15.703038 1.8377746 109 22
3.3576663 -16.329592 1.9073279 121 22
3.3441904 -16.785534 1.957232 251 22
3.254493 -16.875017 1.9651586 517 22
3.1510706 -16.895645 1.9652703 529 22
3.0404708 -16.876518 1.9609162 125 22
1.6631328 -9.5665188 1.125273 107 22
1.5938962 -9.5138178 1.1181279 102 22
1.5296391 -9.4871187 1.1139971 85 22
1.468356 -9.4766846 1.1117643 106 22
1.40609 -9.4579935 1.1086383 83 22
1.3453693 -9.4477501 1.1065171 109 22
1.2865696 -9.4499197 1.1058472 76 22
1.2254903 -9.4339848 1.1031679 116 22
1.1655086 -9.4245605 1.10127 114 22
1.1058048 -9.4157429 1.0994836 155 22
1.0483395 -9.4253139 1.0998186 201 22
0.9901759 -9.4286041 1.0994836 213 22
0.93630952 -9.4750481 1.104061 139 22
0.88978916 -9.6062832 1.1182395 291 22
1.465207 -16.953846 1.9461794 63 22
1.3606757 -16.956573 1.9455096 546 22
1.2567533 -16.966585 1.9457328 248 22
1.1522208 -16.968029 1.945063 340 22
0.87459147 -14.163845 1.6286685 148 22
0.78502095 -14.121319 1.6233097 97 22
0.83960158 -16.984379 1.9448397 584 22
0.73519981 -16.985239 1.9443932 631 22
0.63074535 -16.983471 1.9437233 655 22
0.52667868 -16.991989 1.9442815 272 22
0.35007671 -14.082128 1.6169461 906 22
0.26371953 -14.086991 1.617281 670 22
0.21384746 -17.000792 1.9445047 610 22
0.10954767 -17.004765 1.9448397 531 22
0.0052080317 -17.01108 1.9455096 455 22
-0.099234059 -17.021723 1.9467376 636 22
-0.20373508 -17.025761 1.9472959 494 22
-0.30814531 -17.02121 1.9469609 585 22
-0.41262791 -17.020985 1.9471842 522 22
-0.51727039 -17.025085 1.9479657 618 22
-0.62274086 -17.049398 1.9510916 509 22
-0.7275542 -17.05022 1.9516499 582 22
-0.83211023 -17.044443 1.9515382 667 22
-0.93716842 -17.047947 1.952543 620 22
-1.0406632 -17.024021 1.9505335 410 22
-0.81313086 -12.08557 1.3952243 256 22
-1.2527728 -17.054567 1.9555573 228 22
-1.1005636 -13.822121 1.5921614 675 22
-1.1853539 -13.815107 1.5921614 590 22
-1.5712142 -17.080076 1.9613628 298 22
-1.6767629 -17.078026 1.962256 470 22
-1.7839968 -17.091137 1.9649353 608 22
-1.8856641 -17.051224 1.9616977 34 22
-1.5359255 -13.150413 1.5218267 89 22
-1.6176783 -13.149618 1.5228316 190 22
-2.210542 -17.101341 1.9716339 295 22
-1.4574172 -10.756524 1.253885 80 22
-1.5186476 -10.713925 1.2500892 69 22
-1.5823209 -10.690643 1.2485262 71 22
-1.6478877 -10.680733 1.2485262 78 22
-1.7144955 -10.677289 1.2493078 84 22
-1.7809595 -10.672449 1.2499776 55 22
-2.409534 -13.912152 1.6206303 74 22
-2.1597686 -12.030878 1.4076166 221 22
-2.1823316 -11.741882 1.3761334 66 22
-2.1834207 -11.359388 1.3339326 22 22
-2.2130055 -11.144012 1.3108226 44 22
-2.2597885 -11.025085 1.2987653 95 22
-2.5917203 -12.261338 1.4423374 432 22
-0 -0 0 656 22
-2.6958897 -12.023042 1.4186692 1008 22
-2.7754195 -12.03145 1.4215719 821 22
-2.8533189 -12.031599 1.4235815 992 22
-2.9308541 -12.029312 1.4253677 876 22
-3.0084684 -12.026527 1.4271541 839 22
-3.0856645 -12.021317 1.428717 889 22
-3.1669579 -12.030987 1.4320663 505 22
-3.6748803 -13.620297 1.6192906 198 22
-2.6746647 -9.6771097 1.1623383 38 22
-2.7245193 -9.6270504 1.1584308 44 22
-2.7362556 -9.4469309 1.1393399 167 22
-2.7950165 -9.4328222 1.1396749 231 22
-2.8591831 -9.4364176 1.1421311 138 22
-2.9229107 -9.4376812 1.1443639 138 22
-2.9861615 -9.4366226 1.1463734 133 22
-3.0488977 -9.4332514 1.1481597 117 22
-3.1001811 -9.3945494 1.1458153 553 22
-3.160939 -9.3847675 1.1469316 533 22
-3.2565787 -9.4760904 1.1601055 420 22
-3.3846896 -9.6556787 1.1838853 128 22
-2.5858324 -7.2345233 0.89752257 201 22
-2.623709 -7.2007804 0.89540136 1468 22
-2.6692266 -7.1882725 0.89584798 1667 22
-2.7132828 -7.1717591 0.89584798 1424 22
-2.7904735 -7.2412109 0.90623069 1151 22
-0 -0 0 971 22
-0 -0 0 1411 22
-2.8536513 -7.0174031 0.8854652 2016 22
-2.9004557 -7.0089436 0.88658166 1811 22
-2.949192 -7.0047526 0.88825625 1713 22
-2.9975948 -6.9993134 0.88981926 1623 22
-3.0369134 -6.972589 0.88881451 1433 22
-3.0530777 -6.8938556 0.88144606 1812 22
-3.1026642 -6.8913026 0.88345563 1377 22
-3.2077527 -7.0094829 0.90042531 1658 22
-3.2574074 -7.0040851 0.90221155 1760 22
-3.3079658 -7.0001388 0.90422112 1147 22
-4.0721874 -8.4820261 1.0914454 526 22
-3.7634614 -7.7173276 0.9990055 505 22
-3.8094199 -7.6914186 0.99867058 776 22
-4.1043763 -8.1606102 1.0606321 698 22
-4.0445385 -7.9202151 1.0335031 759 22
-4.1095266 -7.9270091 1.0375221 1074 22
-4.1604028 -7.9060411 1.0380803 1178 22
-4.2336497 -7.9268212 1.0439974 1377 22
-4.2935739 -7.9216628 1.0466768 1492 22
-4.3550301 -7.9186783 1.0496912 1550 22
-4.4161267 -7.9143696 1.0525938 1130 22
-4.4822302 -7.9182558 1.056613 345 22
-5.8950839 -10.266494 1.364411 92 22
-5.9454632 -10.208661 1.3616199 98 22
-5.9432983 -10.062468 1.3473297 39 22
-5.3931737 -9.0045023 1.2135822 29 22
-5.4302673 -8.9415131 1.2096747 17 22
-5.4063473 -8.7802525 1.1928166 108 22
-5.444859 -8.7224684 1.189579 45 22
-5.4477921 -8.6091213 1.178973 13 22
-5.4339809 -8.4718132 1.1651293 207 22
-5.4631104 -8.4033194 1.1604403 32 22
-5.5047274 -8.3547039 1.1584308 23 22
-5.5260863 -8.2761431 1.1524022 55 22
-5.5494747 -8.2017517 1.1469316 153 22
-5.5783405 -8.1364021 1.1426892 120 22
-5.4643021 -7.866159 1.1104246 360 22
-5.4667068 -7.7674718 1.1014932 22 22
-5.4848394 -7.6925178 1.0957994 30 22
-5.4655991 -7.566885 1.0830722 209 22
-5.4996023 -7.5163651 1.0807277 46 22
-5.4864435 -7.4026432 1.0695635 30 22
-5.5156527 -7.3473825 1.0665492 57 22
-5.4962711 -7.2287602 1.0546035 39 22
-5.5011101 -7.1437235 1.0473467 33 22
-5.5075583 -7.062036 1.0405365 56 22
-5.5033579 -6.9680624 1.03194 66 22
-5.5124898 -6.8922577 1.0259113 52 22
-5.519649 -6.8150601 1.0196594 39 22
-5.5418253 -6.7572451 1.0161984 34 22
-5.5317545 -6.661191 1.0071554 42 22
-5.5450206 -6.594419 1.0023547 25 22
-5.5763593 -6.5496788 1.0007918 10 22
-5.5463638 -6.4340525 0.98873442 19 22
-5.5615592 -6.3721986 0.98460364 24 22
-5.5735726 -6.3074236 0.9800263 25 22
-5.506813 -6.1553526 0.96227515 187 22
-5.5905113 -6.1722665 0.96997851 135 22
-5.6336517 -6.1437068 0.97087163 103 22
-5.7124872 -6.1534481 0.97768182 206 22
-5.7739573 -6.1436248 0.98158932 284 22
-8.1296721 -8.5442686 1.359387 99 22
-7.6269546 -7.9180889 1.269515 70 22
-0 -0 0 249 22
-0 -0 0 453 22
-7.8184752 -7.8234534 1.2769951 435 22
-7.8903623 -7.7990842 1.2807908 686 22
-7.9871311 -7.7984238 1.2884942 571 22
-8.0748882 -7.7878995 1.2947462 574 22
-6.3424168 -6.0424428 1.0185429 89 22
-6.3547668 -5.9802585 1.014747 77 22
-6.3833346 -5.9337115 1.013519 64 22
-6.4166951 -5.8917441 1.0130725 74 22
-6.4593506 -5.8582692 1.0140772 55 22
-6.5055375 -5.8278079 1.0156403 56 22
-6.555315 -5.800292 1.0177615 59 22
-8.629879 -7.5418558 1.3219869 437 22
-0 -0 0 622 22
-8.6257343 -7.3535123 1.3078083 425 22
-8.6592894 -7.2908473 1.3061336 399 22
-8.6503744 -7.1931033 1.2983187 529 22
-8.635211 -7.0913305 1.2897222 54 22
-2.9452274 -2.3888714 0.46044269 111 22
-2.9544001 -2.3664067 0.45966119 209 22
-2.9602902 -2.3414538 0.45843312 166 22
-2.9581532 -2.3104022 0.45608863 170 22
-2.9541731 -2.2782514 0.45352086 230 22
-2.9388411 -2.2378101 0.44939008 126 22
-2.9453673 -2.2143617 0.4483853 142 22
-2.9477267 -2.1879568 0.44682232 130 22
-2.9474685 -2.1598446 0.44492438 135 22
-2.9646916 -2.1446304 0.44548261 310 22
-2.9535315 -2.1090767 0.44213334 143 22
-2.9582939 -2.0851901 0.44101691 134 22
-2.9587955 -2.0584874 0.43934229 140 22
-2.9639971 -2.0352321 0.4383375 117 22
-2.9731383 -2.0147774 0.43789092 144 22
-2.9862709 -1.997049 0.43800256 144 22
-3.0100813 -1.9863496 0.43956557 97 22
-3.054693 -1.9889866 0.44391963 71 22
-3.086071 -1.9825577 0.4464874 74 22
-3.1300757 -1.9837964 0.45072979 93 22
-3.1733677 -1.9840423 0.45486057 393 22
-3.2243927 -1.9885248 0.4599961 90 22
-3.2271936 -1.9630231 0.45876804 204 22
-3.3209908 -1.9922529 0.46948573 78 22
-3.3750644 -1.9966269 0.47495618 76 22
-3.4121463 -1.9903986 0.47819382 89 22
-3.4303253 -1.9728922 0.47897533 42 22
-8.6847467 -4.923543 1.1559747 450 22
-8.8015432 -4.9186368 1.1671389 19 22
-8.8176308 -4.8568683 1.1653527 24 22
-8.8079634 -4.7813396 1.1603287 603 22
-8.675025 -4.6404958 1.1396749 507 22
-8.8360844 -4.6571398 1.1565329 22 22
-8.8397989 -4.5900135 1.1534069 18 22
-6.856751 -3.5071783 0.89964378 35 22
-8.8501959 -4.4583902 1.1477132 26 22
-8.7723379 -4.3518939 1.1345394 78 22
-8.7113676 -4.2552457 1.1235985 255 22
-8.6970119 -4.1823344 1.1185745 767 22
-8.7036476 -4.1199641 1.11623 521 22
-8.7287636 -4.0664821 1.11623 609 22
-8.73458 -4.0041509 1.1138855 451 22
-8.7481136 -3.9455788 1.1125458 393 22
-8.8557301 -3.9289 1.1228169 792 22
-8.7658157 -3.8248153 1.1088616 166 22
-8.7370644 -3.7486253 1.1024979 221 22
-8.7379255 -3.6856771 1.0998186 548 22
-8.8714533 -3.6780393 1.1133273 41 22
-8.8874121 -3.6209116 1.1125458 39 22
-8.9011583 -3.562988 1.111541 48 22
-8.9182291 -3.5064864 1.1109828 36 22
-8.9340143 -3.4495518 1.1103129 53 22
-8.9605875 -3.3967819 1.1109828 58 22
-8.755867 -3.2578828 1.0839653 485 22
-8.7532883 -3.1959176 1.081286 332 22
-8.8438358 -3.1676121 1.0897708 496 22
-8.7984114 -3.0905659 1.0820675 992 22
-8.8012362 -3.0310214 1.0801696 920 22
-8.7998953 -2.9702878 1.0778251 977 22
-8.8056889 -2.9121809 1.0763737 938 22
-8.8035383 -2.8516653 1.0740292 1098 22
-8.7924528 -2.7885826 1.0706799 1107 22
-8.6414089 -2.6824419 1.0509192 1000 22
-8.6320324 -2.6215727 1.0479048 976 22
-8.6317606 -2.5637488 1.0460069 1051 22
-8.6435118 -2.509629 1.0455604 1128 22
-8.647275 -2.4532919 1.0442207 1095 22
-8.6478004 -2.3962073 1.042546 1154 22
-8.6508293 -2.339987 1.0412064 1157 22
-8.6534939 -2.2838199 1.0398666 1200 22
-8.6298103 -2.2210219 1.0355126 260 22
-8.8081026 -2.2093651 1.0546035 489 22
-8.8417664 -2.1602304 1.0569479 1092 22
-8.8490534 -2.1045582 1.056278 1100 22
-8.8414688 -2.0455189 1.0539335 399 22
-8.8373709 -1.987524 1.0520357 906 22
-8.8474579 -1.9328374 1.0518123 1018 22
-8.8552628 -1.8776897 1.0513657 1094 22
-8.8617506 -1.8223188 1.0508076 1082 22
-8.9234447 -1.7780055 1.056613 785 22
-8.978096 -1.7316861 1.0616369 649 22
-8.9660835 -1.6723751 1.0590692 107 22
-8.8275185 -1.5905501 1.0420995 1157 22
-8.9800558 -1.5612005 1.0583992 187 22
-9.000248 -1.5078763 1.0596273 242 22
-8.9995193 -1.4510419 1.0585109 251 22
-9.0033436 -1.395034 1.0579526 191 22
-9.011734 -1.3397642 1.0579526 292 22
-9.0079784 -1.2827634 1.056613 306 22
-9.0107565 -1.2267972 1.0560547 270 22
-9.010231 -1.1704614 1.0551616 291 22
-9.0113258 -1.1144221 1.0544918 338 22
-9.0081244 -1.0579499 1.0533754 901 22
-9.0490141 -1.0065006 1.0572828 423 22
-8.8474731 -0.92917025 1.0338379 1189 22
-9.0329943 -0.89264435 1.0541569 352 22
-9.0363216 -0.83701891 1.0539335 427 22
-9.0541582 -0.78266937 1.0553849 345 22
-9.0578003 -0.72701991 1.0552733 357 22
-9.0591173 -0.67120844 1.0549383 380 22
-9.0749626 -0.61641777 1.056278 490 22
-9.0755987 -0.56053954 1.0559431 465 22
-9.0768824 -0.50473195 1.0557199 479 22
-9.0718689 -0.44863537 1.0548267 486 22
-9.0724649 -0.3928771 1.0546035 467 22
-9.0806627 -0.33742324 1.0552733 455 22
-8.9037733 -0.27616134 1.0351776 1144 22
-8.8725166 -0.22070952 1.0314934 427 22
-9.065464 -0.16984931 1.0530404 343 22
-9.0772657 -0.11435871 1.0542685 526 22
-9.0827656 -0.058691394 1.0548267 440 22
-9.0839481 -0.0029597704 1.0549383 442 22
-9.0847893 0.05278416 1.05505 517 22
-9.0683956 0.10833578 1.0532637 243 22
-9.0824642 0.16424651 1.0549383 374 22
-8.88622 -0.65451562 0.92867577 1211 23
-8.890069 -0.59997851 0.92867577 1241 23
-8.8935833 -0.54541874 0.92867577 1234 23
-8.8937817 -0.49067369 0.92837626 1208 23
-8.8976192 -0.43614206 0.9284761 1188 23
-8.9021158 -0.38162458 0.92867577 1148 23
-8.9013071 -0.3268851 0.92837626 1131 23
-8.9011555 -0.27220047 0.92817658 1128 23
-8.8867435 -0.21718784 0.92657912 536 23
-8.9078054 -0.16302244 0.92857593 918 23
-8.9096327 -0.10837435 0.92867577 1136 23
-8.9121199 -0.053716082 0.92887551 1139 23
-8.9142723 0.00096862618 0.92907518 1184 23
-8.9210634 0.055708136 0.92977405 1246 23
-8.9056292 0.11026287 0.92827642 811 23
-8.9117489 0.16503276 0.92897534 1229 23
-8.9185266 0.2199063 0.92977405 1185 23
-8.9229765 0.2748082 0.93037307 1153 23
-8.9241047 0.32966319 0.93067259 1118 23
-8.9089909 0.38385913 0.92937469 621 23
-8.9174004 0.43905327 0.93047291 1006 23
-8.881753 0.4919495 0.9271782 266 23
-8.9172993 0.54881638 0.931072 697 23
-8.9256773 0.60432661 0.93227005 1096 23
-8.9386702 0.66032612 0.93396735 1229 23
-8.9443684 0.71595293 0.93496579 1268 23
-8.9487295 0.77158922 0.93586433 1306 23
-8.9527435 0.82730591 0.93676287 1319 23
-8.9534397 0.88280839 0.93736196 1400 23
-8.9557714 0.93855768 0.93816066 1383 23
-8.959733 0.99458808 0.9391591 1482 23
-8.9584036 1.0501238 0.93965828 1508 23
-8.958704 1.1059242 0.94035715 1471 23
-8.9566832 1.1615121 0.9408564 1521 23
-8.9533319 1.2169831 0.94125575 1500 23
-8.9565325 1.273436 0.94235396 1347 23
-8.9642973 1.3307039 0.94395143 1459 23
-8.9687471 1.3876588 0.94524938 1421 23
-8.9718523 1.4445605 0.94644743 1420 23
-8.974596 1.5015523 0.94764555 1417 23
-8.9769783 1.5586323 0.9488436 1409 23
-8.982914 1.6165022 0.95044106 1392 23
-8.9914122 1.6750498 0.95233804 1335 23
-8.9936666 1.7326338 0.95363599 1334 23
-8.9926252 1.7897263 0.95463437 1306 23
-8.9941454 1.8474714 0.95593232 1373 23
-8.9855604 1.9032418 0.95623183 1389 23
-8.9844065 1.9606726 0.95733011 1060 23
-8.9003658 1.999632 0.94994187 130 23
-9.0013571 2.0804067 0.96162325 1404 23
-8.9961672 2.1374381 0.96242195 1389 23
-9.0012493 2.1970778 0.96431893 1345 23
-9.001112 2.2556515 0.96571672 1466 23
-8.9977026 2.3135631 0.96681494 1357 23
-9.0112391 2.3760819 0.96971035 1305 23
-9.0137806 2.4359996 0.97150749 1313 23
-9.0159254 2.4960377 0.97330463 1257 23
-9.0148001 2.5553799 0.9748022 1224 23
-9.0132856 2.6148021 0.97629982 1144 23
-9.0171041 2.6759999 0.97839648 1176 23
-9.0138454 2.7353208 0.97979426 1269 23
-9.0206509 2.7979434 0.98229027 1240 23
-9.0241814 2.8598509 0.98448676 1299 23
-9.0282373 2.9222131 0.98678309 1325 23
-9.0280886 2.983484 0.98868006 1231 23
-9.0350695 3.0474062 0.9913758 1243 23
-9.0387821 3.1105547 0.99377197 1161 23
-9.0383034 3.1725459 0.99576879 1073 23
-9.039278 3.2353182 0.99796528 1025 23
-9.0379515 3.2975397 0.99996209 1004 23
-9.0427303 3.3622932 1.0026578 1079 23
-9.039609 3.4244103 1.0045547 1046 23
-9.0407076 3.4884057 1.006951 1095 23
-9.0682173 3.5630922 1.0122426 909 23
-9.0988445 3.639725 1.0179334 975 23
-9.1085958 3.7086146 1.0214279 949 23
-9.094862 3.7682414 1.0224262 963 23
-9.0807381 3.8278394 1.0234246 986 23
-9.0781145 3.8925018 1.025721 1009 23
-9.0723019 3.9560831 1.0277178 1037 23
-9.0605917 4.0173197 1.0291156 978 23
-9.0566359 4.0822406 1.0314119 1035 23
-9.0449867 4.143949 1.0329095 1055 23
-9.0383329 4.2081876 1.0350062 1094 23
-9.028533 4.2712235 1.0368034 1030 23
-9.013814 4.3321433 1.0381012 980 23
-9.0031586 4.3952246 1.0398984 1016 23
-8.9947424 4.4596639 1.041995 935 23
-8.986762 4.5246119 1.0441916 864 23
-8.9756641 4.5882716 1.0460885 853 23
-8.9658899 4.6528816 1.0481852 820 23
-8.9494972 4.7142982 1.049583 877 23
-8.9423399 4.7808485 1.052079 908 23
-8.9250822 4.8422689 1.0534767 888 23
-8.9187384 4.9098945 1.0561724 902 23
-8.9127684 4.9781094 1.0589679 838 23
-8.9028339 5.0444732 1.0613642 843 23
-8.0503998 4.62708 0.96631575 36 23
-9.1205111 5.3166718 1.0939122 676 23
-9.1065617 5.3836722 1.0961087 683 23
-9.1066418 5.4593968 1.1000025 742 23
-9.0925283 5.5270562 1.1022989 736 23
-9.0711508 5.5905724 1.1037965 739 23
-9.0636816 5.6629949 1.1069914 729 23
-9.0598669 5.7381973 1.1106855 672 23
-9.0496082 5.8098035 1.1136807 664 23
-9.0363092 5.8798709 1.1163764 636 23
-9.0233212 5.9505415 1.119172 658 23
-9.0122862 6.0229316 1.122267 677 23
-9.0023499 6.0965252 1.1255617 659 23
-8.9951305 6.1724749 1.1292559 715 23
-8.9856834 6.2474284 1.1327503 707 23
-8.9732132 6.3207793 1.1359452 648 23
-8.9520798 6.3884325 1.1381416 144 23
-8.9602919 6.4776297 1.1440322 615 23
-8.9348278 6.543067 1.1458294 586 23
-8.9184885 6.6155481 1.1488247 331 23
-8.9206886 6.7024169 1.1542161 647 23
-8.8825626 6.7594366 1.1546154 193 23
-8.8259449 6.8022728 1.1527184 180 23
-8.8350286 6.8960891 1.1592081 293 23
-8.7878647 6.9464684 1.158609 375 23
-8.762167 7.0139365 1.1608056 587 23
-8.735199 7.0807242 1.1629022 549 23
-8.7169704 7.1550188 1.1661969 587 23
-8.6407623 7.1816621 1.1620036 338 23
-7.3798838 6.2108703 1.0024581 193 23
-7.2946758 6.2160292 0.99626797 124 23
-7.1697521 6.1859341 0.98478627 221 23
-7.1039319 6.2055936 0.98109221 31 23
-6.9971437 6.1884294 0.97190684 241 23
-6.9805398 6.2504926 0.9748022 135 23
-0 0 0 3 23
-0 0 0 4 23
-0 0 0 3 23
-2.0795188 1.9571925 0.32114485 3 23
-0 0 0 5 23
-0 0 0 4 23
-0 0 0 3 23
-0 0 0 3 23
-0 0 0 4 23
-0 0 0 3 23
-0 0 0 3 23
-0 0 0 5 23
-5.8736644 6.1707196 0.88943839 24 23
-0 0 0 4 23
-5.6132951 6.0440516 0.86228168 9 23
-0 0 0 2 23
-0 0 0 3 23
-0 0 0 3 23
-5.2655392 5.9563751 0.83232945 6 23
-2.88238 3.3019397 0.4744004 30 23
-2.882863 3.3436728 0.4775953 112 23
-2.8797152 3.381748 0.48029101 125 23
-2.8858175 3.4313297 0.48448431 170 23
-2.876792 3.4635119 0.48638129 132 23
-2.8700047 3.4987886 0.48867762 172 23
-2.864145 3.5356574 0.49117365 154 23
-2.8548319 3.5687015 0.49317047 149 23
-2.8476884 3.6048861 0.49556664 175 23
-2.8426566 3.6442544 0.49836218 171 23
-2.8378556 3.684484 0.50125754 175 23
-2.8332696 3.7255828 0.50425279 192 23
-2.8306761 3.7699451 0.5076474 202 23
-2.8335714 3.822407 0.51204038 181 23
-2.8218207 3.8557775 0.51403719 181 23
-2.8120983 3.8923728 0.51643336 149 23
-2.7950974 3.9192736 0.51763147 132 23
-2.7383385 3.8899815 0.51194054 104 23
-2.665575 3.8364496 0.50335419 101 23
-2.6296005 3.8346829 0.5011577 14 23
-0 0 0 4 23
-0 0 0 10 23
-2.1592791 3.2768703 0.42837381 102 23
-2.1282794 3.2733772 0.426377 109 23
-0 0 0 13 23
-0 0 0 30 23
-0 0 0 27 23
-0 0 0 17 23
-0 0 0 106 23
-0 0 0 11 23
-0 0 0 102 23
-0 0 0 7 23
-0 0 0 5 23
-0 0 0 6 23
-0 0 0 62 23
-0 0 0 7 23
-0 0 0 5 23
-0 0 0 4 23
-0 0 0 34 23
-0 0 0 7 23
-0 0 0 3 23
-0 0 0 3 23
-0 0 0 30 23
-0 0 0 58 23
-1.2530301 2.6103284 0.32513848 58 23
-1.2306082 2.6044757 0.32364088 72 23
-1.1906693 2.5605605 0.31794995 129 23
-1.1716207 2.5605812 0.31715122 132 23
-1.1616105 2.5804219 0.31854901 68 23
-0 0 0 81 23
-0 0 0 68 23
-0 0 0 101 23
-1.0735892 2.5503871 0.31225902 102 23
-1.0560161 2.5523303 0.31175983 93 23
-1.0377095 2.5523109 0.31106094 233 23
-1.0231377 2.5614016 0.31136048 121 23
-1.020499 2.6009712 0.31495473 338 23
-0.99377698 2.5793343 0.31195951 65 23
-0.9779318 2.5853834 0.31195951 82 23
-0.95303565 2.5670865 0.30936366 126 23
-0.96147513 2.6392536 0.31645235 52 23
-0.95096171 2.6610296 0.31814963 20 23
-0.93692237 2.6733866 0.31884852 34 23
-0.92147225 2.6819077 0.31914803 44 23
-0.89832258 2.6677115 0.31705138 18 23
-0.87350929 2.6476643 0.3143557 3 23
-0 0 0 3 23
-0.83374017 2.6354194 0.31195951 8 23
-0.80989182 2.6157761 0.30936366 9 23
-0.78342772 2.5864186 0.30576938 20 23
-0.76386392 2.5787764 0.30447146 21 23
-0.74303776 2.5662134 0.30267432 19 23
-0.7213096 2.5496635 0.30047783 18 23
-0.70007819 2.5339034 0.29838118 12 23
-0.68555534 2.5419936 0.29878053 10 23
-0.6676625 2.537493 0.29788196 12 23
-0.64687836 2.5213046 0.29578531 9 23
-0.63284647 2.5310173 0.29638436 13 23
-0.62037075 2.5474193 0.29768229 13 23
-0.6021992 2.540529 0.29658404 13 23
-0.58906329 2.5548403 0.29768229 57 23
-0.56966949 2.5419025 0.29598498 8 23
-0.55618262 2.5550716 0.29698339 5 23
-0.53678477 2.5409145 0.29518625 33 23
-0.52878851 2.581198 0.29898021 4 23
-0 0 0 3 23
-0 0 0 7 23
-0 0 0 3 23
-0.47320983 2.6374655 0.30347306 18 23
-0.43932432 2.538363 0.2930896 65 23
-0.42439738 2.5449364 0.29348898 44 23
-0.40766737 2.540616 0.29279009 53 23
-0.39343926 2.5519195 0.29368865 40 23
-0.37645939 2.5454273 0.29279009 50 23
-0.36083385 2.5476894 0.29279009 52 23
-0.34506083 2.5488694 0.29269025 68 23
-0.32954264 2.5519254 0.29279009 70 23
-0.31241626 2.5420492 0.291592 111 23
-0.29577082 2.5350242 0.29069343 116 23
-0.28218511 2.5545921 0.29249057 70 23
-0.26453629 2.5374732 0.29059359 109 23
-0.24896166 2.5390487 0.29059359 178 23
-0.23346913 2.5415192 0.29069343 178 23
-0.21804105 2.5448866 0.29089311 205 23
-0.2021046 2.5422091 0.29049376 174 23
-0.18613599 2.53844 0.28999454 141 23
-0.17062405 2.5405269 0.29009438 165 23
-0.15442209 2.5315948 0.28909597 139 23
-0.13921526 2.5384555 0.28969502 65 23
-0.12353928 2.5372744 0.28949535 84 23
-0.10946462 2.5727775 0.29298976 53 23
-0.093712933 2.5743952 0.2930896 58 23
-0 0 0 66 23
-0 0 0 118 23
-0 0 0 151 23
-0 0 0 122 23
-0 0 0 161 23
0.0011079456 2.5283399 0.28829727 84 23
0.016548524 2.5163457 0.28709915 83 23
0 0 0 189 23
0 0 0 237 23
0 0 0 240 23
0 0 0 289 23
0 0 0 274 23
0 0 0 228 23
0.12384874 2.4984071 0.28560156 182 23
0.14038411 2.5194571 0.28779805 56 23
0.15401077 2.4887543 0.28480282 144 23
0.17323662 2.546334 0.29069343 55 23
0.19580902 2.6394925 0.30017829 23 23
0.20843415 2.5936084 0.29568547 57 23
0.23031859 2.6616743 0.30267432 60 23
0.2476517 2.6711097 0.30377257 48 23
0.3001138 3.0359192 0.34071365 42 23
0.26580691 2.5283363 0.28969502 29 23
0.26848647 2.4109514 0.27801365 175 23
0.28339043 2.4102468 0.27811348 276 23
0.29768699 2.4045124 0.27771413 214 23
0.3098785 2.3829055 0.27571732 104 23
0.32730553 2.4016643 0.27781397 26 23
0.33797762 2.3710425 0.27491859 315 23
0.35354152 2.3758137 0.27561748 143 23
0.36826462 2.374583 0.27571732 121 23
0.38282785 2.3722787 0.27571732 106 23
0.39770481 2.3718479 0.27591699 90 23
0.41242078 2.3703432 0.27601683 62 23
0.42678106 2.3667889 0.27591699 106 23
0.44202378 2.3680384 0.27631637 121 23
0.45654547 2.3652816 0.27631637 117 23
0.47085589 2.3614597 0.27621654 96 23
0.48693731 2.3663237 0.27701524 52 23
0.50309604 2.3710787 0.27781397 27 23
0.51233464 2.3436434 0.27531797 10 23
0.53477079 2.3763764 0.27901205 48 23
0.55046159 2.3778977 0.27951127 36 23
0.56711066 2.3831882 0.28040984 36 23
0.58125132 2.3777304 0.28021017 15 23
0 0 0 7 23
0 0 0 118 23
0 0 0 151 23
0 0 0 20 23
0.67355078 2.4297452 0.28759837 8 23
0 0 0 7 23
0.89535207 3.0835536 0.35678801 73 23
0.92302752 3.1075733 0.35988307 182 23
0 0 0 204 23
0 0 0 217 23
0 0 0 234 23
0 0 0 169 23
0 0 0 178 23
0 0 0 179 23
1.057552 3.0707195 0.36048213 209 23
1.0790091 3.0716836 0.36128083 173 23
0 0 0 197 23
0 0 0 197 23
0 0 0 213 23
0 0 0 195 23
0 0 0 209 23
0 0 0 194 23
1.2276399 3.0668659 0.36607319 175 23
1.2456845 3.0574324 0.36587352 202 23
0 0 0 197 23
0 0 0 182 23
0 0 0 163 23
0 0 0 193 23
0 0 0 184 23
0 0 0 184 23
1.3944613 3.0418336 0.37036633 177 23
1.4160385 3.0395346 0.37106523 161 23
1.4380653 3.0379846 0.37186396 185 23
1.4592644 3.0344849 0.37246299 171 23
1.4817837 3.0335217 0.37336156 144 23
1.5039043 3.0315044 0.37416029 155 23
1.5242664 3.0257747 0.37455967 164 23
1.5446146 3.0199089 0.37495902 181 23
1.5654064 3.0147905 0.37545821 169 23
1.588048 3.0130522 0.37635678 199 23
1.6107271 3.0111492 0.37725535 181 23
1.6329681 3.0082061 0.37805408 157 23
1.6547536 3.0042319 0.37875298 153 23
1.6746113 2.996628 0.37905249 152 23
1.6959093 2.9914911 0.37965155 187 23
1.7201815 2.9913814 0.38084963 169 23
1.7460189 2.9936652 0.38234723 170 23
1.7709363 2.9940312 0.38364518 180 23
1.7964351 2.9950569 0.38504294 187 23
1.8178791 2.9890795 0.38564199 181 23
1.8408831 2.9854929 0.38654053 178 23
1.8681284 2.9884875 0.38823783 182 23
1.8917533 2.9853752 0.38923624 181 23
1.9170226 2.984597 0.39053416 173 23
1.9423531 2.9836209 0.39183211 187 23
1.9688392 2.9841073 0.39332971 158 23
1.9909816 2.9777617 0.3940286 160 23
2.0125625 2.9704328 0.39462766 156 23
2.0363796 2.9662328 0.39562607 139 23
2.0590851 2.960218 0.39642477 153 23
2.0812201 2.9532225 0.39712366 132 23
2.1062365 2.9501166 0.39832175 152 23
2.1359553 2.9532659 0.40031856 165 23
2.1646163 2.9545553 0.4021157 161 23
2.1915951 2.9532058 0.40361333 145 23
2.2186382 2.9516363 0.40511093 168 23
2.2391171 2.9411349 0.40551028 163 23
2.2820215 2.9596553 0.40960374 310 23
2.279938 2.9197114 0.40630901 155 23
2.2793019 2.8822474 0.40331379 100 23
2.2534237 2.8138282 0.39632493 51 23
2.2756584 2.8061326 0.39712366 87 23
2.2827344 2.77981 0.3955262 44 23
2.2997479 2.7657511 0.3955262 24 23
2.445435 2.9046211 0.41559419 108 23
2.4851503 2.9153135 0.41898879 130 23
2.5146897 2.9135718 0.42078593 134 23
2.5416827 2.9085793 0.42218369 126 23
2.5700269 2.9048557 0.42378116 120 23
2.5990846 2.9016345 0.42547843 141 23
2.6281989 2.8981657 0.42717573 146 23
2.6573682 2.8944483 0.42887303 156 23
2.6859131 2.8897526 0.43047047 191 23
2.7138183 2.8840904 0.43196809 175 23
2.7383244 2.8745909 0.4329665 151 23
2.9734149 3.0834072 0.46441633 13 23
2.9985323 3.0715141 0.46531489 78 23
3.0215175 3.0573049 0.46591395 83 23
3.0528841 3.0513723 0.46771106 72 23
3.0864146 3.0472672 0.46980771 65 23
3.1200089 3.0428648 0.4719044 76 23
3.1558144 3.040236 0.47430056 93 23
3.1953073 3.0407124 0.47719595 77 23
3.2291255 3.0353642 0.4792926 65 23
3.2644558 3.0310695 0.48158893 75 23
3.2998545 3.0264549 0.48388529 96 23
3.3367932 3.022856 0.48638129 85 23
3.3812246 3.0255537 0.4898757 81 23
3.4168692 3.0199099 0.49217206 73 23
3.447325 3.0093601 0.4937695 72 23
3.4800401 3.0004995 0.49566647 69 23
3.519592 2.9971581 0.49846202 83 23
3.5531425 2.9883184 0.50045884 75 23
3.578299 2.9721842 0.50135738 49 23
0 0 0 4 23
0 0 0 3 23
0 0 0 3 23
0 0 0 3 23
3.5877781 2.7985799 0.49117365 19 23
3.5938485 2.7680101 0.48977587 7 23
3.6598594 2.7832618 0.49596602 131 23
3.6951654 2.7744985 0.49826235 154 23
3.738493 2.7713337 0.50155711 150 23
3.7891448 2.7730312 0.50575042 219 23
3.8254421 2.7637186 0.50814658 188 23
3.8739161 2.7627332 0.51204038 160 23
3.9143863 2.755527 0.51493573 152 23
3.9598145 2.7513349 0.51843017 144 23
4.0028768 2.7449996 0.5216251 161 23
4.0493045 2.7404704 0.52521932 140 23
4.0983081 2.7371325 0.52911311 153 23
4.1532373 2.7371297 0.53370583 144 23
4.1974764 2.7295008 0.53700054 120 23
4.2434521 2.7225063 0.54049498 139 23
4.2886586 2.7145174 0.54388958 150 23
4.360085 2.7224178 0.55037922 194 23
4.4122853 2.7175372 0.55457252 189 23
4.4671392 2.7136679 0.55906534 204 23
4.5186968 2.7071805 0.56315881 177 23
4.5549231 2.6910484 0.56545514 167 23
4.6014371 2.6805856 0.56894958 226 23
4.6600709 2.6765933 0.57384181 441 23
4.6487031 2.6322548 0.57064688 265 23
4.6586857 2.6002855 0.56994802 219 23
4.652761 2.5596566 0.56745195 188 23
4.6543851 2.5234685 0.56585455 217 23
4.6522312 2.485481 0.56385773 205 23
4.6559496 2.450861 0.56255978 244 23
4.6638346 2.4185805 0.56176108 277 23
4.6617532 2.3813145 0.5598641 240 23
4.6611681 2.3450601 0.5581668 250 23
4.6719031 2.3146479 0.55776745 194 23
4.7459273 2.3151798 0.56445676 262 23
4.7708058 2.291187 0.56565487 310 23
4.7883725 2.2635727 0.56605422 286 23
4.7877383 2.2274306 0.56445676 197 23
4.7759862 2.1864092 0.56166124 394 23
4.7956619 2.159925 0.56236011 295 23
4.7542467 2.1062644 0.55636966 216 23
4.7561359 2.0722816 0.55517155 223 23
4.785223 2.0501163 0.55696869 402 23
4.7949615 2.0195568 0.55666918 415 23
4.7934742 1.9843855 0.55517155 396 23
4.7908144 1.9489337 0.55357409 457 23
4.788825 1.9139589 0.55207652 458 23
4.7838087 1.8779906 0.55027938 401 23
4.7822452 1.8435887 0.54888159 404 23
4.7906756 1.8131535 0.54858208 442 23
4.7942495 1.7809508 0.54778337 386 23
4.7957397 1.7480906 0.54678494 363 23
4.8007545 1.7166202 0.54618591 399 23
4.7820921 1.6769173 0.54309082 242 23
4.8045225 1.6517516 0.54438877 404 23
4.8041959 1.6187433 0.5432905 361 23
4.8112035 1.5882984 0.54299098 392 23
4.7990851 1.5517019 0.54069465 251 23
4.7629862 1.5078013 0.53590232 93 23
4.7797508 1.4809053 0.53670102 97 23
4.833499 1.4651256 0.54139352 104 23
4.9139409 1.4566658 0.54888159 106 23
5.0259938 1.456419 0.55966443 93 23
14.090014 3.991591 1.504058 298 23
14.086431 3.8973644 1.5011626 261 23
14.087986 3.8048894 1.4988663 344 23
14.141856 3.7264912 1.5020612 191 23
14.205894 3.6502995 1.5063543 291 23
14.200033 3.5560534 1.503459 236 23
14.198386 3.463196 1.5010628 250 23
14.189359 3.3688836 1.4979677 242 23
14.175831 3.2739165 1.4944733 208 23
14.162644 3.1794608 1.4910787 277 23
14.161471 3.088047 1.4889821 262 23
14.151924 2.9951189 1.4860867 336 23
14.114479 2.896821 1.4803958 159 23
14.121253 2.8080263 1.4792975 332 23
14.096204 2.7132368 1.4750043 140 23
14.074437 2.6195893 1.4711106 301 23
14.064784 2.5286012 1.4685147 202 23
14.062388 2.4391913 1.4667176 235 23
14.058444 2.3497422 1.4648206 306 23
14.028391 2.2563231 1.4603277 178 23
14.027222 2.1679232 1.4588301 357 23
14.00778 2.0769944 1.4555354 207 23
14.023215 1.991425 1.455835 357 23
13.991789 1.8994498 1.4514419 244 23
13.985419 1.8112602 1.4496448 340 23
13.987382 1.7243168 1.4487462 313 23
13.977934 1.6361443 1.4467494 317 23
13.962986 1.5476041 1.4442534 355 23
13.947479 1.4593091 1.4417574 336 23
13.942308 1.3723359 1.4403596 342 23
13.921733 1.284109 1.4374642 343 23
13.910515 1.1970402 1.4355673 337 23
13.90272 1.1104748 1.4340696 308 23
13.890419 1.0237572 1.4321727 272 23
12.782589 0.8631897 1.3201513 246 23
12.789631 0.78486305 1.320351 255 23
12.834939 0.70862514 1.3244445 444 23
12.83507 0.62966275 1.3240452 629 23
12.856586 0.55166578 1.3258423 297 23
12.846802 0.47229248 1.3245443 266 23
12.852442 0.39354873 1.3248439 279 23
12.861577 0.31485131 1.3255428 285 23
12.869236 0.23603825 1.3261418 286 23
12.869447 0.15705742 1.3260419 291 23
12.871163 0.078095153 1.3261418 300 23
12.870405 -0.00088231673 1.3260419 279 23
12.867173 -0.07983537 1.3257425 321 23
12.877385 -0.15891944 1.3268406 306 23
12.884126 -0.23807694 1.3276395 306 23
12.888391 -0.31727433 1.3282385 318 23
12.89018 -0.39647207 1.3286378 285 23
17.420654 -0.64242405 1.7838118 256 23
18.638117 -0.80178386 1.9065161 186 23
18.682537 -0.91857016 1.9115081 392 23
18.680523 -1.0334064 1.9119074 385 23
18.691708 -1.1491063 1.9137046 276 23
18.689268 -1.2641102 1.9142038 395 23
18.682152 -1.3788348 1.9143037 336 23
18.671356 -1.4932818 1.914104 292 23
18.715374 -1.6124278 1.9194953 468 23
18.684322 -1.7253128 1.9173987 322 23
13.125213 -1.2936003 1.357991 109 23
12.911192 -1.3525661 1.3372241 274 23
12.911551 -1.432749 1.3381227 287 23
12.919316 -1.513913 1.33982 302 23
13.155678 -1.6234787 1.3646803 99 23
13.270786 -1.7204047 1.3773601 103 23
13.273784 -1.8036748 1.3787578 75 23
13.260497 -1.8848073 1.3785582 120 23
13.263446 -1.9683264 1.3800558 121 23
13.273735 -2.0531685 1.3823521 109 23
13.285446 -2.1385272 1.3848481 105 23
13.298572 -2.2244346 1.3875439 109 23
13.315063 -2.311264 1.3906389 107 23
13.322176 -2.3967943 1.3928354 112 23
13.161468 -2.451359 1.3779591 80 23
12.933179 -2.4910638 1.3561939 165 23
12.038375 -2.3954945 1.2662374 387 23
12.014677 -2.4675148 1.2653388 323 23
12.046036 -2.5510795 1.2701311 191 23
16.505939 -3.6011045 1.729798 113 23
16.100054 -3.6162112 1.6903609 117 23
15.695588 -3.6266994 1.6510236 170 23
15.320658 -3.6392603 1.6146816 193 23
14.95391 -3.6492462 1.5791383 180 23
14.565431 -3.6493115 1.5412986 186 23
14.279677 -3.6710029 1.5140421 267 23
13.938412 -3.6746202 1.4809948 208 23
13.34502 -3.6059501 1.4216894 111 23
13.014815 -3.6025856 1.3896406 162 23
12.997252 -3.6837313 1.3901397 223 23
12.987782 -3.7672911 1.3915375 281 23
5.1394215 -1.5257443 0.57254386 148 23
5.0661683 -1.5379 0.56585455 176 23
4.9701524 -1.5421433 0.55676901 197 23
4.9065289 -1.5554835 0.55107808 102 23
4.8987856 -1.5861726 0.55127776 84 23
4.8861265 -1.6152649 0.55097824 130 23
4.9213805 -1.6604736 0.55577064 587 23
4.8621731 -1.6738088 0.55057889 293 23
4.7654338 -1.6733034 0.54139352 248 23
4.6904345 -1.6793842 0.53450453 266 23
4.5987167 -1.6784718 0.52581841 278 23
4.549159 -1.6920978 0.5216251 258 23
4.5061231 -1.707646 0.51813066 458 23
4.4955602 -1.7352629 0.51813066 410 23
4.5144644 -1.774455 0.52132553 480 23
4.5016437 -1.8013829 0.52112585 347 23
4.5052514 -1.8349723 0.52272332 364 23
0.98137039 -0.40773076 0.14123183 171 23
4.5080676 -1.9009392 0.52551889 394 23
4.4990625 -1.9297404 0.52581841 113 23
4.5263577 -1.974407 0.53011155 570 23
4.5205255 -2.0049653 0.53081042 596 23
4.5190239 -2.0375702 0.53200853 641 23
4.5191016 -2.0710607 0.53340626 621 23
4.5198398 -2.1050484 0.53490388 628 23
4.4852509 -2.1225326 0.53250772 98 23
4.5241604 -2.1750064 0.53829849 48 23
4.5143061 -2.2044706 0.53869784 56 23
4.5256567 -2.2445014 0.54149336 49 23
4.5242424 -2.2784908 0.54289114 37 23
4.5287828 -2.3157167 0.5449878 53 23
4.5233212 -2.3480434 0.54598624 46 23
4.5202737 -2.3817809 0.54728413 48 23
4.5152268 -2.4146311 0.5483824 53 23
4.5099468 -2.4475091 0.54948062 47 23
4.5131502 -2.4852104 0.55157733 47 23
4.5169287 -2.5235279 0.55377382 41 23
4.5204058 -2.5619848 0.55597031 28 23
4.5184045 -2.5976048 0.55756772 27 23
4.5204339 -2.6358013 0.55966443 21 23
4.5195942 -2.6726015 0.56146151 23 23
4.5235929 -2.7125592 0.56385773 19 23
4.5281215 -2.7531829 0.56635374 22 23
4.5365562 -2.7965736 0.56934893 19 23
4.5404091 -2.8375351 0.571845 14 23
4.54561 -2.8797135 0.57454067 29 23
4.539578 -2.9150751 0.57593846 20 23
4.5357847 -2.9520984 0.57763571 20 23
4.5325384 -2.9897323 0.57943285 21 23
4.5347915 -3.0313065 0.58192891 11 23
