# .PCD v0.7 - Point Cloud Data file format
VERSION 0.7
FIELDS x y z intensity ring
SIZE 4 4 4 4 1
TYPE F F F F U
COUNT 1 1 1 1 1
WIDTH 232
HEIGHT 1
VIEWPOINT 0 0 0 1 0 0 0
POINTS 232
DATA ascii
5.4097738 -1.0062175 -1.2487063 5 50
5.4065681 -1.0744264 -1.2509865 8 50
5.3873134 -0.96896821 -1.3084736 9 51
5.3869944 -1.0030712 -1.3099089 9 51
5.4037628 -1.1094712 -1.3189988 8 51
5.2552156 -0.94413453 -1.3425666 33 52
4.8431334 -0.93243617 -0.87056082 10 46
4.8324986 -0.96117592 -0.86965394 8 46
4.7908673 -0.98348969 -0.86294299 65 46
4.7395248 -1.0032916 -0.85441822 210 46
4.7275147 -1.0310961 -0.85332996 210 46
4.7585196 -1.0684899 -0.86040372 68 46
4.8146338 -0.9280917 -0.92536849 238 47
4.7886395 -0.95359689 -0.92131472 238 47
4.7702031 -0.98039651 -0.9188053 176 47
4.9685531 -0.92524856 -0.45604494 109 39
4.919261 -0.91583204 -0.51361752 132 40
4.9164767 -0.94656283 -0.51394618 119 40
4.9297738 -0.91803628 -0.57670522 4 41
4.8850603 -0.94076866 -0.57183737 83 41
4.8704338 -0.96898407 -0.57074213 158 41
4.888144 -0.91003644 -0.63218087 209 42
4.8707905 -0.93776315 -0.63057721 211 42
4.8493929 -0.96453762 -0.62843895 201 42
4.8433833 -0.9942748 -0.62843895 151 42
4.879868 -0.93888968 -0.69442153 199 43
4.862371 -0.96650261 -0.69267058 17 43
4.8359971 -0.99214888 -0.68960649 43 43
4.7959409 -1.0146446 -0.68449962 182 43
4.8514051 -0.9340294 -0.750866 148 44
4.8126545 -0.95722741 -0.74550033 16 44
4.7902465 -0.98336226 -0.74281746 29 44
4.7744622 -1.0106903 -0.74123937 167 44
4.7527347 -1.0365988 -0.73871434 183 44
4.8319659 -0.93142843 -0.80756146 130 45
4.8387256 -0.96355844 -0.80976522 48 45
4.7728672 -0.98094344 -0.79925489 184 45
4.746511 -1.0059248 -0.79569495 194 45
4.7190661 -1.0304098 -0.79196548 195 45
4.7020774 -1.0569711 -0.79010075 182 45
5.0139384 -0.7762835 -0.83383727 8 45
4.9361043 -0.79529351 -0.82112318 45 45
4.9554324 -0.82962853 -0.82536119 12 45
4.9347124 -0.85732341 -0.82264888 11 45
4.8905606 -0.88060927 -0.81586802 54 45
5.0012717 -0.7418099 -0.89341438 122 46
4.9713573 -0.76857466 -0.88869858 255 46
4.9529552 -0.79687589 -0.8861593 239 46
4.9373031 -0.82546699 -0.88416415 182 46
4.9011397 -0.85036409 -0.87836003 32 46
4.8813114 -0.87780893 -0.87563938 197 46
4.8690662 -0.90648311 -0.87436974 176 46
4.9783769 -0.77078611 -0.95181441 27 47
4.9377108 -0.79555196 -0.94467205 117 47
4.9308009 -0.82551062 -0.94428599 11 47
4.9072747 -0.85256308 -0.94061834 41 47
4.8594599 -0.87501675 -0.93212473 206 47
4.8443532 -0.90302157 -0.93019438 228 47
5.0096726 -0.71255845 -1.0176278 243 48
4.9567943 -0.73609072 -1.007403 251 48
4.930903 -0.76319557 -1.0029041 255 48
4.918396 -0.79219079 -1.0012681 243 48
4.9192352 -0.82332456 -1.0024952 18 48
4.8822651 -0.84796274 -0.99574673 97 48
4.8345819 -0.87027001 -0.98674893 193 48
4.8281884 -0.89973867 -0.98654443 186 48
4.9808235 -0.73724329 -1.076578 37 49
4.9337497 -0.76125062 -1.0670547 201 49
4.9106703 -0.78857243 -1.0629424 202 49
4.8884048 -0.81580025 -1.0590464 169 49
4.8659911 -0.84278464 -1.0551505 116 49
4.9904838 -0.67684478 -1.1394891 111 50
4.9872007 -0.70758992 -1.139717 150 50
4.946166 -0.73275262 -1.1310526 254 50
4.9281054 -0.76100659 -1.1278604 239 50
4.9965224 -0.83560425 -0.45721176 7 39
4.9814944 -0.86454701 -0.4562394 135 39
4.9584637 -0.89192909 -0.45448917 199 39
4.971261 -0.86253607 -0.51821905 248 40
4.9619622 -0.8923189 -0.51778084 229 40
4.9851189 -0.80228907 -0.58096457 10 41
4.9879341 -0.83417004 -0.58193815 26 41
4.9778318 -0.86391222 -0.58132964 122 41
4.9362912 -0.88794601 -0.57682693 3 41
5.0048919 -0.80523598 -0.64527762 74 42
4.9685783 -0.83069837 -0.64100111 254 42
4.9409299 -0.85727102 -0.63792741 224 42
4.9082665 -0.88265842 -0.63418549 176 42
4.9952049 -0.77160782 -0.7069698 14 43
4.9825621 -0.80098891 -0.7058025 10 43
4.9453516 -0.82617432 -0.70098746 87 43
4.9479876 -0.85785306 -0.70215476 8 43
4.9251032 -0.88505167 -0.6995284 10 43
4.8612208 -0.90441167 -0.69077373 61 43
5.0035043 -0.77354711 -0.77043486 64 44
4.9898891 -0.8028211 -0.76901448 269 44
4.9663644 -0.83032805 -0.76601607 259 44
4.9173946 -0.85318571 -0.75891447 175 44
4.8897142 -0.87932068 -0.75528473 150 44
4.8725777 -0.90713716 -0.75339097 174 44
4.8492165 -0.90392691 -0.8095957 237 45
4.9957385 -0.86768031 -0.39627442 161 38
4.9893398 -0.89814067 -0.39618918 116 38
5.3175788 -1.0247785 -1.0918599 45 48
5.3765078 -0.99918485 -1.1726773 8 49
5.3702755 -1.0321556 -1.1726773 13 49
5.371314 -1.0342937 -0.49668938 32 39
5.1753716 -0.54286849 -0.85621411 60 45
5.1836977 -0.57591701 -0.85824841 248 45
5.1555953 -0.60484737 -0.85401034 240 45
5.1322246 -0.63405776 -0.85061991 215 45
5.1311698 -0.66591644 -0.85112846 13 45
5.0771823 -0.69062495 -0.84248286 148 45
5.0465045 -0.71802276 -0.83790582 206 45
5.047853 -0.74984151 -0.83892292 6 45
5.1610475 -0.57230002 -0.91862583 79 46
5.1535316 -0.603499 -0.91790032 219 46
5.1038589 -0.62944824 -0.90937561 16 46
5.1028266 -0.66113234 -0.90991974 15 46
5.064568 -0.68779582 -0.90357155 275 46
5.0534368 -0.71788979 -0.90230191 270 46
5.1164203 -0.60026032 -0.97420651 70 47
5.0882955 -0.62864059 -0.96938062 38 47
5.0794768 -0.65921962 -0.96841544 20 47
5.0549188 -0.68760175 -0.96436173 172 47
5.0476904 -0.71819121 -0.96378261 8 47
5.0831428 -0.62778968 -1.030511 91 48
5.053956 -0.65569103 -1.0251942 225 48
5.0401387 -0.68536943 -1.0231493 234 48
5.0245347 -0.64943528 -1.0835041 86 49
5.0310974 -0.68169248 -1.0858849 10 49
5.022953 -0.71200269 -1.0850192 10 49
5.3233132 -0.55819899 -0.42039818 299 38
5.2930512 -0.58788013 -0.41809663 285 38
5.2725215 -0.61837232 -0.41664749 218 38
5.3208199 -0.52417159 -0.48463216 113 39
5.3194828 -0.55701655 -0.48482665 27 39
5.2754068 -0.58515608 -0.48084 305 39
5.2618322 -0.61635858 -0.47986764 280 39
5.2075734 -0.64242953 -0.47490862 130 39
5.1956372 -0.67334896 -0.47413075 304 39
5.1815453 -0.70387858 -0.47315839 275 39
5.1002679 -0.72475445 -0.46557403 147 39
5.0711122 -0.75238943 -0.46314311 227 39
5.0654163 -0.78333914 -0.4630459 257 39
5.0497055 -0.81266814 -0.46197629 89 39
5.3081079 -0.52276295 -0.54999173 40 40
5.3018346 -0.5550124 -0.54966301 63 40
5.2548609 -0.58270997 -0.54484236 231 40
5.2186084 -0.61112463 -0.5412268 6 40
5.1940436 -0.64057744 -0.53892606 6 40
5.1634007 -0.66898513 -0.53596789 59 40
5.1562438 -0.70025307 -0.53563923 15 40
5.1085501 -0.72572345 -0.53081858 6 40
5.0686054 -0.75180244 -0.52687436 114 40
5.0521092 -0.78106534 -0.5255596 310 40
5.0246511 -0.8084166 -0.52303976 14 40
5.0235171 -0.83988798 -0.52347797 111 40
5.343996 -0.52644968 -0.6202724 17 41
5.2715616 -0.55200917 -0.6117537 260 41
5.2542639 -0.58281553 -0.61004996 288 41
5.2269282 -0.61227787 -0.60712922 151 41
5.1816978 -0.63924325 -0.602018 239 41
5.1589751 -0.66860586 -0.59970576 276 41
5.1370711 -0.69784719 -0.59751523 170 41
5.1356406 -0.72977275 -0.59788036 69 41
5.0574274 -0.75036222 -0.5887531 219 41
5.0262427 -0.77729023 -0.58546734 137 41
5.2628121 -0.51829875 -0.67481208 41 42
5.2684035 -0.55151027 -0.67601484 295 42
5.2570405 -0.58295184 -0.67494577 18 42
5.2248201 -0.61185259 -0.67107016 12 42
5.1698222 -0.63758838 -0.66412085 37 42
5.1235518 -0.66381919 -0.65837437 48 42
5.1115265 -0.69417667 -0.65730524 14 42
5.0914721 -0.72329599 -0.65516698 74 42
5.0849776 -0.75423211 -0.65489972 281 42
5.0303054 -0.77769274 -0.64808404 136 42
5.2704144 -0.51829112 -0.74257195 313 43
5.2523756 -0.54908037 -0.74038327 283 43
5.221375 -0.57825506 -0.73629779 244 43
5.1833367 -0.60626709 -0.73119092 232 43
5.1608629 -0.63576603 -0.72841865 237 43
5.1342983 -0.66450506 -0.72506267 215 43
5.0703235 -0.68789661 -0.71616215 22 43
5.062089 -0.71843946 -0.7155785 204 43
5.0350766 -0.74615598 -0.71222258 176 43
5.1840134 -0.51053256 -0.79379123 38 44
5.2347984 -0.5479899 -0.80247092 74 44
5.1695065 -0.57323867 -0.79252869 9 44
5.1707959 -0.60552198 -0.79331779 21 44
5.1611028 -0.63651234 -0.79237092 146 44
5.1590586 -0.66842222 -0.79268652 6 44
5.1509461 -0.69953316 -0.79205525 37 44
5.0595469 -0.71875823 -0.77800989 257 44
5.039413 -0.7474702 -0.77548486 228 44
5.1316876 -0.76227534 -0.21226005 241 35
5.1111197 -0.79130685 -0.2114924 230 35
5.2384176 -0.67963707 -0.28316644 183 36
5.2044773 -0.70772946 -0.28135067 305 36
5.1733551 -0.73585302 -0.27971646 97 36
5.152945 -0.76523513 -0.27874804 12 36
5.1392751 -0.7954638 -0.27820331 16 36
5.0692577 -0.8165018 -0.27420861 208 36
5.0917172 -0.85220653 -0.27590331 73 36
5.2648239 -0.6176371 -0.34915617 235 37
5.247077 -0.6482209 -0.34813812 285 37
5.21135 -0.6763038 -0.34581122 161 37
5.1675706 -0.70289922 -0.3429026 272 37
5.155261 -0.73347145 -0.34232086 249 37
5.126986 -0.76157808 -0.34057567 142 37
5.0818052 -0.78677511 -0.33759433 253 37
5.0660505 -0.81619906 -0.33679444 246 37
5.0520935 -0.8457883 -0.33614001 238 37
5.0586009 -0.87881732 -0.33701259 101 37
5.1855659 -0.64044726 -0.40948707 10 38
5.1726456 -0.67109883 -0.4087199 11 38
5.1447363 -0.69960111 -0.40667406 60 38
5.1314688 -0.72989202 -0.40590689 21 38
5.107183 -0.75843573 -0.40420201 21 38
5.089633 -0.78777629 -0.40309384 200 38
5.0699487 -0.81661314 -0.40181521 186 38
5.0668077 -0.84803545 -0.4019857 13 38
5.3992386 -0.46505681 -0.49173036 136 39
5.3705158 -0.49580392 -0.48920223 336 39
5.4099674 -0.43242064 -0.5602904 283 40
5.3893867 -0.46407121 -0.55831832 298 40
5.3715911 -0.49575981 -0.5566749 344 40
5.3678546 -0.46236038 -0.62246293 322 41
5.3421836 -0.49319446 -0.61966395 187 41
5.3181953 -0.49082789 -0.68189502 136 42
6.1862283 -1.3492669 -0.73819596 31 41
