# .PCD v0.7 - Point Cloud Data file format
VERSION 0.7
FIELDS x y z intensity ring
SIZE 4 4 4 4 1
TYPE F F F F U
COUNT 1 1 1 1 1
WIDTH 262
HEIGHT 1
VIEWPOINT 0 0 0 1 0 0 0
POINTS 262
DATA ascii
5.5605445 0.069234431 -1.2623869 16 50
5.6417975 0.20774233 -1.350814 5 51
5.6461678 0.069235221 -1.3510532 12 51
5.5192919 0.033784248 -1.3197165 50 51
5.6903172 0.070841216 -1.4335772 7 52
5.6295476 0.070007935 -1.4870657 11 53
5.5121307 0.034698237 -1.4551197 9 53
5.1381326 -0.12718537 -0.84519523 12 45
5.1283903 -0.15843809 -0.84366953 18 45
5.1223969 -0.18972105 -0.84282196 32 45
5.1427979 -0.22207841 -0.84655142 138 45
5.1177144 -0.25246978 -0.84248286 14 45
5.117053 -0.28392112 -0.84265244 24 45
5.1161985 -0.31537384 -0.84282196 20 45
5.1122003 -0.34662738 -0.84248286 337 45
5.1099772 -0.37798876 -0.84248286 349 45
5.1085443 -0.40941438 -0.84265244 355 45
5.113791 -0.44142836 -0.84400856 227 45
5.1350808 -0.12600639 -0.90828735 83 46
5.1519041 -0.15805644 -0.91155213 359 46
5.1410098 -0.18930234 -0.90973836 403 46
5.132874 -0.22054738 -0.90846872 366 46
5.1216016 -0.25155479 -0.90665495 326 46
5.106215 -0.28221479 -0.90411568 257 46
5.114203 -0.31414428 -0.90592945 368 46
5.1180658 -0.34591687 -0.90701771 278 46
5.1332583 -0.12706582 -0.97092491 23 47
5.1323819 -0.15856051 -0.97092491 23 47
5.1195464 -0.1896161 -0.9686085 215 47
5.1173062 -0.22098337 -0.96841544 323 47
5.1168337 -0.25242653 -0.9686085 262 47
5.111393 -0.12631324 -1.0286707 392 48
5.103673 -0.15746196 -1.0272391 387 48
5.0830469 -0.18804926 -1.0231493 104 48
5.2632127 -0.13007666 -0.41289681 168 38
5.2355165 -0.12866232 -0.47393626 519 39
5.2346287 -0.16078442 -0.47393626 503 39
5.2245922 -0.19257253 -0.47306114 398 39
5.2367887 -0.12850985 -0.53947383 437 40
5.2130508 -0.15993699 -0.53695399 265 40
5.232831 -0.19269033 -0.53925472 27 40
5.2087097 -0.22381163 -0.53673482 173 40
5.1943321 -0.25513256 -0.53531057 108 40
5.2065039 -0.12795579 -0.60043597 453 41
5.1907392 -0.15944611 -0.59861052 136 41
5.238266 -0.19307348 -0.60457361 18 41
5.2002912 -0.22364154 -0.60007089 58 41
5.189899 -0.25510913 -0.5989756 368 41
5.1941819 -0.28727651 -0.59970576 302 41
5.2193112 -0.12807965 -0.66572458 385 42
5.1797953 -0.15891422 -0.66051257 67 42
5.1816936 -0.19080348 -0.66091353 81 42
5.1952772 -0.22323343 -0.66291809 339 42
5.1819315 -0.25452256 -0.66131443 335 42
5.1792827 -0.28625873 -0.66118079 342 42
5.1457758 -0.31608608 -0.65690428 246 42
5.1259418 -0.34644976 -0.65449876 72 42
5.2131629 -0.1272103 -0.73060727 269 43
5.1905298 -0.15853572 -0.72739726 20 43
5.1963797 -0.19063355 -0.72841865 16 43
5.1555762 -0.22082986 -0.72258222 210 43
5.1541243 -0.25245973 -0.72258222 74 43
5.1771731 -0.28543603 -0.72622997 17 43
5.1812491 -0.317559 -0.72710544 14 43
5.1377463 -0.34655762 -0.72097719 66 43
5.1256566 -0.37735158 -0.71951807 245 43
5.1660633 -0.12676901 -0.78716302 240 44
5.1730843 -0.15870783 -0.78842556 35 44
5.1720128 -0.19044629 -0.78842556 354 44
5.1549621 -0.22149815 -0.78590053 393 44
5.1466022 -0.25278461 -0.78479582 343 44
5.124249 -0.28321287 -0.78148174 261 44
5.1470547 -0.31616476 -0.78542709 342 44
5.1292548 -0.34667394 -0.78290206 375 44
5.1171832 -0.37741286 -0.78132397 396 44
5.1177239 -0.40904042 -0.78179741 359 44
5.1003604 -0.4391627 -0.77943021 61 44
5.2093611 0.25486892 -0.85824841 268 45
5.2167349 0.22315411 -0.85926551 392 45
5.2101269 0.19085026 -0.85790932 391 45
5.2121849 0.15890819 -0.8580789 417 45
5.1844902 0.12622181 -0.85316277 262 45
5.1920648 0.094535135 -0.85434937 418 45
5.1905761 0.06265121 -0.85401034 406 45
5.1839643 0.030758778 -0.85282367 396 45
5.1673012 -0.0010503724 -0.84994185 75 45
5.1662121 -0.032750294 -0.84977233 56 45
5.1639428 -0.064424813 -0.84943324 401 45
5.1693625 -0.09621767 -0.8504504 369 45
5.1888723 0.22305585 -0.91880721 96 46
5.1999707 0.19157466 -0.92062098 197 46
5.2207074 0.16026667 -0.92424852 25 46
5.2117615 0.12798929 -0.92243475 20 46
5.2085156 0.095935971 -0.92170924 49 46
5.1883559 0.063723236 -0.91790032 385 46
5.1837325 0.031857036 -0.91699344 59 46
5.1838303 4.9651946e-05 -0.91699344 18 46
5.1571813 -0.031593073 -0.91209626 194 46
5.152957 -0.063187823 -0.91137075 426 46
5.1475563 -0.094713755 -0.91046387 376 46
5.1667724 0.15751351 -0.97768116 260 47
5.151947 0.12542221 -0.97459263 224 47
5.167335 0.094079323 -0.97748816 376 47
5.159966 0.062274884 -0.97594386 394 47
5.1268911 0.030407334 -0.96938062 111 47
5.146605 -0.0010508238 -0.97324133 18 47
5.1357088 -0.032563791 -0.97111797 200 47
5.1393366 -0.06412337 -0.97189009 367 47
5.1349225 -0.095584385 -0.97111797 17 47
5.1623201 0.12588005 -1.0393044 253 48
5.1522298 0.094006665 -1.0370549 368 48
5.140964 0.062250078 -1.034601 283 48
5.1657205 0.030848829 -1.0397134 20 48
5.1335096 -0.00084026321 -1.0329651 111 48
5.1294923 -0.032313906 -1.032147 388 48
5.1223459 -0.06370154 -1.0307156 394 48
5.1159868 -0.09502095 -1.0294886 371 48
5.1630554 0.096696496 -1.1051481 88 49
5.1157169 0.064401619 -1.0945425 181 49
5.1579957 0.033291444 -1.1038494 15 49
5.1493163 0.0016371576 -1.1019015 24 49
5.1218934 -0.02980566 -1.0958412 317 49
5.1138043 -0.061140861 -1.0941097 393 49
5.1104045 -0.09246511 -1.0934603 246 49
5.1129904 0.032317255 -1.1575019 325 50
5.1033559 0.0009428648 -1.1552218 262 50
5.3251972 0.2607213 -0.4186081 589 38
5.3177381 0.22765872 -0.4178409 575 38
5.2961335 0.19418742 -0.41588032 64 38
5.2992172 0.16174795 -0.41605079 34 38
5.3060865 0.12937479 -0.41656226 357 38
5.3008032 0.096706212 -0.41605079 389 38
5.2923303 0.064071387 -0.41528362 34 38
5.2816639 0.031532433 -0.41434592 29 38
5.2698016 -0.00087297097 -0.41332301 40 38
5.2637191 -0.033169735 -0.41281155 217 38
5.3133025 0.26090431 -0.48200682 502 39
5.3008823 0.22769658 -0.48064551 410 39
5.2991962 0.1950562 -0.4803538 33 39
5.3092461 0.1628138 -0.48122892 311 39
5.2892513 0.12971678 -0.47918698 417 39
5.283977 0.097149022 -0.47860357 421 39
5.29144 0.064812183 -0.47928423 329 39
5.2728286 0.032223552 -0.47743675 414 39
5.2749176 -0.00013012896 -0.47763121 404 39
5.2758126 -0.032502323 -0.47772846 439 39
5.2347112 -0.06438075 -0.4737418 270 39
5.2541194 -0.096861601 -0.47568649 220 39
5.2975774 0.26029512 -0.54670489 513 40
5.2672963 0.22642122 -0.54319894 166 40
5.2725601 0.19424352 -0.54363716 29 40
5.25875 0.16143167 -0.54199374 104 40
5.2576542 0.12911288 -0.54177463 506 40
5.2543721 0.096777178 -0.54133642 23 40
5.2518849 0.064498737 -0.5410077 27 40
5.2511883 0.032266527 -0.54089814 29 40
5.2363777 4.6212739e-05 -0.53925472 255 40
5.2462187 -0.032145236 -0.54035032 20 40
5.2419472 -0.064285778 -0.5399121 20 40
5.247417 -0.096558712 -0.54056948 37 40
5.2850838 0.25951248 -0.61065841 469 41
5.2845936 0.22699331 -0.61041504 88 41
5.2888622 0.19467357 -0.61078012 141 41
5.2711077 0.16163586 -0.60846788 412 41
5.2680311 0.1291917 -0.60798115 441 41
5.2697167 0.096883692 -0.6081028 359 41
5.2632647 0.064460866 -0.60725093 313 41
5.2476807 0.032064307 -0.60530382 388 41
5.2448006 -0.00013604236 -0.60493869 382 41
5.2427158 -0.03230574 -0.60469532 295 41
5.2592916 -0.064677589 -0.60676414 55 41
5.2081833 -0.096024945 -0.60055763 431 41
5.2591343 0.25840905 -0.67173839 315 42
5.2576504 0.22600728 -0.67133749 28 42
5.2569575 0.19366987 -0.67107016 34 42
5.2481413 0.1611068 -0.66973376 432 42
5.2480402 0.12887752 -0.66960013 61 42
5.2427869 0.096564658 -0.66879827 19 42
5.235353 0.064296931 -0.6677292 25 42
5.2098827 0.032015782 -0.66425455 155 42
5.2228646 4.7097157e-05 -0.66599184 93 42
5.2178116 -0.03196907 -0.66532367 16 42
5.2056255 -0.06383764 -0.66371995 27 42
5.211081 -0.0958874 -0.66452181 379 42
5.2518716 0.25879043 -0.73702735 243 43
5.2513843 0.226475 -0.73673552 52 43
5.2417998 0.19384427 -0.73513049 454 43
5.236958 0.16149326 -0.73425502 459 43
5.2289491 0.12913504 -0.73294187 419 43
5.2335997 0.097122684 -0.73352551 317 43
5.215302 0.06477046 -0.73075318 391 43
5.2096653 0.032730129 -0.72987771 378 43
5.2097683 0.00076360401 -0.72987771 335 43
5.1997819 -0.031145914 -0.72841865 24 43
5.1905899 -0.062944628 -0.72710544 261 43
5.1940627 -0.094863683 -0.72768909 450 43
5.242559 0.28985149 -0.80041939 281 44
5.2462115 0.25777507 -0.800735 24 44
5.2388153 0.22519903 -0.79931468 18 44
5.2262836 0.19254209 -0.79710531 216 44
5.2253923 0.16041014 -0.79678965 125 44
5.2114706 0.12798218 -0.79442245 23 44
5.2101831 0.095966563 -0.79410684 23 44
5.2254848 0.06417647 -0.79647404 89 44
5.1872697 0.031878509 -0.79031932 237 44
5.2081046 4.8063201e-05 -0.7936334 26 44
5.2060318 -0.031896017 -0.79331779 13 44
5.1810532 -0.063534468 -0.78937244 261 44
5.1864896 -0.095433064 -0.79031932 370 44
5.2344308 -0.16150622 -0.41051 231 38
5.3274446 0.064333908 -0.21897699 530 35
5.3307352 0.031662568 -0.21912093 543 35
5.3218398 -0.0010470009 -0.21868913 399 35
5.3347368 0.16282947 -0.28649536 577 36
5.329648 0.12994754 -0.28613222 621 36
5.3263531 0.09717045 -0.2858901 655 36
5.3198624 0.06440267 -0.28546643 178 36
5.3311372 0.031824127 -0.28613222 27 36
5.3292356 -0.00088723411 -0.28601116 29 36
5.282217 -0.033287678 -0.28316644 109 36
5.2938905 -0.065847985 -0.28389275 393 36
5.3354368 0.26106539 -0.35213751 352 37
5.3359418 0.22827999 -0.35206479 545 37
5.3382387 0.19557171 -0.35213751 379 37
5.3024535 0.16168043 -0.34944701 34 37
5.3123193 0.12936263 -0.35010147 414 37
5.3100214 0.096709281 -0.34988332 490 37
5.3085203 0.064101256 -0.34973788 426 37
5.3018327 0.031484589 -0.34922889 269 37
5.2959418 -0.0010475658 -0.34879258 484 37
5.2908492 -0.033512346 -0.34842899 472 37
5.2895465 -0.065963537 -0.34835628 431 37
5.2870479 -0.098381668 -0.34821084 471 37
5.2544498 -0.065354489 -0.41204438 29 38
5.2449841 -0.09742675 -0.41127717 37 38
5.3682075 0.36197764 -0.42278498 310 38
5.3285584 0.32647607 -0.41920477 512 38
5.333446 0.29393876 -0.41946051 522 38
5.327601 0.42575353 -0.4844377 572 39
5.3301129 0.39305598 -0.4844377 532 39
5.3125648 0.35899723 -0.48249298 36 39
5.3355284 0.32767892 -0.48453492 20 39
5.3076262 0.29328069 -0.48161787 47 39
5.3448606 0.49336642 -0.55371678 62 40
5.327981 0.45885736 -0.55152553 427 40
5.3227696 0.42552373 -0.55064905 379 40
5.3203239 0.39249054 -0.55010128 450 40
5.3077559 0.35883367 -0.54845786 416 40
5.3455739 0.32845104 -0.55240202 69 40
5.294888 0.29274073 -0.54659534 430 40
5.3132229 0.42460138 -0.61540461 473 41
5.2830625 0.38957605 -0.61138862 121 41
5.2833729 0.35701817 -0.6111452 21 41
5.2854638 0.32459328 -0.6111452 30 41
5.2804189 0.29177132 -0.61029333 386 41
5.277894 0.38936353 -0.67534667 239 42
5.2534866 0.35516873 -0.67173839 78 42
5.2862315 0.32480916 -0.67588121 358 42
5.2752609 0.29165706 -0.67414391 499 42
5.2689199 0.3569594 -0.74038327 105 43
5.2719984 0.32468423 -0.74052918 445 43
5.2679648 0.29199994 -0.73965371 453 43
