# .PCD v0.7 - Point Cloud Data file format
VERSION 0.7
FIELDS x y z intensity ring
SIZE 4 4 4 4 1
TYPE F F F F U
COUNT 1 1 1 1 1
WIDTH 1268
HEIGHT 1
VIEWPOINT 0 0 0 1 0 0 0
POINTS 1268
DATA ascii
-5.9006553 -11.371912 -0.42631334 36 34
-5.9502945 -11.297472 -0.42476016 60 34
-5.9968872 -11.218446 -0.42302638 123 34
-6.0770464 -11.20252 -0.42389327 321 34
-6.0545855 -10.999558 -0.41706648 31 34
-6.1058831 -10.933409 -0.41587451 30 34
-6.0920625 -10.753142 -0.40995076 175 34
-6.1564336 -10.71296 -0.4098424 183 34
-0 -0 -0 58 34
-6.1613131 -10.423257 -0.40088454 55 34
-6.1624665 -10.280685 -0.39647785 156 34
-6.1787152 -10.165822 -0.39322698 44 34
-6.1607571 -9.9975519 -0.38770056 38 34
-6.1711516 -9.8781986 -0.384233 69 34
-6.1541147 -9.7177286 -0.37899554 21 34
-5.838953 -9.0961514 -0.35392794 51 34
-5.8723102 -9.0258102 -0.352447 54 34
-5.8808179 -8.9186945 -0.34937677 59 34
-5.8876786 -8.8109856 -0.34627041 62 34
-5.9136138 -8.7333202 -0.34446439 52 34
-5.9122434 -8.6169415 -0.34096068 68 34
-5.9399047 -8.5443993 -0.33937138 69 34
-5.9548135 -8.4546852 -0.33702356 143 34
-6.0129638 -8.4269361 -0.33742088 840 34
-6.0528479 -8.3736849 -0.33669847 260 34
-6.1365876 -8.3807335 -0.3386851 89 34
-6.2480268 -8.4239893 -0.34233326 806 34
-6.1915479 -8.2416782 -0.33583158 307 34
-6.1905622 -8.1359339 -0.33276135 322 34
-6.1641121 -7.9988523 -0.3282463 142 34
-6.0329161 -7.7300563 -0.31766301 41 34
-6.183104 -7.8230381 -0.323659 177 34
-6.1953921 -7.7404814 -0.32160014 420 34
-6.2622776 -7.726388 -0.32271987 405 34
-6.3526821 -7.7403455 -0.32517606 354 34
-6.4377432 -7.7465653 -0.32730716 374 34
-6.5063882 -7.732151 -0.32849914 340 34
-6.6502824 -7.8054218 -0.33388108 293 34
-6.7313428 -7.8030601 -0.33572322 252 34
-6.8238001 -7.8127909 -0.33817941 313 34
-6.9000773 -7.8029637 -0.33973259 357 34
-7.0058208 -7.8252525 -0.34287509 258 34
-7.1040416 -7.8376498 -0.34558412 326 34
-7.2148385 -7.8623881 -0.34894332 333 34
-7.314641 -7.8736124 -0.35168847 291 34
-7.3765087 -7.8431416 -0.35241088 238 34
-7.4830713 -7.8592496 -0.35548112 8 34
-7.5276861 -7.8095889 -0.35530052 11 34
-0 -0 -0 65 34
-0 -0 -0 290 34
-7.7196279 -7.7191677 -0.35782894 26 34
-7.9175816 -7.8205323 -0.36548647 112 34
-8.0319424 -7.8367062 -0.3688457 152 34
-8.1252098 -7.8309641 -0.37112129 160 34
-8.2035065 -7.8099012 -0.37263834 210 34
-8.3626623 -7.8641605 -0.37816477 35 34
-8.5623283 -7.9534826 -0.38564169 90 34
-8.6978617 -7.9805169 -0.3899039 101 34
-8.9636354 -8.1236219 -0.40048721 166 34
-9.3997669 -8.4143906 -0.41923371 113 34
-9.5769997 -8.467761 -0.42530197 487 34
-9.5949039 -8.3792591 -0.42367655 309 34
-9.607543 -8.2869406 -0.42183441 122 34
-9.6757069 -8.2427387 -0.42266518 62 34
-9.7215128 -8.1793537 -0.42244846 69 34
-9.7676744 -8.1163568 -0.42226785 168 34
-2.9539793 -2.4244478 -0.10137371 55 34
-2.9292023 -2.3741887 -0.099531561 115 34
-2.9569793 -2.3667855 -0.10014561 311 34
-2.924401 -2.3114214 -0.097978383 153 34
-2.947983 -2.3008113 -0.098411828 250 34
-2.9477956 -2.2717009 -0.097761661 151 34
-2.9529302 -2.2469151 -0.097364336 121 34
-2.9570727 -2.2215519 -0.096930891 119 34
-2.9537911 -2.1908653 -0.096172363 103 34
-2.9470193 -2.1579418 -0.095269352 149 34
-2.9626346 -2.1415749 -0.095377713 298 34
-2.9488723 -2.1042035 -0.094185732 141 34
-2.9560084 -2.0820422 -0.093932889 119 34
-2.9621632 -2.0593026 -0.093643926 126 34
-2.9681504 -2.0365658 -0.093354963 129 34
-2.9723151 -2.0127127 -0.092993759 131 34
-2.9796231 -1.9911063 -0.092777036 134 34
-3.0118089 -1.9859872 -0.093643926 85 34
-3.0406921 -1.9783679 -0.094366334 53 34
-3.0737998 -1.9731675 -0.095269352 81 34
-3.1204669 -1.9761882 -0.096750289 105 34
-3.1613524 -1.9750038 -0.097978383 348 34
-3.2006381 -1.9723431 -0.099134237 117 34
-3.2306144 -1.9635655 -0.099892765 203 34
-3.3086066 -1.9832616 -0.10267404 70 34
-3.3387804 -1.9736003 -0.10343257 79 34
-3.3672328 -1.9626366 -0.10411886 74 34
-3.5048563 -2.0141263 -0.10935633 34 34
-9.8083534 -5.5559626 -0.37068784 222 34
-9.8012495 -5.4727778 -0.36899018 87 34
-9.8040018 -5.3956723 -0.36772594 294 34
-9.7754316 -5.3020644 -0.36519751 152 34
-9.7778139 -5.2259684 -0.36396942 53 34
-9.7875891 -5.1542339 -0.36306641 263 34
-9.7933054 -5.0807362 -0.36201891 240 34
-9.8002682 -5.0082726 -0.36104366 225 34
-9.8245649 -4.9449 -0.36079082 124 34
-9.757122 -4.836153 -0.35685369 98 34
-9.7399101 -4.7534037 -0.35497543 75 34
-9.7418699 -4.6805687 -0.35389182 67 34
-9.7315578 -4.602335 -0.35233864 36 34
-9.7768288 -4.5505486 -0.35302493 49 34
-9.7882118 -4.4829836 -0.35237476 41 34
-9.7854671 -4.4092927 -0.35118279 31 34
-9.8178196 -4.3515968 -0.35139951 32 34
-9.8333426 -4.2864823 -0.35096607 32 34
-9.8227167 -4.2103181 -0.34952125 31 34
-9.7093048 -4.0913754 -0.34406707 58 34
-9.6308165 -3.9888971 -0.34002155 149 34
-9.6217871 -3.9161673 -0.33872122 127 34
-9.6196537 -3.8466671 -0.33770984 154 34
-9.6142397 -3.7762446 -0.33659011 133 34
-9.7118216 -3.7459497 -0.33947974 60 34
-9.7523813 -3.6930122 -0.34016603 61 34
-9.6371546 -3.581928 -0.33485633 137 34
-9.65238 -3.5203314 -0.33460349 119 34
-9.6483927 -3.4519508 -0.33362824 122 34
-9.6411018 -3.3827596 -0.33254462 151 34
-9.6257658 -3.311188 -0.33117205 149 34
-9.6089697 -3.2396131 -0.32976335 59 34
-9.7112236 -3.2078595 -0.33290583 32 34
-9.9237432 -3.2106524 -0.34023827 18 34
-10.271939 -3.2538035 -0.35269985 644 34
-8.5907249 -2.6634295 -0.28833318 831 34
-8.5954304 -2.6071873 -0.28789973 975 34
-8.5739002 -2.5433154 -0.28649104 683 34
-8.5807056 -2.4881546 -0.28616595 257 34
-8.5611963 -2.4256518 -0.28486562 35 34
-1.66425 -0.46084628 -0.025665229 34 34
-1.6564338 -0.44775981 -0.025267905 16 34
-1.6639818 -0.43886086 -0.025448507 20 34
-1.6608359 -0.4271504 -0.025231784 23 34
-1.6566397 -0.41525236 -0.024978939 21 34
-1.6465349 -0.40200111 -0.024509374 39 34
-1.6217456 -0.38542697 -0.023498002 51 34
-1.6094742 -0.37209576 -0.022956194 60 34
-1.6292784 -0.36615333 -0.023606364 38 34
-1.6256361 -0.35487193 -0.023389641 39 34
-1.6219168 -0.34364906 -0.023172917 30 34
-1.5946265 -0.32766339 -0.022089304 49 34
-1.5868055 -0.31592381 -0.021728098 60 34
-1.5867513 -0.30580363 -0.021655858 51 34
-1.5777906 -0.29405034 -0.021258533 64 34
-1.5903845 -0.28630874 -0.021655858 48 34
-1.5802956 -0.27449548 -0.021222413 75 34
-1.5819502 -0.26479381 -0.021222413 68 34
-1.5855185 -0.25539955 -0.021294653 60 34
-1.5781671 -0.24429248 -0.02096957 77 34
-1.5835905 -0.23519072 -0.021114051 61 34
-1.5711519 -0.22350253 -0.020608366 80 34
-1.5655619 -0.21291693 -0.020355523 83 34
-1.568821 -0.20356351 -0.020427763 77 34
-1.5650812 -0.19332224 -0.020247161 85 34
-1.566238 -0.18371545 -0.020247161 84 34
-1.5663425 -0.17399165 -0.020211041 72 34
-1.5653927 -0.16416951 -0.020138798 93 34
-1.563387 -0.15426767 -0.020030437 96 34
-1.5643041 -0.14467201 -0.020030437 80 34
-1.5671537 -0.13524225 -0.020102678 81 34
-1.5659617 -0.12546469 -0.020030437 79 34
-1.5607222 -0.11541307 -0.019813715 76 34
-1.561401 -0.10583448 -0.019813715 83 34
-1.5590285 -0.096068271 -0.019705353 90 34
-1.5635799 -0.086720817 -0.019849835 82 34
-1.5600901 -0.076929353 -0.019705353 95 34
-1.5635281 -0.067483909 -0.019813715 101 34
-1.5609167 -0.057778858 -0.019705353 74 34
-1.5582452 -0.048108399 -0.019596992 103 34
-1.5515176 -0.038375061 -0.019344149 111 34
-1.540733 -0.028652783 -0.018946825 119 34
-1.5498732 -0.019308269 -0.019271908 103 34
-1.5329739 -0.0096949311 -0.018657861 129 34
-1.5380013 -0.00028827091 -0.018838463 111 34
-1.5379741 0.0091487328 -0.018838463 108 34
-1.5438846 0.018659366 -0.019055186 110 34
-1.5507354 0.028261334 -0.019308029 95 34
-1.5171828 -0.11078114 -0.036132347 216 35
-1.5168374 -0.1014024 -0.036084369 169 35
-1.5144401 -0.091909543 -0.035940435 181 35
-1.5139782 -0.082560226 -0.035892457 156 35
-1.5114634 -0.07312198 -0.035748523 190 35
-1.5098877 -0.063760616 -0.035652567 167 35
-1.5102506 -0.054494921 -0.035652567 168 35
-1.5105565 -0.04522717 -0.035652567 178 35
-1.5118041 -0.035982255 -0.035700545 182 35
-1.5119964 -0.026705321 -0.035700545 178 35
-1.5121318 -0.017427383 -0.035700545 162 35
-1.5132091 -0.008154938 -0.035748523 175 35
-1.5132307 0.0011300918 -0.035748523 165 35
-1.5131953 0.010415079 -0.035748523 183 35
-1.5131029 0.019699674 -0.035748523 170 35
-1.5129535 0.02898353 -0.035748523 177 35
-1.5127472 0.03826629 -0.035748523 200 35
-1.5144807 0.047608849 -0.035844479 182 35
-1.5151582 0.056937374 -0.035892457 185 35
-1.5157783 0.066276006 -0.035940435 190 35
-1.5173384 0.075673379 -0.036036391 201 35
-1.5178428 0.085037276 -0.036084369 195 35
-1.5182894 0.094410211 -0.036132347 153 35
-1.5186781 0.10379183 -0.036180325 187 35
-1.5190089 0.11318176 -0.036228303 194 35
-1.5192814 0.12257966 -0.036276281 193 35
-1.5175055 0.13181382 -0.036228303 198 35
-1.5166682 0.14112258 -0.036228303 176 35
-1.5177618 0.15062179 -0.036324259 176 35
-1.5178025 0.16003574 -0.036372237 191 35
-1.5187775 0.16956593 -0.036468193 146 35
-1.5206846 0.17923027 -0.036612127 194 35
-1.5205476 0.18867989 -0.036660105 188 35
-1.5193613 0.19800624 -0.036660105 171 35
-1.5191075 0.20745955 -0.036708087 189 35
-1.5178059 0.21677671 -0.036708087 169 35
-1.5174353 0.22623226 -0.036756065 181 35
-1.5160186 0.23553881 -0.036756065 196 35
-1.5155309 0.24499513 -0.036804043 186 35
-1.5159695 0.25461906 -0.036899999 181 35
-1.5173311 0.26442832 -0.037043933 179 35
-1.5186293 0.27426383 -0.037187867 164 35
-1.5228097 0.28467366 -0.037475735 149 35
-1.5239768 0.29457855 -0.037619669 166 35
-1.5250796 0.30450851 -0.037763603 127 35
-1.5261178 0.31446302 -0.037907537 130 35
-1.5388175 0.32692397 -0.038627211 114 35
-1.5543489 0.34019101 -0.039490815 86 35
-1.5658765 0.3527855 -0.040162511 55 35
-1.5656288 0.36283651 -0.040258467 51 35
-1.5779504 0.37589774 -0.040978137 42 35
-1.5843477 0.38770336 -0.041409943 34 35
-1.5984106 0.40154299 -0.042225569 29 35
-1.6113952 0.41532099 -0.042993221 22 35
-1.6117141 0.42596418 -0.043137155 24 35
-1.5724273 0.42594749 -0.041313984 70 35
-1.6169549 0.44864056 -0.043664914 58 35
-1.6372362 0.46508843 -0.04481639 23 35
-5.7326117 1.663502 -0.24977896 14 35
-1.6505576 0.49082598 -0.04577595 11 35
-1.6484708 0.50123429 -0.045823928 34 35
-1.6568128 0.51488918 -0.046399668 57 35
-1.6555268 0.52564877 -0.046495624 24 35
-1.65132 0.5354895 -0.046447646 13 35
-1.6574875 0.54874474 -0.046927426 5 35
-5.5991068 1.8889694 -0.24690026 5 35
-5.5316839 1.9041193 -0.24406956 89 35
-5.1579709 1.8110347 -0.22564596 178 35
-5.1270118 1.8355832 -0.22463842 133 35
-5.0846853 1.8557134 -0.22305514 103 35
-5.046988 1.8771335 -0.22171175 111 35
-4.9961424 1.8932091 -0.21969667 163 35
-5.0002742 1.92994 -0.2205123 185 35
-5.0106511 1.9693489 -0.22166377 217 35
-5.0355711 2.0148914 -0.22358289 262 35
-5.0749216 2.066838 -0.22626968 320 35
-5.0806007 2.1055827 -0.22722924 272 35
-5.0141988 2.1142201 -0.22444651 101 35
-4.9790983 2.1355026 -0.22329503 60 35
-9.0313082 3.9382129 -0.43631792 89 35
-9.0343685 4.0056963 -0.43775725 507 35
-9.031476 4.0709033 -0.43890873 915 35
-9.0172243 4.1312337 -0.43948448 893 35
-9.0052891 4.1928072 -0.44020414 958 35
-8.992938 4.2543893 -0.44092381 911 35
-8.9810696 4.3164101 -0.44169146 957 35
-8.9705725 4.3793211 -0.44255507 889 35
-8.9587469 4.4418225 -0.4433707 916 35
-8.9509525 4.506588 -0.44442621 956 35
-8.9391413 4.5696073 -0.44528982 924 35
-8.9455137 4.6423101 -0.44716099 875 35
-8.9398384 4.7092123 -0.4484084 791 35
-8.9239893 4.77104 -0.44912809 716 35
-8.7303581 4.7366514 -0.44015616 167 35
-8.8568935 4.8758574 -0.44869629 166 35
-8.8765182 4.9578676 -0.45143104 348 35
-8.141963 4.6134672 -0.41256875 132 35
-8.2035723 4.7150927 -0.41755846 182 35
-8.8450289 5.1561241 -0.45483747 319 35
-8.8287029 5.2194471 -0.45570108 450 35
-8.8719053 5.3187079 -0.45992315 64 35
-0 0 -0 5 35
-3.0335469 1.8704916 -0.13424762 5 35
-2.9805019 1.8631402 -0.13189669 43 35
-2.9715455 1.8829963 -0.13204062 40 35
-2.9649794 1.9044311 -0.1323285 36 35
-2.9582617 1.9258561 -0.13261637 45 35
-2.9538944 1.9489197 -0.13304816 50 35
-2.955169 1.9758863 -0.13381581 54 35
-2.9578774 2.0040617 -0.13467942 46 35
-2.957056 2.0300839 -0.13535112 46 35
-2.954386 2.0550313 -0.13592686 40 35
-2.9466209 2.076571 -0.13621472 47 35
-2.9321978 2.0934517 -0.13611877 45 35
-2.9282022 2.1178403 -0.13664652 75 35
-2.8700202 2.1027241 -0.13395976 27 35
-2.8321929 2.1018496 -0.13247243 28 35
-2.7904923 2.0975914 -0.13074522 30 35
-2.7497463 2.0935063 -0.12906598 22 35
-2.7123218 2.0914395 -0.12757866 29 35
-2.6758142 2.0896072 -0.12613931 27 35
-2.6315956 2.0812135 -0.12422019 27 35
-2.5922611 2.0761013 -0.12258893 25 35
-2.5538652 2.0712144 -0.12100565 32 35
-2.5094509 2.0608661 -0.11903855 42 35
-2.4691021 2.0532436 -0.11731134 36 35
-2.4381139 2.0529213 -0.11615986 33 35
-2.4011407 2.0471146 -0.11462457 29 35
-2.3643315 2.0409324 -0.11308926 30 35
-2.3374696 2.0429175 -0.11217768 23 35
-2.3016937 2.0367107 -0.11069036 34 35
-2.2578962 2.0228143 -0.10867528 22 35
-2.2284193 2.0212028 -0.10757178 17 35
-0 0 -0 4 35
-2.133925 1.9838157 -0.10301386 26 35
-2.0765986 1.9544466 -0.10003921 62 35
-2.0681844 1.9705951 -0.10027911 50 35
-2.0618076 1.9887935 -0.10066293 37 35
-2.0581448 2.0097778 -0.10123867 33 35
-2.0514593 2.0279839 -0.10162249 38 35
-2.0474529 2.0490086 -0.10219823 43 35
-2.0439675 2.0707707 -0.10282195 30 35
-2.043082 2.0954263 -0.10363758 44 35
-2.0391977 2.1172721 -0.10426129 40 35
-2.0371881 2.1413188 -0.10502894 37 35
-0 0 -0 49 35
-0 0 -0 27 35
-0 0 -0 33 35
-2.037688 2.2498758 -0.10886719 38 35
-2.0358372 2.2757318 -0.1097308 36 35
-2.0344069 2.3023975 -0.11064238 36 35
-2.0346968 2.3313878 -0.1116979 42 35
-0 0 -0 32 35
-0 0 -0 37 35
-0 0 -0 28 35
-0 0 -0 45 35
-2.0129189 2.454473 -0.11553615 43 35
-2.0041099 2.4745376 -0.11601593 47 35
-2.0051169 2.5070636 -0.11726336 12 35
-2.8710456 3.6344385 -0.18553624 51 35
-2.8437748 3.6456871 -0.18515241 235 35
-2.8341553 3.6796825 -0.18615995 248 35
-2.8405559 3.7351587 -0.1884629 247 35
-2.836782 3.7780731 -0.18999821 201 35
-2.8159268 3.7986171 -0.19019012 173 35
-2.762471 3.7747228 -0.18774323 138 35
-2.7205334 3.7656975 -0.18620794 116 35
-2.6840324 3.7636185 -0.18510443 99 35
-2.6413333 3.7522511 -0.18347318 147 35
-2.6079977 3.7536249 -0.18260957 159 35
-2.580961 3.7637911 -0.18227373 87 35
-0 0 -0 33 35
-0 0 -0 10 35
-2.0724704 3.1452167 -0.14398718 15 35
-2.1201329 3.2608554 -0.14988849 150 35
-2.083358 3.247745 -0.14840117 108 35
-2.0532374 3.2444336 -0.14748958 125 35
-2.0089476 3.218003 -0.1452826 70 35
-0 0 -0 36 35
-0 0 -0 29 35
-0 0 -0 32 35
-0 0 -0 24 35
-0 0 -0 21 35
-0 0 -0 27 35
-0 0 -0 26 35
-0 0 -0 27 35
-0 0 -0 26 35
-0 0 -0 28 35
-0 0 -0 11 35
-0 0 -0 51 35
-0 0 -0 57 35
-0 0 -0 61 35
-1.4087157 2.8010724 -0.113665 61 35
-1.3959385 2.8186126 -0.11414479 63 35
-0 0 -0 41 35
-1.2734239 2.6527696 -0.10440522 14 35
-1.2622478 2.6713684 -0.10498096 25 35
-0 0 -0 5 35
-0 0 -0 4 35
-1.2062966 2.6795793 -0.10421331 7 35
-0 0 -0 5 35
-0 0 -0 43 35
-0 0 -0 114 35
-1.1207772 2.662354 -0.1018144 19 35
-1.1044202 2.6691809 -0.1018144 6 35
-0 0 -0 3 35
-1.0649058 2.6658392 -0.1009508 6 35
-1.0477979 2.6704638 -0.10085484 7 35
-1.0288761 2.6703193 -0.10051899 20 35
-1.0124719 2.6765821 -0.10051899 6 35
-0.99394143 2.6771266 -0.10023113 25 35
-0.9744156 2.6747296 -0.099799328 5 35
-0 0 -0 6 35
-0.93325055 2.6629231 -0.098599873 8 35
-0.91656864 2.667655 -0.098551892 13 35
-0.89890635 2.6694427 -0.09835998 13 35
-0 0 -0 4 35
-0.8587001 2.6574647 -0.097208507 13 35
-0.8357411 2.6417351 -0.096152984 10 35
-0.81537437 2.6334569 -0.095481291 9 35
-0.793401 2.6192937 -0.094521731 7 35
-0.77703029 2.6231551 -0.094473749 10 35
-0.75563413 2.6096463 -0.093562171 6 35
-0.73688412 2.6046236 -0.093082383 9 35
-0.71955645 2.6042829 -0.092842497 7 35
-0.70434487 2.6115417 -0.092986427 10 35
-0.68627071 2.6080875 -0.092602603 8 35
-0.67025489 2.6122491 -0.092602603 5 35
-0.65567017 2.6221261 -0.092890471 7 35
-0.63814813 2.6202776 -0.092602603 6 35
-0.6185962 2.6095667 -0.091882929 13 35
-0.60212284 2.6113667 -0.091786973 7 35
-0.58762056 2.621834 -0.092122823 10 35
-0.57130933 2.6244144 -0.092074849 17 35
-0.55416101 2.6229846 -0.091834955 9 35
-0.53705174 2.6214433 -0.091595061 13 35
-0.52212608 2.6305671 -0.091882929 9 35
-0.50559765 2.6317596 -0.091786973 103 35
-0.47883466 2.5778582 -0.089004248 52 35
-0.4566426 2.5453572 -0.087277032 57 35
-0.4360632 2.5195711 -0.085885666 81 35
-0.4140054 2.4827926 -0.083966538 145 35
-0.39796999 2.4803553 -0.083726652 136 35
-0.38228539 2.4797893 -0.083582714 111 35
-0.36676934 2.4801121 -0.083486758 149 35
-0.3512637 2.4803381 -0.083390802 159 35
-0.33617249 2.4834363 -0.083438784 149 35
-0.32503596 2.5171504 -0.08497408 86 35
-0.31031865 2.5250454 -0.085261948 102 35
-0.29691115 2.544759 -0.08612556 211 35
-0.28030014 2.5375981 -0.085693754 77 35
-0.26430836 2.5352967 -0.085501842 153 35
-0.24943258 2.543829 -0.085837692 141 35
-0.23850231 2.5960371 -0.088284574 76 35
-0.22625481 2.6402438 -0.090347633 49 35
-0.21140373 2.6585088 -0.091163263 98 35
-0.19530796 2.6627443 -0.091307193 74 35
-0.17808995 2.6509371 -0.090683483 69 35
-0.15630628 2.5622528 -0.086365446 77 35
-0.13765851 2.5103054 -0.083822608 99 35
-0.12249814 2.5160911 -0.084062494 83 35
-0.10658538 2.5058181 -0.08353474 86 35
-0.09106081 2.5024323 -0.083342828 104 35
-0 0 -0 98 35
-0 0 -0 103 35
-0 0 -0 100 35
-0 0 -0 93 35
-0 0 -0 89 35
0.0011084747 2.5040882 -0.083342828 84 35
0.01647325 2.5040343 -0.083342828 80 35
0 0 -0 85 35
0 0 -0 66 35
0 0 -0 62 35
0 0 -0 78 35
0 0 -0 82 35
0 0 -0 77 35
0.12378097 2.4970269 -0.083150916 78 35
0.13915522 2.4972179 -0.08319889 62 35
0.15453647 2.497314 -0.083246872 71 35
0.16965476 2.493329 -0.083102934 52 35
0.18546455 2.4992142 -0.083438784 51 35
0.20684318 2.5737002 -0.08708512 22 35
0.22288825 2.5753682 -0.087229051 19 35
0.28090566 3.0314784 -0.109299 39 35
0.31124708 3.1489828 -0.11505637 149 35
0.25372177 2.4128752 -0.079600535 54 35
0.26632065 2.3914177 -0.078640968 90 35
0.28122142 2.3917227 -0.078736924 100 35
0.29576921 2.3889608 -0.078688949 98 35
0.31067869 2.3890822 -0.078784905 81 35
0.32546636 2.3881207 -0.07883288 73 35
0.34418726 2.4147575 -0.080224246 201 35
0.35826474 2.4076598 -0.079984359 142 35
0.37318373 2.4064033 -0.080032334 159 35
0.38810077 2.4050543 -0.080080315 148 35
0.4028506 2.4026277 -0.080080315 145 35
0.41775599 2.4010949 -0.08012829 143 35
0.43248099 2.3984864 -0.08012829 130 35
0.44737247 2.3967695 -0.080176271 146 35
0.46131504 2.3900561 -0.079984359 117 35
0.47285396 2.371506 -0.079216704 76 35
0.48819974 2.3724737 -0.079408616 58 35
0.50316149 2.371388 -0.079504579 79 35
0.52110809 2.3838704 -0.080272228 136 35
0.53353715 2.3708823 -0.079792447 88 35
0.54807454 2.367564 -0.079792447 75 35
0.56328368 2.3670719 -0.079936378 94 35
0.57779711 2.3635712 -0.079936378 78 35
0.59180349 2.3580434 -0.079840422 66 35
0.63659263 2.4723921 -0.085693754 7 35
0.77240819 2.9262612 -0.10843538 11 35
0 0 -0 38 35
0.68705475 2.4785464 -0.08660534 5 35
0 0 -0 9 35
0 0 -0 16 35
0.92117554 3.1013303 -0.11846282 162 35
0 0 -0 195 35
0 0 -0 226 35
0 0 -0 225 35
0 0 -0 189 35
0 0 -0 195 35
0 0 -0 214 35
1.0619395 3.0834739 -0.11971024 214 35
1.0808393 3.0769 -0.11971024 203 35
0 0 -0 226 35
0 0 -0 211 35
0 0 -0 211 35
0 0 -0 229 35
0 0 -0 196 35
0 0 -0 241 35
1.2271649 3.0656781 -0.12167735 227 35
1.2493414 3.066417 -0.12210915 202 35
0 0 -0 224 35
0 0 -0 228 35
0 0 -0 240 35
0 0 -0 219 35
0 0 -0 224 35
0 0 -0 215 35
1.3939974 3.0408208 -0.12374041 779 35
1.3966125 2.9977989 -0.12191724 112 35
0 0 -0 70 35
0 0 -0 75 35
0 0 -0 58 35
0 0 -0 68 35
0 0 -0 67 35
0 0 -0 62 35
0 0 -0 57 35
1.3437561 2.5491655 -0.10147856 162 35
0 0 -0 139 35
0 0 -0 105 35
0 0 -0 109 35
0 0 -0 113 35
0 0 -0 116 35
1.4615549 2.5412812 -0.10387746 130 35
1.4781263 2.5339913 -0.10397342 133 35
1.4956796 2.5283136 -0.10416533 149 35
0 0 -0 163 35
0 0 -0 144 35
0 0 -0 145 35
0 0 -0 159 35
0 0 -0 163 35
1.6098472 2.5060132 -0.10613244 166 35
1.6317296 2.5061352 -0.10670818 190 35
1.6547735 2.5077507 -0.10737987 175 35
0 0 -0 157 35
0 0 -0 180 35
0 0 -0 181 35
0 0 -0 169 35
0 0 -0 152 35
0 0 -0 272 35
1.8083193 2.4999573 -0.1112661 174 35
1.8242148 2.4896207 -0.11131407 176 35
1.8465965 2.488008 -0.11188981 168 35
1.8690268 2.4862144 -0.11246555 137 35
1.8915043 2.4842386 -0.11304129 158 35
1.9140276 2.4820802 -0.11361703 153 35
1.9421259 2.4868257 -0.11462457 122 35
0 0 -0 135 35
0 0 -0 142 35
0 0 -0 163 35
0 0 -0 139 35
2.04686 2.4614198 -0.11683156 147 35
2.0709274 2.4595144 -0.11750326 140 35
2.0931051 2.4551249 -0.11803101 138 35
2.1146541 2.4497991 -0.1185108 143 35
0 0 -0 140 35
0 0 -0 129 35
0 0 -0 128 35
0 0 -0 132 35
2.6642158 2.9019115 -0.15228739 154 35
2.690809 2.8950233 -0.15291111 164 35
2.718786 2.8893728 -0.15363078 166 35
2.7495496 2.8863816 -0.15454237 205 35
2.7595835 2.8615451 -0.1540146 7 35
3.0072832 3.080483 -0.1698474 66 35
3.0331476 3.0690789 -0.17032717 74 35
3.0667536 3.0652425 -0.17133471 76 35
3.1004264 3.0611088 -0.17234226 87 35
3.130589 3.0531888 -0.1731099 74 35
3.162209 3.0463998 -0.17397352 97 35
3.1953099 3.0407147 -0.17493308 86 35
3.2306421 3.0367906 -0.17603657 101 35
3.2667778 3.0332265 -0.17718804 101 35
3.3081424 3.03406 -0.17867537 104 35
3.347419 3.0324872 -0.18001875 80 35
3.3853118 3.029213 -0.18126619 80 35
3.4225416 3.0249259 -0.18246564 85 35
3.4605975 3.0209522 -0.18371306 76 35
3.5002458 3.0179298 -0.18505646 87 35
3.5339038 3.0093517 -0.18601602 99 35
3.5568879 2.9914701 -0.18630388 102 35
3.581322 2.9746962 -0.18668771 72 35
3.6280749 2.9761119 -0.1884629 7 35
3.6485956 2.9556811 -0.18860684 5 35
0 0 -0 4 35
3.6822407 2.9088266 -0.1884629 4 35
3.6504118 2.8474619 -0.18544029 22 35
0 0 -0 3 35
3.6691813 2.7903547 -0.18448073 140 35
3.7046015 2.7815874 -0.18558422 85 35
3.7665265 2.7921257 -0.18827099 21 35
3.8085709 2.787255 -0.18975832 22 35
3.8498867 2.781388 -0.19119766 24 35
3.8985908 2.7803395 -0.1930688 14 35
3.9621253 2.78915 -0.19580355 7 35
3.9890063 2.7716281 -0.1963793 8 35
4.0100555 2.7499254 -0.19661918 7 35
4.0326428 2.7291887 -0.19695504 8 35
4.0792112 2.7243717 -0.19868225 28 35
4.1683993 2.7471271 -0.20285635 111 35
4.2153177 2.7411082 -0.20458356 109 35
4.2656803 2.7367747 -0.20650268 130 35
4.3178349 2.7329941 -0.20851776 123 35
4.3692555 2.7281466 -0.21048486 134 35
4.4165258 2.7201502 -0.21221209 155 35
4.4698367 2.715307 -0.21427514 143 35
4.5189691 2.7073438 -0.21609831 134 35
4.5690308 2.6993871 -0.21796945 158 35
4.6088076 2.6848817 -0.21926486 157 35
4.6728272 2.683924 -0.22190367 371 35
4.6683497 2.6433852 -0.22075218 234 35
4.6373892 2.5883925 -0.21816137 174 35
4.6496835 2.5579627 -0.21796945 209 35
4.6696815 2.5317659 -0.21820934 259 35
4.6719146 2.4960027 -0.21748967 207 35
4.6721177 2.4593766 -0.21667404 226 35
4.679141 2.4265223 -0.21624224 271 35
4.6814899 2.391402 -0.21557055 291 35
4.6817999 2.3554461 -0.21480289 276 35
4.6988497 2.3280056 -0.21494684 226 35
4.7399745 2.312274 -0.21638617 205 35
4.7891846 2.3000185 -0.21825732 307 35
4.7968864 2.2675998 -0.21792148 272 35
4.7962213 2.2313795 -0.21715383 231 35
4.798017 2.1965008 -0.21653011 268 35
4.8086724 2.1657882 -0.21638617 290 35
4.8118262 2.1317892 -0.21585841 317 35
4.7817822 2.0834627 -0.21360345 153 35
4.8036566 2.0580184 -0.21408322 340 35
4.8023872 2.0226862 -0.21336356 347 35
4.8064027 1.989741 -0.21293175 320 35
4.8101945 1.9568226 -0.21249995 334 35
4.8137641 1.9239328 -0.21206814 366 35
4.7975879 1.8834035 -0.21062881 323 35
4.8043942 1.8521332 -0.21038891 427 35
4.810998 1.8208501 -0.21014902 393 35
4.8192711 1.7902521 -0.21000509 361 35
4.7973223 1.7486678 -0.20832585 255 35
4.815485 1.7218913 -0.20870967 324 35
4.8042822 1.6847044 -0.20760618 236 35
4.8211408 1.6574689 -0.20794202 280 35
4.8274341 1.6265792 -0.20775011 293 35
4.8031802 1.5856477 -0.2060229 141 35
4.7729049 1.5432304 -0.20400782 62 35
4.7784753 1.5127087 -0.20381591 79 35
4.7933917 1.485135 -0.20410378 89 35
4.8435149 1.4681641 -0.20616683 60 35
4.8964815 1.4514859 -0.20837383 61 35
4.9810815 1.4433936 -0.2121641 68 35
14.129986 4.0029182 -0.66848409 255 35
14.139842 3.9121466 -0.66776443 292 35
14.149116 3.8214047 -0.66704476 293 35
14.195477 3.7406256 -0.6681962 165 35
14.250087 3.6616592 -0.66977948 343 35
14.263566 3.571969 -0.6693477 330 35
14.27357 3.4815409 -0.66877192 116 35
14.253847 3.3842001 -0.66675687 331 35
14.222764 3.2847598 -0.66421402 106 35
14.224134 3.19327 -0.66330242 355 35
14.191737 3.0946493 -0.66075963 150 35
14.181143 3.0013053 -0.65932024 283 35
14.168961 2.9080074 -0.65783292 207 35
14.163025 2.8163362 -0.65668148 248 35
14.15748 2.7250364 -0.65557796 247 35
14.144475 2.6326308 -0.65413862 248 35
14.139718 2.5420792 -0.65313107 340 35
14.109779 2.4474156 -0.65092409 258 35
14.108768 2.3581576 -0.65015644 313 35
14.097331 2.2674172 -0.64890903 272 35
14.092223 2.1779747 -0.64799744 327 35
14.080621 2.087801 -0.64679796 286 35
14.07141 1.9982733 -0.64574248 329 35
14.063612 1.909206 -0.6447829 318 35
14.049307 1.8195398 -0.64353544 308 35
14.042363 1.7310994 -0.64267182 281 35
14.023951 1.6415344 -0.64128047 335 35
13.999012 1.5516001 -0.63960123 338 35
13.998335 1.4646344 -0.63912147 320 35
13.992147 1.3772458 -0.63840181 335 35
13.963534 1.287968 -0.6366266 335 35
13.957242 1.2010652 -0.63595492 326 35
13.949413 1.1142083 -0.63523525 348 35
13.943038 1.0276399 -0.63461155 307 35
12.836905 0.8668626 -0.58106792 255 35
12.833011 0.78752905 -0.58063614 240 35
12.890459 0.71169549 -0.583179 480 35
12.8876 0.63224453 -0.58284312 670 35
12.888243 0.55302703 -0.58269918 319 35
12.891394 0.47393587 -0.58269918 301 35
12.896055 0.39488816 -0.58279514 302 35
12.908221 0.31599736 -0.5832749 311 35
12.900929 0.23662241 -0.58284312 208 35
5.3364334 0.064444423 -0.2194088 545 35
5.3357296 0.031693321 -0.21936081 535 35
5.3248363 -0.0010469354 -0.21883306 375 35
12.914837 -0.0801268 -0.58341885 190 35
12.936074 -0.15963842 -0.58447438 306 35
12.93585 -0.23902804 -0.58452237 330 35
12.933142 -0.31837192 -0.58447438 281 35
12.940928 -0.39802837 -0.58495414 230 35
13.077987 -0.48256895 -0.59167111 228 35
13.092742 -0.56357652 -0.59253472 215 35
13.099014 -0.64439136 -0.59301448 177 35
13.0998 -0.72502881 -0.59325439 225 35
13.107069 -0.80612874 -0.59383011 181 35
13.110845 -0.88714314 -0.59426194 205 35
13.112127 -0.96808732 -0.59459776 184 35
13.117888 -1.0494784 -0.59517348 177 35
13.118169 -1.1305482 -0.59550935 163 35
13.090097 -1.2090911 -0.59450179 146 35
12.996944 -1.2809697 -0.59037566 101 35
12.962018 -1.357886 -0.58908027 241 35
12.964362 -1.4386046 -0.58960801 282 35
12.961244 -1.5188224 -0.5898959 276 35
12.971507 -1.6007675 -0.59085548 256 35
12.967384 -1.6810989 -0.59114331 284 35
12.975631 -1.7631874 -0.5920549 245 35
12.987313 -1.8460021 -0.59315842 83 35
13.002419 -1.9296125 -0.59445381 174 35
12.992309 -2.0096629 -0.59454978 217 35
12.999456 -2.0925174 -0.59550935 178 35
13.008046 -2.1758645 -0.59656489 159 35
13.007244 -2.257859 -0.59718859 154 35
13.00101 -2.3390417 -0.59757239 152 35
13.016854 -2.4244375 -0.5990597 158 35
12.999771 -2.5038841 -0.5989638 210 35
12.12892 -2.4135029 -0.55707884 242 35
12.08355 -2.4816527 -0.55559152 276 35
12.072982 -2.5567837 -0.55583143 375 35
12.137092 -2.648267 -0.55976564 201 35
12.969476 -2.9132879 -0.60155457 94 35
13.027267 -3.0103469 -0.60529691 248 35
13.024099 -3.0939164 -0.60606456 254 35
13.038835 -3.1820581 -0.6077438 238 35
13.045225 -3.2685554 -0.60903919 204 35
13.043304 -3.3532615 -0.60995078 232 35
13.045665 -3.4393399 -0.61110222 218 35
13.036852 -3.5227079 -0.61172593 239 35
13.032319 -3.6074293 -0.61258954 234 35
13.027238 -3.6922274 -0.61345315 261 35
13.016809 -3.7757077 -0.61407691 260 35
5.1304965 -1.5230968 -0.22012848 193 35
5.0656152 -1.5377324 -0.21734574 169 35
4.9616342 -1.5395024 -0.21259591 175 35
4.9273367 -1.5620748 -0.21134847 114 35
4.9148083 -1.5913565 -0.21120454 101 35
4.9059 -1.6217966 -0.21125251 203 35
4.9251976 -1.6617606 -0.21273984 339 35
4.8299012 -1.6627074 -0.20842181 215 35
4.7555175 -1.6698239 -0.20515929 235 35
4.6718254 -1.6727263 -0.201417 229 35
4.5920334 -1.6760343 -0.19786662 219 35
4.5357862 -1.6871271 -0.19551569 261 35
4.5253487 -1.7149265 -0.19551569 442 35
4.5091491 -1.7405044 -0.19522782 297 35
4.5188384 -1.7761731 -0.19628334 407 35
4.5041451 -1.8023832 -0.19609143 299 35
4.517055 -1.8397766 -0.19733886 396 35
4.5213695 -1.8739558 -0.19815449 454 35
4.5272746 -1.9090328 -0.19906607 490 35
4.5329189 -1.9442526 -0.19997765 469 35
4.5291448 -1.9756218 -0.20040946 501 35
1.0058148 -0.44709304 -0.015933555 157 35
4.5510035 -2.0519805 -0.20285635 294 35
4.5383272 -2.0798662 -0.20285635 77 35
4.4792962 -2.0861776 -0.20040946 204 35
4.5124621 -2.135402 -0.20285635 76 35
4.5181813 -2.1721337 -0.20386389 71 35
4.5451627 -2.2195301 -0.2060229 28 35
4.5565166 -2.2597973 -0.20736629 13 35
4.5398884 -2.286366 -0.20722236 18 35
4.5195484 -2.3109972 -0.2068865 21 35
4.5185823 -2.3455851 -0.20760618 30 35
4.5288515 -2.3862982 -0.20894957 12 35
4.5185285 -2.4163959 -0.20918946 20 35
4.5220551 -2.4540765 -0.210197 16 35
4.531414 -2.4952621 -0.21154039 26 35
4.5282273 -2.5298369 -0.21221209 17 35
4.5360851 -2.5708663 -0.21350749 16 35
4.5366802 -2.6081059 -0.21441907 16 35
4.5473442 -2.6514845 -0.2159064 16 35
4.5499072 -2.6905177 -0.21696192 18 35
4.560729 -2.7348163 -0.21849722 15 35
4.5626411 -2.7741613 -0.21955273 26 35
4.5650926 -2.8141561 -0.22065623 17 35
4.5604463 -2.8500516 -0.2213759 23 35
4.556375 -2.8865302 -0.22214355 20 35
4.5562305 -2.9257634 -0.22315109 20 35
4.5532637 -2.963469 -0.2240147 18 35
4.5541744 -3.0039971 -0.22511819 19 35
4.5672164 -3.0529711 -0.22694136 19 35
4.5756922 -3.0994174 -0.22852464 24 35
4.5771794 -3.1415615 -0.22972409 24 35
4.575861 -3.1821299 -0.23077962 19 35
4.5750327 -3.2233748 -0.23188311 20 35
4.5706172 -3.2624085 -0.2327947 27 35
4.5642757 -3.3003385 -0.23361032 26 35
4.5592523 -3.3394935 -0.23452191 30 35
4.5635467 -3.3858507 -0.23600923 22 35
4.565846 -3.4311855 -0.23740059 23 35
4.5701442 -3.4784899 -0.2389359 29 35
4.577198 -3.5284142 -0.24066311 33 35
4.5822353 -3.5773261 -0.24229437 23 35
4.5844927 -3.6245739 -0.24378169 36 35
4.5769839 -3.664494 -0.24469328 49 35
4.585453 -3.7176647 -0.2466124 38 35
4.5926685 -3.7704427 -0.24848354 38 35
4.6040177 -3.8272786 -0.25064257 30 35
4.6140766 -3.8837514 -0.25275359 29 35
4.61449 -3.9327178 -0.25428891 20 35
4.615232 -3.9824872 -0.25587219 21 35
4.6215549 -4.0376692 -0.25783929 20 35
4.621387 -4.0877843 -0.25942257 20 35
4.6185441 -4.1360502 -0.2608619 11 35
4.6189828 -4.187788 -0.26254115 13 35
4.6226392 -4.2430625 -0.26446027 25 35
4.619204 -4.2924209 -0.26594758 16 35
4.6095147 -4.336421 -0.26705107 8 35
4.6160979 -4.3963046 -0.26925808 17 35
4.6149268 -4.4494991 -0.27098528 18 35
4.6004066 -4.4902883 -0.27184889 7 35
4.615406 -4.5605469 -0.27472758 16 35
4.614882 -4.6163254 -0.27659872 15 35
4.6131444 -4.6715579 -0.27842191 16 35
4.5823007 -4.6976309 -0.27827796 11 35
4.5908227 -4.7644935 -0.28086877 9 35
4.6069598 -4.8403168 -0.28403533 16 35
4.621654 -4.9157882 -0.28715393 7 35
4.6226764 -4.977716 -0.28936091 18 35
4.660255 -5.080318 -0.29420671 11 35
4.6511316 -5.1332397 -0.29578999 16 35
4.6588559 -5.2055888 -0.2986207 17 35
4.6579256 -5.2692451 -0.30087566 17 35
4.6531034 -5.3293233 -0.30289075 24 35
4.6496754 -5.3918085 -0.30504975 17 35
4.6560187 -5.4666162 -0.30797642 16 35
4.6564736 -5.5355883 -0.31051928 15 35
4.6568937 -5.6055388 -0.31311008 21 35
4.6616993 -5.6818781 -0.31608471 23 35
4.6575661 -5.7483974 -0.31843567 27 35
4.659656 -5.823657 -0.32131433 30 35
4.6696677 -5.9101281 -0.32486472 35 35
4.6775627 -5.9953637 -0.32831916 55 35
4.6772699 -6.0714231 -0.33119783 49 35
4.683476 -6.1572409 -0.33465227 48 35
4.687604 -6.2417645 -0.33801073 37 35
4.7009845 -6.3402071 -0.34218484 26 35
4.6932683 -6.4116454 -0.34472767 18 35
4.6825109 -6.4799881 -0.34707859 37 35
4.6722503 -6.550065 -0.34952548 34 35
4.6498022 -6.6039257 -0.3510128 18 35
4.7083983 -6.7750373 -0.35936099 186 35
4.7260742 -6.8902807 -0.36439869 452 35
4.680347 -6.914187 -0.36411083 260 35
4.6761255 -7.0000796 -0.36742133 160 35
4.733707 -7.1812415 -0.37620133 45 35
4.8153839 -7.4035563 -0.38728428 17 35
4.7892904 -7.4632239 -0.38901147 15 35
4.7669201 -7.5296001 -0.39112252 12 35
4.758204 -7.618854 -0.39452896 20 35
4.760622 -7.7278409 -0.39903891 19 35
4.7499485 -7.8175087 -0.40244535 29 35
4.7568393 -7.9381771 -0.407579 18 35
4.7746248 -8.0798569 -0.41386417 21 35
4.7807879 -8.2047911 -0.41918972 21 35
4.7836056 -8.3266363 -0.42432338 30 35
4.7915063 -8.4601202 -0.43008077 47 35
4.7833362 -8.5678482 -0.4343988 51 35
4.771615 -8.6714163 -0.43847692 75 35
4.7878537 -8.8287182 -0.44548175 82 35
4.7943339 -8.9715652 -0.45167091 54 35
4.8127379 -9.1404486 -0.45925146 30 35
4.7956648 -9.2451687 -0.46332961 41 35
4.8006701 -9.395381 -0.46985462 19 35
4.8197293 -9.5772238 -0.47805887 24 35
4.8065677 -9.6987944 -0.48300064 18 35
4.81882 -9.8753157 -0.49086905 27 35
4.8039923 -10.00013 -0.49595472 13 35
0 -0 -0 66 35
0 -0 -0 194 35
4.8757625 -10.647166 -0.52555722 81 35
4.8431721 -10.749734 -0.52939546 79 35
4.8613191 -10.969184 -0.53937495 41 35
4.8845363 -11.206651 -0.55026597 27 35
4.8597603 -11.339231 -0.55563951 24 35
4.8226776 -11.446155 -0.55966967 21 35
4.8815594 -11.787439 -0.57588631 109 35
0 -0 -0 372 35
4.7721491 -11.935489 -0.5804922 328 35
4.8832569 -12.434038 -0.60472113 63 35
4.9305396 -12.784344 -0.6212256 47 35
4.9574285 -13.092718 -0.63552308 22 35
4.9730582 -13.381295 -0.64876509 11 35
4.9671884 -13.620814 -0.65946418 11 35
4.9578905 -13.858875 -0.67006737 21 35
4.9819069 -14.200061 -0.68590015 29 35
4.962924 -14.428709 -0.69597554 57 35
5.0000448 -14.831805 -0.71487892 21 35
5.0217471 -15.20364 -0.73215103 12 35
5.0046287 -15.46985 -0.74404961 7 35
5.0492907 -15.941135 -0.76626348 19 35
5.0507817 -16.292372 -0.78238416 46 35
5.1128125 -16.857367 -0.80920392 123 35
5.0104179 -16.892252 -0.80939585 379 35
4.9016666 -16.905409 -0.80853224 119 35
4.7662544 -16.82369 -0.80296677 12 35
5.1835341 -18.733658 -0.89671606 28 35
5.0622368 -18.741968 -0.89556456 152 35
4.9535079 -18.796822 -0.89676404 21 35
5.0315385 -19.5795 -0.93409097 11 35
4.9278111 -19.67589 -0.93735349 23 35
5.3035002 -21.740644 -1.0379636 7 35
4.0263224 -16.957436 -0.80023199 11 35
3.9107308 -16.932188 -0.79778516 116 35
3.8045745 -16.946119 -0.79730535 457 35
3.6877503 -16.910591 -0.79442668 323 35
3.5853677 -16.939739 -0.79476249 30 35
3.462275 -16.868469 -0.79020458 99 35
3.3676715 -16.93446 -0.79241157 243 35
3.2589784 -16.930283 -0.79121214 301 35
3.156132 -16.955853 -0.79150003 345 35
3.0506189 -16.967035 -0.79111618 293 35
2.9462829 -16.984449 -0.7910682 429 35
2.9421775 -17.601191 -0.82023889 96 35
2.9512415 -18.346699 -0.85564679 376 35
2.8347967 -18.339785 -0.85444731 444 35
2.7182546 -18.330156 -0.85315192 463 35
2.5996895 -18.303967 -0.85108882 421 35
2.4823549 -18.282953 -0.84931368 460 35
2.3638361 -18.249302 -0.84696269 295 35
2.2463129 -18.218853 -0.84480369 509 35
2.1306469 -18.199554 -0.84322041 498 35
2.0147519 -18.174561 -0.84139729 448 35
1.9013246 -18.168699 -0.84053367 398 35
1.785597 -18.13728 -0.83847058 528 35
1.6712449 -18.115072 -0.8368873 534 35
1.5304879 -17.781654 -0.82033485 4937 35
1.4430871 -18.062529 -0.83343291 341 35
1.3053287 -17.706455 -0.81587291 144 35
1.1526551 -17.06337 -0.78454316 68 35
1.104611 -17.992315 -0.82892293 150 35
0.9929229 -17.975817 -0.82781947 470 35
0.88147891 -17.958626 -0.82671595 520 35
0.77006876 -17.935753 -0.82537258 509 35
0.65915644 -17.917183 -0.82426906 568 35
0.54828644 -17.89094 -0.82282972 565 35
0.43783695 -17.867006 -0.82153434 541 35
0.32790431 -17.853376 -0.82076669 525 35
0.2144348 -17.536444 -0.80546165 198 35
0.1066631 -17.510462 -0.80416626 376 35
-0.00078112289 -17.508789 -0.80407029 434 35
-0.10806034 -17.483484 -0.80287081 318 35
-0.2177943 -17.683245 -0.81251442 322 35
-0.32702711 -17.721523 -0.81443357 554 35
-0.43575817 -17.719183 -0.81443357 482 35
-0.54309505 -17.671247 -0.81227452 656 35
-0.64949268 -17.612684 -0.80963576 363 35
-0.75742126 -17.605373 -0.80949181 502 35
-0.86508858 -17.59341 -0.80915594 443 35
-0.97175592 -17.564833 -0.80805248 534 35
-1.0780439 -17.534613 -0.80690098 467 35
-1.1501235 -17.002472 -0.78161651 502 35
-1.2538394 -16.987125 -0.78123266 565 35
-1.3566941 -16.962187 -0.78041708 569 35
-1.4592901 -16.936625 -0.77960145 624 35
-1.5616236 -16.910444 -0.77878582 648 35
-1.6658441 -16.905514 -0.77902567 604 35
-1.7689191 -16.889013 -0.77873784 585 35
-1.8707536 -16.861958 -0.77797019 565 35
-1.9731359 -16.841232 -0.77753836 594 35
-2.0759456 -16.824842 -0.77734643 614 35
-2.2134056 -17.076271 -0.7901566 314 35
-2.3288944 -17.14155 -0.79399484 201 35
-2.4001746 -16.888607 -0.78243214 621 35
-2.5049284 -16.881466 -0.78281593 549 35
-2.6106002 -16.879599 -0.78348768 574 35
-2.7169783 -16.881012 -0.78435129 560 35
-2.8231423 -16.879787 -0.78511894 629 35
-2.9285398 -16.872972 -0.78564668 645 35
-3.036258 -16.878279 -0.78679812 573 35
-3.1445169 -16.884863 -0.78804559 613 35
-3.2531598 -16.891733 -0.78934097 613 35
-3.3602514 -16.889088 -0.79020458 622 35
-2.5384939 -12.360451 -0.56916934 311 35
-2.5516124 -12.048553 -0.55463201 96 35
-0 -0 -0 883 35
-2.6951168 -11.997816 -0.55372041 698 35
-2.7738538 -12.003437 -0.55482388 974 35
-2.8499916 -11.996881 -0.55535167 945 35
-2.9299412 -12.005368 -0.55664706 1015 35
-3.010102 -12.013326 -0.55794245 999 35
-3.0877357 -12.010109 -0.5587101 907 35
-6.7143941 -25.472528 -1.2283888 246 35
-6.8768153 -25.453993 -1.2295403 256 35
-7.0531139 -25.484482 -1.2331866 190 35
-7.2948489 -25.742485 -1.2482518 4 35
-0 -0 -0 5 35
-0 -0 -0 6 35
-9.1501217 -30.162271 -1.4770595 7 35
-0 -0 -0 3 35
-8.0889044 -25.531361 -1.2494992 38 35
-0 -0 -0 4 35
-0 -0 -0 6 35
-9.1800728 -27.224768 -1.3431046 10 35
-0 -0 -0 4 35
-10.406043 -29.65391 -1.4725975 5 35
-2.5856001 -7.2233129 -0.33158165 492 35
-2.6192634 -7.1782222 -0.33009434 1488 35
-2.6670868 -7.1723142 -0.33062211 1708 35
-2.7237794 -7.1894426 -0.3323493 1021 35
-2.7692797 -7.176322 -0.33254123 756 35
-2.7796648 -7.0736623 -0.32812724 861 35
-2.7989092 -6.9961896 -0.32500866 1354 35
-2.8432906 -6.9825845 -0.32520056 1456 35
-2.8891392 -6.9723897 -0.32558441 1376 35
-2.949321 -6.9959517 -0.32774341 1609 35
-2.9973075 -6.9896584 -0.32836711 1562 35
-3.0050142 -6.8905597 -0.32414505 1191 35
-3.047642 -6.8729048 -0.32419303 1385 35
-3.1373568 -6.9597125 -0.3297585 1336 35
-3.207037 -6.9993596 -0.33287707 1521 35
-3.2583539 -6.9976611 -0.33383664 1365 35
-3.3268518 -7.031714 -0.33671531 258 35
-5.7339597 -11.931418 -0.59891582 47 35
-5.7536144 -11.786498 -0.59306246 24 35
-5.7925572 -11.683852 -0.58946413 45 35
-5.8124957 -11.545485 -0.58394665 26 35
-5.8555012 -11.455348 -0.58101994 16 35
-5.8907204 -11.35182 -0.57737362 38 35
-5.9463 -11.288948 -0.57593429 63 35
-6.0032144 -11.229346 -0.57468683 107 35
-6.0815277 -11.20986 -0.5756464 205 35
-6.067359 -11.021821 -0.56739414 37 35
-6.109551 -10.939035 -0.56489933 27 35
-6.0889254 -10.746643 -0.55635917 139 35
-6.1497746 -10.700419 -0.55587941 121 35
-6.1212654 -10.501104 -0.54690748 43 35
-6.158648 -10.417773 -0.54436469 47 35
-6.1623755 -10.279549 -0.53875124 162 35
-6.1501164 -10.117774 -0.53179437 46 35
-6.1644011 -10.002461 -0.52742839 31 35
-6.1690373 -9.8738041 -0.5222947 35 35
-6.1680541 -9.738718 -0.51677722 14 35
-5.841929 -9.0996609 -0.48247287 48 35
-5.8725982 -9.0251293 -0.48026589 57 35
-5.876183 -8.9105377 -0.47575593 50 35
-5.8891277 -8.8120251 -0.47215757 63 35
-5.8820467 -8.6855707 -0.46692798 76 35
-5.9024563 -8.6015434 -0.46414524 90 35
-5.9197764 -8.5143147 -0.46117058 57 35
-5.9454522 -8.4402647 -0.4589636 143 35
-6.0069909 -8.417448 -0.45977923 787 35
-6.0427284 -8.3585739 -0.45848382 190 35
-6.1287155 -8.3688889 -0.46131453 66 35
-6.2412353 -8.413763 -0.46625626 748 35
-6.2543497 -8.3241968 -0.46318567 353 35
-6.1819296 -8.123498 -0.45339814 130 35
-6.1670341 -8.001545 -0.44831246 197 35
-6.0384221 -7.7359805 -0.43444678 52 35
-6.1675267 -7.802228 -0.44077989 207 35
-6.1990571 -7.7439618 -0.43953246 336 35
-6.274128 -7.7399235 -0.44164348 365 35
-6.3683906 -7.7584186 -0.44519386 309 35
-6.447156 -7.7568398 -0.44754481 334 35
-6.5139217 -7.7400641 -0.44898415 352 35
-6.6370783 -7.7889094 -0.45459759 281 35
-6.7278037 -7.7979574 -0.45776415 238 35
-6.8228307 -7.8106976 -0.46121857 274 35
-6.8904772 -7.7911353 -0.4626579 328 35
-7.0440812 -7.8670397 -0.47028643 225 35
-7.1096597 -7.8429127 -0.47153386 249 35
-7.221127 -7.8683233 -0.47604382 308 35
-7.3019009 -7.858995 -0.47834677 336 35
-7.371882 -7.837328 -0.47988206 224 35
-7.4825068 -7.857779 -0.48424807 11 35
-7.53266 -7.8138771 -0.48439199 9 35
-7.6013899 -7.7889581 -0.48583135 17 35
-7.6700969 -7.7634888 -0.48727068 13 35
-7.7303014 -7.7289934 -0.48813429 23 35
-7.9090405 -7.8112788 -0.49701026 140 35
-8.0311689 -7.8351517 -0.50199997 194 35
-8.1423798 -7.8467264 -0.50622207 169 35
-8.2822447 -7.8840909 -0.51231527 173 35
-8.3632069 -7.8639174 -0.51447427 45 35
-8.6813345 -8.0633125 -0.53217822 299 35
-8.7932024 -8.067296 -0.53625637 578 35
-8.9195051 -8.0829535 -0.54124606 482 35
-9.0202827 -8.0740433 -0.54455656 531 35
-9.1242771 -8.0668459 -0.54805899 572 35
-9.2495852 -8.0770721 -0.55290478 395 35
-9.4396467 -8.1415186 -0.56182867 5 35
-9.6597347 -8.228548 -0.57257581 388 35
-9.703928 -8.1639776 -0.57219195 189 35
-9.7530708 -8.1036434 -0.57214397 245 35
-2.9578865 -2.4260781 -0.14681789 55 35
-2.9230542 -2.3676314 -0.14374729 147 35
-2.9562423 -2.3646312 -0.14489877 342 35
-2.9174085 -2.3043311 -0.14163625 129 35
-2.9440913 -2.2962193 -0.1424039 309 35
-2.956543 -2.2768922 -0.14230795 152 35
-2.9458158 -2.2399585 -0.14082062 128 35
-2.9443312 -2.2104423 -0.13990904 128 35
-2.9433978 -2.1816242 -0.13904543 122 35
-2.9438341 -2.1540811 -0.13827778 131 35
-2.956996 -2.1359775 -0.13827778 285 35
-2.9472799 -2.1015489 -0.1369344 135 35
-2.9527698 -2.0782487 -0.13650259 98 35
-2.9580846 -2.0549605 -0.13607079 113 35
-2.9615781 -2.0305552 -0.13554303 127 35
-2.967365 -2.007865 -0.13515921 131 35
-2.9771376 -1.9879549 -0.13501526 135 35
-3.0076251 -1.9817466 -0.13607079 92 35
-3.0414965 -1.9774175 -0.13731822 79 35
-3.0720651 -1.9705884 -0.13837373 61 35
-3.1001322 -1.9618551 -0.13928533 85 35
-3.1426082 -1.9618478 -0.14101253 338 35
-3.203908 -1.9729203 -0.14379527 133 35
-3.2253423 -1.958931 -0.14432302 237 35
-3.3161206 -1.9863484 -0.14873701 65 35
-3.3506026 -1.9791785 -0.14998445 59 35
-3.378217 -1.967636 -0.15084805 49 35
-3.4188058 -1.9632938 -0.15243132 32 35
-10.73188 -6.0785079 -0.55549556 445 35
-9.7809105 -5.4607639 -0.50113636 108 35
-10.670033 -5.8716979 -0.54805899 292 35
-10.612793 -5.7556329 -0.54297328 5 35
-10.653194 -5.6932311 -0.54326117 156 35
-10.499684 -5.528614 -0.53304183 43 35
-10.631823 -5.5151482 -0.53836739 192 35
-10.612098 -5.422534 -0.53548872 690 35
-10.621081 -5.3451915 -0.53419328 688 35
-10.614303 -5.2604012 -0.53208226 602 35
-10.599703 -5.1723914 -0.52958739 601 35
-10.588026 -5.0864897 -0.52728444 641 35
-10.570278 -4.9983649 -0.52469361 687 35
-10.56181 -4.9152865 -0.52263057 715 35
-10.535468 -4.8245978 -0.51965594 609 35
-10.540285 -4.7487822 -0.5183605 623 35
-10.519915 -4.6621599 -0.51576972 661 35
-10.509868 -4.5807576 -0.51375461 690 35
-10.510236 -4.5043774 -0.51231527 785 35
-10.497176 -4.4227343 -0.51020426 753 35
-10.488127 -4.3433332 -0.50833309 712 35
-10.477574 -4.263834 -0.50641394 664 35
-10.471079 -4.1864829 -0.50473475 754 35
-10.43428 -4.0976853 -0.50152022 881 35
-10.439657 -4.0260353 -0.50051266 846 35
-10.436141 -3.9512897 -0.4990733 862 35
-10.40495 -3.8666461 -0.49624261 692 35
-10.268957 -3.7445409 -0.48808631 798 35
-10.264466 -3.6717021 -0.48669496 752 35
-10.258528 -3.5987291 -0.4852556 716 35
-10.25208 -3.5259674 -0.48381627 678 35
-10.222412 -3.4457612 -0.48122543 139 35
-10.186457 -3.3641722 -0.47834677 79 35
-1.6719698 -0.53980619 -0.047455184 21 35
-1.6790593 -0.53074372 -0.0476471 46 35
-1.6660656 -0.51540208 -0.04683147 40 35
-1.6605942 -0.50255984 -0.046399668 26 35
-1.6511979 -0.48866788 -0.04577595 22 35
-1.644572 -0.47574493 -0.04529617 19 35
-1.6436162 -0.46455574 -0.045104258 14 35
-1.6377717 -0.45206413 -0.044672456 22 35
-1.6299077 -0.43914077 -0.044144694 28 35
-1.6238788 -0.42684025 -0.043712892 28 35
-1.6177607 -0.41463032 -0.04328109 34 35
-1.6163987 -0.40372524 -0.043089177 27 35
-1.6013787 -0.38953769 -0.042225569 39 35
-1.5541761 -0.36793301 -0.039778687 63 35
-1.5525116 -0.35749045 -0.039586771 71 35
-1.5770911 -0.3529917 -0.040690269 42 35
-1.5509263 -0.33713451 -0.039298903 65 35
-1.5519885 -0.32740498 -0.039250925 75 35
-1.5422269 -0.31546527 -0.038675189 92 35
-1.5421743 -0.3056066 -0.038579233 116 35
-1.535193 -0.29443842 -0.038147427 125 35
-1.5300969 -0.28373316 -0.037811581 130 35
-1.5288599 -0.27380884 -0.037667647 139 35
-1.5236222 -0.26322728 -0.037331801 189 35
-1.5232383 -0.25354406 -0.037235845 176 35
-1.5237792 -0.24403417 -0.037187867 176 35
-1.5222865 -0.23422192 -0.037043933 176 35
-1.522707 -0.22473036 -0.036995955 173 35
-1.5210905 -0.21496141 -0.036852021 174 35
-1.5204012 -0.20535524 -0.036756065 204 35
-1.5206422 -0.19589399 -0.036708087 203 35
-1.5198328 -0.18631524 -0.036612127 181 35
-1.5189633 -0.1767538 -0.036516171 148 35
-1.5180337 -0.16721006 -0.036420215 164 35
-1.5170443 -0.15768439 -0.036324259 186 35
-1.5169892 -0.14827508 -0.036276281 153 35
-1.5158812 -0.13878056 -0.036180325 174 35
-1.515709 -0.12939095 -0.036132347 183 35
-1.5144831 -0.11992908 -0.036036391 165 35
-1.4968239 0.036712587 -0.05365219 217 36
-1.4975682 0.045927092 -0.053712718 211 36
-1.4982557 0.055152111 -0.053773243 222 36
-1.4988863 0.064387299 -0.053833768 222 36
-1.498463 0.073583081 -0.053833768 232 36
-1.4949934 0.082610086 -0.05365219 253 36
-1.5004361 0.092150323 -0.054015346 204 36
-1.4998424 0.10135509 -0.054015346 207 36
-1.5001876 0.11062972 -0.054075871 214 36
-1.5004756 0.11991239 -0.054136399 231 36
-1.5007061 0.12920275 -0.054196924 223 36
-1.4998851 0.13840848 -0.054196924 233 36
-1.5009942 0.14780514 -0.054317977 207 36
-1.5010518 0.15711646 -0.054378502 213 36
-1.5010515 0.16643403 -0.054439027 210 36
-1.5019847 0.17587388 -0.05456008 219 36
-1.5008774 0.18508656 -0.05456008 219 36
-1.502683 0.1946778 -0.054741658 221 36
-1.5073946 0.20470184 -0.055104814 206 36
-1.5031455 0.21352528 -0.054923236 224 36
-1.5037817 0.22303778 -0.055044286 215 36
-1.505344 0.23271888 -0.055225864 208 36
-1.5058587 0.24226873 -0.055346917 197 36
-1.5063127 0.25183362 -0.055467967 206 36
-1.5086728 0.26175499 -0.055710074 194 36
-1.5119501 0.27189168 -0.056012701 211 36
-1.5161409 0.28226134 -0.056375857 202 36
-1.5173209 0.29212579 -0.056557436 167 36
-1.5203946 0.30240521 -0.056860063 208 36
-1.5214436 0.31233141 -0.057041641 185 36
-1.5214515 0.32207486 -0.057162695 182 36
-1.521397 0.33183014 -0.057283744 192 36
-1.5232277 0.34203476 -0.057525851 164 36
-1.5230454 0.35182449 -0.0576469 197 36
-1.5237713 0.36185569 -0.057828479 193 36
-1.5273403 0.37261948 -0.058191635 162 36
-1.5288979 0.38295513 -0.058433738 172 36
-1.5294194 0.39307517 -0.058615316 174 36
-1.5327697 0.4039799 -0.058978472 128 36
-1.5900029 0.42953113 -0.06273108 46 36
-1.610424 0.445674 -0.064183697 31 36
-1.6143812 0.45745346 -0.064607382 31 36
-1.6259229 0.47152409 -0.065515272 30 36
-1.6344817 0.4849011 -0.066241577 17 36
-1.6391165 0.49724081 -0.066725791 22 36
-1.6417545 0.5090639 -0.067088939 25 36
-1.644309 0.52093804 -0.067452095 16 36
-1.6496282 0.5337851 -0.06799683 23 36
-1.6529559 0.5460903 -0.068420514 22 36
-1.6543028 0.55781811 -0.068723142 12 36
-1.6565118 0.56990784 -0.069086298 15 36
-1.6529838 0.58006132 -0.069086298 19 36
-4.9957972 1.7884613 -0.28461906 17 36
-4.9603505 1.8101826 -0.28304538 324 36
-4.9444723 1.8388447 -0.28274277 527 36
-4.9405632 1.8719786 -0.28322697 606 36
-4.9364338 1.9051338 -0.28371117 592 36
-4.92558 1.9357525 -0.28377169 623 36
-4.912683 1.9655681 -0.28371117 583 36
-4.9079256 1.9986869 -0.28419539 605 36
-4.9057126 2.032968 -0.28486118 634 36
-4.8977447 2.06497 -0.28516379 587 36
