# .PCD v0.7 - Point Cloud Data file format
VERSION 0.7
FIELDS x y z intensity ring
SIZE 4 4 4 4 1
TYPE F F F F U
COUNT 1 1 1 1 1
WIDTH 262
HEIGHT 1
VIEWPOINT 0 0 0 1 0 0 0
POINTS 262
DATA ascii
5.5284162 0.068836637 -1.2548625 18 50
5.5772343 0.068375707 -1.3340691 25 51
5.5493913 0.033974849 -1.3271321 49 51
5.5760946 0.069426969 -1.4039924 16 52
5.4921961 0.034685425 -1.38218 7 52
5.5755062 0.069324665 -1.472402 11 53
5.5729313 0.035093859 -1.4716164 7 53
5.1509409 -0.12749951 -0.847399 17 45
5.1480913 -0.15904227 -0.84705997 15 45
5.1470184 -0.19062737 -0.84705997 34 45
5.15166 -0.22245906 -0.84807712 138 45
5.1472449 -0.25391987 -0.84756851 11 45
5.1446056 -0.2854436 -0.847399 22 45
5.1417737 -0.31694454 -0.84722948 16 45
5.1151505 -0.34682673 -0.84299147 352 45
5.1070285 -0.37777132 -0.84197432 358 45
5.0957732 -0.40839377 -0.84044862 368 45
5.0784431 -0.43838513 -0.83790582 218 45
5.1596584 -0.12661137 -0.91282177 81 46
5.1519041 -0.15805644 -0.91155213 340 46
5.1469064 -0.1895199 -0.91082662 403 46
5.1368036 -0.22071655 -0.90919423 390 46
5.1363349 -0.25227955 -0.90937561 359 46
5.1258531 -0.28330165 -0.90774322 267 46
5.1240187 -0.31474796 -0.90774322 370 46
5.089612 -0.34399158 -0.90175772 263 46
5.1136403 -0.12658465 -0.9670642 28 47
5.1049218 -0.15771836 -0.96551991 13 47
5.1185656 -0.18958001 -0.96841544 174 47
5.0986805 -0.2201833 -0.96474779 330 47
5.0952735 -0.25136781 -0.96436173 268 47
5.1035647 -0.12611918 -1.0270346 359 48
5.0938892 -0.15715933 -1.0251942 386 48
5.0947852 -0.18848442 -1.0256032 88 48
5.2622166 -0.13005197 -0.41281155 170 38
5.2414865 -0.12880769 -0.47451967 499 39
5.247561 -0.16117877 -0.47520033 457 39
5.2444844 -0.19330129 -0.47500587 419 39
5.2288394 -0.12831418 -0.53859735 394 40
5.2130508 -0.15993699 -0.53695399 262 40
5.191112 -0.19115101 -0.53465319 20 40
5.1977859 -0.22334144 -0.53552967 160 40
5.1943321 -0.25513256 -0.53531057 112 40
5.208488 -0.12800412 -0.60067934 448 41
5.2026443 -0.15980913 -0.60007089 145 41
5.2045412 -0.19183797 -0.60043597 14 41
5.2002912 -0.22364154 -0.60007089 55 41
5.1869245 -0.25496361 -0.59861052 369 41
5.1912088 -0.28711274 -0.59934068 265 41
5.2004876 -0.12761633 -0.66318542 397 42
5.1847482 -0.15906654 -0.66118079 70 42
5.1826839 -0.19084002 -0.66104716 69 42
5.1942868 -0.22319081 -0.66278446 347 42
5.1809416 -0.25447387 -0.66118079 329 42
5.1773038 -0.2861492 -0.66091353 323 42
5.1576457 -0.31681612 -0.658508 215 42
5.1259418 -0.34644976 -0.65449876 87 42
5.1874485 -0.1265886 -0.72681361 281 43
5.1766858 -0.158116 -0.72535449 12 43
5.1766071 -0.18991262 -0.7255004 15 43
5.1713905 -0.22150366 -0.72491676 220 43
5.1847558 -0.25395319 -0.72710544 80 43
5.1633439 -0.2846767 -0.7241872 20 43
5.1605124 -0.31629273 -0.72404128 21 43
5.1555133 -0.347752 -0.72360361 52 43
5.1325631 -0.37785846 -0.72053945 275 43
5.1542172 -0.12647742 -0.78526926 265 44
5.1750579 -0.15876853 -0.78874117 34 44
5.1700392 -0.19037347 -0.7881099 364 44
5.1687741 -0.22209264 -0.7881099 335 44
5.1594238 -0.25341532 -0.78684741 381 44
5.1508698 -0.28468621 -0.7857427 265 44
5.1440983 -0.31598291 -0.78495365 310 44
5.1430478 -0.34760723 -0.78511149 351 44
5.1280155 -0.37821263 -0.7830599 367 44
5.1177239 -0.40904042 -0.78179741 346 44
5.1131501 -0.44026491 -0.78148174 65 44
5.2290478 0.25583649 -0.86163884 285 45
5.2157502 0.22311178 -0.85909599 426 45
5.2160358 0.19106804 -0.85892648 385 45
5.2102146 0.15884767 -0.85773981 462 45
5.1963129 0.1265123 -0.85519701 314 45
5.1831965 0.094371676 -0.85282367 400 45
5.1856489 0.062590636 -0.85316277 463 45
5.189877 0.030795189 -0.85384083 388 45
5.1475906 -0.0010508024 -0.84655142 90 45
5.1563568 -0.032690037 -0.84807712 61 45
5.1747828 -0.064557612 -0.85129803 392 45
5.1723189 -0.096272029 -0.85095894 390 45
5.2114701 0.22402558 -0.92297888 81 46
5.1754022 0.19067135 -0.91608655 176 46
5.1941676 0.15945393 -0.91935134 28 46
5.1822677 0.1272672 -0.91699344 15 46
5.1878672 0.09555719 -0.91790032 45 46
5.1795058 0.063615203 -0.91626793 356 46
5.1876659 0.031880915 -0.91771895 56 46
5.1641622 5.0939234e-05 -0.9133659 28 46
5.168982 -0.031666256 -0.91427279 173 46
5.1618071 -0.063297011 -0.91300315 396 46
5.1534557 -0.094822749 -0.91155213 387 46
5.1599069 0.15730268 -0.97632992 262 47
5.1558704 0.12551862 -0.97536474 222 47
5.174202 0.094205901 -0.9788394 400 47
5.1658525 0.062347259 -0.97710204 366 47
5.161232 0.0306188 -0.97613686 132 47
5.1426802 -0.0010509095 -0.97246921 14 47
5.1160855 -0.032443807 -0.96725726 208 47
5.1275635 -0.063979141 -0.96957368 382 47
5.1211882 -0.09533184 -0.96841544 17 47
5.167213 0.12599899 -1.0403268 252 48
5.1502724 0.093971096 -1.036646 394 48
5.1507516 0.062367853 -1.036646 279 48
5.1236296 0.030600663 -1.03092 29 48
5.1217632 -0.00083744427 -1.030511 117 48
5.1275349 -0.032301422 -1.031738 367 48
5.1213675 -0.063689299 -1.030511 375 48
5.111093 -0.094929688 -1.0284661 390 48
5.1406045 0.096270934 -1.10017 103 49
5.1245031 0.064514235 -1.0964905 183 49
5.1043005 0.032932684 -1.0919453 16 49
5.1014776 0.0016110658 -1.091296 28 49
5.1189647 -0.029789288 -1.0951918 345 49
5.1147804 -0.061152309 -1.0943261 387 49
5.098691 -0.092255853 -1.0908631 257 49
5.1178589 0.032347657 -1.1586419 330 50
5.106277 0.00094318343 -1.1559058 239 50
5.3232069 0.26062402 -0.4184376 570 38
5.3187332 0.22770126 -0.41792613 534 38
5.2981253 0.19426028 -0.41605079 52 38
5.3002133 0.16177827 -0.41613603 34 38
5.2961259 0.12913266 -0.41570982 395 38
5.2968183 0.096633814 -0.41570982 380 38
5.2933264 0.064083375 -0.41536885 38 38
5.2886381 0.031573556 -0.41494262 27 38
5.2847471 -0.00087655761 -0.41460165 44 38
5.2637191 -0.033169735 -0.41281155 191 38
5.2723832 -0.065578878 -0.41357875 35 38
5.3142962 0.26095337 -0.48210403 482 39
5.2998881 0.22765365 -0.48054829 380 39
5.2812934 0.19439331 -0.47860357 33 39
5.3012881 0.162568 -0.48045105 291 39
5.290246 0.12974142 -0.47928423 422 39
5.2919378 0.097297139 -0.47938144 433 39
5.29144 0.064812183 -0.47928423 297 39
5.2668571 0.032185741 -0.47685334 437 39
5.2649646 -0.00013208315 -0.47665885 396 39
5.2668552 -0.032449119 -0.47685334 404 39
5.2247591 -0.064260572 -0.47276944 250 39
5.227252 -0.096372254 -0.47306114 287 39
5.2955918 0.2601977 -0.54648572 492 40
5.2811995 0.22701783 -0.54473275 184 40
5.2497139 0.19340354 -0.54111725 34 40
5.2696786 0.16176635 -0.54319894 95 40
5.2646098 0.12928319 -0.54254156 541 40
5.2454276 0.096613102 -0.54035032 34 40
5.2419462 0.064377412 -0.5399121 30 40
5.2362785 0.032176021 -0.53925472 24 40
5.2423415 4.5822406e-05 -0.5399121 261 40
5.2243519 -0.032009628 -0.53794003 32 40
5.2161055 -0.063966945 -0.53706354 29 40
5.2146211 -0.095952801 -0.53695399 49 40
5.2920232 0.25985476 -0.61151028 435 41
5.2895517 0.22720738 -0.61102355 83 41
5.2829108 0.19445319 -0.61004996 115 41
5.27706 0.16181971 -0.60919809 463 41
5.2700157 0.1292408 -0.60822451 431 41
5.2617779 0.096735977 -0.60712922 354 41
5.2563171 0.064374246 -0.60639906 354 41
5.248673 0.032070592 -0.60542548 400 41
5.2398381 -0.0001370168 -0.60433024 390 41
5.2258425 -0.032205518 -0.6026265 338 41
5.2225695 -0.064234123 -0.60226142 62 41
5.207191 -0.09600687 -0.60043597 452 41
5.2653661 0.29111072 -0.67280751 479 42
5.2561646 0.25826338 -0.67133749 288 42
5.2576504 0.22600728 -0.67133749 20 42
5.2500248 0.19341499 -0.67013472 27 42
5.2540846 0.1612888 -0.67053562 389 42
5.2311978 0.12846516 -0.66732824 61 42
5.2348599 0.096419245 -0.6677292 27 42
5.2294073 0.064224355 -0.66692734 34 42
5.2088919 0.032009769 -0.66412085 207 42
5.2179093 4.7421468e-05 -0.66532367 104 42
5.2069106 -0.031901468 -0.66385359 25 42
5.1957164 -0.063715376 -0.66238356 25 42
5.2071176 -0.095814176 -0.66398722 359 42
5.2548361 0.25893718 -0.73746508 211 43
5.2434769 0.22613223 -0.73556823 45 43
5.2467432 0.19402817 -0.73586005 399 43
5.2409129 0.16161612 -0.73483866 414 43
5.241806 0.12945543 -0.73483866 386 43
5.2227192 0.096918344 -0.73192048 292 43
5.2182693 0.064807981 -0.73119092 398 43
5.215601 0.032768749 -0.73075318 379 43
5.2107577 0.00076397095 -0.73002362 382 43
5.1968141 -0.031128805 -0.72798091 27 43
5.1886115 -0.062921084 -0.72681361 267 43
5.1831822 -0.094667405 -0.72608405 415 43
5.2534046 0.2904503 -0.80215532 315 44
5.2324038 0.25709763 -0.79852563 17 44
5.2319093 0.22490269 -0.79820997 31 44
5.2351646 0.19286862 -0.79852563 225 44
5.2145352 0.16007766 -0.79505372 140 44
5.2183809 0.12815136 -0.79552716 22 44
5.2131453 0.0960209 -0.79458028 22 44
5.2294345 0.064224683 -0.79710531 97 44
5.2001066 0.031956438 -0.79237092 253 44
5.1913176 4.9161903e-05 -0.7909506 28 44
5.1813455 -0.03174293 -0.78937244 20 44
5.202776 -0.063802481 -0.79284436 268 44
5.1894517 -0.095487788 -0.79079276 384 44
5.2344308 -0.16150622 -0.41051 241 38
5.3364334 0.064444423 -0.2194088 545 35
5.3357296 0.031693321 -0.21936081 535 35
5.3248363 -0.0010469354 -0.21883306 375 35
5.3357344 0.16285986 -0.28655589 596 36
5.3286505 0.12992328 -0.28607169 626 36
5.323359 0.097116053 -0.28570852 614 36
5.3328376 0.064558789 -0.28625327 200 36
5.3081799 0.031688772 -0.28474012 27 36
5.3052797 -0.00088148506 -0.28455853 24 36
5.3301282 -0.033593155 -0.28607169 129 36
5.2908959 -0.065810524 -0.28371117 443 36
5.3444023 0.26150602 -0.35279197 330 37
5.3329525 0.22815146 -0.35184667 576 37
5.3262787 0.19513093 -0.35126492 357 37
5.315413 0.16207844 -0.35039234 33 37
5.3093281 0.12928914 -0.34988332 453 37
5.3040385 0.096598998 -0.34944701 484 37
5.302537 0.064027689 -0.34930161 469 37
5.3018327 0.031484589 -0.34922889 249 37
5.2939472 -0.0010476094 -0.34864715 446 37
5.2868595 -0.033487953 -0.34813812 493 37
5.2845602 -0.065902449 -0.34799272 483 37
5.2800674 -0.098253317 -0.34770185 481 37
5.2509613 -0.097538218 -0.41178864 33 38
5.3324194 0.35956708 -0.41971624 249 38
5.3255749 0.32629347 -0.41894907 562 38
5.3215079 0.29328167 -0.4184376 545 38
5.3504186 0.42758203 -0.4866741 582 39
5.3469863 0.39430398 -0.48609069 508 39
5.3066068 0.35859331 -0.48190957 55 39
5.2818861 0.32437277 -0.47928423 39 39
5.2887454 0.29223326 -0.47977039 44 39
5.3448606 0.49336642 -0.55371678 66 40
5.3260002 0.45868692 -0.55130643 389 40
5.3237605 0.42560288 -0.5507586 416 40
5.3213153 0.39256361 -0.55021083 415 40
5.31569 0.35936946 -0.54933435 422 40
5.311842 0.32638091 -0.54867697 61 40
5.2968726 0.29285035 -0.54681444 444 40
5.3072863 0.42412564 -0.61467439 474 41
5.3276062 0.3928706 -0.61686492 123 41
5.2972369 0.35795811 -0.61284894 29 41
5.2933893 0.32508177 -0.61211878 28 41
5.2843828 0.29199123 -0.61078012 393 41
5.2818475 0.38965487 -0.67588121 226 42
5.2831502 0.35717198 -0.67574757 69 42
5.2733722 0.32401997 -0.67414391 338 42
5.2945824 0.3587037 -0.74417692 118 43
5.2631116 0.32413495 -0.73921597 424 43
5.2650013 0.29183501 -0.73921597 405 43
