# .PCD v0.7 - Point Cloud Data file format
VERSION 0.7
FIELDS x y z intensity ring
SIZE 4 4 4 4 1
TYPE F F F F U
COUNT 1 1 1 1 1
WIDTH 1375
HEIGHT 1
VIEWPOINT 0 0 0 1 0 0 0
POINTS 1375
DATA ascii
4.799664 0.35550207 1.468066 82 7
4.7931509 0.32545885 1.4654918 87 7
4.7931452 0.29592395 1.4649197 69 7
4.7939138 0.26645479 1.4646337 72 7
4.7925873 0.23689225 1.4637756 76 7
4.7872496 0.20718937 1.4617735 52 7
4.7874732 0.17777565 1.4614874 71 7
4.791347 0.14848667 1.4623455 73 7
4.7969575 0.11920492 1.4637756 73 7
4.8043051 0.089896217 1.4657778 58 7
4.8133898 0.060526397 1.468352 55 7
4.8251686 0.031067681 1.4717842 55 7
4.8300595 0.0014630301 1.4732144 52 7
4.8290195 -0.02816833 1.4729284 75 7
4.8277974 -0.057786871 1.4726423 49 7
4.8321424 -0.087494165 1.4740725 58 7
4.8343887 -0.11721097 1.4749305 41 7
4.8335781 -0.14687201 1.4749305 52 7
4.8316283 -0.17649278 1.4746445 61 7
4.8256679 -0.20593266 1.4732144 53 7
4.8214421 -0.23539904 1.4723563 52 7
4.8179936 -0.26487368 1.4717842 40 7
4.817234 -0.29448959 1.4720703 37 7
4.8201165 -0.32436255 1.4735004 51 7
4.8256812 -0.35449189 1.4757886 48 7
4.8291464 -0.38455003 1.4775047 41 7
4.8324242 -0.41466403 1.4792209 43 7
4.8355141 -0.44483271 1.480937 42 7
4.8317404 -0.47440112 1.480651 34 7
4.8306446 -0.50423765 1.481223 35 7
4.830317 -0.53418374 1.4820811 31 7
4.8288517 -0.56403387 1.4826531 32 7
4.8253002 -0.59365249 1.4826531 28 7
4.8244176 -0.62361664 1.4835112 36 7
4.8299961 -0.65449136 1.4863714 24 7
4.8372746 -0.68572652 1.4898037 27 7
4.8405595 -0.71651524 1.4920919 22 7
4.8445954 -0.74751598 1.4946661 22 7
4.8484325 -0.77859312 1.4972403 25 7
4.8463998 -0.8088004 1.4980984 19 7
4.8470111 -0.83950198 1.4998145 24 7
4.8445983 -0.86973417 1.5006726 14 7
4.8448234 -0.90049297 1.5023887 14 7
4.8476758 -0.93182915 1.5049629 19 7
4.8503265 -0.96323425 1.5075371 19 7
4.8584061 -0.99586004 1.5118275 25 7
4.8503289 -1.025256 1.5112554 22 7
4.8495646 -1.0562199 1.5129715 19 7
0.90173835 -0.20317595 0.30738518 60 7
0.9051435 -0.20978093 0.30881527 89 7
0.90197444 -0.21488905 0.30824324 100 7
0.90063888 -0.22041942 0.30824324 78 7
0.89833987 -0.22570916 0.3079572 70 7
0.88023061 -0.22693263 0.30280879 41 7
0.88438189 -0.23379162 0.30452493 20 7
4.8853421 -1.3180934 1.5418599 9 7
4.8836279 -1.3498299 1.543862 17 7
4.8853965 -1.3826379 1.5470083 17 7
4.8933887 -1.417383 1.5521567 14 7
4.8919501 -1.4495578 1.5544449 16 7
4.8930521 -1.4826012 1.5575911 22 7
4.8902707 -1.5145794 1.5595933 13 7
4.8872809 -1.5465792 1.5615954 9 7
4.8786111 -1.5768324 1.5618814 12 7
4.8724842 -1.6079377 1.5630256 99 7
4.8797812 -1.6436119 1.56846 113 7
4.8387914 -1.6629411 1.5587353 105 7
4.7850881 -1.6773946 1.5450062 107 7
4.6889791 -1.676103 1.5178339 136 7
4.5984716 -1.6756635 1.4923779 98 7
4.5467787 -1.6885124 1.4792209 112 7
4.4977918 -1.7018074 1.4669219 250 7
4.4827938 -1.7276515 1.4654918 244 7
4.4899502 -1.7621219 1.4712123 212 7
4.4977417 -1.7971002 1.4772187 225 7
4.4644375 -1.8156447 1.4700681 79 7
0.93076426 -0.38620815 0.33226916 90 7
0.90717977 -0.3829926 0.32540461 143 7
0.89864624 -0.38591236 0.32340243 181 7
0.89098984 -0.38912439 0.3216863 191 7
0.8894617 -0.39497191 0.32197234 175 7
0.88614762 -0.40002891 0.3216863 173 7
0.88106221 -0.40426302 0.32082823 159 7
0.87595826 -0.4084498 0.31997016 197 7
0.87430203 -0.41422611 0.3202562 134 7
0.87433571 -0.42082652 0.32111427 138 7
0.87173706 -0.42618343 0.32111427 117 7
0.8733995 -0.43364978 0.32254437 91 7
0.86900997 -0.43813998 0.32197234 105 7
0.86801219 -0.44433507 0.32254437 124 7
0.86952347 -0.45185691 0.32397449 95 7
0.87521529 -0.46164417 0.32683471 27 7
0.8470065 -0.45346844 0.31825402 6 7
4.4081464 -2.3893154 1.5281308 5 7
4.4840927 -2.4661691 1.5590212 16 7
4.4412594 -2.4782348 1.5495825 6 7
4.4818473 -2.5370531 1.568746 28 7
4.4811554 -2.5730908 1.5738944 26 7
4.4868145 -2.6130714 1.581331 14 7
4.5028782 -2.6595507 1.5924859 9 7
4.4971628 -2.6935279 1.5962042 15 7
4.5034866 -2.7349932 1.6042129 10 7
4.498045 -2.7696059 1.6082171 10 7
4.4939737 -2.8052688 1.6127936 9 7
4.4969225 -2.8455956 1.6199441 16 7
4.4938979 -2.8824437 1.6250925 9 7
4.5002317 -2.9256265 1.6336732 19 7
4.5006018 -2.965306 1.6402518 17 7
4.5094209 -3.0109508 1.6499765 16 7
4.517055 -3.056278 1.6594152 17 7
4.5140257 -3.09477 1.6651357 19 7
4.5232868 -3.1420834 1.6754326 6 7
4.514111 -3.1769459 1.6791508 8 7
4.5062375 -3.2129259 1.6834412 15 7
4.4887691 -3.242198 1.6842992 18 7
4.4664707 -3.2679825 1.6834412 10 7
4.4463348 -3.2953267 1.6834412 12 7
4.393074 -3.2978172 1.6711422 7 7
3.7410705 -2.8446376 1.4343153 9 7
0 -0 0 3 7
0 -0 0 4 7
0 -0 0 4 7
0 -0 0 4 7
3.5947046 -2.9116302 1.4122915 7 7
0 -0 0 4 7
3.5786111 -2.972048 1.4200141 8 7
3.5625081 -2.9957995 1.4208722 6 7
3.5331132 -3.008287 1.4165819 4 7
0 -0 0 4 7
0 -0 0 3 7
0 -0 0 4 7
3.3696513 -3.0148835 1.381115 51 7
3.3510888 -3.0355024 1.381115 47 7
3.3521791 -3.0741363 1.3891237 109 7
3.3423848 -3.1031201 1.3928419 86 7
3.322583 -3.1229141 1.392556 85 7
3.2971096 -3.1372991 1.3899817 62 7
3.2708945 -3.1508248 1.3871214 57 7
3.2679684 -3.186887 1.393986 54 7
3.2469883 -3.2055328 1.393414 74 7
3.2211571 -3.219301 1.3908398 58 7
3.1925843 -3.2301476 1.3871214 57 7
3.1753826 -3.2524178 1.3882656 84 7
3.1573625 -3.2739091 1.3891237 57 7
3.1484535 -3.3050125 1.393986 43 7
3.1327131 -3.3291523 1.3959882 37 7
3.1207099 -3.3574338 1.3997065 49 7
3.1175525 -3.3955722 1.4074291 56 7
3.1166196 -3.4366362 1.4162958 48 7
3.1351247 -3.4999368 1.4340292 67 7
3.1358202 -3.54422 1.4440401 66 7
3.257818 -3.7278683 1.5092533 45 7
3.2856116 -3.8065317 1.5324211 73 7
3.2796044 -3.8470337 1.5404297 151 7
3.2330964 -3.8399687 1.5298469 106 7
3.1929276 -3.8398452 1.5221243 82 7
3.1656568 -3.8549218 1.5204082 57 7
3.1679046 -3.9062698 1.5327071 33 7
3.1576574 -3.9428334 1.5392857 45 7
3.1227031 -3.9486082 1.5341372 23 7
3.1361723 -4.0160203 1.5524427 54 7
3.1378098 -4.0693288 1.5653137 72 7
3.1174269 -4.0946035 1.5676019 74 7
4.3846583 -5.8321567 2.2094371 46 7
4.3430781 -5.8512573 2.2065771 54 7
4.3048277 -5.8747044 2.2054329 48 7
4.2557797 -5.883153 2.1988544 48 7
4.2351966 -5.9309878 2.2068629 42 7
4.1672506 -5.9122243 2.1905596 53 7
4.1588111 -5.9777942 2.2051468 28 7
4.1122885 -5.9889827 2.1999984 36 7
4.0668607 -6.0014119 2.1954222 40 7
4.0486078 -6.0541282 2.2054329 25 7
3.9712639 -6.0180793 2.1836951 48 7
3.9306021 -6.0367126 2.1816931 48 7
3.8960779 -6.0647473 2.1831231 50 7
3.8618703 -6.0933948 2.1848392 45 7
3.8178039 -6.1064143 2.1811209 38 7
3.7817731 -6.1321716 2.1819789 53 7
3.7500529 -6.1650839 2.1854112 23 7
3.7333562 -6.2233076 2.1977103 17 7
3.6653309 -6.1957951 2.1802628 68 7
3.6369045 -6.2347207 2.1859834 44 7
3.5961912 -6.2527661 2.1845531 41 7
3.5577571 -6.2747145 2.1845531 47 7
3.5112393 -6.282208 2.1796908 66 7
3.4712389 -6.3011165 2.1788328 58 7
3.4361694 -6.3290334 2.1811209 63 7
3.3891315 -6.3347912 2.1759725 79 7
3.3729937 -6.3986945 2.1905596 67 7
3.3389697 -6.4294739 2.1939919 68 7
3.2841775 -6.4199853 2.1839812 52 7
3.0985146 -6.1499429 2.0870194 42 7
3.0602949 -6.1679807 2.0867333 44 7
3.0589974 -6.2615404 2.1116173 47 7
3.1235566 -6.4943323 2.1825511 106 7
3.0795479 -6.5047154 2.1796908 119 7
3.0339098 -6.5113301 2.1756866 92 7
2.9915028 -6.5245972 2.1739705 87 7
2.9482591 -6.5358429 2.1716821 74 7
2.9057677 -6.5485549 2.169966 86 7
2.8674488 -6.570652 2.1713963 79 7
2.8331263 -6.602211 2.1759725 70 7
2.7996421 -6.6362438 2.181407 92 7
2.7581358 -6.6515269 2.180835 101 7
2.7151003 -6.6630015 2.1791189 124 7
2.6730969 -6.676867 2.1782608 107 7
2.6310258 -6.6904678 2.1774027 100 7
2.5892336 -6.7046981 2.1768305 100 7
2.5460064 -6.7150836 2.1751144 119 7
2.5057585 -6.733273 2.1759725 107 7
2.4574912 -6.7296209 2.169966 143 7
2.4155061 -6.7427688 2.169394 133 7
2.3670971 -6.7375751 2.1631014 50 7
1.453698 -4.2217035 1.3642397 14 7
1.4185673 -4.2033091 1.355659 12 7
0 -0 0 4 7
1.3600833 -4.1994352 1.3490804 5 7
1.3273331 -4.185782 1.3422159 11 7
1.2967919 -4.1782908 1.3373535 14 7
1.2663928 -4.1705837 1.3324912 10 7
1.2375025 -4.1672535 1.3290589 15 7
1.2078986 -4.1609659 1.3247685 11 7
1.1815594 -4.1655335 1.3239105 17 7
1.1544416 -4.1671648 1.3221943 19 7
1.127849 -4.1704702 1.3210502 12 7
1.1019934 -4.1763859 1.3207642 15 7
1.0758688 -4.1812129 1.3201921 21 7
1.0483265 -4.1803007 1.317904 16 7
1.0217464 -4.1829309 1.3167598 13 7
0.99295437 -4.1760712 1.3127556 16 7
0.96601462 -4.1764841 1.3110394 26 7
0.93805498 -4.17205 1.3078932 22 7
0.91161925 -4.1739826 1.3067491 21 7
0.88479722 -4.1738739 1.305033 22 7
0.85994297 -4.1829782 1.306177 24 7
0.83463544 -4.1900554 1.3067491 30 7
0 -0 0 4 7
0 -0 0 4 7
0 -0 0 4 7
0.74815273 -4.3046231 1.3356373 6 7
0.7239455 -4.3223629 1.3396417 17 7
0.69909048 -4.3371291 1.342788 14 7
0.67334676 -4.3470187 1.3445041 13 7
0.70536613 -4.7453427 1.4634897 39 7
0.67921257 -4.7704511 1.4697821 251 7
0.65161204 -4.7868714 1.4735004 85 7
0.62272269 -4.7945805 1.4746445 78 7
0.85260361 -6.8913574 2.1041808 404 7
0.8106389 -6.8993139 2.1050389 287 7
0.76754731 -6.8974919 2.1030366 416 7
0.72511035 -6.9011188 2.1027508 405 7
0.68256336 -6.9035306 2.1021786 421 7
0.6396597 -6.9018641 2.1004624 465 7
0.59713316 -6.9037499 2.0998905 491 7
0.55460757 -6.9053736 2.0993185 214 7
0.51236856 -6.9105577 2.0998905 422 7
0.4698914 -6.9126153 2.0996044 453 7
0.42740825 -6.914412 2.0993185 534 7
0.38502759 -6.9178615 2.0996044 489 7
0.34238297 -6.9162655 2.0984604 492 7
0.30010578 -6.9220653 2.0996044 518 7
0.25780609 -6.9285641 2.1010346 527 7
0.21522854 -6.9281001 2.1004624 513 7
0.17261831 -6.9254584 2.0993185 577 7
0.13003045 -6.921597 2.0978882 587 7
0.087484196 -6.9165158 2.0961721 595 7
0.045094822 -6.9245882 2.0984604 630 7
0.0026091565 -6.9314418 2.1004624 588 7
-0.039953563 -6.9370766 2.1021786 526 7
-0.082517914 -6.9367008 2.1021786 511 7
-0.12502781 -6.9331899 2.1013205 547 7
-0.16756672 -6.932292 2.1013205 573 7
-0.21018592 -6.9340067 2.1021786 536 7
-0.25283247 -6.9354596 2.1030366 579 7
-0.29562661 -6.9395218 2.1047528 522 7
-0.33838713 -6.9414053 2.1058969 589 7
-0.38139138 -6.9468527 2.1081851 586 7
-0.42418399 -6.9472513 2.1090431 593 7
-0.46680355 -6.9445176 2.1090431 525 7
-0.50940549 -6.9415226 2.1090431 590 7
-0.55244333 -6.9439979 2.1107593 552 7
-0.59479541 -6.937613 2.1099012 542 7
-0.63814056 -6.942421 2.1124754 531 7
-0.68175381 -6.9488649 2.1156218 539 7
-0.7237829 -6.9388323 2.1139057 553 7
-0.76687068 -6.939023 2.1153357 544 7
-0.81065363 -6.9446564 2.1184819 530 7
-0.84811175 -6.8977041 2.1058969 416 7
-0.89642727 -6.9389372 2.1199121 333 7
-0.93834472 -6.9285583 2.1184819 302 7
-0.9781546 -6.9036951 2.1127615 271 7
-1.0204965 -6.8975635 2.1127615 253 7
-1.0607573 -6.877913 2.1087573 274 7
-1.1027877 -6.8703289 2.1084712 270 7
-1.1471276 -6.8766656 2.1124754 228 7
-1.1910968 -6.8798838 2.1156218 247 7
-1.2312595 -6.8611274 2.1121895 197 7
-1.270887 -6.8402538 2.1081851 232 7
-1.31446 -6.8407965 2.1107593 266 7
-1.3586468 -6.8438811 2.1141915 226 7
-1.4006144 -6.8354158 2.1141915 230 7
-1.4397581 -6.8135672 2.1101873 188 7
-1.4809272 -6.801796 2.1093292 188 7
-1.5236815 -6.7972565 2.1107593 229 7
-1.5629932 -6.7775078 2.1076131 202 7
-1.6001318 -6.7491417 2.1018927 125 7
-1.6329023 -6.7038169 2.0910237 135 7
-1.6663388 -6.6629934 2.0815849 170 7
-1.7112372 -6.6684227 2.0864475 157 7
-1.7569959 -6.6763315 2.0921679 153 7
-1.7939377 -6.6506219 2.0875914 56 7
-1.8454242 -6.6782827 2.0996044 160 7
-1.8894954 -6.6778984 2.1030366 184 7
-1.9264388 -6.6523724 2.0987463 208 7
-1.9710292 -6.6532898 2.1027508 176 7
-2.0109828 -6.6383195 2.1018927 202 7
-2.0474279 -6.6121244 2.0976024 163 7
-2.081027 -6.5775099 2.0907378 196 7
-2.1228192 -6.5691762 2.0921679 158 7
-2.1591859 -6.5441971 2.0884495 164 7
-2.2054129 -6.5489883 2.0941701 203 7
-2.2464888 -6.5380521 2.0950282 207 7
-2.2859297 -6.522336 2.094456 228 7
-2.3233285 -6.500968 2.0921679 217 7
-2.3582561 -6.473084 2.0878775 281 7
-2.3969297 -6.4557972 2.0870194 229 7
-2.4364965 -6.440968 2.0870194 273 7
-2.4838922 -6.4464636 2.0935979 206 7
-2.5157034 -6.4114757 2.0873055 232 7
-2.5489559 -6.3807907 2.082443 281 7
-2.5920281 -6.374795 2.0855894 323 7
-2.6270661 -6.3490305 2.082443 343 7
-2.658169 -6.3142438 2.0764365 391 7
-2.7062888 -6.319838 2.0835872 378 7
-2.7480752 -6.310142 2.0858753 365 7
-2.7809243 -6.2800183 2.0815849 278 7
-2.8158667 -6.254972 2.0790107 310 7
-2.7047346 -5.9108005 1.9717523 193 7
-2.6876373 -5.7793927 1.9339973 254 7
-2.7115901 -5.7385325 1.9259886 214 7
-1.0513254 -2.1883569 0.75615507 26 7
-1.063054 -2.1784194 0.75501096 46 7
-1.0764004 -2.1718557 0.75501096 44 7
-1.0974529 -2.1806207 0.76015937 45 7
-1.1190888 -2.190062 0.76559383 31 7
-1.1457307 -2.208678 0.77417451 23 7
-1.1597074 -2.2024546 0.77446049 36 7
-1.1709434 -2.1910706 0.7730304 41 7
-1.1834527 -2.1821594 0.77245837 40 7
-1.1935889 -2.1689787 0.77045619 26 7
-1.2045413 -2.1574299 0.7690261 32 7
-1.2144535 -2.1441603 0.76702392 47 7
-1.226156 -2.1341751 0.76616585 34 7
-1.2377818 -2.1241269 0.76530778 33 7
-1.2503048 -2.1156669 0.76502174 36 7
-1.2696611 -2.1186433 0.76874006 31 7
-1.2866145 -2.1173661 0.77102822 23 7
-1.2995822 -2.1094317 0.77102822 34 7
-1.3155444 -2.1062956 0.77274436 26 7
-1.3315169 -2.1030431 0.77446049 25 7
-1.3402585 -2.0883799 0.77217233 43 7
-1.3530474 -2.080117 0.77217233 18 7
-1.3736906 -2.0837798 0.77646267 29 7
-1.3917698 -2.083282 0.77932292 30 7
-1.4587438 -2.1548712 0.80821121 10 7
-2.4751039 -3.609767 1.3379256 33 7
-1.5867276 -2.2832079 0.86141145 14 7
-1.6415054 -2.331425 0.88257718 37 7
-1.6213001 -2.2729285 0.86484373 18 7
-1.6554085 -2.2909062 0.87514055 41 7
-1.6541612 -2.2598226 0.86741793 20 7
-1.6645738 -2.2450104 0.86570179 24 7
-1.6679657 -2.2209585 0.86055338 28 7
-1.6659073 -2.1900837 0.85283077 28 7
-1.670547 -2.1684308 0.84854043 30 7
-1.674984 -2.1468036 0.84425008 60 7
-1.6738752 -2.1184351 0.83738554 28 7
-1.6826537 -2.1028855 0.83538336 46 7
-1.6907017 -2.0865633 0.83309519 44 7
-1.6797808 -2.0472491 0.8219403 19 7
-1.6855786 -2.0287933 0.81879407 15 7
-1.693063 -2.0125444 0.81650585 11 7
-4.3894429 -5.1560555 2.0526967 110 7
-4.3890972 -5.0920038 2.0381095 208 7
-4.4227781 -5.0678649 2.0392537 184 7
-0 -0 0 4 7
-0 -0 0 3 7
-1.5203217 -1.6775111 0.70724511 4 7
-1.5221691 -1.6589679 0.70352685 8 7
-1.5303644 -1.6474897 0.70266879 16 7
-1.5397884 -1.6373701 0.70238274 9 7
-1.5504664 -1.6285857 0.70266879 31 7
-1.56043 -1.6190414 0.70266879 38 7
-1.5723413 -1.611495 0.70352685 33 7
-1.588257 -1.6079557 0.70610106 40 7
-1.5960617 -1.5961462 0.70524299 36 7
-1.6071881 -1.5876704 0.70581502 37 7
-1.6264961 -1.5871531 0.70981932 23 7
-4.833694 -4.6623964 2.0361073 38 7
-4.7581663 -4.533483 1.993204 384 7
-4.7426381 -4.4634776 1.9754705 459 7
-4.7509904 -4.4166746 1.9677479 405 7
-4.743423 -4.3556767 1.9537328 432 7
-4.7253518 -4.2859244 1.9357134 314 7
-4.7337213 -4.2408614 1.9285628 341 7
-4.7453036 -4.1990333 1.9228423 308 7
-4.7507806 -4.1521773 1.9148337 140 7
-4.7747178 -4.1216965 1.9142616 120 7
-4.8013763 -4.0935655 1.9148337 112 7
-4.8212738 -4.0597062 1.9128315 70 7
-4.8460927 -4.0300469 1.9128315 73 7
-4.8633256 -3.9941533 1.9099712 101 7
-2.9411683 -2.3848543 1.1617354 81 7
-2.9512594 -2.3631678 1.1600193 96 7
-2.9566865 -2.3378801 1.156587 239 7
-2.956629 -2.3084853 1.1511526 101 7
-2.9646683 -2.2856178 1.1488644 206 7
-2.964916 -2.2569327 1.143716 89 7
-2.967221 -2.2300587 1.1394256 75 7
-2.9808486 -2.2118101 1.1394256 92 7
-2.9812257 -2.1838479 1.1345633 70 7
-2.9774911 -2.1531558 1.1282707 90 7
-2.9859681 -2.1315038 1.1265546 159 7
-2.9856775 -2.1037552 1.1216923 74 7
-2.9906647 -2.0799222 1.118832 60 7
-2.9923127 -2.0539372 1.1148278 55 7
-3.0016866 -2.0333874 1.1136836 74 7
-3.007735 -2.0106688 1.1113955 70 7
-3.0296121 -1.9985106 1.1148278 57 7
-3.0578761 -1.9903432 1.1205481 45 7
-3.0990512 -1.9901925 1.130845 31 7
-3.1136322 -1.9726789 1.131703 38 7
-3.1679232 -1.9799588 1.1465763 149 7
-3.1971381 -1.971049 1.1525828 62 7
-3.2329109 -1.9658397 1.1608773 207 7
-3.3065343 -1.9829464 1.1823292 66 7
-3.3499753 -1.9811654 1.193198 58 7
-3.3960006 -1.9803741 1.2049249 32 7
-3.4014437 -1.9556764 1.2026367 46 7
-4.561914 -2.5862334 1.5967762 35 7
-4.5743518 -2.5563228 1.5956322 63 7
-5.451828 -3.0031917 1.8893776 41 7
-5.4810991 -2.9756286 1.893096 66 7
-5.5288229 -2.957767 1.9031067 37 7
-4.4712768 -2.35658 1.5401437 78 7
-4.4907541 -2.3317511 1.5418599 38 7
-4.502418 -2.3028429 1.5410018 49 7
-4.5061951 -2.2699976 1.5375695 53 7
-4.4324918 -2.1988497 1.5083952 44 7
-4.5337124 -2.2145288 1.5375695 32 7
-4.6810522 -2.2510669 1.5819031 150 7
-4.6939106 -2.2218919 1.581617 126 7
-4.6553454 -2.1687582 1.5644556 71 7
-4.6851134 -2.1477432 1.5698901 71 7
-4.7663288 -2.1496997 1.5921999 108 7
-4.8293505 -2.1425745 1.6085032 89 7
-4.8924618 -2.1347561 1.6248065 73 7
-5.0093689 -2.1493018 1.6585572 38 7
-4.2526498 -1.793615 1.4091452 54 7
-4.2945528 -1.7803386 1.4191561 102 7
-4.3080578 -1.7550395 1.4200141 114 7
-4.3187456 -1.7285727 1.4200141 155 7
-4.3239202 -1.6999359 1.418298 131 7
-4.3306942 -1.6719915 1.4171538 139 7
-4.3363924 -1.6436881 1.4157238 124 7
-4.3131704 -1.6046785 1.4051409 124 7
-4.2986341 -1.5693046 1.3974183 141 7
-4.321713 -1.5477487 1.4017086 116 7
-4.3211842 -1.5177066 1.3985624 156 7
-4.3195443 -1.4874172 1.3951302 145 7
-4.3186035 -1.4575118 1.3919839 172 7
-4.3238263 -1.4297817 1.3908398 176 7
-4.3316064 -1.4029287 1.3905537 179 7
-4.3282599 -1.3725555 1.3868355 156 7
-4.3237891 -1.3419921 1.3828311 139 7
-4.3456945 -1.3196164 1.3871214 129 7
-4.3684058 -1.2972953 1.3916979 106 7
-4.3808842 -1.2718039 1.3931279 85 7
-4.4042759 -1.2493488 1.3979903 84 7
-4.3767705 -1.2125703 1.3871214 43 7
-0 -0 0 3 7
-0 -0 0 5 7
-3.8787079 -0.9979437 1.2269487 4 7
-0 -0 0 5 7
-3.8953161 -0.95140898 1.2283788 9 7
-3.9076056 -0.92904323 1.230381 10 7
-3.9272354 -0.908292 1.2346714 3 7
-0 -0 0 4 7
-0 -0 0 4 7
-3.9545367 -0.83823818 1.2381036 6 7
-4.4194908 -0.90863317 1.3782548 62 7
-4.4418974 -0.88487273 1.3834032 90 7
-4.4415984 -0.856511 1.381687 95 7
-4.4486542 -0.82959354 1.3822591 72 7
-4.4602613 -0.80347234 1.3842613 99 7
-4.4518914 -0.77378893 1.3802569 76 7
-4.4650602 -0.74788487 1.3828311 90 7
-4.4714575 -0.72077918 1.3834032 103 7
-4.4388671 -0.687599 1.3722483 68 7
-4.4847045 -0.66655886 1.3848333 109 7
-4.4801726 -0.63781101 1.3822591 100 7
-4.465013 -0.60771966 1.3765386 101 7
-4.4173465 -0.57363439 1.3610934 61 7
-4.4607229 -0.55146754 1.3731064 107 7
-4.4830561 -0.52632624 1.3788269 119 7
-4.4842963 -0.49859652 1.3782548 146 7
-4.5063305 -0.47307783 1.3839753 93 7
-4.5177302 -0.44626859 1.3865495 88 7
-4.5175214 -0.41827413 1.3856914 108 7
-4.4589052 -0.38525233 1.3673859 56 7
-4.4965253 -0.36073011 1.3779688 98 7
-4.6954265 0.1151847 1.3766779 489 8
-4.6792569 0.1435203 1.372273 381 8
-4.6965418 0.17290248 1.3775038 436 8
-4.6752224 0.20084848 1.3717225 294 8
-4.7017479 0.23090112 1.3797061 502 8
-4.7002425 0.25974616 1.3797061 525 8
-4.6899242 0.28805029 1.3772285 339 8
-4.6947827 0.317276 1.3791555 359 8
-4.6706963 0.34444863 1.3728236 258 8
-4.6895776 0.37478766 1.3788803 299 8
-4.6785693 0.40281239 1.3764025 274 8
-4.6511202 0.42921305 1.3692447 198 8
-4.6608362 0.4589695 1.3728236 241 8
-4.654108 0.4871586 1.3717225 215 8
-4.6433873 0.51485831 1.3695199 177 8
-4.676424 0.54759157 1.3799815 245 8
-4.6348114 0.57156551 1.3689694 175 8
-4.6359839 0.60061139 1.370346 212 8
-4.6350694 0.62943429 1.3711718 209 8
-4.6187463 0.65610397 1.3675929 163 8
-4.6355543 0.68753642 1.3736495 218 8
-4.6378989 0.71699542 1.3755766 247 8
-4.6286664 0.74467564 1.3742001 213 8
-4.6638341 0.77972388 1.3857628 291 8
-4.6485429 0.80651736 1.3827345 229 8
-4.6529684 0.83672732 1.3854876 270 8
-4.6392407 0.86367744 1.3830098 241 8
-4.6017575 0.88594496 1.3736495 214 8
-4.6971226 0.93423879 1.4031068 395 8
-4.6140819 0.94718379 1.380532 309 8
-4.6269932 0.97946084 1.3860381 294 8
-4.6565881 1.0156207 1.3964996 355 8
-4.6183772 1.0370102 1.3871393 327 8
-4.597877 1.0620818 1.3830098 396 8
-4.5847263 1.0887185 1.3810827 376 8
-4.6041107 1.1232113 1.3887911 301 8
-4.586874 1.1488702 1.3857628 441 8
-4.5592546 1.1717271 1.3797061 413 8
-4.5798669 1.2070323 1.3879652 329 8
-4.5844398 1.2383713 1.3915441 332 8
-4.5767546 1.2664776 1.3915441 323 8
-4.5633483 1.2929633 1.3898923 378 8
-4.5359392 1.3153149 1.384111 334 8
-4.5185671 1.3403875 1.381358 266 8
-4.5433755 1.3781362 1.3912688 417 8
-4.5137148 1.3994383 1.3849369 381 8
-4.5160408 1.4305923 1.3882406 335 8
-4.5199828 1.4624194 1.3920947 348 8
-4.5237041 1.4943486 1.395949 352 8
-4.5098948 1.5205414 1.3945725 414 8
-4.5068436 1.5503745 1.3964996 322 8
-4.501781 1.5795907 1.3978761 268 8
-4.5037708 1.6113945 1.401455 346 8
-4.4784455 1.6333976 1.3967749 84 8
-4.0295053 1.4976943 1.2627029 11 8
-4.027432 1.5251149 1.2649053 25 8
-4.0054412 1.5449535 1.2610511 19 8
-4.0066233 1.5737199 1.2643547 34 8
-4.0067105 1.6022017 1.267383 54 8
-4.003037 1.6292937 1.2693101 39 8
-4.0027342 1.6578727 1.2723385 36 8
-0 0 0 5 8
-4.0191979 1.7227782 1.2839011 23 8
-4.4641485 1.946059 1.4262322 569 8
-4.4468503 1.971076 1.4245803 687 8
-4.4434366 2.0022745 1.4273334 706 8
-4.4476738 2.0371087 1.4325641 503 8
-4.466466 2.0789678 1.442475 210 8
-6.2377448 2.9503028 2.0076694 283 8
-6.213459 2.9856064 2.0057425 358 8
-6.2079816 3.0300012 2.009872 319 8
-6.1806598 3.0637655 2.0071189 316 8
-6.1591682 3.1003346 2.0062931 465 8
-6.1494455 3.1428814 2.0093215 392 8
-6.1104193 3.1703701 2.0029895 518 8
-6.0738397 3.1988428 1.9974834 237 8
-5.9947505 3.2043245 1.9782122 417 8
-5.9124451 3.2071233 1.95784 569 8
-5.8547568 3.2224789 1.9454514 513 8
-5.7761211 3.2255287 1.9261802 588 8
-5.7177448 3.2391098 1.9135164 607 8
-5.6335821 3.237247 1.8923181 371 8
-5.551321 3.2354429 1.8716705 471 8
-5.4692965 3.2327526 1.8510228 599 8
-3.6955364 2.2148945 1.265456 148 8
-3.6564097 2.2220488 1.2569215 139 8
-3.6116066 2.225276 1.2464601 134 8
-3.5734251 2.2321129 1.238201 114 8
-3.5434184 2.2437096 1.232695 88 8
-3.5117865 2.2539835 1.2266383 75 8
-3.5196469 2.2896452 1.2340715 49 8
-3.5055315 2.3111982 1.2340715 55 8
-3.482492 2.3267887 1.2310432 81 8
-3.4585974 2.3416445 1.2277396 76 8
-3.4568472 2.3715248 1.2321444 121 8
-4.2741923 2.971101 1.5223125 81 8
-4.2668848 3.0050216 1.5261667 342 8
-4.2647996 3.0428729 1.5319481 293 8
-4.294353 3.1039031 1.5490168 205 8
-4.3954501 3.2182317 1.5916885 246 8
-4.4366188 3.2903867 1.6134374 344 8
-4.4048171 3.3088856 1.6093079 333 8
-4.3500042 3.3096533 1.5969193 221 8
-4.320477 3.3292401 1.5936157 229 8
-4.3249764 3.3752069 1.6027006 193 8
-4.3026772 3.4004889 1.60215 175 8
-4.2697225 3.4172132 1.5977452 56 8
-4.2494211 3.4439528 1.5980204 188 8
-4.2237511 3.4663024 1.5963687 215 8
-4.1979666 3.4884667 1.5947169 193 8
-4.1816316 3.5184922 1.596644 225 8
-5.403934 4.6040382 2.064657 126 8
-5.3857732 4.6459012 2.0685112 247 8
-5.3557167 4.6775951 2.0679607 291 8
-5.3456388 4.7269278 2.0751185 225 8
-5.3193994 4.7622042 2.0762198 248 8
-5.308598 4.8115406 2.0833776 216 8
-5.2471013 4.8147721 2.0709889 300 8
-5.2153468 4.8449144 2.070163 105 8
-5.191823 4.8827519 2.0726409 149 8
-5.1624618 4.9151793 2.072916 246 8
-5.1460481 4.9601068 2.0784221 266 8
-5.1265249 5.0023322 2.0828269 211 8
-5.080689 5.0188293 2.0767703 236 8
-5.0579553 5.0580673 2.0800738 257 8
-5.02142 5.0835357 2.0778716 315 8
-4.9874482 5.1114984 2.0767703 224 8
-4.9533224 5.1392355 2.0756691 237 8
-4.9144039 5.1618724 2.0726409 270 8
-4.8859315 5.1954312 2.0740173 274 8
-4.8722801 5.2450356 2.0817258 246 8
-4.8380556 5.2727075 2.0809 197 8
-4.8069029 5.3037186 2.0814505 227 8
-4.778758 5.3381276 2.0833776 246 8
-4.7529182 5.3752718 2.086406 251 8
-4.7324934 5.4188161 2.091912 257 8
-4.6922483 5.4397445 2.0888836 244 8
-4.6506782 5.4589195 2.0853047 236 8
-4.6257601 5.4976516 2.089159 264 8
-4.5864105 5.5192761 2.0866811 335 8
-4.5518489 5.5465708 2.086406 332 8
-4.5140986 5.5699148 2.084754 311 8
-4.4564114 5.568234 2.0740173 216 8
-4.4477911 5.6279073 2.0858552 224 8
-4.4451113 5.6960201 2.1007216 343 8
-4.4083176 5.7209034 2.0998957 335 8
-4.385355 5.7639122 2.1056769 422 8
-4.3383584 5.7753382 2.1001709 426 8
-4.3005495 5.7987599 2.0990698 361 8
-4.273406 5.8366742 2.1031992 311 8
-4.2375126 5.8627853 2.1031992 326 8
-4.1947598 5.8792844 2.0998957 378 8
-4.16082 5.9080567 2.100997 391 8
-4.1365614 5.9508429 2.1070535 142 8
-0 0 0 6 8
-0 0 0 4 8
-2.1982737 3.2897151 1.1646955 33 8
-2.1748722 3.2983258 1.1630436 49 8
-1.7273704 2.6548257 0.93867272 32 8
-1.6892399 2.6313939 0.92711002 51 8
-0 0 0 63 8
-0 0 0 56 8
-0 0 0 51 8
-0 0 0 46 8
-0 0 0 63 8
-0 0 0 68 8
-1.5282279 2.6217606 0.90068102 50 8
-1.5063653 2.6210854 0.89737743 61 8
-1.4945184 2.6378074 0.89985514 131 8
-0 0 0 56 8
-0 0 0 47 8
-0 0 0 33 8
-0 0 0 38 8
-0 0 0 39 8
-0 0 0 42 8
-0 0 0 47 8
-0 0 0 47 8
-0 0 0 44 8
-0 0 0 82 8
-0 0 0 49 8
-0 0 0 46 8
-0 0 0 51 8
-0 0 0 44 8
-0 0 0 44 8
-0 0 0 37 8
-0 0 0 46 8
-0 0 0 41 8
-0 0 0 53 8
-0 0 0 35 8
-0 0 0 49 8
-0 0 0 32 8
-0 0 0 24 8
-0 0 0 16 8
-0 0 0 4 8
-0 0 0 4 8
-0 0 0 6 8
-0 0 0 3 8
-0 0 0 6 8
-0 0 0 5 8
-0 0 0 3 8
-0 0 0 4 8
-0 0 0 5 8
-0 0 0 5 8
-0 0 0 4 8
-0 0 0 3 8
-0 0 0 4 8
-0 0 0 4 8
-0 0 0 4 8
-0 0 0 5 8
-0 0 0 4 8
-0 0 0 4 8
-0.68525404 2.6653326 0.81974232 4 8
-0 0 0 5 8
-0 0 0 4 8
-0 0 0 5 8
-0 0 0 4 8
-0 0 0 4 8
-0 0 0 3 8
-0 0 0 3 8
-0 0 0 3 8
-0 0 0 4 8
-0 0 0 4 8
-0 0 0 4 8
-0.48017898 2.6687813 0.80817962 4 8
-0.46510896 2.679255 0.81038207 19 8
-0.45167169 2.7000744 0.81561279 11 8
-0.43372193 2.6942525 0.81313509 20 8
-0.41762263 2.6997132 0.81396097 26 8
-0.40020365 2.6965191 0.81230915 22 8
-0.38392091 2.7008276 0.81285977 23 8
-0.36617786 2.6945589 0.81038207 21 8
-0.35136604 2.7101026 0.81423628 26 8
-0.33543625 2.7179322 0.81588811 26 8
-0.3174119 2.7084813 0.81258446 20 8
-0.30099878 2.7122889 0.81313509 18 8
-0.28495103 2.7198217 0.81478691 30 8
-0.26731551 2.7119515 0.81203389 18 8
-0.25049365 2.7116261 0.81148326 30 8
-0.23319136 2.7054493 0.80928087 21 8
-0.21605086 2.7001212 0.80735373 23 8
-0.19848993 2.6879735 0.80349952 24 8
-0.18115103 2.6766715 0.79992062 26 8
-0.16478276 2.6786921 0.80019587 24 8
-0.14829051 2.6786931 0.79992062 24 8
-0.1314747 2.6718707 0.79771817 33 8
-0.11577861 2.6889553 0.80239832 23 8
-0.099595211 2.6982615 0.80487603 23 8
-0.083095968 2.7007434 0.8054266 24 8
-0.066640601 2.706008 0.80680311 13 8
-0.050053228 2.7073271 0.80707842 21 8
-0.033463906 2.7095058 0.80762905 26 8
-0.016365357 2.6317916 0.78532958 51 8
-0.00022265663 2.5405135 0.7591759 80 8
0.015377568 2.5423896 0.75972652 81 8
0.033408441 2.7393107 0.81616342 23 8
0.050322458 2.7448215 0.81781518 38 8
0.067329012 2.7511885 0.81974232 53 8
0.084799767 2.7699416 0.82524836 41 8
0.10214869 2.7789762 0.82800138 26 8
0.11932227 2.7811785 0.82882726 32 8
0.13586544 2.7698319 0.82579893 15 8
0.15370825 2.7843044 0.83020377 23 8
0.17126164 2.7909851 0.83240622 24 8
0.18857828 2.7927592 0.8332321 27 8
0.20627706 2.7992196 0.8354345 29 8
0.22444551 2.810359 0.83901346 38 8
0.24226314 2.8156335 0.84094054 23 8
0.25732449 2.7901621 0.83405799 19 8
0.27792856 2.8239293 0.84424418 30 8
0.29515046 2.8212147 0.84396887 23 8
0.31362185 2.8298609 0.8469972 36 8
0.32986078 2.8183351 0.84424418 23 8
0.34373301 2.7885885 0.83626044 18 8
0.36281452 2.801681 0.84066528 25 8
0.37986901 2.7984495 0.84038997 29 8
0.4010914 2.8246198 0.84864902 49 8
0.41460508 2.7964301 0.84121585 25 8
0.43043324 2.7852829 0.83873814 21 8
0.44782087 2.7844877 0.83928877 19 8
0.46458054 2.7797911 0.83873814 17 8
0.49050683 2.8280365 0.85360444 35 8
0.50785011 2.8249736 0.85360444 28 8
0 0 0 30 8
0.53866029 2.7987046 0.84782308 19 8
0.55919975 2.8123186 0.85277855 33 8
0.5752849 2.8031843 0.85112673 30 8
0.5924741 2.7996016 0.85112673 28 8
0.61025578 2.7987313 0.85195261 29 8
0.6318416 2.8146319 0.85773396 29 8
0.65256315 2.8256888 0.86213881 27 8
0.67499936 2.8431442 0.86847073 24 8
0.70405602 2.8865802 0.88251114 16 8
0.73577362 2.9381578 0.89902925 29 8
0.79472011 3.0928025 0.94610584 77 8
0 0 0 6 8
0 0 0 7 8
0 0 0 3 8
0.85989606 3.0353706 0.93509376 12 8
0.89403796 3.0835886 0.95106125 104 8
0.91376215 3.0808098 0.95188719 129 8
0.93348581 3.0779049 0.95271307 128 8
0.95320821 3.0748739 0.95353901 119 8
0.97350931 3.0735495 0.95491552 111 8
0.99442202 3.0739207 0.9568426 126 8
1.0150743 3.0732381 0.95849442 154 8
1.0342194 3.067863 0.95876974 116 8
1.0539623 3.0641866 0.95959562 152 8
1.0740175 3.0612903 0.96069682 119 8
1.0940768 3.0582631 0.96179807 131 8
0 0 0 124 8
0 0 0 133 8
0 0 0 135 8
0 0 0 147 8
1.1982714 3.0510015 0.97033238 137 8
1.2176834 3.0453768 0.97088301 126 8
1.2374341 3.040519 0.97170889 139 8
0 0 0 148 8
0 0 0 153 8
0 0 0 148 8
0 0 0 126 8
0 0 0 140 8
0 0 0 132 8
1.3884687 3.0317781 0.98657519 157 8
1.4111028 3.0319169 0.98932821 142 8
0 0 0 130 8
0 0 0 157 8
0 0 0 188 8
0 0 0 160 8
0 0 0 194 8
0 0 0 185 8
1.5621265 3.0111959 1.0030934 188 8
1.5863978 3.0126116 1.0066723 175 8
0 0 0 161 8
0 0 0 175 8
0 0 0 195 8
0 0 0 187 8
0 0 0 172 8
0 0 0 170 8
1.7447915 2.9940412 1.0240163 156 8
1.7660651 2.9882443 1.025668 143 8
1.7868388 2.9814744 1.0270445 162 8
1.8105919 2.979491 1.0300729 152 8
1.8353964 2.9789648 1.0336518 157 8
1.8587344 2.9758 1.0364048 142 8
1.8815879 2.9716487 1.0388825 135 8
1.905499 2.9689465 1.0419109 125 8
1.9299719 2.9668684 1.0452145 150 8
1.9502569 2.9581807 1.0463157 111 8
1.974247 2.9549508 1.0493441 112 8
2.0004268 2.9547217 1.0534736 138 8
2.0310292 2.9606235 1.0598055 167 8
2.0584862 2.9615242 1.0644857 153 8
2.0854766 2.9614131 1.0688905 152 8
2.1125431 2.961082 1.0732952 118 8
2.135741 2.9550757 1.075773 116 8
2.1589448 2.9488962 1.0782506 102 8
2.1821527 2.9425428 1.0807284 115 8
2.2094061 2.9413955 1.0851332 145 8
2.2338164 2.9361992 1.0881616 159 8
2.2570722 2.9292905 1.0906392 126 8
2.2856505 2.9290276 1.0955948 163 8
2.3119256 2.9255066 1.0994489 159 8
2.3370419 2.9202721 1.1027526 171 8
2.3615754 2.9140925 1.1057808 159 8
2.3879504 2.9099507 1.1096351 208 8
2.4223514 2.915206 1.1170683 293 8
2.4488592 2.9105856 1.1209224 168 8
2.4697895 2.8991637 1.122299 168 8
2.4982078 2.8963292 1.1269791 150 8
2.5342729 2.9019432 1.1349629 140 8
2.5641315 2.9000213 1.1401936 122 8
2.5927792 2.8964093 1.1448737 116 8
2.6208329 2.8918421 1.1492785 133 8
2.6482778 2.8863311 1.1534081 130 8
2.6737902 2.878479 1.1567117 167 8
2.7058923 2.8774247 1.1627684 98 8
2.7387445 2.8767805 1.1691003 135 8
2.7696886 2.8737645 1.1746063 165 8
2.8027127 2.8725405 1.1809382 167 8
2.8365009 2.8717029 1.1875455 187 8
2.8663049 2.8664796 1.1925009 177 8
2.9036748 2.8684294 1.2004848 202 8
2.9349828 2.8639858 1.2059908 165 8
2.9587307 2.851927 1.2084684 170 8
2.9956706 2.8522787 1.2161769 149 8
3.0306244 2.8503079 1.2230594 135 8
3.0649617 2.8473608 1.2296667 163 8
3.0908759 2.8363001 1.2329704 159 8
3.1246052 2.8321295 1.2393023 318 8
3.1598318 2.8289332 1.2461848 217 8
3.1872134 2.8184066 1.250039 192 8
3.2413771 2.8310463 1.2640795 148 8
3.2783427 2.8280573 1.2715125 127 8
3.3102703 2.8203566 1.2770185 160 8
3.3466401 2.8160837 1.2841765 142 8
3.3830812 2.81147 1.2913343 182 8
3.4255364 2.811393 1.3006946 189 8
3.4658766 2.8090844 1.3092289 221 8
3.5010619 2.8021812 1.3158362 211 8
3.5445898 2.8015082 1.3254718 230 8
3.5814188 2.7950828 1.3326296 207 8
3.6122093 2.7836163 1.337585 235 8
3.6521749 2.7788618 1.345844 235 8
3.6945233 2.7754529 1.354929 217 8
3.7331054 2.7687652 1.3626374 253 8
3.7771738 2.7656829 1.372273 266 8
3.8213437 2.7621634 1.3819085 287 8
3.8624811 2.7559719 1.390443 274 8
3.9052577 2.7504861 1.3995279 282 8
3.9615314 2.7539058 1.413293 219 8
3.9942095 2.7404227 1.418799 254 8
4.0459771 2.7395768 1.4309123 296 8
4.0938864 2.7355275 1.4416491 293 8
4.1362782 2.7272887 1.4504588 375 8
4.1827521 2.7212529 1.4606448 353 8
4.2301149 2.7152681 1.4711064 366 8
4.2848716 2.7134323 1.4840455 378 8
4.3307939 2.7054238 1.4939564 428 8
4.3759594 2.6964488 1.503592 288 8
4.444181 2.7009995 1.520936 409 8
4.4920058 2.6924584 1.5313975 412 8
4.5407195 2.6839209 1.5421343 377 8
4.6119232 2.6879547 1.5603042 563 8
4.656671 2.6758893 1.5696644 441 8
4.7031159 2.6643226 1.5795753 512 8
4.731966 2.6424446 1.5837048 607 8
4.7379837 2.6077981 1.5804012 566 8
4.742065 2.5722609 1.5765469 544 8
4.6958642 2.5100374 1.5564499 285 8
4.7366958 2.4946144 1.5647089 500 8
4.7399664 2.459306 1.5608548 572 8
4.7446942 2.4249265 1.5575511 466 8
4.746603 2.3892853 1.5534216 406 8
4.7482533 2.3537121 1.5492921 531 8
4.7574224 2.3220034 1.5476403 283 8
4.7542496 2.2844427 1.5421343 539 8
4.7499261 2.2465975 1.5363529 345 8
4.7488046 2.2105145 1.5316727 539 8
4.7491679 2.1753306 1.5275432 600 8
4.7510314 2.1410155 1.5239643 577 8
4.6673989 2.0689757 1.4936811 102 8
4.6412296 2.0233967 1.4815679 48 8
4.679183 2.005863 1.4895515 151 8
4.7286115 1.9927921 1.5011142 274 8
4.7540731 1.969258 1.5052438 593 8
4.6601038 1.8969271 1.4724829 14 8
4.6895084 1.8754358 1.477989 7 8
4.6982431 1.8455719 1.477163 7 8
4.6987157 1.8125582 1.4738594 8 8
4.6656942 1.7670127 1.4603696 12 8
4.6926694 1.7443794 1.465325 29 8
4.4901342 1.6378238 1.4003538 69 8
4.5046253 1.6118611 1.4017303 112 8
4.5443664 1.5946933 1.4108152 109 8
4.7349744 1.6290029 1.4656004 157 8
4.7858748 1.6137383 1.477989 426 8
4.7847323 1.5807244 1.4746853 735 8
4.7751331 1.5451223 1.4689039 310 8
4.7469478 1.5038922 1.4576166 93 8
4.7524133 1.4735986 1.4565153 78 8
4.7576857 1.4432945 1.4554142 74 8
4.7636867 1.4132546 1.4545883 69 8
4.767652 1.3826602 1.4532118 62 8
4.7649465 1.3502361 1.4499081 71 8
4.762023 1.3178973 1.4466045 73 8
4.7625952 1.286648 1.4444021 64 8
4.7583151 1.2542167 1.4408232 45 8
4.7575412 1.2228433 1.4383454 43 8
4.764955 1.1936285 1.4383454 51 8
4.7675195 1.1632299 1.4369689 34 8
4.7670841 1.1321785 1.4347665 41 8
4.7701945 1.1020416 1.4336653 30 8
4.7703004 1.0712775 1.4317383 48 8
4.7739663 1.0413729 1.4309123 64 8
4.7774444 1.0114636 1.4300864 75 8
4.7797937 0.98135763 1.4289852 71 8
4.7810111 0.95107347 1.4276087 78 8
4.7858124 0.92153811 1.4273334 84 8
4.7913771 0.89215559 1.4273334 89 8
4.7891912 0.86137861 1.425131 80 8
4.7820725 0.82984066 1.4215521 85 8
4.7823334 0.79969043 1.4201756 70 8
4.786201 0.77017885 1.4199002 59 8
4.7917867 0.74094361 1.4201756 87 8
4.7905374 0.7106818 1.4185237 68 8
4.7910004 0.68073362 1.4174225 80 8
4.7941346 0.65119445 1.4171472 78 8
4.7970867 0.62164247 1.4168719 73 8
4.7998562 0.59207875 1.4165967 61 8
4.8043537 0.56272805 1.4168719 83 8
4.8077164 0.53323847 1.4168719 83 8
4.8032484 0.50292856 1.4146695 73 8
4.8033738 0.47316441 1.4138436 71 8
4.8023577 0.44332936 1.4127424 94 8
4.8049874 0.41385433 1.4127424 100 8
4.807436 0.38436368 1.4127424 81 8
4.8116217 0.3549999 1.413293 95 8
4.8117909 0.32534009 1.4127424 90 8
4.8108177 0.29563272 1.4119165 94 8
4.8125415 0.26610851 1.4119165 89 8
4.811203 0.236433 1.4110906 129 8
4.8116026 0.20686634 1.4108152 125 8
4.8118205 0.17730369 1.41054 115 8
4.8080134 0.14762844 1.4091635 140 8
4.810751 0.1181713 1.4097141 120 8
4.8075404 0.088580333 1.4086128 122 8
4.8070326 0.059068419 1.4083376 90 8
4.8082657 0.029577747 1.4086128 107 8
4.8198929 7.3471594e-05 1.4119165 123 8
4.8246093 -0.029530644 1.413293 130 8
4.8214536 -0.059097756 1.4124671 107 8
4.8181167 -0.088627249 1.4116411 129 8
4.8213263 -0.11828361 1.4127424 109 8
4.8224316 -0.14792359 1.413293 109 8
4.8166294 -0.17733344 1.4119165 111 8
4.8068066 -0.20651232 1.4094387 149 8
4.8140907 -0.23642756 1.4119165 117 8
4.8269477 -0.26675868 1.416046 93 8
4.8252201 -0.29637125 1.416046 104 8
4.8281064 -0.32629716 1.4174225 103 8
4.8365598 -0.35669437 1.4204508 104 8
4.8448215 -0.38720757 1.4234792 95 8
4.8471432 -0.41734025 1.4248557 90 8
4.840662 -0.44672024 1.4237545 67 8
4.834003 -0.4760364 1.4226532 59 8
4.8271666 -0.50528771 1.4215521 34 8
4.8306642 -0.53563929 1.4234792 48 8
4.8330154 -0.56594092 1.425131 42 8
4.8351765 -0.59629154 1.4267827 35 8
4.8361936 -0.62656641 1.4281592 47 8
4.8351159 -0.65661722 1.4289852 55 8
4.8319478 -0.68640786 1.4292605 57 8
4.8352528 -0.71717221 1.4314629 73 8
4.8345613 -0.74741507 1.4325641 70 8
4.83463 -0.77782923 1.4339406 57 8
4.8477817 -0.81049275 1.4391713 78 8
4.8512421 -0.8417027 1.4416491 47 8
4.8526096 -0.87264508 1.4435762 49 8
4.8528342 -0.90345991 1.445228 59 8
4.8538074 -0.93449211 1.4471551 48 8
4.8423247 -0.96313125 1.4455034 84 8
4.8504496 -0.99572599 1.4496329 81 8
4.8423676 -1.0250707 1.4490823 54 8
0.90142554 -0.19628353 0.29584301 143 8
0.89551431 -0.2007574 0.2944665 162 8
0.89988565 -0.20754708 0.29611829 105 8
0.89485395 -0.21217601 0.29501709 141 8
0.8935352 -0.21766274 0.29501709 136 8
0.89591295 -0.22407587 0.29611829 112 8
0.89545226 -0.22980824 0.2963936 106 8
0.89309573 -0.23505323 0.29611829 138 8
0.908342 -0.24504273 0.30107373 259 8
0.89570314 -0.24753399 0.29777011 146 8
0.8969422 -0.25381172 0.29859602 15 8
0.89444464 -0.25904265 0.29832071 12 8
4.886301 -1.449505 1.4912034 26 8
4.8865147 -1.4822508 1.4939564 48 8
4.8938556 -1.5173318 1.4989119 41 8
4.902782 -1.5531393 1.5044179 43 8
4.9178557 -1.5911853 1.5118511 50 8
4.9226046 -1.6261567 1.5162559 61 8
4.9088902 -1.6551018 1.5151546 567 8
4.8577352 -1.671115 1.502766 326 8
4.757586 -1.6693714 1.4755112 245 8
4.6838937 -1.6758567 1.4562401 301 8
4.5967565 -1.6765593 1.4328394 246 8
4.5440311 -1.6889873 1.4199002 299 8
4.5003181 -1.7042372 1.4097141 442 8
4.4933643 -1.7332028 1.4108152 423 8
4.4889083 -1.7632017 1.4127424 370 8
4.4860382 -1.7939252 1.4152201 343 8
0.94897938 -0.38592792 0.32502499 105 8
0.95458692 -0.39505506 0.3275027 85 8
0.89722037 -0.37775427 0.31043398 207 8
0.89223492 -0.38211593 0.3096081 250 8
0.88899225 -0.38719913 0.30933279 210 8
0.88484198 -0.39186734 0.30878219 228 8
0.88066798 -0.39649919 0.30823159 225 8
0.87734455 -0.40149501 0.30795628 233 8
0.87399292 -0.40646499 0.30768096 236 8
0.86887538 -0.41058677 0.30685508 225 8
0.87500465 -0.42007452 0.3096081 141 8
0.87413847 -0.42627898 0.3101587 154 8
0.87495166 -0.43334264 0.3112599 161 8
0.87571096 -0.44043228 0.31236112 160 8
0.87384808 -0.44623479 0.31263641 156 8
0.87365353 -0.45291662 0.31346232 132 8
0.85044414 -0.44751611 0.30685508 36 8
0 -0 0 5 8
0.87784404 -0.47579744 0.31759185 8 8
4.4996786 -2.4765363 1.5024908 53 8
4.4927917 -2.5087867 1.5052438 38 8
4.4856777 -2.5410459 1.5079968 33 8
4.4816709 -2.575228 1.5118511 34 8
4.4807353 -2.611393 1.5168065 33 8
4.4861445 -2.651557 1.5239643 28 8
4.4879308 -2.6899078 1.530021 37 8
4.4943433 -2.7313762 1.5377294 31 8
4.5028701 -2.7745371 1.5462638 21 8
4.4963603 -2.8087358 1.5498427 29 8
4.4960971 -2.847074 1.555624 12 8
4.4979596 -2.8870726 1.5622313 20 8
4.4962759 -2.9251032 1.5677373 41 8
4.4958997 -2.9642801 1.5737939 18 8
4.4944119 -3.0030279 1.5795753 28 8
4.4981894 -3.0456419 1.5872837 28 8
4.5000272 -3.0873268 1.5944415 16 8
4.4952068 -3.1247582 1.5993969 22 8
4.4963841 -3.1666753 1.6065549 19 8
4.4893899 -3.2031398 1.6109596 15 8
4.483675 -3.2407637 1.6159151 17 8
4.4660325 -3.269918 1.6167411 21 8
4.4466567 -3.2978323 1.6170163 22 8
0 -0 0 5 8
3.8641999 -2.93998 1.4221027 6 8
0 -0 0 6 8
0 -0 0 6 8
3.8652406 -3.054724 1.442475 10 8
3.8276613 -3.063364 1.4355924 13 8
3.850615 -3.1206925 1.4510094 32 8
3.8373392 -3.1491401 1.4532118 53 8
3.8201623 -3.1744697 1.4540377 67 8
3.7873721 -3.186708 1.4490823 41 8
3.7567713 -3.2005343 1.4449527 19 8
3.7348788 -3.2216413 1.4441268 14 8
3.7041802 -3.2350109 1.4399973 11 8
3.690742 -3.2634101 1.442475 9 8
3.6627703 -3.2789407 1.4394467 10 8
3.6375961 -3.2968338 1.4375196 15 8
3.6059659 -3.3086913 1.4331148 5 8
4.5293584 -4.2075801 1.8020191 21 8
4.5237637 -4.2543936 1.8100029 32 8
4.505929 -4.2900262 1.8133065 25 8
4.4961319 -4.3336058 1.8199137 28 8
3.4064515 -3.3237457 1.3945725 133 8
3.3825736 -3.3412066 1.393196 197 8
3.3470545 -3.3469427 1.3871393 187 8
3.332535 -3.3735726 1.3896171 174 8
3.3158004 -3.3980858 1.3912688 206 8
3.2888839 -3.4121373 1.3887911 198 8
3.2645712 -3.4287717 1.3874146 185 8
3.2895708 -3.4977632 1.4066857 111 8
3.2510364 -3.4995677 1.3995279 82 8
3.2139041 -3.5024486 1.3929206 136 8
3.182024 -3.510705 1.3885158 217 8
3.1738875 -3.5452061 1.3942971 113 8
3.1361556 -3.546608 1.3874146 174 8
3.1567016 -3.6143007 1.4058598 107 8
3.1162567 -3.6124902 1.3978761 167 8
3.1214621 -3.6637435 1.4099894 164 8
3.1280115 -3.7174027 1.4229286 129 8
3.1162019 -3.7498353 1.427884 159 8
3.2352252 -3.9420462 1.4920293 88 8
3.3235545 -4.1007476 1.5432354 103 8
3.3025348 -4.126318 1.5451626 119 8
3.2455635 -4.1065273 1.5305716 54 8
3.2421873 -4.1544075 1.5407578 128 8
3.2201557 -4.1787925 1.5424095 124 8
3.1962008 -4.2007675 1.5432354 115 8
3.1669011 -4.2156878 1.5415837 65 8
3.1678879 -4.2713342 1.5545228 116 8
3.1472988 -4.2984486 1.5572758 123 8
3.1428261 -4.3480668 1.5680126 182 8
3.1233459 -4.3774428 1.5715915 72 8
4.3584218 -6.1886683 2.1992795 179 8
4.3428626 -6.2476606 2.210567 94 8
4.3006392 -6.268641 2.2086399 150 8
4.2712564 -6.3084445 2.21332 125 8
4.2260594 -6.3249412 2.2100165 119 8
4.187171 -6.3507528 2.2100165 133 8
4.1449795 -6.37149 2.2083645 134 8
4.1099606 -6.403276 2.210567 104 8
4.0731649 -6.4324346 2.2119434 104 8
4.0183411 -6.4328446 2.2036843 110 8
3.9853499 -6.46802 2.2072635 109 8
3.9366016 -6.4775634 2.2023079 122 8
3.9229736 -6.545301 2.2168989 77 8
3.8577936 -6.5270391 2.2028584 133 8
3.8176718 -6.5505872 2.2028584 111 8
3.7750118 -6.5697212 2.2014821 108 8
3.7284703 -6.5818858 2.1979032 86 8
3.6814532 -6.5928879 2.1940489 103 8
3.6381497 -6.6102996 2.1923971 143 8
3.5933964 -6.6248927 2.1899195 129 8
3.5418041 -6.6264677 2.1833122 155 8
3.480922 -6.6097965 2.1709235 179 8
3.3792088 -6.5132656 2.1329319 331 8
3.4297311 -6.7110839 2.1899195 150 8
3.3811409 -6.7174034 2.1852393 144 8
3.3330297 -6.7242413 2.1808343 160 8
3.2955022 -6.7523413 2.1833122 161 8
3.2548413 -6.774168 2.1838627 272 8
3.2148583 -6.7974882 2.1849639 292 8
3.1714668 -6.8136001 2.1838627 453 8
3.1179914 -6.8075838 2.175879 567 8
3.0702386 -6.8134398 2.1717494 621 8
3.0213628 -6.8163295 2.1667941 604 8
2.9721835 -6.8179955 2.1615632 623 8
2.9261272 -6.8263845 2.158535 645 8
2.8808267 -6.836237 2.1560571 714 8
2.8303659 -6.8333559 2.1497252 627 8
2.7818611 -6.8345661 2.1447699 644 8
2.7348757 -6.8390098 2.1409156 670 8
2.6882923 -6.8440289 2.1373367 628 8
2.6407127 -6.8460441 2.1329319 694 8
2.5962734 -6.8558249 2.1310048 744 8
2.5471253 -6.8527021 2.1252234 779 8
2.4981134 -6.8492355 2.119442 818 8
2.4537735 -6.858098 2.1175151 759 8
2.4017811 -6.8449035 2.1089807 478 8
1.4761024 -4.2904305 1.3309778 50 8
1.408291 -4.1764235 1.293812 8 8
1.3781159 -4.1712928 1.2896825 10 8
1.3489447 -4.168694 1.2863789 11 8
1.3230504 -4.1759763 1.2861036 17 8
1.2937018 -4.1720786 1.2825246 19 8
1.2644509 -4.1679783 1.2789457 17 8
1.2372127 -4.1701283 1.2772939 21 8
1.2110666 -4.1757941 1.2767433 26 8
1.1830634 -4.1748219 1.2742655 27 8
1.1556305 -4.1755166 1.2723385 14 8
1.1284842 -4.1769605 1.2706866 26 8
1.1001391 -4.1735802 1.2676584 21 8
1.0716388 -4.1690784 1.2643547 30 8
1.0446365 -4.16998 1.2627029 25 8
1.0165246 -4.1660376 1.2596745 34 8
0.98961061 -4.1665845 1.2580228 31 8
0.96164674 -4.1622744 1.2549945 48 8
0.93629998 -4.1690345 1.2552698 41 8
0.91234016 -4.1822152 1.2574722 29 8
0.88427281 -4.1764483 1.2541685 42 8
0.85573089 -4.1676693 1.250039 53 8
0.83014244 -4.1728415 1.250039 50 8
0.80470449 -4.1788011 1.2503144 57 8
0.78063184 -4.1921659 1.252792 46 8
0.7567656 -4.2072849 1.2558204 44 8
0.7266643 -4.1872215 1.2486625 63 8
0.69937354 -4.1821194 1.2459095 59 8
0.67217278 -4.1768403 1.2431564 66 8
0.64447588 -4.1675849 1.2393023 66 8
0.69009608 -4.6516967 1.3783296 35 8
0.68127424 -4.7948074 1.4185237 338 8
0.6495133 -4.7817502 1.4135683 218 8
0.61991388 -4.7837391 1.4130176 151 8
0.8501327 -6.89323 2.0206087 468 8
0.8075971 -6.8964071 2.0200582 446 8
0.76547813 -6.9031434 2.0206087 772 8
0.72300678 -6.9067545 2.0203335 820 8
0.68070835 -6.9120173 2.0206087 806 8
0.63837248 -6.9170213 2.020884 792 8
0.59600079 -6.9217658 2.0211594 763 8
0.55252343 -6.9128346 2.0175805 430 8
0.51066196 -6.9237647 2.0197828 832 8
0.46765068 -6.9190941 2.0175805 808 8
0.42524603 -6.9227929 2.0178556 841 8
0.38265455 -6.9233522 2.0173051 875 8
0.34007224 -6.9236493 2.0167546 873 8
0.29766557 -6.9275265 2.0173051 930 8
0.25497684 -6.9244189 2.0159285 880 8
0.21239632 -6.9229708 2.0151026 918 8
0.16996084 -6.9260654 2.0156534 910 8
0.12749536 -6.9289007 2.0162039 933 8
0.08495456 -6.9276299 2.0156534 970 8
0.042475 -6.9328275 2.0170298 1022 8
-6.4828157e-05 -6.9329576 2.0170298 1028 8
-0.042616576 -6.9347491 2.0175805 1011 8
-0.085166596 -6.9343572 2.0175805 1080 8
-0.12769565 -6.9327431 2.0173051 1108 8
-0.1702081 -6.9308677 2.0170298 1024 8
-0.21285011 -6.9335365 2.018131 1069 8
-0.25556672 -6.9369035 2.0195076 1138 8
-0.29841536 -6.9419279 2.0214345 1135 8
-0.34105185 -6.9409266 2.0217099 1115 8
-0.38389978 -6.9435029 2.0230865 1161 8
-0.42661509 -6.9429355 2.0236371 1179 8
-0.46946773 -6.9440236 2.0247383 1112 8
-0.51249135 -6.9467649 2.0263901 1071 8
-0.55510622 -6.9434896 2.0263901 1094 8
-0.59811294 -6.9447417 2.0277667 1087 8
-0.64124435 -6.9466848 2.0294185 1075 8
-0.68479925 -6.9521866 2.0321715 1051 8
-0.7276445 -6.9497662 2.032722 1097 8
-0.77101594 -6.951859 2.0346491 1161 8
-0.81522363 -6.9603648 2.0385034 1173 8
-0.8576808 -6.9533238 2.0379527 1071 8
-0.90131819 -6.9555573 2.0401552 1143 8
-0.9456625 -6.9622798 2.0437341 1141 8
-0.98917615 -6.9620566 2.0453858 1119 8
-1.0342749 -6.9720225 2.050066 1165 8
-1.0787985 -6.9769459 2.0533698 1078 8
-1.1226574 -6.9768391 2.0552967 1132 8
-1.1678244 -6.9840417 2.0594263 1049 8
-1.2121354 -6.9852695 2.061904 1081 8
-1.2556543 -6.9814854 2.0630052 1009 8
-1.2998766 -6.9812098 2.0652077 982 8
-1.3455971 -6.9882069 2.0696125 958 8
-1.3912648 -6.9939618 2.0737419 888 8
-1.4351197 -6.9900022 2.0751185 922 8
-1.4791776 -6.9867077 2.0767703 892 8
-1.5259132 -6.9953461 2.082001 936 8
-1.5723889 -7.0017972 2.0866811 938 8
-1.6164038 -6.9967008 2.0880578 933 8
-1.6604153 -6.9913278 2.0894341 929 8
-1.7044216 -6.9856777 2.0908108 945 8
-1.7486547 -6.9806833 2.0924625 953 8
-1.7957631 -6.9865818 2.0974181 790 8
-1.8356572 -6.9642768 2.0941143 404 8
-1.8791071 -6.9556665 2.0949402 346 8
-1.9191862 -6.9347405 2.0921872 442 8
-1.9609144 -6.9200592 2.0913613 446 8
-2.0019991 -6.9032803 2.0899849 417 8
-2.0459599 -6.8963962 2.0916367 359 8
-2.086283 -6.8772731 2.0897095 394 8
-2.125879 -6.8560786 2.0872319 409 8
-2.1655838 -6.8355737 2.0850294 397 8
-2.2169578 -6.8514261 2.0938389 315 8
-2.2565427 -6.8303914 2.0916367 351 8
-2.2885799 -6.7872667 2.0828269 478 8
-0 -0 0 491 8
-2.3691509 -6.7514143 2.0806246 595 8
-2.4228415 -6.7711458 2.0910859 718 8
-2.4643428 -6.7561522 2.0910859 676 8
-2.5013962 -6.7291894 2.087507 461 8
-2.5419576 -6.7119164 2.0869565 366 8
-2.581017 -6.6908116 2.0853047 413 8
-0 -0 0 404 8
-0 -0 0 266 8
-2.6961234 -6.6234717 2.0795233 399 8
-2.7363455 -6.6059155 2.079248 448 8
-2.7798142 -6.5960884 2.0814505 455 8
-2.8115218 -6.5585856 2.0751185 397 8
-2.6661239 -6.1155763 1.9421477 323 8
-2.6837265 -6.0542803 1.9281074 371 8
-2.7326751 -6.0639925 1.9363664 170 8
-2.9844434 -6.5155802 2.0839281 481 8
-3.022743 -6.4936595 2.0828269 542 8
-3.0571864 -6.4636927 2.079248 486 8
-3.0926251 -6.4361472 2.0764949 530 8
-3.1303713 -6.4135947 2.0753939 470 8
-3.1513038 -6.3572297 2.0635557 681 8
-3.2187831 -6.3944468 2.0817258 526 8
-3.2553327 -6.3694401 2.0800738 247 8
-3.2841692 -6.32972 2.0737419 444 8
-3.3332505 -6.3290129 2.0800738 480 8
-3.3688493 -6.3025064 2.0781469 605 8
-3.4042482 -6.2758017 2.0762198 481 8
-3.4380558 -6.2463737 2.0734668 293 8
-3.4763179 -6.2251606 2.0734668 134 8
-3.5144494 -6.2037129 2.0734668 90 8
-2.4315193 -4.2316179 1.4292605 78 8
-1.2950301 -2.222455 0.7682609 60 8
-1.303261 -2.2053638 0.76523256 33 8
-1.3167684 -2.1973257 0.76523256 37 8
-1.3297268 -2.1883833 0.76495725 50 8
-1.3421206 -2.1785462 0.76440668 50 8
-1.3539345 -2.167824 0.76358074 46 8
-1.3641243 -2.1546028 0.76192892 42 8
-1.3731642 -2.13972 0.75972652 60 8
-1.3794515 -2.1207788 0.75614762 15 8
-2.454093 -3.7222247 1.308403 9 8
-2.456588 -3.676723 1.2979416 50 8
-2.4888048 -3.6759088 1.302897 12 8
-2.5091372 -3.6573977 1.3017957 6 8
