# .PCD v0.7 - Point Cloud Data file format
VERSION 0.7
FIELDS x y z intensity ring
SIZE 4 4 4 4 1
TYPE F F F F U
COUNT 1 1 1 1 1
WIDTH 262
HEIGHT 1
VIEWPOINT 0 0 0 1 0 0 0
POINTS 262
DATA ascii
5.5381522 0.06895718 -1.2571427 13 50
5.6738176 0.20892799 -1.3587079 5 51
5.6403422 0.069162592 -1.349618 17 51
5.5241466 0.033814989 -1.3209126 56 51
5.6574054 0.070433721 -1.4250528 11 52
5.5764713 0.069336869 -1.4726638 11 53
5.5787215 0.035131536 -1.4731874 4 53
5.1568522 -0.12764449 -0.84841615 15 45
5.1313453 -0.15852872 -0.84417808 9 45
5.1706553 -0.19149745 -0.85112846 38 45
5.1260595 -0.22135939 -0.84366953 160 45
5.1118083 -0.25217977 -0.84146577 10 45
5.1278772 -0.28451923 -0.84451717 25 45
5.1260352 -0.31597793 -0.84451717 22 45
5.1141667 -0.3467603 -0.84282196 317 45
5.1099772 -0.37798876 -0.84248286 368 45
5.0997028 -0.4087078 -0.84112674 350 45
5.0784431 -0.43838513 -0.83790582 196 45
5.1409793 -0.12615159 -0.90937561 90 46
5.1430573 -0.15778436 -0.90991974 329 46
5.1341305 -0.18904851 -0.90846872 395 46
5.1269789 -0.22029364 -0.90738046 385 46
5.1157084 -0.25126487 -0.90556669 320 46
5.1071968 -0.28226912 -0.90429705 264 46
5.1122398 -0.31402355 -0.90556669 359 46
5.0729322 -0.34286296 -0.89867431 253 46
5.1342392 -0.12708987 -0.97111797 23 47
5.1353245 -0.15865074 -0.97150403 22 47
5.0842471 -0.18831673 -0.96165919 181 47
5.1035819 -0.22039384 -0.96571296 325 47
5.1031137 -0.25175282 -0.96590602 283 47
5.1143289 -0.12638602 -1.0292841 371 48
5.1046515 -0.15749221 -1.0274436 383 48
5.0947852 -0.18848442 -1.0256032 102 48
5.2711811 -0.13027419 -0.41357875 158 38
5.2335267 -0.12861386 -0.4737418 507 39
5.2346287 -0.16078442 -0.47393626 434 39
5.2295651 -0.19275473 -0.47354731 469 39
5.235795 -0.1284854 -0.53936428 447 40
5.2428565 -0.16085365 -0.54024076 291 40
5.2288575 -0.19254373 -0.53881651 14 40
5.213675 -0.22402535 -0.53728265 170 40
5.2032671 -0.25557211 -0.53629661 125 40
5.2094803 -0.12802827 -0.60080105 416 41
5.1669283 -0.15872006 -0.59568983 153 41
5.21942 -0.19238305 -0.60226142 20 41
5.2062411 -0.22389609 -0.60080105 55 41
5.189899 -0.25510913 -0.5989756 374 41
5.1882358 -0.28694895 -0.5989756 315 41
5.1985059 -0.12756756 -0.66291809 423 42
5.1718707 -0.15867051 -0.6594435 53 42
5.1658483 -0.19021882 -0.65877527 82 42
5.1804256 -0.22259417 -0.66091353 359 42
5.1789622 -0.25437647 -0.66091353 338 42
5.1713667 -0.2858206 -0.66011167 334 42
5.1635804 -0.31718111 -0.6593098 266 42
5.1378069 -0.34725261 -0.65610248 70 42
5.1775584 -0.12634948 -0.72535449 255 43
5.1796522 -0.15820594 -0.72579223 17 43
5.18155 -0.19009285 -0.72622997 11 43
5.1575532 -0.22091408 -0.72287405 219 43
5.1857443 -0.25400135 -0.72725135 66 43
5.1416121 -0.28348348 -0.72097719 18 43
5.1279263 -0.31430289 -0.71922624 17 43
5.150578 -0.34742025 -0.72287405 56 43
5.1473627 -0.37894464 -0.72272813 255 43
5.1680374 -0.1268176 -0.78747869 241 44
5.1730843 -0.15870783 -0.78842556 34 44
5.1660919 -0.19022782 -0.78747869 359 44
5.1648278 -0.22192279 -0.78747869 369 44
5.1535058 -0.25312424 -0.78590053 366 44
5.1488981 -0.28457707 -0.78542709 262 44
5.1401558 -0.31574044 -0.78432238 350 44
5.1400919 -0.34740722 -0.78463805 358 44
5.1329398 -0.37857616 -0.78384894 372 44
5.1305199 -0.41006416 -0.78384894 350 44
5.1052794 -0.43958664 -0.78021926 55 44
5.2201891 0.25540107 -0.86011314 268 45
5.2196884 0.22328113 -0.85977411 417 45
5.2120967 0.19092286 -0.85824841 399 45
5.2072597 0.15875693 -0.85723126 403 45
5.1953278 0.12648809 -0.8550275 274 45
5.1861525 0.094426163 -0.85333228 415 45
5.1886048 0.06262698 -0.85367131 392 45
5.1869206 0.030776983 -0.85333228 455 45
5.1742001 -0.0010502219 -0.85112846 81 45
5.1770525 -0.032816574 -0.85163707 68 45
5.1590157 -0.064364448 -0.84858567 431 45
5.1733041 -0.096290149 -0.85112846 334 45
5.1996799 0.22351964 -0.92080235 105 46
5.1852298 0.19103268 -0.91790032 175 46
5.1823721 0.15909271 -0.91717482 23 46
5.1803017 0.12721907 -0.91663069 15 46
5.1859007 0.095521122 -0.91753757 43 46
5.1804895 0.063627206 -0.91644931 348 46
5.2102842 0.032018218 -0.92189062 61 46
5.1720295 5.0424318e-05 -0.91481692 20 46
5.1463642 -0.031525992 -0.91010112 181 46
5.1568904 -0.063236348 -0.91209626 403 46
5.1652546 -0.095040739 -0.91372865 379 46
5.1834445 0.15802553 -0.98096275 315 47
5.1490045 0.12534991 -0.97401351 240 47
5.164392 0.094025083 -0.97690904 428 47
5.1550603 0.062214576 -0.97497869 402 47
5.1337595 0.030449627 -0.97073191 139 47
5.1358118 -0.0010510593 -0.97111797 21 47
5.1278596 -0.032515798 -0.96957368 203 47
5.1481667 -0.064231545 -0.97362745 371 47
5.1359034 -0.095602423 -0.97131097 25 47
5.1554699 0.12571353 -1.0378729 213 48
5.1590805 0.094131142 -1.0384865 379 48
5.1370487 0.062202971 -1.033783 277 48
5.1177568 0.030566035 -1.0296931 21 48
5.0982704 -0.00083180645 -1.0256032 118 48
5.1324291 -0.032332629 -1.0327605 375 48
5.1262612 -0.063750528 -1.0315336 380 48
5.1208801 -0.095112219 -1.030511 373 48
5.1542706 0.096529968 -1.1032001 101 49
5.1176696 0.064426646 -1.0949754 165 49
5.1355414 0.033141416 -1.0988714 19 49
5.1102643 0.0016158582 -1.0932438 29 49
5.1082253 -0.029729249 -1.092811 369 49
5.1147804 -0.061152309 -1.0943261 395 49
5.122118 -0.092674367 -1.0960577 260 49
5.1149378 0.032329418 -1.1579579 390 50
5.1072507 0.00094328966 -1.1561338 233 50
5.333159 0.26111051 -0.41929004 573 38
5.3257017 0.22799906 -0.41852283 572 38
5.3160477 0.1949161 -0.41758516 61 38
5.3121638 0.16214216 -0.41715896 33 38
5.3090744 0.12944743 -0.41681799 351 38
5.3077765 0.096832916 -0.41664749 419 38
5.2913337 0.064059399 -0.41519836 32 38
5.2836566 0.031544182 -0.41451642 33 38
5.2757797 -0.00087440561 -0.41383448 44 38
5.2756753 -0.033245966 -0.41383448 206 38
5.2713866 -0.065566413 -0.41349351 30 38
5.2688928 -0.097872637 -0.41332301 35 38
5.3113141 0.26080626 -0.48181233 471 39
5.3028712 0.22778244 -0.48084 393 39
5.3061581 0.19531401 -0.48103446 35 39
5.3012881 0.162568 -0.48045105 276 39
5.2822866 0.12954445 -0.47850633 475 39
5.2879572 0.097223081 -0.47899252 428 39
5.29144 0.064812183 -0.47928423 297 39
5.2857666 0.032305483 -0.47870082 409 39
5.2749176 -0.00013012896 -0.47763121 405 39
5.2598886 -0.032407742 -0.47617269 446 39
5.239687 -0.064440839 -0.47422796 227 39
5.2362075 -0.09653537 -0.47393626 269 39
5.2926135 0.26005158 -0.54615706 510 40
5.260345 0.22612292 -0.54243201 162 40
5.3013659 0.19530262 -0.54681444 30 40
5.2716656 0.16182719 -0.54341805 122 40
5.2715654 0.1294535 -0.5433085 521 40
5.2712669 0.0970871 -0.54319894 35 40
5.2618241 0.064620063 -0.54210329 19 40
5.2531762 0.032278597 -0.54111725 23 40
5.2483053 4.5432069e-05 -0.54056948 249 40
5.236279 -0.032083597 -0.53925472 33 40
5.2369776 -0.064224459 -0.53936428 28 40
5.2384725 -0.096393466 -0.53958344 42 40
5.2940059 0.25995257 -0.6117537 448 41
5.2717018 0.22643673 -0.60883301 85 41
5.2729921 0.19408591 -0.60883301 108 41
5.2681313 0.16154394 -0.6081028 424 41
5.2739844 0.12933901 -0.6087113 395 41
5.2746787 0.096976019 -0.6087113 361 41
5.2761674 0.064621747 -0.60883301 315 41
5.2496657 0.032076877 -0.60554719 419 41
5.2497635 -0.00013506791 -0.60554719 395 41
5.2466865 -0.032329325 -0.60518211 354 41
5.2225695 -0.064234123 -0.60226142 53 41
5.2220769 -0.096277997 -0.60226142 409 41
5.2732821 0.29154781 -0.67387664 484 42
5.2630935 0.2586033 -0.67227292 295 42
5.2744823 0.22672959 -0.67360932 16 42
5.2698321 0.19414324 -0.67280751 27 42
5.2402167 0.16086411 -0.66866463 392 42
5.2510123 0.12895028 -0.67000103 54 42
5.2526956 0.09674643 -0.67013472 25 42
5.2403078 0.064357415 -0.66839737 24 42
5.2207842 0.032081958 -0.66572458 172 42
5.2208824 4.722688e-05 -0.66572458 107 42
5.1920452 -0.031809282 -0.66184902 24 42
5.1788697 -0.063507535 -0.66011167 25 42
5.2090993 -0.095850788 -0.66425455 347 42
5.2439671 0.25839916 -0.73586005 224 43
5.2464423 0.22626077 -0.73600596 40 43
5.2408113 0.19380748 -0.73498458 405 43
5.2349801 0.16143183 -0.73396319 424 43
5.2338943 0.12925826 -0.73367137 430 43
5.2434907 0.097308449 -0.73498458 334 43
5.2271724 0.064920545 -0.73250413 440 43
5.2245045 0.032826684 -0.73206639 357 43
5.2176828 0.00076653931 -0.73104501 391 43
5.1790071 -0.031026145 -0.72535449 40 43
5.1994929 -0.06305059 -0.72841865 273 43
5.1960411 -0.094899364 -0.72798091 453 43
5.2534046 0.2904503 -0.80215532 333 44
5.2590332 0.25840411 -0.80278659 17 44
5.2516408 0.2257494 -0.80136627 18 44
5.2252965 0.19250581 -0.79694748 207 44
5.2362494 0.16074263 -0.79852563 119 44
5.2282524 0.12839305 -0.79710531 22 44
5.2151198 0.096057117 -0.79489589 22 44
5.2264724 0.064188525 -0.79663187 85 44
5.2020817 0.031968426 -0.79268652 246 44
5.1873679 4.9420425e-05 -0.79031932 25 44
5.1803584 -0.031736806 -0.78921461 21 44
5.18994 -0.063644111 -0.79079276 247 44
5.1874771 -0.095451303 -0.79047716 389 44
5.2463813 -0.16187584 -0.41153291 226 38
5.3344359 0.064419866 -0.21931285 544 35
5.3297362 0.031656418 -0.21907295 551 35
5.3218398 -0.0010470009 -0.21868913 370 35
5.3307457 0.16270795 -0.28625327 579 36
5.3346376 0.13006882 -0.28643483 625 36
5.3263531 0.09717045 -0.2858901 663 36
5.3208604 0.06441468 -0.28552696 192 36
5.2882166 0.031571068 -0.28352958 28 36
5.2853165 -0.00087669422 -0.28334802 30 36
5.3031783 -0.033421323 -0.28443748 80 36
5.2938905 -0.065847985 -0.28389275 402 36
5.3444023 0.26150602 -0.35279197 381 37
5.3349457 0.22823715 -0.35199207 557 37
5.3362455 0.19549824 -0.35199207 354 37
5.3184037 0.16217028 -0.35061049 35 37
5.3153105 0.12943612 -0.35031962 468 37
5.3060327 0.096635759 -0.34959245 463 37
5.303534 0.064039953 -0.34937432 439 37
5.3108087 0.031539861 -0.34988332 263 37
5.2819791 -0.0010478705 -0.34777457 504 37
5.2838678 -0.033469658 -0.34792 451 37
5.2875519 -0.065939099 -0.34821084 436 37
5.289042 -0.09841834 -0.34835628 471 37
5.3443489 0.36037061 -0.42073917 235 38
5.339498 0.32714549 -0.42014247 544 38
5.3374252 0.29415777 -0.41980147 563 38
5.3365297 0.42646903 -0.48531282 542 39
5.339046 0.39371669 -0.48531282 506 39
5.3145504 0.35913187 -0.48268747 47 39
5.3106937 0.3261483 -0.48210403 26 39
5.3066325 0.29322559 -0.48152062 45 39
5.3121982 0.49035382 -0.55010128 79 40
5.3299613 0.4590278 -0.5517447 403 40
5.3287144 0.42599857 -0.55130643 437 40
5.3163586 0.39219832 -0.54966301 412 40
5.3107314 0.35903457 -0.54878652 408 40
5.2989445 0.32558939 -0.54725266 57 40
5.2968726 0.29285035 -0.54681444 444 40
5.3102546 0.42436352 -0.61503947 471 41
5.3068194 0.39133313 -0.61430931 109 41
5.324965 0.35983795 -0.61625648 24 41
5.3231101 0.32691354 -0.61576968 28 41
5.2962756 0.292651 -0.61224049 363 41
5.277894 0.38936353 -0.67534667 251 42
5.2702961 0.3563039 -0.67401028 70 42
5.2704048 0.32383785 -0.67374301 349 42
5.2580628 0.35622144 -0.73877823 111 43
5.2719984 0.32468423 -0.74052918 481 43
5.2719159 0.29221982 -0.74023736 466 43
