# .PCD v0.7 - Point Cloud Data file format
VERSION 0.7
FIELDS x y z intensity ring
SIZE 4 4 4 4 1
TYPE F F F F U
COUNT 1 1 1 1 1
WIDTH 1408
HEIGHT 1
VIEWPOINT 0 0 0 1 0 0 0
POINTS 1408
DATA ascii
-8.8478613 2.9222395 0.509036 389 27
-8.8335495 2.9777496 0.50923908 358 27
-8.8406124 3.0406621 0.51060981 247 27
-8.9141483 3.1272383 0.51558501 321 27
-8.8393087 3.1620357 0.51258969 201 27
-8.6245708 3.1450698 0.50203013 763 27
-8.5938759 3.1937566 0.50142092 479 27
-8.7030163 3.2952137 0.50842679 83 27
-8.6835651 3.3489118 0.50847757 263 27
-8.6740093 3.4065096 0.50908679 260 27
-8.6928215 3.4756064 0.51126975 197 27
-9.077446 3.6940923 0.53355658 644 27
-9.0795231 3.760035 0.53492731 859 27
-9.0516796 3.8137369 0.53467345 544 27
-8.4029465 3.6013653 0.50010097 616 27
-8.393508 3.658442 0.5008117 738 27
-8.3727293 3.7106838 0.50091326 486 27
-8.3589087 3.7660894 0.50142092 642 27
-8.342 3.8202178 0.50177628 619 27
-8.3365126 3.8797569 0.50279164 706 27
-8.4687529 4.0046768 0.51157439 399 27
-8.3990078 4.0349469 0.509036 455 27
-8.3336992 4.0667019 0.50675148 496 27
-8.3238029 4.1252971 0.50761449 500 27
-8.3268833 4.1906567 0.50923908 512 27
-8.3472614 4.2652955 0.51187897 409 27
-8.2703972 4.290226 0.50898522 598 27
-8.2589417 4.3488002 0.5098483 508 27
-8.2523623 4.4102182 0.51101595 459 27
-8.2409496 4.4693389 0.51192975 463 27
-8.2273722 4.5275226 0.51274198 466 27
-8.2133894 4.5857077 0.51355428 454 27
-8.1929188 4.6404467 0.5140112 470 27
-8.8536482 5.0865726 0.5544219 336 27
-9.0984173 5.301672 0.57066745 686 27
-9.0872126 5.3700991 0.57193661 633 27
-9.0712252 5.4360213 0.57295197 601 27
-0 0 0 3 27
-2.9977396 1.8477101 0.21438289 24 27
-2.9804158 1.8623664 0.21402752 68 27
-2.9815905 1.888631 0.21478903 49 27
-2.9749894 1.910126 0.21509363 42 27
-2.9732602 1.9348778 0.21570285 61 27
-2.968003 1.9574816 0.21610898 41 27
-2.9617498 1.9795389 0.21646436 53 27
-2.9553375 2.0015931 0.21681972 53 27
-2.9495895 2.0242076 0.21722586 52 27
-2.944495 2.0473969 0.21768276 61 27
-2.9359601 2.0683 0.21793661 55 27
-2.9175224 2.0822163 0.21758123 40 27
-2.9160244 2.1082671 0.21829197 71 27
-2.8611257 2.0954483 0.21565208 29 27
-2.8329709 2.1016636 0.2146875 31 27
-2.8040495 2.107013 0.21367215 35 27
-2.7568862 2.098182 0.21148916 20 27
-2.7210152 2.0973847 0.21001691 25 27
-2.6710846 2.0851698 0.20763084 31 27
-2.6308117 2.0798514 0.205854 35 27
-2.5891457 2.0728703 0.2039756 32 27
-2.5523219 2.0692289 0.20240182 26 27
-2.5140967 2.0639477 0.20072651 36 27
-2.4829476 2.0640197 0.19950809 25 27
-2.4503641 2.0625017 0.19818814 27 27
-2.4186542 2.0613098 0.19691896 38 27
-2.3878081 2.0604591 0.19570054 45 27
-2.3600733 2.0619354 0.19468521 40 27
-2.324928 2.0565352 0.19316219 37 27
-2.2750542 2.0374625 0.19062382 37 27
-2.2092206 2.0031042 0.18696858 5 27
-0 0 0 3 27
-2.133976 1.9831729 0.18346564 26 27
-2.0810184 1.9579221 0.18062267 48 27
-2.069689 1.9713427 0.18067344 41 27
-2.0661848 1.9923202 0.18128264 29 27
-2.0589259 2.0098419 0.18163802 41 27
-0 0 0 41 27
-2.059535 2.0603747 0.18346564 38 27
-2.0587878 2.0850494 0.18432868 39 27
-2.0564196 2.1083627 0.18509018 42 27
-2.0580018 2.1360388 0.1861563 41 27
-0 0 0 38 27
-0 0 0 41 27
-0 0 0 43 27
-0 0 0 42 27
-0 0 0 25 27
-2.0472794 2.2877131 0.1914361 46 27
-2.0451143 2.3136966 0.19234991 33 27
-2.0433643 2.3404913 0.19331448 30 27
-0 0 0 37 27
-0 0 0 31 27
-0 0 0 50 27
-0 0 0 38 27
-2.016237 2.4576457 0.19696973 47 27
-2.0048931 2.4746253 0.19727433 36 27
-2.0071492 2.5087097 0.19869581 5 27
-2.8644691 3.6248217 0.27022687 100 27
-2.8532362 3.6564991 0.27114066 169 27
-2.8392832 3.6850109 0.27185142 201 27
-2.8353703 3.7269986 0.27342519 212 27
-2.8208485 3.7555034 0.27413595 188 27
-2.8251262 3.8096356 0.27647123 115 27
-2.7934353 3.8156188 0.2757605 114 27
-2.7846005 3.8529196 0.27702966 61 27
-2.8189297 3.9512203 0.2821064 106 27
-2.8170662 4.0002828 0.28408632 163 27
-2.8015912 4.0306115 0.28489861 182 27
-2.8112819 4.0979543 0.2879954 68 27
-0 0 0 20 27
-0 0 0 8 27
-2.1601679 3.276979 0.23489286 85 27
-2.1160495 3.2533422 0.2326591 153 27
-2.0793188 3.2402136 0.23108532 93 27
-0 0 0 4 27
-0 0 0 6 27
-0 0 0 11 27
-0 0 0 16 27
-0 0 0 16 27
-0 0 0 5 27
-0 0 0 5 27
-0 0 0 4 27
-0 0 0 8 27
-0 0 0 5 27
-0 0 0 18 27
-0 0 0 7 27
-0 0 0 6 27
-0 0 0 5 27
-0 0 0 4 27
-0 0 0 4 27
-0 0 0 7 27
-0 0 0 5 27
-0 0 0 37 27
-1.2516409 2.6062789 0.18234876 76 27
-1.2334896 2.609396 0.18209492 98 27
-1.211131 2.6033354 0.18133341 63 27
-1.1888933 2.5970991 0.1805719 82 27
-1.1675991 2.592509 0.17991193 72 27
-0 0 0 73 27
-0 0 0 69 27
-0 0 0 94 27
-1.0849988 2.5762107 0.17747509 72 27
-1.0657297 2.5745161 0.1770182 68 27
-1.0484059 2.577307 0.17681512 91 27
-1.030346 2.5781281 0.17651053 73 27
-1.0269285 2.6160045 0.1782366 214 27
-0.99683279 2.5859191 0.17625669 73 27
-0.9805932 2.591053 0.17620592 87 27
-0.96711344 2.6035736 0.1765613 74 27
-0.97063696 2.662935 0.17945503 42 27
-0.94889301 2.6537962 0.17864275 61 27
-0.94582629 2.6972611 0.18067344 42 27
-0.93185902 2.7105684 0.18107958 48 27
-0.9190411 2.7275908 0.18168879 43 27
-0.89162982 2.7009382 0.17996269 20 27
-0.86088902 2.6626515 0.1776274 4 27
-0 0 0 4 27
-0 0 0 4 27
-0.78736418 2.5977721 0.17336296 5 27
-0 0 0 5 27
-0.74373561 2.5669549 0.17123073 4 27
-0.72960579 2.577235 0.17153533 8 27
-0 0 0 4 27
-0 0 0 4 27
-0 0 0 4 27
-0.65817606 2.5634131 0.16991079 4 27
-0.64219201 2.5664346 0.16986002 4 27
-0 0 0 6 27
-0 0 0 3 27
-0 0 0 4 27
-0.5665316 2.5258808 0.16696627 6 27
-0 0 0 4 27
-0.53300804 2.5209188 0.16635707 6 27
-0.51652473 2.5192504 0.16610324 5 27
-0 0 0 4 27
-0 0 0 4 27
-0 0 0 4 27
-0 0 0 4 27
-0 0 0 4 27
-0.42823005 2.5651202 0.16757549 3 27
-0.4029519 2.5085397 0.16452946 3 27
-0 0 0 5 27
-0.37023035 2.5004535 0.16386949 5 27
-0 0 0 2 27
-0.33722985 2.4879851 0.16300644 6 27
-0.3228572 2.4969404 0.1633618 5 27
-0.30581591 2.484998 0.16265106 3 27
-0.29288977 2.5066657 0.16366641 7 27
-0 0 0 3 27
-0 0 0 4 27
-0.24434656 2.4877791 0.16244799 3 27
-0 0 0 4 27
-0.21319811 2.4836252 0.16209263 7 27
-0 0 0 11 27
-0 0 0 10 27
-0.16704126 2.4811502 0.16178802 4 27
-0.15175262 2.4811316 0.16173725 9 27
-0.1361939 2.476033 0.16143265 9 27
-0.12075269 2.4718344 0.16117881 12 27
-0.10549737 2.4705334 0.16107728 14 27
-0.090410382 2.4731302 0.16117881 10 27
-0 0 0 16 27
-0 0 0 22 27
-0 0 0 27 27
-0 0 0 30 27
-0 0 0 38 27
0.00068522885 2.4478171 0.1598081 41 27
0 0 0 29 27
0 0 0 39 27
0 0 0 70 27
0 0 0 100 27
0 0 0 136 27
0 0 0 165 27
0 0 0 143 27
0.11957288 2.4198968 0.15853892 94 27
0.13419913 2.4151289 0.15833585 82 27
0.14913763 2.4162536 0.15843739 112 27
0.1637592 2.4123037 0.15828508 127 27
0.17760517 2.3983052 0.15762511 185 27
0.19311139 2.4071259 0.15813278 254 27
0.20804858 2.4078858 0.15823431 296 27
0.22272758 2.4055693 0.15818354 389 27
0.23767908 2.4061453 0.15828508 563 27
0.25243843 2.4046416 0.15828508 574 27
0.26751795 2.4060254 0.15843739 570 27
0.28250796 2.4063225 0.15853892 474 27
0.29702345 2.4025614 0.15843739 401 27
0.3121441 2.4036651 0.15858969 338 27
0.32634997 2.3977458 0.15838662 284 27
0.33853105 2.3778996 0.1574728 200 27
0.35370058 2.3797295 0.15767588 174 27
0.3693625 2.3844235 0.15803124 113 27
0.384303 2.3840845 0.15813278 118 27
0.39826623 2.3777411 0.15792972 77 27
0.41318935 2.3772209 0.15803124 74 27
0.42882743 2.3805387 0.15833585 50 27
0.44415653 2.3817899 0.15853892 41 27
0.45895118 2.3800006 0.15858969 48 27
0.47432452 2.381058 0.15879275 42 27
0.48952746 2.3810377 0.15894505 20 27
0.50495464 2.3818977 0.15914813 26 27
0.51913488 2.3768029 0.15904659 30 27
0.53436476 2.3764963 0.1591989 19 27
0.54938585 2.375119 0.15930043 29 27
0.56533235 2.3775337 0.15960503 25 27
0.58014655 2.3749905 0.15965579 24 27
0.59592068 2.3762302 0.15990964 24 27
0.6107381 2.3734963 0.1599604 14 27
0.62681621 2.3754988 0.160265 23 27
0.64190072 2.3735363 0.16036654 38 27
0.65592003 2.3676279 0.160265 18 27
0.66308898 2.3376136 0.15889429 5 27
0.90480107 3.1181645 0.2004219 42 27
0.91823971 3.0934036 0.19940655 216 27
0 0 0 226 27
0 0 0 193 27
0 0 0 208 27
0 0 0 192 27
0 0 0 212 27
0 0 0 179 27
1.0576864 3.0728455 0.2005742 257 27
1.0775126 3.0691252 0.20072651 197 27
0 0 0 189 27
0 0 0 233 27
0 0 0 226 27
0 0 0 213 27
0 0 0 212 27
0 0 0 181 27
1.2253519 3.0626876 0.20306179 211 27
1.2441212 3.0551114 0.20306179 225 27
0 0 0 211 27
0 0 0 171 27
0 0 0 185 27
0 0 0 204 27
0 0 0 217 27
0 0 0 210 27
1.3949406 3.0442772 0.20560016 273 27
1.4106448 3.0293221 0.20524479 158 27
0 0 0 80 27
0 0 0 49 27
0 0 0 41 27
0 0 0 40 27
0 0 0 41 27
0 0 0 45 27
0 0 0 66 27
1.3659241 2.5923522 0.18432868 89 27
0 0 0 104 27
0 0 0 116 27
0 0 0 118 27
0 0 0 110 27
0 0 0 125 27
1.4823021 2.5784247 0.18656243 95 27
1.500106 2.5727329 0.18676551 92 27
1.5158637 2.5634799 0.18676551 127 27
0 0 0 85 27
0 0 0 94 27
0 0 0 103 27
0 0 0 102 27
0 0 0 423 27
1.6291456 2.5370495 0.1886439 128 27
1.6414152 2.521982 0.18833929 127 27
1.657958 2.5135307 0.18844083 120 27
0 0 0 138 27
0 0 0 136 27
0 0 0 127 27
0 0 0 125 27
0 0 0 128 27
0 0 0 81 27
1.8082218 2.5007372 0.19224837 110 27
1.8306102 2.4992661 0.19285758 79 27
1.8512639 2.4952073 0.19331448 87 27
1.8695377 2.4877944 0.19356832 89 27
1.8889993 2.4818406 0.1939237 106 27
1.9084582 2.4757419 0.19427906 87 27
1.9598559 2.5104446 0.19727433 51 27
0 0 0 34 27
2.2282214 2.7833292 0.21661665 53 27
2.2477725 2.7727087 0.21681972 56 27
2.2761447 2.772763 0.21773353 82 27
2.2937534 2.7595129 0.2177843 68 27
2.2881424 2.7186358 0.21600744 27 27
2.4815559 2.9121199 0.22986691 128 27
2.5085082 2.9074275 0.23057765 141 27
2.53878 2.9062755 0.23154221 138 27
2.5704546 2.9063575 0.23260833 128 27
2.6022251 2.9061596 0.23367445 131 27
2.6347601 2.9064207 0.23479132 131 27
2.6640203 2.9027114 0.23565437 144 27
2.6858582 2.8907015 0.23595898 141 27
2.7110693 2.8821714 0.23651741 169 27
2.734211 2.8712699 0.23692355 183 27
2.9367912 3.0464683 0.25047842 18 27
3.0112154 3.0855865 0.25453979 64 27
3.038512 3.0755799 0.25514901 67 27
3.0650928 3.0646477 0.25570744 80 27
3.0973368 3.0591207 0.25667202 74 27
3.1289129 3.0526154 0.25758582 75 27
3.1605253 3.0458372 0.25849962 81 27
3.1957879 3.0422294 0.25966728 80 27
3.2325792 3.0396717 0.26093647 71 27
3.2709219 3.0381362 0.26230717 84 27
3.3078954 3.034893 0.26357636 95 27
3.3419919 3.0286267 0.26464248 76 27
3.3828313 3.0280521 0.26616549 72 27
3.4267809 3.0297365 0.26789159 80 27
3.4663649 3.0270522 0.26931307 78 27
3.5037758 3.022038 0.27058223 75 27
3.5389748 3.0147345 0.27169913 70 27
3.5719233 3.005183 0.27266368 88 27
3.5925996 2.9851248 0.272816 62 27
0 0 0 4 27
3.5614698 2.8860922 0.26839924 4 27
3.5666378 2.8541977 0.26758698 3 27
0 0 0 4 27
3.6100538 2.8169754 0.26814541 26 27
3.6304343 2.7972105 0.26834849 14 27
3.6689861 2.7912138 0.26971918 144 27
3.6980193 2.7776487 0.27048069 166 27
3.7350445 2.769783 0.27174988 160 27
3.7954764 2.7786815 0.27449131 169 27
3.8383522 2.7740669 0.27611586 177 27
3.877249 2.7661293 0.27748659 126 27
3.9292545 2.7670214 0.27966958 120 27
3.965837 2.7565448 0.28088799 104 27
4.0073786 2.749114 0.28241101 118 27
4.0539389 2.744637 0.28423864 137 27
4.0922909 2.7341413 0.28555858 139 27
4.1398363 2.7293267 0.28743696 136 27
4.2033792 2.7343819 0.29027992 117 27
4.255373 2.7312038 0.29241216 133 27
4.302423 2.724283 0.29423976 127 27
4.3630981 2.7253554 0.29687968 145 27
4.4179955 2.7221162 0.29916421 150 27
4.4704556 2.7167485 0.30129641 158 27
4.5187325 2.7082708 0.30317482 165 27
4.5627742 2.6967602 0.30479935 163 27
4.6077061 2.6853137 0.30647469 183 27
4.6422787 2.6674438 0.3075408 260 27
4.6533451 2.6359544 0.30723619 221 27
4.665072 2.604917 0.30698237 239 27
4.6730943 2.571908 0.30652544 236 27
4.6677203 2.5317533 0.30530703 188 27
4.6637917 2.4927039 0.30419016 197 27
4.6630945 2.4556608 0.30327633 263 27
4.6700969 2.4228611 0.30281943 244 27
4.6715374 2.3873403 0.30205792 206 27
4.672718 2.3518932 0.30129641 227 27
4.6924291 2.32584 0.30160102 170 27
4.7425094 2.3145332 0.30363172 215 27
4.7746239 2.2940443 0.30464706 269 27
4.7831936 2.2621415 0.30434245 268 27
4.7797818 2.2247388 0.30337787 234 27
4.7915268 2.1945367 0.30327633 290 27
4.7994394 2.162632 0.30297175 302 27
4.7943597 2.1250446 0.30195639 312 27
4.7871695 2.0868027 0.30083951 234 27
4.798048 2.0566025 0.30073798 347 27
4.8004541 2.0228553 0.30017954 347 27
4.8118529 1.9929798 0.30012879 368 27
4.8147416 1.9596502 0.29962111 359 27
4.80164 1.9200531 0.29825038 374 27
4.7947407 1.8832481 0.29723504 370 27
4.799684 1.8512754 0.29687968 402 27
4.7988119 1.8171897 0.29621971 333 27
4.8070636 1.786666 0.29606739 358 27
4.7850995 1.7451527 0.29429054 269 27
4.7938371 1.7150857 0.29418901 301 27
4.7901354 1.6806761 0.2934275 301 27
4.8079123 1.6538533 0.29383364 317 27
4.8151307 1.6233636 0.29368132 311 27
4.8193116 1.5919071 0.29337674 295 27
4.7900324 1.5496932 0.29129526 210 27
4.7823148 1.5148405 0.29038146 33 27
4.7943811 1.4863561 0.29053375 52 27
4.8349476 1.4664836 0.29220909 110 27
4.895555 1.4521377 0.29495052 88 27
5.0127554 1.4535252 0.30068722 96 27
14.10428 3.9982901 0.78059 249 27
14.109298 3.9063416 0.77957469 306 27
14.100222 3.810833 0.7778486 287 27
14.169692 3.7364707 0.78028542 149 27
14.212664 3.6546814 0.78135151 291 27
14.216414 3.5627911 0.78038692 290 27
14.188527 3.4634116 0.77779782 109 27
14.198823 3.3737466 0.77723938 286 27
14.204661 3.283186 0.77647787 106 27
14.157306 3.1808543 0.77297491 325 27
14.161921 3.0907316 0.7722134 140 27
14.144468 2.9961171 0.77033502 283 27
14.134216 2.9034417 0.76886278 151 27
14.14295 2.8149059 0.76840585 320 27
14.113865 2.7191896 0.76601982 232 27
14.105739 2.6279624 0.76475066 298 27
14.095059 2.5365837 0.76337993 279 27
14.088711 2.4462898 0.76226306 306 27
14.080801 2.3560042 0.7610954 316 27
14.056539 2.2633667 0.75911546 286 27
14.0445 2.1731021 0.75779551 296 27
14.02991 2.0827773 0.75637406 246 27
14.024628 1.9941201 0.7554602 288 27
14.017797 1.9054717 0.75449568 290 27
14.000504 1.815697 0.75302339 334 27
13.987592 1.7268186 0.75180501 347 27
13.983046 1.6392143 0.7510435 304 27
13.970011 1.5508488 0.74987584 342 27
13.957412 1.4628092 0.74875897 314 27
13.948235 1.375375 0.74784511 307 27
13.924588 1.2868209 0.74622059 268 27
13.926252 1.2008417 0.74591601 297 27
13.92639 1.1148108 0.74556059 287 27
13.912052 1.0277921 0.7444945 244 27
12.809077 0.86722398 0.68799055 218 27
12.803192 0.78793681 0.68743211 202 27
12.843684 0.71135455 0.68925971 442 27
12.852795 0.63277984 0.68951356 644 27
12.858431 0.55399078 0.68961513 300 27
12.861588 0.47508252 0.68961513 278 27
12.866258 0.396218 0.68971664 286 27
12.874437 0.31741291 0.69002122 278 27
12.88413 0.2385595 0.69042736 283 27
12.888348 0.15953682 0.69057971 294 27
12.886088 0.080433436 0.69042736 318 27
12.886339 0.0013643702 0.69042736 309 27
12.886105 -0.077704743 0.69042736 290 27
12.886384 -0.156783 0.69047815 295 27
12.896164 -0.23604947 0.69103658 276 27
12.890479 -0.31507713 0.69083351 287 27
12.882314 -0.39398307 0.69052893 265 27
12.989438 -0.47704205 0.69611329 86 27
12.991255 -0.55694818 0.69636714 101 27
12.989589 -0.63674819 0.69646871 87 27
17.829828 -0.98328036 0.94309598 97 27
12.999737 -0.79726231 0.69743329 82 27
13.003568 -0.87761664 0.69789016 96 27
18.71409 -1.3779088 0.98924339 114 27
18.697319 -1.4920753 0.98883724 107 27
18.711693 -1.6088235 0.99005568 158 27
18.69948 -1.7234229 0.98995417 158 27
13.032151 -1.2821426 0.70103776 105 27
12.933648 -1.3526372 0.69641793 266 27
12.930068 -1.4325205 0.69667178 228 27
12.927979 -1.5126429 0.69702715 263 27
13.306023 -1.6396637 0.7168771 106 27
13.312549 -1.7234554 0.71774018 117 27
12.215086 -1.6577414 0.66199774 221 27
12.1592 -1.7262076 0.65966243 471 27
12.122692 -1.7969775 0.65834248 539 27
13.320529 -2.0580249 0.72053236 126 27
13.314553 -2.1408286 0.72088772 174 27
13.327764 -2.2269266 0.72225845 121 27
13.322705 -2.3101974 0.72271538 122 27
13.30533 -2.3913705 0.72256303 119 27
13.110723 -2.4395478 0.71327263 94 27
12.958205 -2.4935391 0.70616525 199 27
12.063017 -2.3982098 0.66057622 303 27
12.050032 -2.4725833 0.66067779 244 27
12.055153 -2.5508139 0.66174388 301 27
16.48604 -3.5937533 0.89309025 146 27
16.029058 -3.5973344 0.87044805 131 27
15.697229 -3.6241953 0.85430408 112 27
15.316127 -3.6353636 0.83557093 209 27
14.910265 -3.6358447 0.8155179 145 27
14.600903 -3.6554909 0.8004908 134 27
14.287034 -3.670238 0.78520983 207 27
13.947469 -3.6744065 0.7685582 202 27
13.270933 -3.5834556 0.73413801 69 27
13.026338 -3.6033294 0.72241074 170 27
13.001101 -3.6823733 0.72225845 237 27
12.988812 -3.765135 0.72281688 239 27
5.1386728 -1.5245492 0.30784538 120 27
5.058495 -1.5346113 0.30408862 148 27
4.9602647 -1.5381317 0.29936728 180 27
4.9126482 -1.5564812 0.29733658 129 27
4.9286623 -1.5948915 0.29870731 65 27
4.9311123 -1.6291734 0.29936728 141 27
4.9229159 -1.6600373 0.29946882 555 27
4.8418036 -1.6658596 0.29566127 269 27
4.7730594 -1.6750463 0.2925137 167 27
4.6648908 -1.6693295 0.28723389 267 27
4.6076441 -1.6808196 0.28469554 234 27
4.5597963 -1.6951486 0.28266484 278 27
4.5231557 -1.7131964 0.28124335 425 27
4.5078993 -1.7391214 0.28098953 348 27
4.5175958 -1.7747778 0.2821064 476 27
4.4927101 -1.796904 0.28134489 331 27
4.5195284 -1.8398668 0.28342634 410 27
4.5099998 -1.8683275 0.28352788 433 27
0.99079943 -0.41857931 0.090053901 437 27
0.98821241 -0.42465085 0.090053901 437 27
0.98833489 -0.43190321 0.090206198 362 27
0.99114484 -0.44038662 0.090510808 693 27
0.98296034 -0.44399908 0.090206198 120 27
4.5771117 -2.0966663 0.29129526 13 27
4.5179796 -2.1032262 0.28870615 76 27
4.5095038 -2.1330426 0.28895998 61 27
4.5395441 -2.1814256 0.2913968 29 27
4.5350494 -2.2136173 0.29190448 28 27
4.5321202 -2.2467227 0.2925137 31 27
4.5280633 -2.2794263 0.29307213 23 27
4.5300007 -2.3153448 0.29398593 31 27
4.5272346 -2.3490739 0.29464591 24 27
4.5277591 -2.3847167 0.29550895 28 27
4.5288973 -2.4209247 0.29642278 25 27
4.5244932 -2.45438 0.29703197 11 27
4.5277243 -2.4922049 0.29809809 24 27
4.5228119 -2.5257804 0.29870731 13 27
4.5272169 -2.5648026 0.29987493 24 27
4.5261168 -2.6009889 0.30073798 15 27
4.5273314 -2.6387661 0.30175331 21 27
4.5299721 -2.6776717 0.30287021 21 27
4.5305915 -2.715682 0.30388555 21 27
4.5292068 -2.7527633 0.30479935 33 27
4.5300884 -2.791501 0.30586547 30 27
4.5357475 -2.8335261 0.30723619 27 27
4.5393729 -2.8746574 0.30850536 22 27
4.5477066 -2.9191749 0.31007916 22 27
4.5556641 -2.9639022 0.31165293 25 27
4.5557375 -3.0038903 0.31276983 27 27
4.5546613 -3.0434358 0.31383592 31 27
4.5582323 -3.0864394 0.31520665 24 27
4.5622706 -3.1301656 0.31662813 12 27
4.5544605 -3.1660786 0.31733888 17 27
4.5545473 -3.2077622 0.31855729 14 27
4.5486021 -3.2455065 0.31942034 15 27
4.5480309 -3.2873924 0.32063875 23 27
4.5519519 -3.3329318 0.32216176 13 27
4.5530777 -3.3768582 0.32353246 20 27
4.5530362 -3.4203236 0.32485244 15 27
4.5661454 -3.4741929 0.32703543 10 27
4.5661049 -3.5185997 0.32840613 18 27
4.5727773 -3.5686648 0.33023375 9 27
4.5703859 -3.6121333 0.33150294 12 27
4.5707521 -3.6582017 0.33297518 18 27
4.5699482 -3.7037814 0.33439666 18 27
4.5733891 -3.7532887 0.33612275 18 27
4.5763931 -3.8029768 0.33784884 15 27
4.5728445 -3.8476996 0.33916879 15 27
4.5628352 -3.8873413 0.34008259 9 27
4.5759587 -3.947222 0.34257019 23 27
4.5764804 -3.9968998 0.34424552 16 27
4.5735703 -4.0440865 0.34571776 17 27
4.5784392 -4.0987129 0.34774846 15 27
4.5746679 -4.1461744 0.34922069 20 27
4.5771093 -4.1998191 0.35114986 13 27
4.5790634 -4.2536488 0.35307902 14 27
4.579073 -4.3062911 0.35490665 8 27
4.5938005 -4.3735518 0.35780036 10 27
4.5898933 -4.4238305 0.35942492 10 27
4.5976949 -4.4860797 0.36191252 16 27
4.593534 -4.5373626 0.36358783 16 27
4.5952725 -4.5951171 0.36572006 23 27
4.5908585 -4.6473794 0.36744615 22 27
4.5943465 -4.7083354 0.36978143 15 27
4.5958719 -4.7680707 0.37201521 21 27
4.6071682 -4.8388481 0.37501046 15 27
4.611608 -4.9033957 0.37754884 24 27
4.6222262 -4.9754944 0.38059485 21 27
4.6267295 -5.0420203 0.38323477 30 27
4.6265635 -5.1043482 0.38557005 27 27
4.6331348 -5.175046 0.3884638 21 27
4.619822 -5.2243223 0.38988528 13 27
4.629734 -5.300704 0.39313439 29 27
4.6251793 -5.3615241 0.39531738 21 27
4.6330075 -5.4376888 0.3985157 16 27
4.6252813 -5.4965763 0.4005464 18 27
4.634244 -5.5763078 0.4039478 24 27
4.6233892 -5.6331983 0.40582618 21 27
4.6201863 -5.7002487 0.40836453 23 27
4.6363082 -5.7924185 0.41252747 18 27
4.6595235 -5.8951821 0.41735035 20 27
4.6570663 -5.966958 0.42014256 20 27
4.6740241 -6.0650258 0.42461008 18 27
4.7589087 -6.2541189 0.43486506 5 27
4.6688447 -6.21454 0.43049908 28 27
4.6925144 -6.3264842 0.43577886 17 27
4.6854758 -6.398665 0.43852028 15 27
4.671875 -6.462903 0.44075406 23 27
4.6570811 -6.526401 0.44293705 24 27
4.6445589 -6.5940418 0.44537386 34 27
4.6188369 -6.643734 0.44669381 25 27
4.7017555 -6.8522778 0.45781186 274 27
4.6937885 -6.931437 0.46090865 329 27
4.7149963 -7.0555902 0.4667469 463 27
4.6864629 -7.1068974 0.46811759 182 27
4.7119555 -7.2418227 0.47456503 29 27
4.7046671 -7.3285837 0.47806799 34 27
4.7542129 -7.5066409 0.48705378 17 27
4.749877 -7.6025777 0.4910644 17 27
4.7225304 -7.6630349 0.49294278 25 27
4.7397599 -7.7976837 0.49923792 20 27
4.7226415 -7.8780107 0.50228393 35 27
4.7540236 -8.0418062 0.51025444 54 27
4.7518783 -8.1519241 0.51502651 63 27
4.7699618 -8.2995462 0.52198166 35 27
4.7740993 -8.425972 0.52766758 23 27
4.7827082 -8.5632181 0.53396273 18 27
4.7739129 -8.6720142 0.53858256 22 27
4.763485 -8.7801437 0.54315162 31 27
4.7877011 -8.9554014 0.55157894 21 27
4.7689743 -9.0535278 0.55553877 19 27
4.7598052 -9.1721468 0.56066632 24 27
4.7666354 -9.3247795 0.56772292 30 27
4.7789574 -9.4921093 0.57559186 54 27
4.813807 -9.7091455 0.58625299 68 27
4.8207526 -9.8749094 0.59396958 38 27
4.8145924 -10.017715 0.60036629 21 27
4.7970338 -10.140051 0.60559529 29 27
4.8182087 -10.348553 0.6156472 22 27
4.8232722 -10.527727 0.6240238 15 27
4.806612 -10.663647 0.62996358 24 27
4.795752 -10.816187 0.63681716 25 27
4.862258 -11.150245 0.65372264 60 27
4.8386273 -11.284504 0.65951014 47 27
4.8717346 -11.556927 0.67291266 29 27
4.843174 -11.689012 0.67854786 41 27
0 -0 0 318 27
4.8585353 -12.145349 0.70032698 85 27
4.9231095 -12.529069 0.71966934 27 27
4.8774266 -12.6401 0.72408605 55 27
4.8864794 -12.898597 0.73652405 42 27
4.9346671 -13.270936 0.75510484 18 27
4.9137506 -13.467023 0.76409066 7 27
4.8747892 -13.619154 0.77069038 9 27
4.9638433 -14.140696 0.7971909 39 27
4.9459004 -14.371083 0.80795354 30 27
4.9850192 -14.778734 0.8282097 16 27
4.9268446 -14.90766 0.83348948 8 27
4.9869466 -15.406034 0.85851777 21 27
4.9985576 -15.771453 0.87638783 28 27
4.9585156 -15.984966 0.8861351 14 27
5.016993 -16.531141 0.91354942 23 27
5.0129561 -16.890005 0.93096262 336 27
4.9053297 -16.907019 0.93025184 459 27
4.7971382 -16.921425 0.9294396 474 27
4.687356 -16.929367 0.92832273 476 27
4.5768747 -16.933706 0.92705351 446 27
4.4662623 -16.936363 0.92573357 458 27
4.356288 -16.940235 0.92451519 466 27
4.2449765 -16.937584 0.92299217 483 27
4.1336255 -16.933237 0.92141837 534 27
4.0261831 -16.943707 0.92065686 495 27
3.9169681 -16.945711 0.9194892 524 27
3.8076611 -16.946041 0.91827077 525 27
3.6997759 -16.951523 0.91735697 488 27
3.5938303 -16.965111 0.9169001 460 27
3.4858472 -16.968256 0.91593552 474 27
3.3769855 -16.965818 0.91471708 422 27
3.2686632 -16.964645 0.91360021 417 27
3.1615806 -16.968674 0.91278791 496 27
3.0547488 -16.973009 0.91202641 541 27
2.9493504 -16.984545 0.91167104 543 27
2.8844893 -17.237738 0.9238044 153 27
2.9338596 -18.218431 0.97340405 141 27
2.8392839 -18.347616 0.9791407 508 27
2.721956 -18.33308 0.97751617 425 27
2.6037884 -18.309887 0.9754855 436 27
2.4869502 -18.292862 0.97381014 462 27
2.3708045 -18.278065 0.97228712 464 27
2.2521181 -18.239737 0.96959651 571 27
2.1358533 -18.216511 0.96771812 536 27
2.02051 -18.19751 0.96609354 494 27
1.9052719 -18.175795 0.96436745 467 27
1.7901803 -18.151363 0.96253985 488 27
1.6753684 -18.12521 0.96066147 537 27
1.5613745 -18.103308 0.95903689 542 27
1.4477125 -18.080692 0.95741236 574 27
1.3340923 -18.053379 0.9555847 534 27
1.2218751 -18.0403 0.95451862 533 27
1.1100531 -18.029514 0.95360482 544 27
0.99724764 -17.997097 0.95162487 439 27
0.88581675 -17.982927 0.95060951 514 27
0.77399421 -17.9541 0.94888347 558 27
0.66259587 -17.925575 0.94720811 544 27
0.55185419 -17.905346 0.94598973 561 27
0.44126219 -17.87944 0.94451743 532 27
0.33108321 -17.856848 0.94324827 567 27
0.22133508 -17.844563 0.94253755 607 27
0.11173123 -17.828608 0.94167447 556 27
0.0023303409 -17.805986 0.94050688 556 27
-0.10681841 -17.787689 0.93959302 488 27
-0.21570636 -17.765728 0.93852693 521 27
-0.32449251 -17.752087 0.93791771 582 27
-0.43268177 -17.71981 0.93639469 525 27
-0.54048717 -17.686874 0.93487167 509 27
-0.64790469 -17.653284 0.93334866 622 27
-0.75531459 -17.628021 0.93228257 613 27
-0.8627317 -17.608093 0.93152106 655 27
-0.96987784 -17.586512 0.93070877 579 27
-1.0770359 -17.568268 0.93009955 595 27
-1.1836708 -17.54439 0.92923653 645 27
-1.2906393 -17.527832 0.9287796 616 27
-1.3976874 -17.513609 0.92847502 607 27
-1.5043532 -17.495749 0.92801809 559 27
-1.6106693 -17.475248 0.92745966 582 27
-1.7173766 -17.460068 0.92720586 587 27
-1.8238544 -17.443241 0.92690122 567 27
-1.9293114 -17.417826 0.9261905 273 27
-1.3793888 -11.788223 0.63869554 247 27
-2.1401024 -17.370039 0.92502284 554 27
-2.2468989 -17.358562 0.92512435 624 27
-2.3501456 -17.320698 0.92390597 480 27
-2.3971798 -16.888674 0.90248215 445 27
-2.5022252 -16.883526 0.90298986 551 27
-2.6080594 -16.88266 0.90375137 581 27
-2.7157204 -16.891977 0.90507132 606 27
-2.8224421 -16.893711 0.9060359 665 27
-2.9289463 -16.892805 0.90689892 681 27
-2.2894821 -12.738153 0.69327033 29 27
-2.3666859 -12.718956 0.69301653 14 27
-2.4463811 -12.713021 0.6934734 28 27
-2.52473 -12.699731 0.69357497 27 27
-2.550236 -12.428652 0.68032467 95 27
-2.5925577 -12.252526 0.67199886 401 27
-0 -0 0 725 27
-2.6965895 -12.014172 0.66128701 951 27
-2.7731762 -12.010051 0.66194695 926 27
-2.85235 -12.01613 0.66316539 1015 27
-2.9321756 -12.02363 0.66448534 1057 27
-3.0102606 -12.022851 0.66539913 1042 27
-3.087204 -12.016729 0.66605908 1011 27
-3.1631684 -12.006252 0.66651601 159 27
-3.4270341 -12.691448 0.70362687 17 27
-7.037848 -25.446579 1.3774606 23 27
-7.2216048 -25.500933 1.3826388 103 27
-7.4012895 -25.536718 1.3869033 210 27
-7.5691943 -25.529125 1.388934 192 27
-7.7361259 -25.516607 1.3907616 179 27
-7.9046659 -25.507772 1.392843 89 27
-8.0788145 -25.514967 1.3958383 150 27
-5.6314464 -17.41234 0.96563661 23 27
-5.6705527 -17.172611 0.95467091 83 27
-5.7777286 -17.143173 0.95497555 77 27
-5.8847566 -17.113066 0.95528013 60 27
-5.9975815 -17.099253 0.95649856 42 27
-2.583986 -7.2227678 0.4253208 193 27
-2.6241512 -7.1955171 0.42471161 1565 27
-2.6661658 -7.1736627 0.42440701 1647 27
-2.7221522 -7.1889262 0.4261331 1209 27
-2.7787852 -7.2047033 0.42790994 843 27
-2.796298 -7.1196537 0.42420393 850 27
-2.7998998 -7.0022044 0.41872108 1387 27
-2.8477044 -6.9969192 0.41938105 1569 27
-2.8913469 -6.9811597 0.41948259 1532 27
-2.9449828 -6.9890585 0.42090407 1608 27
-2.9948909 -6.987381 0.42181787 1608 27
-3.0249424 -6.9395747 0.42019331 1278 27
-3.0496662 -6.8807068 0.41795957 1569 27
-3.1024916 -6.8855405 0.41927952 1200 27
-3.2099493 -7.0089426 0.42724997 1562 27
-3.2566864 -6.9972644 0.42770687 1414 27
-3.3046813 -6.9879847 0.42831609 669 27
-5.7587605 -11.98839 0.71144503 33 27
-5.7963057 -11.879226 0.70728213 39 27
-5.8123345 -11.72889 0.70078391 38 27
-5.844244 -11.613603 0.69626564 22 27
-5.8404303 -11.430776 0.68788904 40 27
-5.854826 -11.287447 0.68174618 48 27
-5.8723369 -11.153214 0.67611104 42 27
-5.8333607 -10.916133 0.66453606 49 27
-5.8426337 -10.7739 0.65839326 44 27
-5.8628988 -10.654718 0.65357035 58 27
-5.8697548 -10.513896 0.64747828 52 27
-5.8721528 -10.36818 0.64108163 34 27
-5.8729858 -10.222836 0.63468492 20 27
-5.921525 -10.162444 0.63326347 28 27
-5.9593849 -10.084646 0.63082665 20 27
-6.0067797 -10.023902 0.62940514 18 27
-6.0489869 -9.9552746 0.62752676 22 27
-6.0795798 -9.8686504 0.62458229 11 27
-6.0939994 -9.7574606 0.62016553 6 27
-6.1030121 -9.6397171 0.61534262 5 27
-5.8821435 -9.1658297 0.58899444 61 27
-5.8990722 -9.0692825 0.58533919 74 27
-5.9045968 -8.9570312 0.58071935 61 27
-5.9183979 -8.8591757 0.57696259 58 27
-5.9273038 -8.7557001 0.57285041 49 27
-5.9323397 -8.6483335 0.56848443 65 27
-5.9556594 -8.5691223 0.56584454 47 27
-5.9581094 -8.4613695 0.56142783 90 27
-6.0145545 -8.4311571 0.56183392 122 27
-6.0837207 -8.4183798 0.56335694 59 27
-6.0562215 -8.2728987 0.55655414 28 27
-6.2478304 -8.425725 0.56858599 63 27
-6.0925207 -8.1117048 0.55107129 11 27
-6.0974402 -8.0153446 0.54731452 7 27
-6.1434593 -7.973824 0.54706067 10 27
-6.1160989 -7.8383346 0.54076552 12 27
-6.1634598 -7.7998757 0.54071474 11 27
-6.1968532 -7.7439742 0.53954715 59 27
-6.2536831 -7.7174454 0.54030865 47 27
-6.3876977 -7.7847109 0.54726374 9 27
-6.4966059 -7.8191209 0.55213737 16 27
-6.5669603 -7.8058619 0.55391425 15 27
-6.6192656 -7.7707434 0.55426961 26 27
-6.6876912 -7.7541857 0.5558942 24 27
-6.74828 -7.7280517 0.5569095 16 27
-6.8564219 -7.7553434 0.56158012 50 27
-6.8898926 -7.6974983 0.56051397 25 27
-7.178391 -7.9215236 0.57879019 109 27
-7.194458 -7.842001 0.57635337 249 27
-7.2077813 -7.7603846 0.57376426 324 27
-7.2402134 -7.7000041 0.57264739 227 27
-7.3486009 -7.719821 0.57716566 166 27
-7.4297843 -7.7098269 0.57965326 164 27
-7.5390139 -7.7277236 0.58417153 126 27
-7.6213737 -7.7168522 0.58670992 146 27
-7.8196759 -7.8210983 0.59757411 511 27
-7.9009061 -7.805964 0.59996015 440 27
-7.9965367 -7.8040781 0.60336155 509 27
-8.114727 -7.8228006 0.60833675 457 27
-8.2037954 -7.8121238 0.61123049 481 27
-8.2974005 -7.8047528 0.61442882 63 27
-9.288866 -8.630722 0.67991859 17 27
-9.4122791 -8.6383991 0.68479222 53 27
-9.4910011 -8.6039639 0.68656909 71 27
-9.5860214 -8.5835438 0.68946278 68 27
-8.6144419 -7.6186852 0.61996245 306 27
-8.6309433 -7.5394001 0.61793172 710 27
-8.6218462 -7.4386687 0.61422575 485 27
-8.6148806 -7.3409262 0.61072278 392 27
-6.5952864 -5.5501328 0.47354969 218 27
-8.6321249 -7.1746411 0.60595065 319 27
-8.6180935 -7.0740108 0.60214311 202 27
-2.9199135 -2.3659267 0.22641473 138 27
-2.9406126 -2.3529596 0.22682087 303 27
-2.9291418 -2.3144317 0.22514555 166 27
-2.955883 -2.3062487 0.22595783 270 27
-2.9391305 -2.2642879 0.22397791 163 27
-2.944227 -2.2395575 0.22341946 128 27
-2.9443407 -2.2112498 0.22255641 118 27
-2.9450202 -2.1836207 0.22174415 120 27
-2.9462779 -2.156657 0.22098264 119 27
-2.9505532 -2.1321011 0.22042419 251 27
-2.9513869 -2.1052532 0.21966268 122 27
-2.9609833 -2.0848033 0.21945962 119 27
-2.9647005 -2.0603237 0.21890117 117 27
-2.9608181 -2.0307906 0.21788584 135 27
-2.9674351 -2.0086644 0.21753046 143 27
-2.9788737 -1.9898636 0.21747969 147 27
-2.9935284 -1.9731979 0.217632 125 27
-3.0457571 -1.9809426 0.22006883 78 27
-3.0738215 -1.97247 0.22103339 81 27
-3.1145508 -1.9717444 0.22275949 98 27
-3.155386 -1.9705925 0.22448558 317 27
-3.2209778 -1.9842113 0.22768392 136 27
-3.2237051 -1.958703 0.22712547 258 27
-3.3255975 -1.9928148 0.23245603 64 27
-3.3583944 -1.9845719 0.23367445 52 27
-3.378273 -1.9684554 0.23413135 86 27
-3.5643196 -2.0477386 0.24433556 34 27
-3.7210493 -2.1075735 0.25276294 54 27
-3.7661705 -2.1027243 0.25464132 50 27
-3.8122458 -2.0978818 0.25657049 69 27
-3.8575244 -2.0920761 0.25844887 94 27
-3.8843796 -2.0759027 0.25926113 46 27
-8.7372122 -4.6023078 0.53736413 34 27
-8.7245121 -4.5274448 0.53502882 625 27
-8.7254515 -4.460187 0.5335058 673 27
-8.7303543 -4.3953347 0.53223664 671 27
-8.7321072 -4.3292589 0.53081512 626 27
-8.7441483 -4.2685866 0.53000289 629 27
-8.72787 -4.1945157 0.5276168 522 27
-8.7624702 -4.1451554 0.52812451 395 27
-8.7868338 -4.0908904 0.52807373 354 27
-8.8081379 -4.035234 0.52787066 283 27
-8.8218069 -3.9761865 0.52726144 312 27
-8.8414736 -3.9199576 0.52700758 322 27
-8.8534594 -3.8604426 0.52634764 334 27
-8.8430185 -3.7914808 0.52446926 265 27
-8.8651962 -3.7367616 0.52441847 262 27
-8.8861122 -3.6815307 0.52431697 220 27
-8.8983603 -3.6227934 0.52375853 251 27
-8.9232035 -3.5692389 0.52391082 261 27
-8.9430771 -3.5136895 0.52380925 217 27
-8.9691267 -3.4605477 0.52406311 172 27
-8.993927 -3.4068646 0.52426618 204 27
-9.006237 -3.3484814 0.52380925 198 27
-9.0219231 -3.291445 0.52355546 204 27
-9.0494709 -3.2387187 0.5239616 219 27
-9.0729427 -3.1844547 0.52416462 258 27
-9.1036434 -3.1326251 0.52477384 252 27
-9.1283712 -3.0786228 0.52507848 302 27
-9.1461411 -3.0222409 0.52502769 256 27
-9.1426592 -2.9589887 0.52386004 396 27
-9.1539793 -2.900722 0.52350467 342 27
-8.5945253 -2.665446 0.49279049 851 27
-8.5935163 -2.607439 0.49187666 1018 27
-8.5940351 -2.5501134 0.4910644 948 27
-8.602807 -2.4953852 0.49070904 1010 27
-8.6246815 -2.4444594 0.4910644 1053 27
-8.6077566 -2.3826971 0.48938909 901 27
-8.6222143 -2.3298359 0.48938909 926 27
-8.6276569 -2.2745945 0.48893216 956 27
-8.646287 -2.2228575 0.48918602 713 27
-6.4772086 -1.622606 0.37480739 274 27
-8.9300184 -2.1793675 0.50263935 295 27
-8.9490519 -2.1259186 0.50294393 183 27
-6.5682526 -1.5175059 0.3780565 281 27
-8.9393883 -2.0080557 0.50111634 207 27
-8.9339781 -1.9493324 0.50020248 235 27
-8.9281845 -1.8907511 0.49928868 252 27
-8.9298353 -1.8339229 0.49878103 224 27
-8.9350433 -1.7779257 0.49847642 242 27
-8.9703007 -1.7277932 0.49974561 208 27
-9.0141144 -1.6789418 0.5014717 229 27
-9.031127 -1.6248395 0.50182706 192 27
-9.0360069 -1.5685403 0.5015732 208 27
-9.0641756 -1.5161998 0.50253779 160 27
-9.3069897 -1.4982013 0.51456964 182 27
-9.3495636 -1.4462614 0.51629573 220 27
-9.3819714 -1.392388 0.51751411 294 27
-9.3804502 -1.3333884 0.51700646 263 27
-9.3815279 -1.2748637 0.51665109 239 27
-9.3961067 -1.2181754 0.51700646 272 27
-9.411334 -1.1614786 0.5174126 276 27
-9.4321699 -1.1053391 0.51812333 313 27
-9.4318266 -1.0466716 0.51776797 333 27
-8.879858 -0.93022877 0.48923677 241 27
-8.9331055 -0.88043362 0.49167362 131 27
-9.3798819 -0.8664462 0.51421428 233 27
-9.4089022 -0.81093717 0.51543266 392 27
-9.4047413 -0.75247198 0.51497579 386 27
-9.7929316 0.23894781 0.410182 1077 28
-9.7293558 0.29713792 0.40781277 1208 28
-9.7213573 0.35661051 0.40758348 1266 28
-9.6860409 0.41484058 0.40632245 633 28
-9.7062693 0.47539043 0.40720135 1328 28
-9.6931915 0.53438759 0.40681922 1265 28
-9.6857405 0.59360915 0.40666637 1178 28
-9.677928 0.65275943 0.40651351 1268 28
-9.7106142 0.71484566 0.40792742 945 28
-9.7927055 0.78133327 0.41125196 1143 28
-9.7817535 0.84089172 0.41102269 1127 28
-9.7644691 0.89979482 0.41056412 1174 28
-9.7527971 0.95910448 0.41033486 1160 28
-9.7417593 1.0184088 0.41014379 1186 28
-9.7333412 1.0779439 0.41006735 1244 28
-9.7324982 1.138343 0.41029665 1182 28
-9.7283058 1.1984056 0.41041127 1108 28
-9.7138329 1.2571768 0.41014379 1145 28
-9.710887 1.317428 0.41033486 1161 28
-9.6986628 1.3764262 0.410182 1175 28
-9.682127 1.4347382 0.40987629 1142 28
-9.6731415 1.4941195 0.40987629 1270 28
-9.6637917 1.5534446 0.40987629 1237 28
-9.6619625 1.6140288 0.410182 1266 28
-9.6528616 1.6734538 0.41022021 1261 28
-9.6424122 1.7326512 0.41022021 1227 28
-9.6404409 1.7934285 0.41056412 1252 28
-9.6292553 1.8525474 0.41056412 1286 28
-9.6177073 1.9115965 0.41056412 1217 28
-9.6028595 1.9699711 0.4104495 1294 28
-9.5935249 2.0294766 0.41056412 1252 28
-9.5867491 2.0895803 0.41079342 1296 28
-9.583497 2.1505525 0.41117555 1247 28
-9.5779104 2.2111137 0.41148126 1250 28
-9.5680523 2.2707641 0.41163412 1224 28
-9.5607347 2.3310871 0.41190159 1160 28
-9.5501289 2.3906777 0.41205445 1180 28
-9.5381842 2.4499769 0.4121691 1191 28
-9.5287695 2.5099835 0.41239837 1187 28
-9.5199423 2.5702271 0.41266587 1142 28
-9.5001392 2.6275265 0.41251302 798 28
-9.483839 2.6857686 0.41251302 385 28
-8.6465864 2.5060389 0.37984055 34 28
-8.6281729 2.5581939 0.3797259 42 28
-8.6123133 2.6110873 0.3797259 65 28
-8.6009026 2.6653614 0.379917 75 28
-8.597723 2.7223089 0.38045198 47 28
-8.602725 2.7820854 0.38133088 40 28
-8.8805914 2.9322698 0.39321524 186 28
-8.6673641 2.9209569 0.38534328 104 28
-9.4118547 3.2363343 0.4161815 384 28
-9.3805046 3.2900543 0.41572294 797 28
-8.6140127 3.080673 0.38541973 61 28
-8.5958862 3.133812 0.38545793 439 28
-8.5699396 3.1840599 0.38519043 252 28
-8.6997671 3.2931924 0.39130458 50 28
-8.6868553 3.3493874 0.39161029 257 28
-8.6614895 3.4007998 0.39141923 349 28
-8.7016993 3.478364 0.39394131 198 28
-9.1189156 3.7102144 0.41205445 958 28
-9.0969009 3.7664793 0.41209266 992 28
-9.0726986 3.8218381 0.41205445 683 28
-8.4180775 3.6070292 0.38580185 740 28
-8.3985348 3.6598113 0.3859165 799 28
-8.381402 3.7137039 0.38614577 804 28
-8.3703022 3.7703972 0.38664255 766 28
-8.351552 3.8237655 0.38683361 748 28
-8.3360863 3.878732 0.38717753 749 28
-8.5190029 4.0276241 0.39592841 295 28
-8.4337807 4.0508304 0.3933681 282 28
-8.3198576 4.0591216 0.38958499 545 28
-8.3288183 4.126955 0.39103708 635 28
-8.3185139 4.1856184 0.39168671 553 28
-8.3967867 4.2897754 0.39615768 366 28
-8.4811878 4.3987298 0.40093437 306 28
-8.4673004 4.4576697 0.40150756 349 28
-8.4309759 4.5048304 0.40112543 256 28
-8.317091 4.5097942 0.3973805 647 28
-8.3076477 4.5708585 0.39818299 490 28
-8.3815289 4.6787381 0.40265396 234 28
-8.3057098 4.703486 0.40059045 75 28
-8.8866863 5.1047897 0.42749268 479 28
-9.1176691 5.3121567 0.43910953 836 28
-9.0969467 5.3751187 0.43964455 804 28
-9.080081 5.4405947 0.44037059 736 28
-0 0 0 5 28
-2.9856324 1.8387898 0.16966684 24 28
-2.9785314 1.8597213 0.1698579 41 28
-2.9771957 1.8843764 0.17031646 53 28
-2.9723055 1.9069262 0.17062217 41 28
-2.9706008 1.931666 0.17108072 46 28
-2.9662013 1.9548066 0.17142466 43 28
-2.9616292 1.9779657 0.17176858 50 28
-2.9577119 2.0017023 0.1721507 35 28
-2.9536145 2.025465 0.17253284 41 28
-2.9534395 2.0521042 0.17310604 58 28
-2.9538651 2.0793922 0.17371745 57 28
-2.9394236 2.0963171 0.17364103 49 28
-2.9451339 2.127775 0.17451994 82 28
-2.8570347 2.0909138 0.17096609 17 28
-2.8513753 2.1137614 0.17131001 35 28
-2.8167784 2.1150148 0.17027825 27 28
-2.7822742 2.1159239 0.16924648 33 28
-2.7478657 2.1164899 0.16821472 30 28
-2.6970112 2.1038051 0.16638048 25 28
-2.6597462 2.101109 0.16519587 28 28
-2.6163747 2.0930409 0.16370554 21 28
-2.5739801 2.0851498 0.16225344 28 28
-2.5310094 2.0761843 0.16076311 35 28
-2.4974699 2.0744336 0.15973134 29 28
-2.45946 2.0684905 0.1584703 26 28
-2.4208574 2.061512 0.15717106 28 28
-2.3862176 2.0574014 0.15606286 24 28
-2.362258 2.0621457 0.15548967 42 28
-2.3226087 2.0527749 0.15411398 28 28
-2.2913547 2.0503266 0.15315865 33 28
-2.2594783 2.0469019 0.1521651 10 28
-0 0 0 5 28
-2.133147 1.9806317 0.14689164 31 28
-2.0954735 1.9697255 0.14555417 34 28
-2.0761101 1.9756564 0.14517204 46 28
-2.0725834 1.9966786 0.1456306 44 28
-2.070307 2.0191271 0.14616559 38 28
-2.0678327 2.0416226 0.14670058 39 28
-2.0672801 2.066283 0.14735021 51 28
-2.0672042 2.0917237 0.14803804 35 28
-2.0634041 2.1136651 0.14853482 38 28
-2.059412 2.1356385 0.14903159 38 28
-2.0572951 2.1598127 0.149643 48 28
-2.0501661 2.1789463 0.14998694 32 28
-2.0476406 2.2031975 0.15059835 35 28
-2.0448945 2.2274992 0.15120976 41 28
-2.0452824 2.2555518 0.15201224 32 28
-2.0447359 2.2829478 0.15277651 35 28
-2.0479019 2.3149123 0.15377006 47 28
-2.04615 2.3417332 0.15449612 26 28
-0 0 0 43 28
-0 0 0 33 28
-0 0 0 36 28
-0 0 0 42 28
-2.0145659 2.4536011 0.15697998 31 28
-2.0057657 2.4736786 0.15736212 38 28
-2.0542474 2.5655091 0.16125989 5 28
-2.8688514 3.6285129 0.21246585 51 28
-2.8668239 3.6720417 0.21372689 108 28
-2.853389 3.7014351 0.2143001 110 28
-2.8421218 3.7339821 0.21502614 131 28
-2.8371649 3.7753172 0.21617255 93 28
-2.8210909 3.8022854 0.21663111 86 28
-2.7918031 3.8114617 0.21624897 115 28
-2.7958806 3.866581 0.21804501 60 28
-2.8295703 3.9641879 0.22182813 141 28
-2.8230331 4.0067997 0.22301275 139 28
-2.8132265 4.0453777 0.2240063 148 28
-2.8132296 4.0988159 0.22568768 53 28
-0 0 0 4 28
-0 0 0 4 28
-2.1596527 3.2740009 0.18556361 41 28
-2.1160874 3.2511759 0.18392043 106 28
-2.0923197 3.2582126 0.18365294 120 28
-2.0642679 3.2583268 0.18307973 38 28
-0 0 0 11 28
-0 0 0 7 28
-0 0 0 6 28
-0 0 0 5 28
-0 0 0 4 28
-0 0 0 4 28
-0 0 0 4 28
-0 0 0 5 28
-0 0 0 6 28
-0 0 0 6 28
-0 0 0 5 28
-0 0 0 4 28
-0 0 0 5 28
-0 0 0 4 28
-0 0 0 4 28
-0 0 0 5 28
-0 0 0 18 28
-0 0 0 16 28
-0 0 0 5 28
-0 0 0 6 28
-0 0 0 5 28
-0 0 0 4 28
-0 0 0 6 28
-0 0 0 5 28
-0 0 0 7 28
-0 0 0 10 28
-0 0 0 10 28
-0 0 0 5 28
-0 0 0 5 28
-0 0 0 4 28
-0 0 0 6 28
-0 0 0 5 28
-0 0 0 3 28
-0 0 0 5 28
-0.97515666 2.6715157 0.14433135 7 28
-0 0 0 4 28
-0 0 0 4 28
-0 0 0 4 28
-0.91504937 2.7116861 0.14501919 4 28
-0 0 0 4 28
-0 0 0 6 28
-0 0 0 7 28
-0 0 0 7 28
-0 0 0 4 28
-0 0 0 4 28
-0 0 0 4 28
-0 0 0 3 28
-0 0 0 4 28
-0 0 0 5 28
-0 0 0 5 28
-0 0 0 4 28
-0 0 0 3 28
-0 0 0 5 28
-0 0 0 4 28
-0 0 0 4 28
-0 0 0 4 28
-0 0 0 3 28
-0 0 0 5 28
-0 0 0 5 28
-0 0 0 4 28
-0 0 0 4 28
-0 0 0 5 28
-0 0 0 4 28
-0 0 0 5 28
-0 0 0 4 28
-0 0 0 4 28
-0 0 0 5 28
-0 0 0 4 28
-0 0 0 5 28
-0 0 0 6 28
-0.33785728 2.602248 0.1359244 6 28
-0 0 0 5 28
-0 0 0 9 28
-0 0 0 6 28
-0.27024779 2.5749717 0.13458693 7 28
-0.25297216 2.5616648 0.13401373 7 28
-0.23835272 2.575109 0.1344723 7 28
-0.22065911 2.5546205 0.13363159 8 28
-0.20306651 2.5320203 0.13271447 7 28
-0.18877803 2.5501602 0.1333641 6 28
-0.17049436 2.512388 0.13187377 11 28
-0.15501404 2.5123894 0.13183556 7 28
-0.14014803 2.5232706 0.13221771 9 28
-0.12451547 2.5210888 0.13210306 9 28
-0.10809767 2.4998419 0.13126236 11 28
-0.093015119 2.5074482 0.13152985 13 28
-0.077289581 2.496985 0.13110951 17 28
-0.061769854 2.4894204 0.13080381 28 28
-0.046419885 2.4857562 0.13065095 21 28
-0.03119144 2.4879928 0.13072738 23 28
-0.015924817 2.4881372 0.13072738 33 28
-0.00065617717 2.4751976 0.13023061 18 28
0.01462772 2.491143 0.13084202 24 28
0.029985733 2.4970016 0.1310713 24 28
0 0 0 26 28
0 0 0 21 28
0.07844685 2.5779283 0.13420479 22 28
0 0 0 16 28
0.11127443 2.6047256 0.13527477 29 28
0.13283186 2.7177739 0.13963109 32 28
0.15005575 2.7268851 0.14001323 39 28
0.17907938 2.9263897 0.14769413 75 28
0.19999258 2.9691038 0.14937551 81 28
0.21585803 2.9359305 0.14815269 147 28
0.23529978 2.9524806 0.14884053 191 28
0.2540108 2.9579504 0.14910802 292 28
0.27206394 2.9553411 0.14906982 307 28
0.29107296 2.9625664 0.14941373 383 28
0.30955729 2.963706 0.14952837 419 28
0.32773641 2.961751 0.14952837 456 28
0.34590319 2.9596841 0.14952837 400 28
0.36430138 2.9594896 0.1496048 365 28
0.38566104 2.9819736 0.15056013 237 28
0.40529457 2.9894531 0.15094227 189 28
0.42250627 2.9789951 0.15063655 177 28
0.43623513 2.945704 0.14945194 126 28
0.4536911 2.9390216 0.14929909 119 28
0.47028834 2.9273031 0.14895517 90 28
0.48857045 2.9263337 0.14903159 74 28
0.50805348 2.9321418 0.14937551 64 28
0.5253281 2.9250352 0.14922266 44 28
0.54308313 2.9207745 0.14918445 52 28
0.56269383 2.9262185 0.14952837 50 28
0.56660962 2.8521445 0.146777 29 28
0.59012491 2.8779802 0.14792341 27 28
0.60963446 2.8831038 0.14826733 33 28
0.62986755 2.8910251 0.14872588 37 28
0.63315159 2.8227549 0.1462038 17 28
0.65180868 2.8246586 0.14643309 30 28
0.66058916 2.7846327 0.14501919 21 28
0.67932016 2.7873228 0.14528668 21 28
0.74227977 2.9663091 0.15250902 568 28
0.79726547 3.1049392 0.15816461 91 28
0.81706572 3.1028879 0.15827924 114 28
0.65608495 2.431196 0.13187377 22 28
0.66672748 2.411715 0.13126236 11 28
0.68314689 2.4133472 0.13149165 12 28
0.89018625 3.0723038 0.1578971 36 28
0.91754365 3.095525 0.15904351 165 28
0.93739003 3.0927055 0.15915816 210 28
0.95664471 3.0878501 0.15919636 206 28
0.97708178 3.0866854 0.15938742 182 28
0.99877065 3.0891888 0.15973134 190 28
1.0189601 3.086798 0.1598842 205 28
1.037562 3.0795407 0.15984599 235 28
1.0593629 3.0816209 0.16018991 210 28
1.0812283 3.0835493 0.16053383 194 28
0 0 0 210 28
0 0 0 175 28
0 0 0 202 28
0 0 0 209 28
0 0 0 212 28
0 0 0 166 28
1.2300677 3.077889 0.16232987 170 28
1.2496834 3.0721347 0.16240628 178 28
0 0 0 181 28
0 0 0 179 28
0 0 0 163 28
0 0 0 199 28
0 0 0 178 28
0 0 0 201 28
1.3950039 3.0474415 0.16374375 740 28
1.4039798 3.017987 0.16286485 53 28
0 0 0 54 28
0 0 0 28 28
0 0 0 55 28
0 0 0 41 28
0 0 0 43 28
0 0 0 38 28
0 0 0 75 28
1.3627617 2.5891283 0.14746484 92 28
1.3823903 2.5877686 0.14777055 92 28
1.4025297 2.5871434 0.14811447 86 28
1.4207864 2.5828664 0.14830554 74 28
1.4405047 2.58108 0.14861125 79 28
1.457792 2.5748012 0.14872588 68 28
1.4775455 2.5727396 0.14903159 74 28
0 0 0 95 28
1.5171396 2.5681789 0.149643 103 28
0 0 0 102 28
0 0 0 94 28
0 0 0 133 28
0 0 0 102 28
0 0 0 281 28
0 0 0 188 28
0 0 0 198 28
1.6479262 2.5006545 0.15010157 137 28
0 0 0 138 28
0 0 0 159 28
0 0 0 139 28
0 0 0 176 28
0 0 0 190 28
1.7678667 2.4789798 0.15201224 116 28
1.7906529 2.4786148 0.15250902 98 28
1.8223543 2.4901578 0.153579 69 28
0 0 0 118 28
0 0 0 87 28
0 0 0 138 28
0 0 0 131 28
1.9636544 2.5173843 0.15766783 36 28
2.0106592 2.5452747 0.15961671 41 28
2.2335124 2.7919278 0.17230356 56 28
2.2644415 2.7952511 0.17314425 72 28
2.2726762 2.770489 0.17260927 66 28
2.2953801 2.7634094 0.17295319 58 28
2.3180823 2.7561553 0.17329711 45 28
2.4178889 2.8392518 0.17818843 55 28
2.527283 2.931061 0.18357651 119 28
2.5485063 2.9192622 0.18376759 124 28
2.5769603 2.9155486 0.184379 125 28
2.6047976 2.9108505 0.1849522 123 28
2.6320031 2.9051797 0.18548718 116 28
2.6626143 2.902966 0.18621324 123 28
2.6932969 2.9004855 0.1869393 127 28
2.7233644 2.8970094 0.18762714 124 28
2.7459114 2.8853111 0.18789463 228 28
2.9008541 3.0108795 0.19546089 14 28
2.9960306 3.0717049 0.19966435 40 28
3.0351846 3.0738823 0.20077254 66 28
3.0645862 3.0658009 0.20134574 61 28
3.0975566 3.0609858 0.20211001 70 28
3.1277223 3.0530889 0.20272143 88 28
3.1607847 3.0477109 0.2034857 82 28
3.2018585 3.0496221 0.20467031 73 28
3.2365234 3.044981 0.205511 82 28
3.2763753 3.04479 0.2066192 73 28
3.3134012 3.0415213 0.20757453 76 28
3.3519905 3.0392544 0.20860629 68 28
3.3891869 3.0352945 0.20956163 71 28
3.4294543 3.0336401 0.21066982 88 28
3.4653127 3.0276606 0.21154873 70 28
3.5027394 3.0226605 0.21250406 86 28
3.5318682 3.0101848 0.21303906 86 28
3.5617402 2.9981086 0.21361224 79 28
3.5946701 2.9883339 0.2143383 58 28
3.568913 2.9300823 0.21216014 7 28
3.5759568 2.8993192 0.21162516 3 28
3.5772974 2.8642087 0.21082267 6 28
0 0 0 4 28
3.5995729 2.810256 0.21021126 15 28
3.6151657 2.7868965 0.21013483 5 28
3.6735475 2.7961299 0.21212193 105 28
3.7026186 2.7825408 0.21269512 126 28
3.738081 2.7734628 0.21357404 123 28
3.787276 2.7740908 0.21510257 121 28
3.8374281 2.7748039 0.21666932 125 28
3.8991175 2.7831321 0.21877106 92 28
3.9406288 2.7764194 0.21991746 96 28
3.9756401 2.7647378 0.22075815 99 28
4.0155993 2.7561233 0.22182813 120 28
4.0597386 2.7499235 0.22308917 152 28
4.1056132 2.7443955 0.22442664 131 28
4.1507378 2.7378571 0.2257259 126 28
4.2009611 2.734138 0.22725444 120 28
4.2546573 2.732064 0.22893582 104 28
4.3093286 2.7299681 0.23065543 117 28
4.3565063 2.7225375 0.23203111 144 28
4.419066 2.7240672 0.23409463 107 28
4.4766836 2.7218165 0.23592888 98 28
4.5224395 2.7117667 0.23722814 104 28
4.5777016 2.7068515 0.23894773 119 28
4.6218495 2.6948166 0.24017057 154 28
4.6729522 2.6863251 0.2416991 308 28
4.6476159 2.6339555 0.23986486 156 28
4.6636901 2.6053886 0.23986486 234 28
4.670835 2.5719044 0.23948273 197 28
4.6715965 2.535095 0.2388331 228 28
4.6756077 2.500258 0.23833632 193 28
4.6758313 2.4636045 0.23768669 149 28
4.6757817 2.4270427 0.23703706 204 28
4.6807985 2.3933036 0.23661672 235 28
4.6846852 2.3591452 0.23615816 235 28
4.6910148 2.3263609 0.23581424 145 28
4.7563853 2.3225222 0.23799241 247 28
4.7822547 2.2989211 0.23848918 243 28
4.7926574 2.2678251 0.23833632 216 28
4.7901764 2.230783 0.23764849 159 28
4.7974148 2.1984355 0.23738098 228 28
4.8044367 2.1660833 0.23711349 193 28
4.8057618 2.1312973 0.23661672 189 28
4.8022614 2.0945799 0.23592888 157 28
4.8040023 2.0603487 0.23547031 248 28
4.802742 2.0250106 0.23489712 235 28
4.8030758 1.990531 0.23440035 289 28
4.805944 1.9572541 0.23401821 300 28
4.8002348 1.9206767 0.23329215 283 28
4.7961187 1.8849742 0.23264253 318 28
