# .PCD v0.7 - Point Cloud Data file format
VERSION 0.7
FIELDS x y z intensity ring
SIZE 4 4 4 4 1
TYPE F F F F U
COUNT 1 1 1 1 1
WIDTH 1365
HEIGHT 1
VIEWPOINT 0 0 0 1 0 0 0
POINTS 1365
DATA ascii
-0.53990024 -17.667627 -1.6891855 546 39
-0.64807796 -17.658014 -1.6886021 564 39
-0.75156379 -17.540348 -1.6775172 303 39
-0.83894098 -17.121874 -1.6370672 402 39
-0.96253943 -17.453287 -1.6700301 155 39
-1.0454611 -17.052671 -1.6314275 291 39
-1.146862 -16.998272 -1.6267602 478 39
-1.2505558 -16.982973 -1.6259824 468 39
-1.3537093 -16.962084 -1.6247183 449 39
-1.4568241 -16.942551 -1.6236488 464 39
-1.5601152 -16.926355 -1.6229681 474 39
-1.6624837 -16.901606 -1.6215096 500 39
-1.7662621 -16.892076 -1.6216068 455 39
-1.8681246 -16.865093 -1.620051 523 39
-1.9694914 -16.83552 -1.6183008 500 39
-2.0728767 -16.824106 -1.6183981 508 39
-2.1970105 -16.972944 -1.6343447 245 39
-2.2886746 -16.867426 -1.6253017 95 39
-2.3947842 -16.871788 -1.6271492 583 39
-2.5003042 -16.870558 -1.6285105 545 39
-2.6062031 -16.870638 -1.6300663 518 39
-2.7114074 -16.865137 -1.6311358 610 39
-2.8184454 -16.86978 -1.633275 601 39
-2.9271722 -16.882568 -1.6362894 569 39
-3.0352819 -16.889759 -1.6388174 553 39
-3.142498 -16.890387 -1.6407622 513 39
-3.2503998 -16.893265 -1.6429986 542 39
-3.3572912 -16.889599 -1.6446517 500 39
-2.5518415 -12.43648 -1.2026191 801 39
-2.5144241 -11.883093 -1.1489451 1334 39
-2.5898328 -11.87911 -1.1501119 3657 39
-2.6938288 -12.001866 -1.1640166 787 39
-2.7714489 -12.002567 -1.1657668 826 39
-2.8519363 -12.014387 -1.1686839 912 39
-2.9307871 -12.017935 -1.1708231 884 39
-3.0085804 -12.016138 -1.1724761 806 39
-3.0728464 -11.96082 -1.1687812 3439 39
-3.127929 -11.872445 -1.1617801 1051 39
-5.9121685 -21.897972 -2.1782801 8 39
-5.9599457 -21.548565 -2.1465812 45 39
-6.088799 -21.500097 -2.1454144 108 39
-6.7793403 -23.390451 -2.3415384 19 39
-6.6695628 -22.49439 -2.2545125 47 39
-6.7118931 -22.137777 -2.2223277 85 39
-6.9451013 -22.410851 -2.2545125 46 39
-7.3306022 -23.151562 -2.3348291 20 39
-7.4856863 -23.146868 -2.3390102 13 39
-7.4472303 -22.554237 -2.2828081 57 39
-7.4942708 -22.237432 -2.2549016 59 39
-7.6396365 -22.217382 -2.2576241 75 39
-8.1427155 -23.216343 -2.3659446 47 39
-2.5827918 -7.2194276 -0.71138537 512 39
-2.6188602 -7.1810026 -0.70905167 1413 39
-2.6632195 -7.165731 -0.70914894 1424 39
-2.7201726 -7.1836953 -0.71274662 834 39
-2.7641997 -7.1668696 -0.71274662 644 39
-2.7662973 -7.0432348 -0.70156455 828 39
-2.7954254 -6.9910097 -0.6978696 1374 39
-2.8420193 -6.9829445 -0.69884199 1417 39
-2.8909035 -6.9800878 -0.70039773 1365 39
-2.9410181 -6.9796457 -0.70224518 1477 39
-2.9798696 -6.9523201 -0.70127285 1297 39
-3.0017996 -6.8864594 -0.69621658 1335 39
-3.0439975 -6.8679113 -0.69621658 1269 39
-3.1433015 -6.9761496 -0.70982957 1346 39
-3.2026184 -6.992929 -0.71371901 1350 39
-3.2576406 -6.9993157 -0.71653885 1150 39
-3.2932954 -6.9638987 -0.71488583 74 39
-5.6949511 -11.855524 -1.2472502 33 39
-5.7322426 -11.747903 -1.239374 32 39
-5.7768245 -11.657217 -1.2333455 48 39
-5.7990394 -11.523753 -1.2226496 27 39
-5.8438315 -11.437434 -1.2171072 13 39
-5.8731222 -11.322728 -1.2084532 54 39
-5.9369235 -11.275909 -1.2072864 57 39
-6.0027165 -11.233124 -1.2066057 65 39
-6.0701056 -11.193456 -1.206314 76 39
-5.997633 -10.899628 -1.1777267 13 39
-6.0328693 -10.806133 -1.1714065 10 39
-6.0868011 -10.747262 -1.1689756 87 39
-6.0876942 -10.596654 -1.1562377 10 39
-6.1220393 -10.506642 -1.1503063 14 39
-6.1175418 -10.352344 -1.1370823 13 39
-6.1558838 -10.272778 -1.1323178 52 39
-6.1335406 -10.094462 -1.1162739 11 39
-6.157784 -9.9956226 -1.109273 13 39
-6.1525822 -9.8512812 -1.0970213 8 39
-5.9249396 -9.3583879 -1.0444169 16 39
-5.8263903 -9.0789318 -1.0162187 79 39
-5.8651681 -9.0171461 -1.0132043 78 39
-5.8727369 -8.9086895 -1.0047448 58 39
-5.8686948 -8.7847576 -0.99443787 66 39
-5.8750701 -8.6785231 -0.98617285 67 39
-5.8921852 -8.5897808 -0.97994977 55 39
-5.9146805 -8.5101471 -0.9747963 52 39
-5.9495988 -8.4492807 -0.97187924 163 39
-5.9984412 -8.4085636 -0.97139305 637 39
-6.0376821 -8.3546581 -0.96935111 78 39
-6.1335044 -8.3784933 -0.97674102 128 39
-6.209693 -8.3742809 -0.98082489 189 39
-6.3296852 -8.4275455 -0.99200696 623 39
-6.3957362 -8.4075613 -0.9943406 634 39
-6.4733191 -8.4020634 -0.99852175 397 39
-6.0172687 -7.7116442 -0.91791356 10 39
-6.662313 -8.4313278 -1.0121347 404 39
-0 -0 -0 381 39
-0 -0 -0 342 39
-6.8965445 -8.4049911 -1.0244837 356 39
-7.0198483 -8.4490271 -1.0354712 484 39
-7.0959024 -8.4347391 -1.0391662 434 39
-7.2501249 -8.5115185 -1.0546266 99 39
-7.3496594 -8.5218954 -1.0617248 66 39
-7.4306102 -8.5096273 -1.0660032 79 39
-7.5031176 -8.4869909 -1.0690175 77 39
-7.6426587 -8.5386915 -1.0818526 16 39
-7.699585 -8.4967995 -1.0825332 20 39
-7.1615782 -7.8061538 -0.99725771 88 39
-7.9224672 -8.5300331 -1.0996467 76 39
-8.0066967 -8.5153437 -1.1042167 89 39
-8.1033936 -8.5129166 -1.1105371 431 39
-8.1692867 -8.4773693 -1.1124817 467 39
-8.2836924 -8.4912071 -1.121233 197 39
-8.0866919 -8.1881008 -1.0866171 213 39
-8.1269302 -8.1284733 -1.0852559 149 39
-8.120019 -8.0224886 -1.077477 100 39
-8.1092653 -7.9141173 -1.0693092 102 39
-8.1154022 -7.823452 -1.0635723 69 39
-8.1387501 -7.7501717 -1.0602663 79 39
-8.170929 -7.6857657 -1.0582243 96 39
-8.6830673 -8.0677423 -1.1202606 384 39
-8.761734 -8.0412331 -1.12415 307 39
-8.8131218 -7.9893265 -1.1244417 24 39
-8.9109097 -7.9789228 -1.1308593 49 39
-8.9723721 -7.9353065 -1.1325122 22 39
-9.2464895 -8.0772095 -1.1617801 292 39
-9.347867 -8.0651875 -1.1684895 75 39
-9.4274769 -8.0335016 -1.1723788 51 39
-9.5489273 -8.0363932 -1.1816162 74 39
-9.6233139 -7.9986472 -1.1848249 12 39
-2.9430442 -2.4147527 -0.33420885 54 39
-2.9098742 -2.3577871 -0.32818025 126 39
-2.9468172 -2.3579276 -0.33100009 345 39
-2.9214129 -2.308321 -0.32604107 130 39
-2.9402285 -2.2940269 -0.32662448 278 39
-2.9400609 -2.2650051 -0.32487425 142 39
-2.942816 -2.2384834 -0.32351294 111 39
-2.9461524 -2.2126114 -0.32224891 129 39
-2.9364941 -2.1772947 -0.31942907 141 39
-2.9313316 -2.145709 -0.31719264 113 39
-2.9605722 -2.1393459 -0.31913736 275 39
-2.9404306 -2.0974329 -0.31515071 123 39
-2.9508042 -2.0776315 -0.314859 94 39
-2.9545085 -2.053236 -0.3137894 109 39
-2.9572046 -2.0283103 -0.31262258 121 39
-2.9613543 -2.0045452 -0.31165022 150 39
-2.9769077 -1.9885495 -0.31203917 126 39
-3.0006845 -1.9779183 -0.31340048 98 39
-3.0352862 -1.9741275 -0.31602582 68 39
-3.0557168 -1.960844 -0.31699818 62 39
-3.0870278 -1.954308 -0.31923458 65 39
-3.150445 -1.9675045 -0.32516596 343 39
-3.2022774 -1.9726834 -0.32973602 134 39
-3.220274 -1.956617 -0.33041668 189 39
-3.3158684 -1.9869807 -0.33994576 46 39
-3.3417048 -1.9747028 -0.34150153 63 39
-3.3675148 -1.9621825 -0.3430573 52 39
-3.4096906 -1.9588442 -0.34646052 34 39
-0 -0 -0 4 39
-8.0975256 -4.5225377 -0.86842066 17 39
-10.299453 -5.6700621 -1.110926 310 39
-10.278066 -5.5763774 -1.1047029 86 39
-10.29629 -5.5047593 -1.1029527 90 39
-10.253269 -5.4011159 -1.0944932 29 39
-10.245583 -5.317009 -1.0900203 451 39
-10.251431 -5.2404504 -1.0871032 443 39
-10.264725 -5.1680493 -1.0850613 496 39
-10.240069 -5.0771108 -1.0789355 640 39
-10.200377 -4.9796829 -1.0712539 366 39
-9.9078226 -4.7617626 -1.0362492 230 39
-9.8945713 -4.6808715 -1.031679 227 39
-9.890626 -4.6049452 -1.0281786 221 39
-9.8942661 -4.5329752 -1.0255532 200 39
-10.159608 -4.5793576 -1.051029 234 39
-10.170229 -4.5092669 -1.0491815 183 39
-10.207741 -4.4511552 -1.050251 515 39
-10.305291 -4.4186454 -1.0577382 419 39
-10.376228 -4.3738914 -1.0624055 399 39
-10.417582 -4.3162384 -1.0639613 469 39
-10.446635 -4.2533622 -1.064253 489 39
-10.447588 -4.1791997 -1.0616276 612 39
-10.444319 -4.1037302 -1.0586133 104 39
-10.306815 -3.9768524 -1.0415971 4 39
-1.5202479 -0.57482797 -0.12106866 54 39
-1.5200151 -0.56410128 -0.12067971 102 39
-1.5150332 -0.55169302 -0.1198046 112 39
-1.5080827 -0.53869635 -0.11873501 154 39
-1.5104207 -0.52910304 -0.11863777 130 39
-1.5089334 -0.51820558 -0.11815159 128 39
-1.5045403 -0.50639176 -0.1173737 158 39
-1.5038394 -0.49590102 -0.11698477 171 39
-1.5011727 -0.48482484 -0.11640135 144 39
-1.5003242 -0.47440165 -0.11601241 154 39
-1.5003552 -0.46430209 -0.1157207 163 39
-1.4946047 -0.4524855 -0.11484559 170 39
-1.4944907 -0.44245651 -0.11455388 146 39
-1.4904866 -0.43133646 -0.11387323 169 39
-1.4873601 -0.42055377 -0.11328982 186 39
-1.4831985 -0.40956011 -0.11260917 180 39
-1.4828013 -0.39967245 -0.11231747 180 39
-1.4813764 -0.38955122 -0.11192852 200 39
-1.4779555 -0.37896672 -0.1113451 161 39
-1.4792875 -0.36964899 -0.11124787 187 39
-1.4795941 -0.36009312 -0.1110534 180 39
-1.4779027 -0.35008711 -0.11066446 178 39
-1.4800229 -0.34101227 -0.11066446 170 39
-1.4733481 -0.32996032 -0.10978934 134 39
-1.4704832 -0.31985235 -0.10930316 111 39
-1.4646289 -0.30917305 -0.10852528 84 39
-1.4625989 -0.29937908 -0.10813633 48 39
-1.4907629 -0.29564676 -0.11076169 39 39
-1.503299 -0.28856605 -0.11183129 17 39
-1.4570992 -0.27040067 -0.10706674 8 39
-1.4371816 -0.25757512 -0.10492756 4 39
-1.438735 -0.24875189 -0.10492756 7 39
-1.4402342 -0.2399193 -0.10492756 3 39
-1.4298881 -0.2291781 -0.10376074 8 39
-1.4302839 -0.22024788 -0.1036635 4 39
-0 -0 -0 3 39
-1.432879 -0.20267951 -0.1036635 5 39
-0 -0 -0 4 39
-1.4303234 -0.18444021 -0.10317732 8 39
-1.4432812 -0.17712474 -0.10434415 6 39
-1.4433523 -0.16814964 -0.10424691 8 39
-1.4314976 -0.15786161 -0.10298286 4 39
-0 -0 -0 3 39
-1.4471933 -0.1416515 -0.10434415 6 39
-1.4311877 -0.13121067 -0.10269115 11 39
-1.4289911 -0.12216984 -0.10239945 14 39
-1.4366584 -0.11395591 -0.10308009 10 39
-0 0 -0 5 40
-0 0 -0 5 40
-0 0 -0 4 40
-0 0 -0 3 40
-1.4644593 0.071650945 -0.12369051 4 40
-0 0 -0 4 40
-0 0 -0 4 40
-0 0 -0 4 40
-0 0 -0 4 40
-0 0 -0 6 40
-0 0 -0 4 40
-0 0 -0 4 40
-0 0 -0 7 40
-0 0 -0 5 40
-0 0 -0 4 40
-0 0 -0 3 40
-1.4739637 0.18150215 -0.12577216 5 40
-0 0 -0 3 40
-0 0 -0 6 40
-0 0 -0 3 40
-0 0 -0 6 40
-0 0 -0 6 40
-0 0 -0 4 40
-1.4589288 0.24364027 -0.1251148 4 40
-0 0 -0 5 40
-0 0 -0 3 40
-0 0 -0 4 40
-0 0 -0 4 40
-0 0 -0 5 40
-0 0 -0 5 40
-0 0 -0 4 40
-0 0 -0 4 40
-0 0 -0 3 40
-0 0 -0 4 40
-1.4614174 0.34676519 -0.12763469 7 40
-1.4795406 0.36067462 -0.12993547 3 40
-1.4888698 0.37264508 -0.1312502 6 40
-0 0 -0 3 40
-0 0 -0 4 40
-1.4683245 0.39635715 -0.12971635 4 40
-1.4735285 0.40748054 -0.13059284 8 40
-1.4891704 0.42166406 -0.1326745 22 40
-1.4836912 0.42996278 -0.13234581 31 40
-1.4857897 0.44047225 -0.13289362 99 40
-1.4859124 0.4504464 -0.1332223 130 40
-1.4850193 0.46014416 -0.13344142 187 40
-1.4840631 0.46984792 -0.13366054 211 40
-1.4896635 0.48169962 -0.13464659 187 40
-1.4904549 0.49207839 -0.13508484 165 40
-1.4921168 0.50280255 -0.13563263 166 40
-1.4927632 0.51324224 -0.13607088 171 40
-1.497089 0.52502537 -0.13694736 163 40
-1.5003903 0.53654593 -0.1377143 155 40
-1.5045401 0.54846734 -0.13859078 125 40
-1.5076683 0.56011337 -0.1393577 143 40
-1.5116392 0.57217044 -0.14023419 135 40
-1.5155189 0.58429724 -0.14111067 138 40
-1.5183811 0.5961296 -0.14187761 115 40
-1.5266924 0.61023378 -0.14330189 96 40
-1.5219986 0.61921513 -0.14319234 60 40
-4.9186096 2.0373108 -0.54889607 68 40
-4.8941088 2.0624337 -0.54747182 449 40
-4.8959789 2.0986915 -0.54922479 581 40
-4.8848314 2.1294878 -0.5494439 555 40
-4.8771253 2.1618376 -0.55010128 572 40
-4.9326391 2.2227628 -0.55842787 321 40
-8.8019686 4.031867 -1.0292108 826 40
-8.7842722 4.0891552 -1.0300872 908 40
-8.7662048 4.146378 -1.0309638 109 40
-7.7049437 3.702378 -0.90431142 28 40
-7.6919069 3.7543812 -0.90551656 38 40
-7.6758499 3.8050392 -0.90639305 35 40
-7.6603484 3.8560884 -0.90737915 24 40
-7.665751 3.9179482 -0.91099465 26 40
-7.6706815 3.9800189 -0.91461015 37 40
-8.1456385 4.2901244 -0.97684067 8 40
-8.1165314 4.3386183 -0.97651201 165 40
-8.0189886 4.349946 -0.9676376 111 40
-8.8716192 4.8831992 -1.078294 69 40
-8.8310757 4.9317265 -1.0769793 297 40
-8.1520357 4.618329 -0.99480867 24 40
-8.1528463 4.685102 -0.99853373 34 40
-8.0818672 4.7105112 -0.99316525 6 40
-8.7946615 5.1985602 -1.0881546 96 40
-8.7267923 5.2309608 -1.083553 272 40
-8.3199549 5.0567274 -1.0352366 8 40
-3.0719724 1.8927144 -0.35979411 6 40
-2.9793749 1.8609678 -0.34927624 36 40
-2.9729385 1.8824048 -0.34993362 42 40
-2.969697 1.9059808 -0.35102922 40 40
-2.9671109 1.9301296 -0.35223439 45 40
-2.9635098 1.9537712 -0.35333002 41 40
-2.9589038 1.9768887 -0.35431606 49 40
-2.9524794 1.9989083 -0.35508299 44 40
-2.9434371 2.0192363 -0.35552123 40 40
-2.9375207 2.0417981 -0.35639772 51 40
-2.9290004 2.0626459 -0.35694551 47 40
-2.9106255 2.0765374 -0.35617858 39 40
-2.9147456 2.1065865 -0.35847938 67 40
-2.8464303 2.0839107 -0.35091966 14 40
-2.8367834 2.1037054 -0.35135791 33 40
-2.7975972 2.1013694 -0.34774241 38 40
-2.7585475 2.0986321 -0.34412691 35 40
-2.7141268 2.0912485 -0.33974448 42 40
-2.6753864 2.0876806 -0.33612895 35 40
-2.6328943 2.0806348 -0.33196566 29 40
-2.5967982 2.0781164 -0.32867882 29 40
-2.5477064 2.0645936 -0.32352945 45 40
-2.5080991 2.0581152 -0.31969485 36 40
-2.4686685 2.0512295 -0.31586021 31 40
-2.4347413 2.0484183 -0.31279251 29 40
-2.4032123 2.0472026 -0.31005347 30 40
-2.3725429 2.0463269 -0.30742401 30 40
-2.3457186 2.0484219 -0.30534238 28 40
-2.323426 2.0542161 -0.30391806 37 40
-2.2878215 2.0478797 -0.3005217 32 40
-2.1942036 1.988447 -0.28847 14 40
-0 0 -0 5 40
-2.132499 1.9807193 -0.28288239 18 40
-2.1022046 1.9767417 -0.28014338 26 40
-2.075639 1.9758946 -0.27795216 36 40
-2.0649073 1.9899729 -0.27817127 35 40
-2.059772 2.0095477 -0.27926689 36 40
-2.0537667 2.0284355 -0.28025293 30 40
-2.0518241 2.0515425 -0.28189635 34 40
-2.0496745 2.0747015 -0.28353977 31 40
-2.0507884 2.1014683 -0.28573099 33 40
-2.0482016 2.124748 -0.28737438 36 40
-2.0481472 2.1509542 -0.28945604 38 40
-2.0485289 2.1779635 -0.29164726 42 40
-2.047303 2.2036011 -0.29361936 34 40
-2.042479 2.2256432 -0.29504365 31 40
-2.0387962 2.2491817 -0.29668707 24 40
-2.0349011 2.2727585 -0.29833046 29 40
-2.03211 2.2978609 -0.30019301 26 40
-2.0264716 2.3200195 -0.30161729 34 40
-0 0 -0 37 40
-0 0 -0 40 40
-0 0 -0 27 40
-0 0 -0 28 40
-0 0 -0 32 40
-1.9997815 2.4671724 -0.31213513 28 40
-1.990195 2.4863813 -0.31312117 25 40
-0 0 -0 4 40
-2.6505022 3.3961306 -0.43692493 27 40
-2.6229408 3.4036689 -0.43571976 60 40
-2.6104321 3.430774 -0.43725359 43 40
-2.5923169 3.4507005 -0.43780142 53 40
-2.5935934 3.4968812 -0.44196472 10 40
-2.5756111 3.5175416 -0.4426221 12 40
-2.5551438 3.5348904 -0.4428412 12 40
-2.5645783 3.5941973 -0.4487575 72 40
-2.5493438 3.6196179 -0.45007223 92 40
-2.5350285 3.6466191 -0.45160607 77 40
-2.5575871 3.7276781 -0.46037093 127 40
-2.5062475 3.701323 -0.45478335 9 40
-0 0 -0 30 40
-1.7603629 2.6695623 -0.31454548 4 40
-2.1282189 3.2710624 -0.3922241 84 40
-2.0807278 3.2413967 -0.3866365 130 40
-0 0 -0 0 40
-0 0 -0 0 40
-0 0 -0 0 40
-0 0 -0 0 40
-0 0 -0 0 40
-0 0 -0 0 40
-0 0 -0 0 40
-0 0 -0 0 40
-0 0 -0 0 40
-0 0 -0 0 40
-0 0 -0 0 40
-0 0 -0 0 40
-0 0 -0 0 40
-0 0 -0 0 40
-0 0 -0 0 40
-0 0 -0 0 40
-0 0 -0 117 40
-0 0 -0 89 40
-0 0 -0 105 40
-0 0 -0 111 40
-0 0 -0 101 40
-0 0 -0 101 40
-0 0 -0 100 40
-0 0 -0 99 40
-0 0 -0 91 40
-0 0 -0 101 40
-0 0 -0 107 40
-0 0 -0 86 40
-0 0 -0 101 40
-0 0 -0 87 40
-0 0 -0 59 40
-0 0 -0 60 40
-0 0 -0 43 40
-0 0 -0 262 40
-0 0 -0 82 40
-0.97807753 2.6809661 -0.27663743 34 40
-0.96428746 2.6944044 -0.27751392 28 40
-0.93753612 2.6711943 -0.27411753 34 40
-0.90722686 2.6364794 -0.26940641 56 40
-0.89198518 2.6448221 -0.2697351 52 40
-0 0 -0 45 40
-0 0 -0 45 40
-0 0 -0 61 40
-0.82180613 2.649776 -0.26787257 49 40
-0.80149329 2.6414518 -0.26633871 47 40
-0.78103107 2.6320257 -0.26469529 59 40
-0.76348269 2.6319952 -0.26414749 58 40
-0.74488044 2.6280231 -0.26316145 75 40
-0.72980136 2.6363761 -0.26359969 50 40
-0.71542525 2.6475217 -0.26436663 42 40
-0.69334167 2.6297548 -0.26184672 55 40
-0.67917168 2.6416612 -0.26272321 42 40
-0.66464019 2.6525283 -0.26349014 38 40
-0.64152157 2.628552 -0.26031286 48 40
-0.6244626 2.6285703 -0.25987461 29 40
-0.6083222 2.6323526 -0.25987461 40 40
-0.59128809 2.6321561 -0.25943637 39 40
-0.57216167 2.6221385 -0.25790253 38 40
-0.55256313 2.6090684 -0.25603998 43 40
-0.53574449 2.608515 -0.25560173 45 40
-0.52089196 2.6176023 -0.25625911 28 40
-0.50012416 2.5963476 -0.2535201 35 40
-0.47308955 2.5397584 -0.24683689 59 40
-0.44940674 2.4976118 -0.24179707 74 40
-0.43084574 2.4817145 -0.23971543 86 40
-0.41544625 2.483331 -0.23960586 97 40
-0.40004316 2.4848521 -0.23949631 94 40
-0.38463706 2.4862776 -0.23938674 86 40
-0.36952007 2.489574 -0.23949631 84 40
-0.35493612 2.4967151 -0.2400441 94 40
-0.34161547 2.5136201 -0.24168752 29 40
-0.32822832 2.5314407 -0.24344049 7 40
-0 0 -0 6 40
-0.29401898 2.5086226 -0.24048235 3 40
-0.27796385 2.5044518 -0.23982498 4 40
-0 0 -0 4 40
-0.24497013 2.4849226 -0.23730509 11 40
-0.22962701 2.4853892 -0.23719552 13 40
-0.2130944 2.4718966 -0.23555212 17 40
-0.19697346 2.4612677 -0.23423739 8 40
-0.18077184 2.4475605 -0.23259397 5 40
-0.1659514 2.4515989 -0.23292266 18 40
-0.15041846 2.4446342 -0.23204617 17 40
-0.13536084 2.4445186 -0.2319366 25 40
-0.12021288 2.4423246 -0.23160793 15 40
-0.10484127 2.4340787 -0.23062187 8 40
-0.089502342 2.4237499 -0.22941671 6 40
-0.074902631 2.4331951 -0.23040275 23 40
-0.059679475 2.4216847 -0.22908802 12 40
-0.044855636 2.4239929 -0.22930714 20 40
-0.02996932 2.4232285 -0.22919759 17 40
-0.015027697 2.4114392 -0.22788286 15 40
-0.00023155684 2.4045281 -0.22711593 14 40
0.014497699 2.4005086 -0.22667769 10 40
0.029153094 2.3944111 -0.22602032 7 40
0 0 -0 10 40
0 0 -0 5 40
0.073251985 2.3944621 -0.22612989 16 40
0.087686196 2.3870146 -0.22536296 11 40
0.10258746 2.39239 -0.22602032 23 40
0.11755798 2.3976722 -0.22667769 20 40
0.13248731 2.4008756 -0.22711593 29 40
0.14782649 2.4099383 -0.22821154 30 40
0 0 -0 30 40
0 0 -0 18 40
0 0 -0 12 40
0 0 -0 19 40
0 0 -0 11 40
0.31023076 3.1516793 -0.31114909 85 40
0.3217963 3.0755734 -0.30293202 33 40
0 0 -0 45 40
0 0 -0 52 40
0 0 -0 74 40
0 0 -0 55 40
0 0 -0 103 40
0 0 -0 52 40
0.3560904 2.4021339 -0.22974539 56 40
0.37067097 2.3989215 -0.22963583 51 40
0.38633129 2.4024899 -0.2302932 76 40
0.40122941 2.4010546 -0.23040275 68 40
0.41408449 2.3877749 -0.22919759 47 40
0.4281998 2.3822544 -0.2288689 32 40
0.44153494 2.3727419 -0.22810198 20 40
0.45664948 2.3729162 -0.22843066 46 40
0.4706189 2.3671448 -0.22810198 22 40
0.48253512 2.3515551 -0.22667769 71 40
0.50169122 2.3709157 -0.22919759 110 40
0.52089107 2.3891575 -0.23160793 145 40
0.53684795 2.3917353 -0.23226529 155 40
0.55352736 2.3971124 -0.23325133 238 40
0.56891453 2.3965721 -0.23358002 95 40
0.5857299 2.401727 -0.23456606 105 40
0.60311294 2.4086938 -0.23577124 62 40
0.64015538 2.4915886 -0.24563171 22 40
0.81887072 3.1075482 -0.31629845 143 40
0.83792287 3.1024652 -0.31629845 109 40
0.70261461 2.5397346 -0.25253403 6 40
0.67346281 2.377584 -0.23445651 3 40
0.68748492 2.3714979 -0.23423739 6 40
0.91918123 3.0990725 -0.31838009 92 40
0.94077682 3.1019347 -0.31936616 169 40
0.96038109 3.0980024 -0.31958526 177 40
0.97817099 3.0882611 -0.31914702 166 40
0.9964897 3.0803096 -0.31892791 194 40
1.0178663 3.0816877 -0.3198044 194 40
1.0402499 3.0857446 -0.32100958 174 40
1.0604578 3.0830634 -0.32144782 201 40
1.0793551 3.0764985 -0.32144782 163 40
0 0 -0 191 40
0 0 -0 182 40
0 0 -0 137 40
0 0 -0 191 40
0 0 -0 171 40
0 0 -0 160 40
1.2300237 3.0762286 -0.32725453 153 40
1.2507499 3.0732267 -0.32780233 190 40
0 0 -0 177 40
0 0 -0 188 40
0 0 -0 218 40
0 0 -0 198 40
0 0 -0 205 40
0 0 -0 184 40
1.3952168 3.0465083 -0.33141783 650 40
1.4038152 3.0162632 -0.32878837 110 40
0 0 -0 86 40
0 0 -0 101 40
0 0 -0 91 40
0 0 -0 53 40
0 0 -0 58 40
0 0 -0 58 40
0 0 -0 61 40
0 0 -0 114 40
1.3600929 2.5449791 -0.28014338 162 40
1.3790009 2.5427017 -0.28091031 164 40
1.3969733 2.5385463 -0.28145811 142 40
1.4139773 2.5325303 -0.2817868 146 40
1.4314499 2.5272658 -0.28222504 164 40
1.4508922 2.5253294 -0.28310153 171 40
0 0 -0 176 40
1.4913833 2.523592 -0.28518316 136 40
0 0 -0 161 40
0 0 -0 190 40
0 0 -0 142 40
0 0 -0 166 40
0 0 -0 145 40
0 0 -0 149 40
0 0 -0 159 40
1.6544535 2.5096085 -0.29340023 124 40
0 0 -0 141 40
0 0 -0 147 40
0 0 -0 127 40
0 0 -0 142 40
0 0 -0 138 40
1.7866975 2.5044582 -0.30117905 181 40
1.8113481 2.5063367 -0.30293202 201 40
1.8266926 2.4951754 -0.30293202 136 40
0 0 -0 121 40
0 0 -0 142 40
0 0 -0 143 40
0 0 -0 126 40
1.9311162 2.4747951 -0.30808139 144 40
1.9548942 2.4738164 -0.30961522 130 40
1.9787326 2.4726388 -0.31114909 171 40
2.0020039 2.4704893 -0.31257337 140 40
0 0 -0 146 40
0 0 -0 141 40
0 0 -0 147 40
2.0961967 2.4607122 -0.31838009 136 40
2.1222937 2.4605982 -0.32024264 122 40
2.1465063 2.4580102 -0.32177648 104 40
2.1687913 2.4529836 -0.32298166 115 40
2.1897688 2.4462948 -0.3239677 127 40
2.2074082 2.4357584 -0.32440594 112 40
2.6557977 2.8945255 -0.39507267 109 40
2.6816268 2.8869138 -0.39638743 150 40
2.7217631 2.8942983 -0.40000293 182 40
2.7559216 2.8948197 -0.40263239 215 40
2.8012257 2.9064801 -0.40701482 30 40
2.9842308 3.0585449 -0.4330903 54 40
3.0266929 3.064218 -0.43681535 85 40
3.0573869 3.0575366 -0.43867791 76 40
3.0973058 3.0596735 -0.44196472 85 40
3.1295393 3.0537996 -0.44404638 96 40
3.1625323 3.0483346 -0.44623759 95 40
3.1984553 3.0453205 -0.44886705 79 40
3.2293909 3.0372133 -0.45072958 109 40
3.2690866 3.0369582 -0.45390686 91 40
3.314759 3.0417054 -0.45796061 90 40
3.3525102 3.0386634 -0.46080917 68 40
3.3896074 3.0346088 -0.46354821 97 40
3.4200783 3.0242877 -0.46530119 92 40
3.4520471 3.0150139 -0.46727327 110 40
3.4862885 3.0074089 -0.46957403 104 40
3.5213225 3.0001409 -0.47198439 92 40
3.5480313 2.985517 -0.47318956 102 40
3.574693 2.9706781 -0.47439474 65 40
3.5774856 2.9360778 -0.47220352 3 40
0 0 -0 5 40
3.6047094 2.885124 -0.47099835 5 40
3.6153255 2.8574049 -0.47001228 8 40
3.6367083 2.8382254 -0.4705601 18 40
0 0 -0 4 40
3.6918321 2.8090308 -0.47340867 94 40
3.7137671 2.789907 -0.47406605 134 40
3.7531712 2.7836449 -0.47713375 143 40
3.7910335 2.7758296 -0.47998232 136 40
3.846664 2.7804623 -0.48524123 126 40
3.8838813 2.771239 -0.48798028 112 40
3.9203172 2.7610908 -0.49060974 136 40
3.9600384 2.7528682 -0.49367744 144 40
4.008822 2.7504468 -0.49795032 149 40
4.05937 2.7486439 -0.5024423 174 40
4.1067395 2.7441146 -0.50649607 166 40
4.1591845 2.7423892 -0.51120716 164 40
4.211761 2.7401228 -0.51591825 188 40
4.251081 2.7287238 -0.51887643 192 40
4.2895789 2.716413 -0.521725 201 40
4.3491616 2.7168961 -0.52731258 210 40
4.4122949 2.7188346 -0.53333843 193 40
4.4620223 2.7118409 -0.53761131 147 40
4.5075665 2.7017837 -0.54133642 174 40
4.5617108 2.6963263 -0.54615706 176 40
4.6073689 2.6853008 -0.54988211 195 40
4.6702991 2.6837192 -0.55579841 380 40
4.6676507 2.6442349 -0.55338806 226 40
4.669034 2.6073077 -0.55152553 281 40
4.6562066 2.5627954 -0.54791003 239 40
4.5914593 2.490581 -0.53783047 146 40
4.6785393 2.5007787 -0.54681444 241 40
4.663013 2.4558156 -0.54297978 157 40
4.6779938 2.4271576 -0.54297978 254 40
4.6839476 2.3938854 -0.54188418 238 40
4.6878934 2.3597381 -0.54056948 212 40
4.7022843 2.3309293 -0.54056948 198 40
4.7495499 2.3181617 -0.5446232 157 40
4.7950425 2.3040404 -0.54845786 294 40
4.7650595 2.2537539 -0.54308939 195 40
4.7589731 2.2152469 -0.54067904 196 40
4.76615 2.1831076 -0.5399121 206 40
4.7712994 2.1501472 -0.53892606 160 40
4.7762237 2.1172059 -0.53794003 144 40
4.7718124 2.0803137 -0.53585833 176 40
4.7662148 2.043164 -0.53366715 190 40
4.8235455 2.0327919 -0.53903562 375 40
4.8249073 1.9985931 -0.53772086 283 40
4.8177462 1.9610822 -0.53542012 287 40
4.8167672 1.9263178 -0.53388625 266 40
4.812768 1.8905495 -0.53202373 255 40
4.8177857 1.8584796 -0.53125679 272 40
4.8263097 1.8278273 -0.53092813 354 40
4.8290486 1.7950629 -0.5299421 320 40
4.8240972 1.7596096 -0.52807951 250 40
4.8291874 1.7279675 -0.52742219 225 40
4.8265681 1.6936969 -0.52588832 253 40
4.8086715 1.654351 -0.52260149 261 40
4.8046036 1.6200517 -0.52095807 214 40
4.8361616 1.5977105 -0.52347797 320 40
4.8212852 1.560052 -0.52062941 240 40
4.7957058 1.5193352 -0.51657563 30 40
4.8087358 1.4910579 -0.51701391 40 40
4.8539395 1.472486 -0.52117717 106 40
4.9181542 1.4590678 -0.52753174 86 40
4.9757028 1.4429789 -0.53311932 73 40
12.724181 3.6049576 -1.4197952 58 40
12.708699 3.516479 -1.4155222 63 40
12.692613 3.4283264 -1.4112494 86 40
12.733594 3.3557 -1.4135501 76 40
12.767423 3.2809682 -1.415084 69 40
12.777672 3.2001524 -1.4139884 47 40
12.775823 3.116508 -1.4115781 61 40
12.755054 3.0286446 -1.4070861 66 40
12.800514 2.9565868 -1.4101537 62 40
12.814535 2.8771176 -1.4097155 68 40
12.829034 2.7977998 -1.4093869 53 40
12.868326 2.723763 -1.4119067 75 40
12.897454 2.647351 -1.413331 71 40
12.875434 2.5606036 -1.4090582 58 40
12.862597 2.4761052 -1.4058809 68 40
12.864845 2.3947706 -1.4044566 54 40
12.881253 2.3161402 -1.4046757 61 40
12.874656 2.2334914 -1.402375 69 40
12.896941 2.1559267 -1.403361 56 40
12.899132 2.0750158 -1.4021559 71 40
12.907692 1.9952219 -1.4017175 60 40
12.946239 1.9199203 -1.4046757 52 40
13.019774 1.8492516 -1.4115781 35 40
12.992463 1.7641145 -1.4073052 55 40
12.973471 1.6805311 -1.4040184 54 40
12.9717 1.5994365 -1.4027036 50 40
12.964486 1.5178492 -1.4008411 62 40
13.00517 1.4417758 -1.4043471 49 40
12.98708 1.3591578 -1.4013889 69 40
12.98825 1.2787635 -1.400622 80 40
5.3686152 0.4955574 -0.55634624 70 40
5.3250098 0.45860171 -0.55119687 365 40
5.3217788 0.4254446 -0.55053949 457 40
5.3193326 0.39241749 -0.54999173 419 40
5.3127146 0.35916853 -0.54900563 382 40
5.291008 0.32510227 -0.54637617 65 40
5.2998505 0.29301473 -0.5471431 468 40
5.2945991 0.260149 -0.54637617 493 40
5.2811995 0.22701783 -0.54473275 181 40
5.2973928 0.19515653 -0.54637617 19 40
5.25875 0.16143167 -0.54199374 114 40
5.2715654 0.1294535 -0.5433085 493 40
5.2732544 0.097123563 -0.54341805 28 40
5.2717633 0.064741388 -0.54319894 34 40
5.2660975 0.032357037 -0.54254156 26 40
5.2483053 4.5432069e-05 -0.54056948 239 40
5.2482066 -0.032157563 -0.54056948 26 40
5.2439351 -0.064310297 -0.54013121 19 40
5.227541 -0.096191496 -0.53837824 39 40
5.235795 -0.1284854 -0.53936428 415 40
5.2219925 -0.160212 -0.53794003 299 40
5.216938 -0.19210392 -0.53750175 25 40
5.2106957 -0.22389711 -0.53695399 167 40
5.1933393 -0.25508374 -0.53520101 146 40
13.052962 -0.72202879 -1.4030323 86 40
13.044318 -0.8018626 -1.4025941 114 40
13.047086 -0.88242275 -1.4034705 126 40
13.06026 -0.96385211 -1.4055523 116 40
13.037256 -1.0426227 -1.4036897 125 40
13.036555 -1.1231102 -1.4043471 146 40
13.017542 -1.2019829 -1.4030323 162 40
12.982224 -1.2791046 -1.3999646 194 40
12.97512 -1.3588414 -1.4000741 224 40
12.972466 -1.4390875 -1.4007316 237 40
12.978199 -1.5203931 -1.402375 215 40
12.996248 -1.603406 -1.4054427 158 40
12.988136 -1.6833749 -1.4056618 189 40
12.985442 -1.7641076 -1.4065382 171 40
12.157579 -1.7276545 -1.3156028 96 40
13.008044 -1.930038 -1.4115781 194 40
13.00185 -2.0107291 -1.4122354 184 40
13.000063 -2.0922067 -1.4134406 195 40
12.994823 -2.1732461 -1.4143171 174 40
13.005728 -2.25719 -1.4170561 186 40
13.014133 -2.3409972 -1.419576 179 40
13.00441 -2.4217162 -1.4201238 202 40
12.999066 -2.5033443 -1.4212195 194 40
13.014657 -2.5892651 -1.4247254 105 40
12.116389 -2.4879112 -1.3254633 98 40
12.100895 -2.5622091 -1.3254633 68 40
12.116993 -2.6434031 -1.3290788 121 40
12.160674 -2.7312081 -1.3358716 205 40
13.040481 -3.0130048 -1.4373249 187 40
13.046891 -3.0989361 -1.4401734 196 40
13.0566 -3.1860018 -1.4434602 193 40
13.056088 -3.2708871 -1.4456515 182 40
13.051176 -3.3548961 -1.4474045 206 40
13.05149 -3.4404881 -1.4498148 187 40
13.054123 -3.526988 -1.4525539 188 40
13.060017 -3.6147101 -1.455731 215 40
13.065325 -3.702637 -1.4589083 176 40
13.061452 -3.7882729 -1.4610995 130 40
5.144978 -1.5262622 -0.55360723 150 40
5.0622768 -1.5355803 -0.54517102 127 40
5.0043416 -1.551597 -0.53958344 136 40
4.9577727 -1.5705642 -0.53531057 65 40
4.9593906 -1.6046276 -0.53662527 42 40
4.9456763 -1.6337802 -0.53618705 173 40
4.9496865 -1.6688601 -0.53783047 368 40
4.8246865 -1.659743 -0.52446401 193 40
4.7525105 -1.6675899 -0.51723301 172 40
4.686038 -1.6766241 -0.51065934 189 40
4.6112313 -1.6818399 -0.50309968 200 40
4.5309491 -1.6841236 -0.49488261 309 40
4.5214601 -1.7122453 -0.49499217 407 40
4.4867573 -1.7306538 -0.49214357 195 40
4.4825296 -1.7606958 -0.4929105 229 40
4.4845624 -1.7933348 -0.49444437 247 40
4.4845219 -1.8253155 -0.4957591 227 40
4.4824204 -1.8566021 -0.49685469 221 40
4.487431 -1.8910199 -0.4988268 220 40
4.4894466 -1.9243939 -0.50047022 210 40
4.5048885 -1.9638227 -0.503757 244 40
4.5127449 -2.0002902 -0.50616735 189 40
4.5112605 -2.0328434 -0.50748211 270 40
1.0141594 -0.46417168 -0.085015535 177 40
1.0058855 -0.46786857 -0.084358171 68 40
4.5180044 -2.1367884 -0.51296014 15 40
4.5137672 -2.1687756 -0.51405573 14 40
4.5235987 -2.2077677 -0.51690435 41 40
4.5135293 -2.2372484 -0.51734257 27 40
4.5139217 -2.2720523 -0.51909554 24 40
4.5273328 -2.3137307 -0.52249193 26 40
4.5315781 -2.3510807 -0.52479273 27 40
4.5355353 -2.3885696 -0.52709347 31 40
4.5409551 -2.4271324 -0.52961338 29 40
4.5443249 -2.4649031 -0.53191417 24 40
4.5395641 -2.4984922 -0.53322887 28 40
4.5449753 -2.5379314 -0.53585833 16 40
4.5422897 -2.5731211 -0.53750175 24 40
4.5453753 -2.6118398 -0.5399121 21 40
4.5498734 -2.6516941 -0.54254156 15 40
4.5591869 -2.6947362 -0.5458284 16 40
4.5604696 -2.7333925 -0.54812914 28 40
4.5648465 -2.7742307 -0.55086821 14 40
4.572278 -2.817311 -0.55404544 27 40
4.5793514 -2.8605864 -0.55722272 20 40
4.5768285 -2.8982038 -0.5591948 26 40
4.5823798 -2.9412675 -0.56226254 19 40
4.5825753 -2.9812553 -0.56467283 25 40
4.5849414 -3.0229971 -0.5674119 16 40
4.5844879 -3.0632231 -0.56982219 13 40
4.5894737 -3.1074581 -0.57299948 13 40
4.5949078 -3.1524315 -0.57628632 17 40
4.5966978 -3.1953185 -0.57913488 21 40
4.6013837 -3.2406349 -0.58242172 14 40
4.596786 -3.2797775 -0.58450335 18 40
4.5934916 -3.3201499 -0.58680415 12 40
4.5906758 -3.3611922 -0.5892145 9 40
4.5819407 -3.3981793 -0.59085786 12 40
4.5776916 -3.4387677 -0.59315866 10 40
4.5723257 -3.4788294 -0.59534991 11 40
4.582386 -3.5310895 -0.59973234 16 40
4.5864911 -3.5793223 -0.60334784 16 40
4.5901756 -3.6277375 -0.60696334 15 40
4.6019735 -3.6831646 -0.61178398 10 40
4.5908699 -3.7207208 -0.6134274 23 40
4.5971498 -3.7727835 -0.61759073 18 40
4.602962 -3.8250625 -0.62175405 25 40
4.6075444 -3.876914 -0.62580782 27 40
4.6116629 -3.9289649 -0.62986153 27 40
4.6190782 -3.9844577 -0.63446307 23 40
4.6072693 -4.0238409 -0.63632566 32 40
4.6145096 -4.0803494 -0.64103675 36 40
4.616786 -4.1331191 -0.64509052 32 40
4.6134319 -4.181396 -0.6483773 25 40
4.6184468 -4.2378521 -0.6529789 23 40
4.61129 -4.2837005 -0.65582746 24 40
4.6160526 -4.3411975 -0.66053855 23 40
4.6080441 -4.3872609 -0.66338718 19 40
4.6203971 -4.4533939 -0.66941303 14 40
4.6299763 -4.5177598 -0.67511016 18 40
4.6424737 -4.5859022 -0.68135512 15 40
4.6493878 -4.6494465 -0.6868332 25 40
4.6577911 -4.7153683 -0.69263989 14 40
4.6579237 -4.7737408 -0.69724143 15 40
4.6533756 -4.8279972 -0.70118564 23 40
4.6531339 -4.8874159 -0.70589674 23 40
4.6489325 -4.9433918 -0.71006006 26 40
4.6557178 -5.0118799 -0.71608591 30 40
4.653101 -5.0711141 -0.72068745 29 40
4.6492639 -5.1297674 -0.72517949 39 40
4.6581397 -5.2033758 -0.73186266 46 40
4.6485095 -5.2571788 -0.73558772 36 40
4.6475468 -5.3215399 -0.74084669 31 40
4.6641455 -5.4071608 -0.74917328 20 40
4.6521506 -5.4606476 -0.75278878 26 40
4.6735892 -5.554502 -0.76221102 27 40
4.6749921 -5.6258869 -0.76834643 24 40
4.6838903 -5.7074857 -0.77590615 21 40
4.6806974 -5.7755027 -0.78149372 22 40
4.6811919 -5.8491268 -0.78784823 27 40
4.6877375 -5.9315515 -0.79540795 20 40
4.6885538 -6.0080051 -0.80209118 40 40
4.6977072 -6.0965009 -0.81041777 53 40
4.6884966 -6.1623921 -0.81556714 50 40
4.6840258 -6.2355509 -0.82170254 33 40
4.6806083 -6.3112803 -0.82816666 22 40
4.6846571 -6.3984294 -0.83616459 18 40
4.6837354 -6.4802241 -0.84339559 16 40
4.6767893 -6.5549636 -0.84964055 29 40
4.6696734 -6.6306734 -0.85599512 40 40
4.6975427 -6.7579608 -0.86925197 164 40
4.7538238 -6.9292784 -0.88831556 389 40
4.7530093 -7.0200491 -0.8965326 533 40
4.7545714 -7.1160274 -0.90540701 238 40
4.7720928 -7.2380128 -0.91767782 35 40
4.7183776 -7.2529926 -0.91581529 49 40
4.7451887 -7.3930655 -0.9303869 32 40
4.7662015 -7.5270176 -0.94408202 8 40
4.7741623 -7.6429548 -0.95536679 19 40
4.7787924 -7.7558846 -0.96621329 24 40
4.7739558 -7.8555651 -0.97530687 55 40
4.7701178 -7.9588857 -0.9848386 69 40
4.7520418 -8.0402031 -0.99152184 48 40
4.7926993 -8.2237949 -1.0112427 33 40
4.8080068 -8.3676748 -1.0258144 14 40
4.7889051 -8.4541006 -1.0330454 26 40
4.7737679 -8.549284 -1.0413721 16 40
4.8060431 -8.7325506 -1.0607643 42 40
4.7992845 -8.8483772 -1.0716108 54 40
4.8123655 -9.0038948 -1.0873876 42 40
4.8167696 -9.1467094 -1.1015209 21 40
4.8150234 -9.2810888 -1.1145587 23 40
4.802309 -9.3972006 -1.1252956 20 40
4.8692284 -9.6742077 -1.155863 59 40
4.8402328 -9.7653542 -1.1634228 60 40
4.8325329 -9.9020643 -1.1765701 32 40
4.8560481 -10.107136 -1.1980441 12 40
4.8504548 -10.256252 -1.2126156 24 40
4.8767648 -10.47777 -1.235952 60 40
4.8417668 -10.57166 -1.2437309 50 40
4.8768454 -10.823199 -1.2705733 35 40
4.8864622 -11.02467 -1.2912803 15 40
4.9053044 -11.253083 -1.3151646 67 40
4.8964648 -11.423666 -1.3320369 61 40
4.8791533 -11.578985 -1.3470467 34 40
4.9255328 -11.892473 -1.380901 130 40
4.8734512 -11.974029 -1.3870364 128 40
4.9497108 -12.378421 -1.4315182 42 40
4.9634132 -12.637079 -1.4585797 23 40
4.9619632 -12.864833 -1.4819161 58 40
4.8945475 -12.925713 -1.4855317 42 40
4.9765019 -13.389683 -1.536587 11 40
4.9746175 -13.640348 -1.5624434 45 40
0 -0 -0 428 40
0 -0 -0 1774 40
5.026917 -14.614084 -1.6655401 36 40
5.0260568 -14.908386 -1.6962171 17 40
5.0167832 -15.188117 -1.7251412 42 40
5.0538244 -15.621493 -1.7718141 11 40
5.0698242 -16.005659 -1.8126802 34 40
5.0992489 -16.448509 -1.8602296 22 40
5.112174 -16.855211 -1.9035062 148 40
5.0097871 -16.890074 -1.9039445 351 40
4.8828077 -16.840303 -1.8947413 9 40
4.7867002 -16.895767 -1.8976995 8 40
4.6900959 -16.950686 -1.9006577 27 40
4.9755197 -18.421423 -2.0653276 6 40
4.8575821 -18.433344 -2.0632458 13 40
4.7584858 -18.517677 -2.0694909 8 40
4.6515346 -18.573523 -2.0725586 6 40
0 -0 -0 4 40
4.0274215 -16.961929 -1.8836757 11 40
3.9143226 -16.947582 -1.8792932 289 40
3.8043821 -16.945095 -1.8763351 426 40
3.6977961 -16.956467 -1.8750204 421 40
3.5905967 -16.964249 -1.873377 474 40
3.4758472 -16.934357 -1.8675703 350 40
3.3656714 -16.924168 -1.8640643 283 40
3.2574422 -16.92205 -1.8615444 354 40
3.1533673 -16.940742 -1.8614348 353 40
3.0428543 -16.923576 -1.8573811 425 40
2.9010751 -16.723532 -1.832949 5629 40
2.7774332 -16.615528 -1.8189253 466 40
2.9521194 -18.352596 -2.0109854 296 40
2.8350518 -18.341877 -2.0078082 360 40
2.7141452 -18.302883 -2.0015631 435 40
2.5970383 -18.285732 -1.997838 445 40
2.4801106 -18.26685 -1.9940034 398 40
2.3632572 -18.245251 -1.9899497 393 40
2.2470055 -18.22488 -1.9861151 359 40
2.1305153 -18.198835 -1.9817326 370 40
2.0142105 -18.170073 -1.9771311 398 40
1.8998905 -18.155397 -1.9741729 366 40
1.7850477 -18.132092 -1.9703383 412 40
1.6704712 -18.107071 -1.9663941 386 40
1.5567803 -18.087271 -1.9631073 373 40
1.4444243 -18.079638 -1.9612447 382 40
1.3294444 -18.03364 -1.9552189 280 40
1.1776457 -17.432541 -1.8879485 33 40
1.1049386 -17.997997 -1.9496313 259 40
0.99278539 -17.973673 -1.9462349 443 40
0.88145947 -17.958576 -1.9439342 467 40
0.77035624 -17.942793 -1.9416333 436 40
0.65918773 -17.918377 -1.9384561 438 40
0.54819578 -17.888304 -1.934731 426 40
0.43786532 -17.868477 -1.9322112 429 40
0.32781711 -17.848963 -1.9298007 425 40
0.21802483 -17.828772 -1.9273905 445 40
0.10848666 -17.806913 -1.9248706 424 40
-0.0007752474 -17.787365 -1.9226793 439 40
-0.10979933 -17.768139 -1.9205977 489 40
-0 -0 -0 214 40
-0.32452849 -17.586569 -1.9008768 192 40
-0.43438822 -17.66374 -1.9096416 387 40
-0.54254884 -17.653788 -1.9088746 454 40
-0.65089685 -17.651119 -1.9089842 292 40
-0.73670608 -17.124443 -1.8513552 411 40
-0.86276585 -17.546495 -1.8984663 202 40
-0.95223176 -17.212368 -1.8622018 102 40
-1.047332 -17.035559 -1.8433573 293 40
-1.1495591 -16.995092 -1.8396323 514 40
-1.2537442 -16.986729 -1.8395227 485 40
-1.3564432 -16.95989 -1.837441 429 40
-1.4594574 -16.939363 -1.8361263 423 40
-1.5624536 -16.920193 -1.8350307 483 40
-1.6655622 -16.903362 -1.8342638 438 40
-1.7683159 -16.883928 -1.8332777 476 40
-1.8705649 -16.860905 -1.8319629 408 40
-1.9732922 -16.843187 -1.8313056 403 40
-2.0772116 -16.835693 -1.8318534 430 40
-2.1881416 -16.881775 -1.8384271 231 40
-2.2931573 -16.878866 -1.8396323 164 40
-2.3990588 -16.881207 -1.8414948 546 40
-2.5050752 -16.882883 -1.8433573 545 40
-2.6112025 -16.883894 -1.8452199 478 40
-2.7171204 -16.882275 -1.8468633 510 40
-2.8239367 -16.884892 -1.8490545 492 40
-2.9320772 -16.893688 -1.8520126 435 40
-3.0381439 -16.889076 -1.8535465 400 40
-3.145174 -16.888681 -1.8556281 394 40
-3.2532537 -16.89249 -1.8582575 402 40
-3.3599465 -16.88781 -1.8600105 438 40
-2.5454991 -12.396803 -1.3570168 253 40
-2.5253479 -11.926833 -1.3058518 1273 40
-0 -0 -0 296 40
-2.6941743 -11.995806 -1.3172462 796 40
-2.6907439 -11.645899 -1.2795572 180 40
-2.6750834 -11.26265 -1.2380338 106 40
-2.7347128 -11.207399 -1.2336513 380 40
-2.8063278 -11.201979 -1.234966 388 40
-2.8799589 -11.203802 -1.2371572 347 40
-2.9537177 -11.205142 -1.2393484 383 40
-3.030972 -11.218473 -1.2429639 352 40
-3.1045232 -11.216908 -1.244936 337 40
-3.176543 -11.209124 -1.2462507 353 40
-3.2546759 -11.221879 -1.2499758 167 40
-6.1111798 -20.596474 -2.3301361 19 40
-6.2394629 -20.565247 -2.3309031 24 40
-6.3693585 -20.538916 -2.3323274 23 40
-6.5003676 -20.515556 -2.3341899 16 40
-6.6285748 -20.482849 -2.3350663 12 40
-7.2680678 -21.997162 -2.5156226 4 40
-6.8911843 -20.434814 -2.3391201 11 40
-7.021615 -20.407185 -2.340873 13 40
-7.148674 -20.369343 -2.3415303 13 40
-2.5779021 -7.2044215 -0.80548757 538 40
-2.6196744 -7.1819315 -0.80472064 1175 40
-2.6636925 -7.1657224 -0.80472064 1145 40
-2.7195816 -7.1808472 -0.80844569 772 40
-2.7592978 -7.1528969 -0.80713099 675 40
-0 -0 -0 777 40
-0 -0 -0 1458 40
-2.8425176 -6.9830575 -0.79310715 1394 40
-2.8925397 -6.9829321 -0.79518884 1225 40
-2.9403505 -6.9769597 -0.79661316 1154 40
-2.9913304 -6.9779711 -0.7989139 900 40
-2.9995267 -6.8802166 -0.7893821 1370 40
-3.0428951 -6.8644085 -0.78971082 1190 40
-0 -0 -0 942 40
-3.2026615 -6.9919219 -0.80976045 1096 40
-3.2517955 -6.9856558 -0.81140381 1127 40
-3.3035235 -6.9844403 -0.81370461 31 40
-5.6966634 -11.854728 -1.4117972 24 40
-5.7413893 -11.762383 -1.4047853 26 40
-5.7595901 -11.618287 -1.3914189 32 40
-5.8111038 -11.543664 -1.3865982 21 40
-5.8343229 -11.41486 -1.3750943 7 40
-5.884109 -11.340026 -1.3702736 58 40
-5.948947 -11.294914 -1.3691781 45 40
-6.0082984 -11.239791 -1.3668772 47 40
-6.0671978 -11.184366 -1.3645765 34 40
-6.0733953 -11.033729 -1.3503336 17 40
-6.0324163 -10.801867 -1.325792 11 40
-6.089272 -10.748217 -1.3237103 72 40
-6.1174655 -10.645155 -1.3153837 15 40
-6.1215992 -10.502652 -1.3020172 7 40
-6.1080303 -10.333123 -1.2851449 10 40
-6.1217446 -10.212755 -1.2745174 35 40
-6.1316328 -10.088364 -1.2633423 11 40
-6.1548285 -9.9879322 -1.2552347 8 40
-6.1206703 -9.7973995 -1.2354043 7 40
-5.8807173 -9.2860498 -1.173612 22 40
-5.8618712 -9.1318521 -1.1581639 27 40
-5.8581624 -9.0040665 -1.1461122 62 40
-5.883204 -8.9223127 -1.1400863 38 40
-5.8699093 -8.7843952 -1.1266104 57 40
-5.8740954 -8.674964 -1.1168594 49 40
-5.8805361 -8.5707321 -1.1077659 71 40
-5.9074812 -8.4977627 -1.1028357 75 40
-5.9308915 -8.4207239 -1.0973576 202 40
-5.9963055 -8.4035921 -1.099987 771 40
-6.0430975 -8.3601971 -1.0991106 92 40
-6.076076 -8.2980995 -1.0957142 173 40
-6.1114817 -8.2399044 -1.0928656 756 40
-6.1756577 -8.2205276 -1.0953856 233 40
-6.2602911 -8.2275677 -1.1016304 789 40
-6.3355336 -8.2212791 -1.1061225 385 40
-6.0231929 -7.7175994 -1.041153 19 40
-6.5290174 -8.2606621 -1.1226661 546 40
-6.6038055 -8.2507095 -1.1269391 880 40
-6.6148753 -8.1613874 -1.1200367 476 40
-6.7600522 -8.236661 -1.1365803 600 40
-6.8765383 -8.2745285 -1.1479747 719 40
-6.9553404 -8.2656412 -1.1527954 779 40
-7.0336471 -8.2553415 -1.1575065 837 40
-7.1445522 -8.2820215 -1.1676956 697 40
-7.2207375 -8.2672234 -1.1719686 668 40
-7.3062272 -8.2622242 -1.1777753 712 40
-7.4065132 -8.2727785 -1.1859924 603 40
-7.524559 -8.3015585 -1.197058 484 40
-7.6069417 -8.2896519 -1.2022073 456 40
-7.7144933 -8.3039894 -1.2114104 581 40
-7.7959456 -8.2890797 -1.2163407 520 40
-7.908349 -8.3058748 -1.2262012 496 40
-7.9950361 -8.2944059 -1.2318983 534 40
-8.0534153 -8.2530184 -1.2331035 568 40
-8.0857401 -8.1850634 -1.2302549 450 40
-8.1470575 -8.1465406 -1.2320079 301 40
-8.1190987 -8.0195656 -1.2199562 120 40
-8.1340027 -7.9362788 -1.2146972 103 40
-7.5469918 -7.2737246 -1.1174072 12 40
-7.6245975 -7.2588058 -1.122447 20 40
-7.6986823 -7.2398028 -1.1269391 15 40
-7.8106909 -7.2553391 -1.1371282 28 40
-8.7976923 -8.0721083 -1.278133 288 40
-0 -0 -0 34 40
-0 -0 -0 21 40
-8.1561775 -7.2115803 -1.1621081 24 40
-8.2137499 -7.1731677 -1.1640801 22 40
-8.2749214 -7.1375651 -1.1666001 18 40
-8.335207 -7.1008372 -1.1690104 22 40
-9.5575552 -8.0414143 -1.3388296 79 40
-9.5944843 -7.972455 -1.3370767 15 40
-2.9351046 -2.4089596 -0.38061064 45 40
-2.9065843 -2.3558602 -0.37447524 111 40
-2.9349542 -2.3491602 -0.37644735 291 40
-2.9204578 -2.3083053 -0.37239358 131 40
-2.946321 -2.2995145 -0.374037 270 40
-2.9399033 -2.2656198 -0.37118843 98 40
-2.9426742 -2.2391129 -0.36965457 104 40
-2.9428468 -2.2108667 -0.36779204 115 40
-2.9459777 -2.1850712 -0.36636776 118 40
-2.9376748 -2.1511009 -0.36340961 110 40
-2.9564576 -2.1371107 -0.36417654 284 40
-2.9492857 -2.1044984 -0.3614375 129 40
-2.9507654 -2.0783503 -0.35990366 113 40
-2.9553003 -2.0545328 -0.35880804 91 40
-2.9555562 -2.0279264 -0.35716465 111 40
-2.9646513 -2.0075245 -0.35672638 101 40
-2.9785664 -1.9904003 -0.35694551 121 40
-3.0031714 -1.980293 -0.35858893 97 40
-3.0369291 -1.9759203 -0.3614375 86 40
-3.08413 -1.9797971 -0.36603907 64 40
-3.1222537 -1.9773194 -0.36943546 91 40
-3.1495025 -1.9676025 -0.37140754 352 40
-0 -0 -0 92 40
-3.217582 -1.9556462 -0.3771047 172 40
-3.3011394 -1.9787866 -0.38630781 68 40
-3.3465919 -1.9782166 -0.39058068 58 40
-3.380137 -1.9701563 -0.3933197 80 40
-3.4162941 -1.963244 -0.39638743 24 40
-8.1600409 -4.6223478 -0.99579471 7 40
-9.8155069 -5.4807386 -1.2012212 13 40
-10.230374 -5.6303086 -1.2492089 122 40
-10.307543 -5.5906501 -1.2545774 344 40
-10.335516 -5.5240192 -1.2538105 291 40
-9.9391394 -5.2340355 -1.2002352 9 40
-9.9587154 -5.1665435 -1.1987014 17 40
-9.9769526 -5.0985565 -1.197058 11 40
-9.9947309 -5.03054 -1.1954145 13 40
-10.034315 -4.9735327 -1.1965102 9 40
-10.27278 -5.0134387 -1.2220378 377 40
-9.9512405 -4.7811537 -1.1789805 373 40
-9.950737 -4.7059813 -1.175365 316 40
-9.941576 -4.6272211 -1.1707634 313 40
-9.9426689 -4.5537181 -1.1674765 382 40
-9.9695168 -4.4922171 -1.167367 339 40
-10.048691 -4.453917 -1.173612 333 40
-10.176061 -4.435863 -1.1856636 635 40
-10.172025 -4.3600273 -1.1819385 745 40
-10.17019 -4.2855663 -1.1785421 662 40
-10.176091 -4.2147155 -1.1761318 715 40
-10.164013 -4.1368351 -1.1716398 540 40
-1.5209458 -0.60854208 -0.14264452 91 40
-1.5163244 -0.59592813 -0.14165848 108 40
-1.5199524 -0.58661294 -0.14165848 99 40
-1.5142274 -0.57375592 -0.14056288 126 40
-1.5121291 -0.56237644 -0.13990551 129 40
-1.507147 -0.55002278 -0.13891946 143 40
-1.4992627 -0.53674716 -0.13760473 167 40
-1.499714 -0.52655059 -0.13727605 149 40
-1.4916375 -0.51345909 -0.13596132 169 40
-1.4891084 -0.50239182 -0.13530396 175 40
-1.4874439 -0.4916867 -0.13475615 166 40
-1.4857042 -0.48102099 -0.13420835 170 40
-1.4857849 -0.47099546 -0.13387966 169 40
-1.4848493 -0.46069276 -0.13344142 206 40
-1.4828922 -0.45013085 -0.13289362 213 40
-1.4865791 -0.44130614 -0.13300318 156 40
-1.4720749 -0.42719433 -0.13103108 91 40
-1.4717994 -0.41734102 -0.13070241 60 40
-1.4724164 -0.4077723 -0.13048328 23 40
-1.4700928 -0.39743423 -0.12993547 7 40
-0 -0 -0 3 40
-0 -0 -0 4 40
-0 -0 -0 5 40
-0 -0 -0 4 40
-0 -0 -0 3 40
-0 -0 -0 4 40
-0 -0 -0 4 40
-0 -0 -0 5 40
-0 -0 -0 5 40
-0 -0 -0 3 40
-1.4623533 -0.29117721 -0.12642953 5 40
-0 -0 -0 6 40
-0 -0 -0 4 40
-0 -0 -0 4 40
-1.4484923 -0.25163433 -0.12412875 6 40
-1.4411856 -0.24126711 -0.1231427 6 40
-1.4485271 -0.23336665 -0.12380007 4 40
-1.4627018 -0.22644784 -0.12522435 6 40
-1.4630805 -0.21732281 -0.1251148 9 40
-1.4535613 -0.20680422 -0.12390963 6 40
-1.4626824 -0.19895108 -0.12478612 5 40
-1.4579611 -0.18920653 -0.12412875 7 40
-1.4571216 -0.18001387 -0.12390963 5 40
-1.4631349 -0.17164752 -0.12445743 18 40
-1.472064 -0.16354261 -0.12533392 14 40
-1.4730397 -0.15450712 -0.12533392 7 40
-1.4601113 -0.14410274 -0.12380007 18 40
-1.4550294 -0.1345932 -0.1231427 10 40
-1.459789 -0.12600364 -0.12358095 4 40
-1.4664797 -0.117519 -0.12423831 6 40
-1.4711384 -0.10881086 -0.12467656 4 40
-1.4668196 -0.099447213 -0.12412875 5 40
-0 -0 -0 4 40
-1.4470878 -0.080288835 -0.12182797 4 40
-1.4445748 -0.071262032 -0.12149929 5 40
-0 -0 -0 5 40
-0 -0 -0 4 40
-0 -0 -0 4 40
-1.4280024 -0.035351019 -0.1195272 4 40
-0 -0 -0 5 40
-1.4402555 -0.017970163 -0.12084193 6 40
-1.4671756 -0.0092954999 -0.12380007 11 40
-1.4741628 -0.00029244911 -0.12456699 14 40
-0 0 -0 5 40
-1.458153 0.017601615 -0.12281402 3 40
-0 0 -0 5 40
-1.4849557 -0.10866103 -0.14444064 5 41
-1.4647983 -0.098137587 -0.14188501 9 41
-1.458438 -0.088720493 -0.14103314 8 41
-1.4361609 -0.078505486 -0.13823414 10 41
-1.412823 -0.068518348 -0.13531342 9 41
-0 -0 -0 3 41
-1.390744 -0.050330922 -0.13251442 9 41
-1.3930109 -0.041857813 -0.13275781 7 41
-1.3942337 -0.033334225 -0.13287951 4 41
-0 -0 -0 4 41
-0 -0 -0 3 41
-0 -0 -0 3 41
-1.4224237 0.00088656432 -0.13628699 7 41
-0 0 -0 5 41
-0 0 -0 4 41
-0 0 -0 3 41
-0 0 -0 2 41
-0 0 -0 4 41
-0 0 -0 3 41
-0 0 -0 2 41
-0 0 -0 4 41
-0 0 -0 3 41
-0 0 -0 3 41
-1.455767 0.099288061 -0.14078975 3 41
-0 0 -0 4 41
-0 0 -0 3 41
-0 0 -0 4 41
-0 0 -0 4 41
-1.4224021 0.14098386 -0.13713887 4 41
-0 0 -0 3 41
-0 0 -0 3 41
-0 0 -0 3 41
-0 0 -0 3 41
-0 0 -0 3 41
-0 0 -0 2 41
-0 0 -0 2 41
-0 0 -0 3 41
-0 0 -0 5 41
-0 0 -0 3 41
-0 0 -0 3 41
-0 0 -0 6 41
-0 0 -0 2 41
-0 0 -0 3 41
-0 0 -0 3 41
-0 0 -0 3 41
-0 0 -0 4 41
-0 0 -0 3 41
-0 0 -0 2 41
-0 0 -0 4 41
-0 0 -0 2 41
-0 0 -0 3 41
-0 0 -0 3 41
-0 0 -0 3 41
-0 0 -0 5 41
-0 0 -0 3 41
-0 0 -0 3 41
-1.408928 0.39081469 -0.14115484 3 41
-0 0 -0 5 41
-0 0 -0 3 41
-0 0 -0 3 41
-0 0 -0 2 41
-0 0 -0 3 41
-0 0 -0 4 41
-1.3710148 0.4445383 -0.13859922 5 41
-1.3974799 0.46258843 -0.1423718 5 41
-1.4463484 0.48858634 -0.14906509 20 41
-1.4827464 0.51100552 -0.15417632 53 41
-1.4880127 0.52305001 -0.15527159 110 41
-1.4875792 0.53317302 -0.15563668 179 41
-1.4908075 0.5446701 -0.15648855 154 41
-1.4892982 0.55449861 -0.15673195 163 41
-1.4914377 0.56573439 -0.15746212 142 41
-1.4916428 0.57630318 -0.15794891 148 41
-1.5019375 0.59088564 -0.15977435 134 41
-1.5010486 0.60119534 -0.16013943 115 41
-1.5148001 0.61750072 -0.16245165 88 41
-1.5100656 0.62640411 -0.16232996 108 41
-1.5171704 0.64028126 -0.16379032 81 41
-1.5168626 0.65114194 -0.16427711 31 41
-4.8696208 2.1230342 -0.61321408 178 41
-4.8810048 2.1637292 -0.61649984 508 41
-4.921937 2.2180943 -0.62380159 359 41
-5.4740968 2.5073028 -0.70010507 204 41
-5.4748082 2.5483804 -0.7022956 299 41
-5.4635553 2.5840461 -0.70290411 187 41
-5.4815969 2.6338499 -0.70752853 35 41
-7.7276487 3.7710538 -1.0161499 23 41
-7.7203736 3.8263304 -1.0183403 24 41
-7.729557 3.890135 -1.0228431 34 41
-7.7108459 3.9401987 -1.0235733 26 41
-7.7526088 4.021708 -1.0327005 32 41
-7.9965496 4.2106776 -1.0699395 55 41
-8.0160866 4.2839861 -1.0762677 361 41
-7.9983754 4.337822 -1.0774847 582 41
-8.0403109 4.4246135 -1.0870987 66 41
-8.1170149 4.5319152 -1.1017022 50 41
-8.0890551 4.581635 -1.1017022 29 41
-8.1029644 4.6554055 -1.1076653 53 41
-8.1111259 4.726521 -1.1128982 9 41
-7.9435315 4.6944103 -1.0931835 51 41
-8.5003777 5.0940208 -1.1769104 168 41
-8.4138212 5.112586 -1.1690001 23 41
