# .PCD v0.7 - Point Cloud Data file format
VERSION 0.7
FIELDS x y z intensity ring
SIZE 4 4 4 4 1
TYPE F F F F U
COUNT 1 1 1 1 1
WIDTH 262
HEIGHT 1
VIEWPOINT 0 0 0 1 0 0 0
POINTS 262
DATA ascii
5.5060239 0.068559378 -1.2496183 13 50
5.623837 0.068956785 -1.3455514 10 51
5.512495 0.03374121 -1.318042 51 51
5.5441508 0.069031455 -1.3957188 15 52
5.4312096 0.034304559 -1.3663847 5 52
5.5040936 0.068421774 -1.4530249 11 53
5.4908986 0.034560084 -1.4493589 6 53
5.1440444 -0.12733036 -0.84621239 30 45
5.129375 -0.15846829 -0.84383905 20 45
5.1263366 -0.18986605 -0.84350002 45 45
5.1408291 -0.22199382 -0.84621239 143 45
5.112793 -0.25222811 -0.84163529 11 45
5.1022925 -0.28310549 -0.84010959 20 45
5.1043944 -0.3146489 -0.84078765 28 45
5.1141667 -0.3467603 -0.84282196 340 45
5.1080117 -0.3778438 -0.84214383 320 45
5.1046147 -0.40910032 -0.84197432 366 45
5.0548773 -0.43635634 -0.83383727 198 45
5.1468782 -0.12629677 -0.91046387 84 46
5.1666484 -0.1585099 -0.91427279 270 46
5.136096 -0.18912104 -0.90883148 379 46
5.1377864 -0.22075884 -0.90937561 374 46
5.1363349 -0.25227955 -0.90937561 341 46
5.1317449 -0.28362772 -0.90883148 297 46
5.1230369 -0.31468761 -0.90756184 375 46
5.1013861 -0.34478825 -0.9039343 260 46
5.1499338 -0.12747481 -0.97420651 18 47
5.1392474 -0.15877104 -0.97227615 14 47
5.0999355 -0.18889424 -0.96474779 206 47
5.1055427 -0.22047806 -0.96609902 319 47
5.1109538 -0.25213781 -0.96745026 302 47
5.1202002 -0.12653156 -1.030511 361 48
5.0997596 -0.1573409 -1.0264212 391 48
5.1182618 -0.18935476 -1.030511 99 48
5.2404914 -0.12878346 -0.47442245 522 39
5.233634 -0.16075408 -0.47383901 488 39
5.212657 -0.19213529 -0.47189432 398 39
5.235795 -0.1284854 -0.53936428 415 40
5.2219925 -0.160212 -0.53794003 299 40
5.216938 -0.19210392 -0.53750175 25 40
5.2106957 -0.22389711 -0.53695399 167 40
5.1933393 -0.25508374 -0.53520101 146 40
5.218411 -0.12824576 -0.60189629 457 41
5.1788335 -0.15908308 -0.59715015 161 41
5.1837115 -0.19107485 -0.59788036 30 41
5.1913662 -0.22325972 -0.5989756 55 41
5.1978297 -0.25549722 -0.59994918 361 41
5.1882358 -0.28694895 -0.5989756 273 41
5.1895895 -0.12734808 -0.66171533 416 42
5.1946535 -0.1593712 -0.66251719 65 42
5.1886263 -0.19105928 -0.66184902 72 42
5.1833959 -0.22272202 -0.66131443 365 42
5.1799521 -0.25442517 -0.66104716 323 42
5.1802726 -0.2863135 -0.66131443 305 42
5.1576457 -0.31681612 -0.658508 234 42
5.1378069 -0.34725261 -0.65610248 91 42
5.1755805 -0.12630165 -0.72506267 262 43
5.1994295 -0.15880553 -0.72871047 12 43
5.1874819 -0.19030912 -0.72710544 14 43
5.1891818 -0.22226167 -0.72754318 221 43
5.1946373 -0.25443494 -0.72856456 86 43
5.1593928 -0.28445974 -0.72360361 13 43
5.1526127 -0.31581035 -0.72287405 12 43
5.1288624 -0.34596041 -0.71966398 67 43
5.1266432 -0.377424 -0.71966398 259 43
5.1690245 -0.1268419 -0.78763646 249 44
5.1651883 -0.15846498 -0.78716302 25 44
5.1720128 -0.19044629 -0.78842556 363 44
5.1687741 -0.22209264 -0.7881099 377 44
5.1643548 -0.25365791 -0.78763646 380 44
5.1459403 -0.28441337 -0.78495365 270 44
5.142127 -0.31586167 -0.78463805 343 44
5.1361513 -0.34714058 -0.78400677 337 44
5.1339245 -0.37864888 -0.78400677 389 44
5.136426 -0.41053665 -0.78479582 350 44
5.1239719 -0.44119757 -0.78321773 47 44
5.2300324 0.25588489 -0.86180836 268 45
5.2187037 0.2232388 -0.85960454 389 45
5.2130814 0.19095916 -0.85841793 409 45
5.2082448 0.15878718 -0.85740077 441 45
5.1963129 0.1265123 -0.85519701 338 45
5.1979766 0.094644107 -0.85536653 454 45
5.1915612 0.062663332 -0.85417986 448 45
5.1839643 0.030758778 -0.85282367 433 45
5.1554751 -0.0010506304 -0.8479076 75 45
5.150444 -0.032653883 -0.84705997 64 45
5.1629577 -0.064412743 -0.84926373 418 45
5.1466994 -0.095800936 -0.84655142 342 45
5.1908374 0.22314018 -0.91916996 78 46
5.1881776 0.19114107 -0.91844445 192 46
5.1912189 0.15936361 -0.91880721 27 46
5.1862001 0.12736347 -0.91771895 16 46
5.1859007 0.095521122 -0.91753757 32 46
5.1903229 0.063747242 -0.91826308 370 46
5.1591477 0.031707793 -0.91245902 58 46
5.182847 4.9716313e-05 -0.91681206 22 46
5.1571813 -0.031593073 -0.91209626 201 46
5.1559072 -0.063224219 -0.91191489 397 46
5.1564054 -0.094877243 -0.91209626 389 46
5.1755986 0.15778458 -0.97941852 269 47
5.1646986 0.12573552 -0.97710204 256 47
5.1516385 0.093790017 -0.97439957 417 47
5.1511359 0.062166326 -0.97420651 379 47
5.1582885 0.030600673 -0.9755578 102 47
5.1838903 -0.0010500104 -0.98057669 13 47
5.137671 -0.032575786 -0.97150403 191 47
5.1216764 -0.06390702 -0.96841544 367 47
5.1565051 -0.095981248 -0.97536474 24 47
5.1584058 0.12578489 -1.0384865 239 48
5.1551657 0.094060011 -1.0376685 380 48
5.140964 0.062250078 -1.034601 244 48
5.0962219 0.030439066 -1.0251942 23 48
5.145256 -0.00084308215 -1.035419 93 48
5.1314502 -0.032326389 -1.0325561 398 48
5.1243038 -0.063726038 -1.0311246 378 48
5.1218591 -0.095130466 -1.0307156 393 48
5.1659837 0.096752003 -1.1057974 108 49
5.1196218 0.064451672 -1.0954083 177 49
5.1306601 0.033108801 -1.0977892 13 49
5.1170983 0.0016195856 -1.094759 28 49
5.12287 -0.029811118 -1.0960577 315 49
5.1020894 -0.061003484 -1.0915123 416 49
5.0645261 -0.091645524 -1.0832877 250 49
5.1149378 0.032329418 -1.1579579 350 50
5.0829091 0.0009406344 -1.1504335 254 50
5.3242021 0.26067266 -0.41852283 544 38
5.3217196 0.22782889 -0.41818187 581 38
5.3090777 0.19466107 -0.41698846 47 38
5.3061886 0.16196021 -0.41664749 34 38
5.3040943 0.12932636 -0.41639176 389 38
5.3017993 0.096724316 -0.41613603 384 38
5.3022933 0.064191267 -0.41613603 18 38
5.2926235 0.031597052 -0.41528362 29 38
5.2967033 -0.00087942689 -0.41562459 49 38
5.2637191 -0.033169735 -0.41281155 192 38
5.2853346 -0.065740936 -0.41468692 33 38
5.2778583 -0.098039851 -0.41409022 35 38
5.3133025 0.26090431 -0.48200682 503 39
5.2909393 0.22726728 -0.47967315 388 39
5.2922339 0.19479841 -0.47967315 34 39
5.3012881 0.162568 -0.48045105 282 39
5.296216 0.12988913 -0.47986764 473 39
5.2919378 0.097297139 -0.47938144 420 39
5.2675557 0.064514369 -0.47695056 272 39
5.2698426 0.032204647 -0.47714505 429 39
5.2729268 -0.00013051979 -0.47743675 435 39
5.2708364 -0.032472767 -0.47724226 451 39
5.2436676 -0.06448891 -0.47461691 261 39
5.2421784 -0.096644118 -0.47451967 263 39
5.2945991 0.260149 -0.54637617 493 40
5.2811995 0.22701783 -0.54473275 181 40
5.2973928 0.19515653 -0.54637617 19 40
5.25875 0.16143167 -0.54199374 114 40
5.2715654 0.1294535 -0.5433085 493 40
5.2732544 0.097123563 -0.54341805 28 40
5.2717633 0.064741388 -0.54319894 34 40
5.2660975 0.032357037 -0.54254156 26 40
5.2483053 4.5432069e-05 -0.54056948 239 40
5.2482066 -0.032157563 -0.54056948 26 40
5.2439351 -0.064310297 -0.54013121 19 40
5.227541 -0.096191496 -0.53837824 39 40
5.2949977 0.26000145 -0.61187541 465 41
5.2538524 0.22566608 -0.60664248 79 41
5.2729921 0.19408591 -0.60883301 131 41
5.2740836 0.16172779 -0.60883301 438 41
5.2720003 0.12928991 -0.60846788 402 41
5.2667398 0.096828304 -0.60773772 418 41
5.2632647 0.064460866 -0.60725093 316 41
5.2357697 0.031988885 -0.60384345 411 41
5.2487712 -0.0001352628 -0.60542548 380 41
5.2407308 -0.032293949 -0.60445195 339 41
5.2434115 -0.064485818 -0.60481703 57 41
5.2171149 -0.096187621 -0.60165292 456 41
5.2663555 0.29116535 -0.67294115 450 42
5.2591343 0.25840905 -0.67173839 276 42
5.2576504 0.22600728 -0.67133749 19 42
5.2510152 0.1934514 -0.67026836 39 42
5.2471509 0.16107646 -0.66960013 434 42
5.2321887 0.12848942 -0.66746187 51 42
5.2388234 0.096491955 -0.66826373 35 42
5.2462535 0.064429998 -0.66919923 27 42
5.2207842 0.032081958 -0.66572458 191 42
5.2248468 4.6967431e-05 -0.66625911 95 42
5.2336679 -0.032067403 -0.66746187 19 42
5.2294087 -0.064131074 -0.66692734 20 42
5.1962185 -0.095612802 -0.66251719 360 42
5.2489076 0.25864372 -0.73658961 225 43
5.2869654 0.22801743 -0.7419883 52 43
5.2506976 0.19417529 -0.7364437 397 43
5.2468462 0.16180038 -0.73571414 457 43
5.2398281 0.12940614 -0.73454684 427 43
5.2256866 0.096974075 -0.73235822 306 43
5.2172804 0.064795472 -0.73104501 403 43
5.2245045 0.032826684 -0.73206639 379 43
5.2275758 0.00077020843 -0.73250413 360 43
5.2255034 -0.031294201 -0.73221231 30 43
5.2113638 -0.063191868 -0.73016953 300 43
5.189117 -0.094774462 -0.72695953 446 43
5.2415733 0.28979704 -0.80026156 330 44
5.2481842 0.25787184 -0.8010506 28 44
5.2427616 0.22536838 -0.79994595 18 44
5.2489796 0.19337656 -0.800735 239 44
5.2155223 0.16010788 -0.79521155 154 44
5.2331886 0.1285139 -0.79789436 20 44
5.2259803 0.096256346 -0.79663187 24 44
5.2067246 0.063947462 -0.79347557 96 44
5.1882572 0.031884503 -0.79047716 220 44
5.2081046 4.8063201e-05 -0.7936334 23 44
5.197145 -0.031840906 -0.79189748 22 44
5.1800661 -0.063522287 -0.78921461 268 44
5.1776042 -0.095268898 -0.788899 407 44
5.2383113 -0.12945938 -0.41076574 178 38
5.2344308 -0.16150622 -0.41051 242 38
5.3284431 0.064346187 -0.21902497 556 35
5.3327332 0.031674869 -0.21921688 556 35
5.3258348 -0.0010469137 -0.21888104 391 35
5.3257575 0.16255607 -0.28595063 559 36
5.3196692 0.12970497 -0.28552696 644 36
5.320365 0.097061649 -0.28552696 599 36
5.2939119 0.064090416 -0.28389275 199 36
5.2932076 0.031600494 -0.28383222 24 36
5.3002887 -0.00088028738 -0.28425589 32 36
5.3061724 -0.033440419 -0.28461906 88 36
5.2898979 -0.065798029 -0.28365064 429 36
5.3453984 0.26155499 -0.35286468 344 37
5.3469028 0.2287513 -0.35286468 557 37
5.3252821 0.1950942 -0.35119221 346 37
5.3323603 0.16259889 -0.35162851 30 37
5.3183017 0.12950961 -0.35053778 449 37
5.3160048 0.096819557 -0.35031962 495 37
5.3224826 0.06427291 -0.3507559 462 37
5.3018327 0.031484589 -0.34922889 248 37
5.2909551 -0.0010476747 -0.34842899 508 37
5.2898517 -0.033506248 -0.34835628 466 37
5.2835627 -0.06589023 -0.34792 518 37
5.2790704 -0.098234981 -0.34762913 514 37
5.3324194 0.35956708 -0.41971624 256 38
5.331542 0.32665864 -0.41946051 522 38
5.327477 0.29361022 -0.41894907 541 38
5.3308377 0.45894858 -0.48502111 139 39
5.3365297 0.42646903 -0.48531282 544 39
5.339046 0.39371669 -0.48531282 511 39
5.337389 0.36068022 -0.48492387 44 39
5.3236079 0.32694423 -0.4833681 23 39
5.3265076 0.29432815 -0.48346534 42 39
5.3686152 0.4955574 -0.55634624 70 40
5.3250098 0.45860171 -0.55119687 365 40
5.3217788 0.4254446 -0.55053949 457 40
5.3193326 0.39241749 -0.54999173 419 40
5.3127146 0.35916853 -0.54900563 382 40
5.291008 0.32510227 -0.54637617 65 40
5.2998505 0.29301473 -0.5471431 468 40
5.3102546 0.42436352 -0.61503947 500 41
5.3068194 0.39133313 -0.61430931 107 41
5.3180332 0.35936797 -0.61540461 26 41
5.3032966 0.32569236 -0.61333573 30 41
5.304204 0.29309082 -0.61321408 367 41
5.2946959 0.39060181 -0.67761856 214 42
5.2683187 0.35617036 -0.67374301 73 42
5.247654 0.32244161 -0.67066926 341 42
5.2670612 0.32437909 -0.73979962 449 43
5.2729034 0.29227477 -0.74038327 422 43
