# .PCD v0.7 - Point Cloud Data file format
VERSION 0.7
FIELDS x y z intensity ring
SIZE 4 4 4 4 1
TYPE F F F F U
COUNT 1 1 1 1 1
WIDTH 1408
HEIGHT 1
VIEWPOINT 0 0 0 1 0 0 0
POINTS 1408
DATA ascii
3.8514457 2.7480993 -1.5343031 27 58
3.8682351 2.7244155 -1.5343031 38 58
3.8848791 2.7006292 -1.5343031 33 58
3.8857291 2.6660073 -1.5279834 37 58
3.8988717 2.6399872 -1.5267196 40 58
3.9102635 2.6128521 -1.5248237 27 58
4.278717 2.8211908 -1.6654348 90 58
4.3571863 2.8347187 -1.6897653 140 58
4.393661 2.8202288 -1.6973488 146 58
4.4100814 2.7927091 -1.6970329 16 58
0 0 -0 6 58
0 0 -0 4 58
0 0 -0 5 58
0 0 -0 5 58
4.6651983 2.7574849 -1.7633888 14 58
4.7484288 2.7675006 -1.7889831 30 58
4.7431087 2.7255511 -1.7804517 75 58
4.7853351 2.710892 -1.7902471 39 58
4.7886243 2.6740785 -1.7851914 18 58
3.7867033 2.0843 -1.3981156 26 58
4.7918887 2.5992823 -1.7741321 17 58
4.8027267 2.5671477 -1.7722362 18 58
4.8284616 2.5429349 -1.7760279 47 58
4.8599758 2.5215611 -1.7820315 83 58
4.8719769 2.4899666 -1.7807677 64 58
4.8863158 2.4595993 -1.7804517 73 58
4.9259682 2.4417892 -1.7896152 21 58
4.9016356 2.3923779 -1.77508 43 58
4.9145126 2.3614354 -1.774448 63 58
4.9271941 2.3304248 -1.7738161 44 58
4.9396801 2.2993476 -1.7731842 60 58
4.9588714 2.2713652 -1.77508 75 58
4.9744449 2.2416749 -1.775712 65 58
4.9872384 2.2107255 -1.775396 60 58
4.99897 2.1793246 -1.7747641 67 58
4.9747496 2.1325395 -1.7611769 34 58
4.8880682 2.0599782 -1.7251551 12 58
4.8944798 2.0274057 -1.7229433 13 58
4.8066468 1.9565651 -1.6869216 16 58
4.8088708 1.9231608 -1.6834458 17 58
4.6934142 1.8436753 -1.6379446 164 58
4.7674885 1.8390816 -1.6603792 57 58
4.7706976 1.8067706 -1.6575354 48 58
4.8065953 1.7867184 -1.6663828 27 58
4.8379688 1.7646681 -1.6736504 16 58
4.8442388 1.7333518 -1.6720705 23 58
4.9013376 1.7199279 -1.6885015 17 58
4.9252563 1.6944503 -1.6932411 13 58
4.9742198 1.6772296 -1.7068282 7 58
4.9997325 1.6517353 -1.7121999 9 58
5.0160923 1.6230705 -1.7144119 22 58
4.9744015 1.5759327 -1.696401 44 58
4.9377604 1.5310539 -1.6802859 63 58
4.9343505 1.4968727 -1.6758622 59 58
4.9370751 1.4646794 -1.6736504 51 58
4.9177208 1.4261686 -1.663855 80 58
4.9327688 1.3977773 -1.6660669 58 58
4.9357662 1.3659662 -1.664171 62 58
4.9394751 1.3344183 -1.6625911 59 58
4.9585791 1.3069862 -1.6663828 46 58
4.9628296 1.2755919 -1.6651189 37 58
4.9705629 1.2451165 -1.6651189 43 58
4.9753442 1.2139198 -1.664171 39 58
4.9780836 1.182273 -1.6625911 42 58
4.9732265 1.1489304 -1.6584833 51 58
4.9903655 1.1206796 -1.6619591 27 58
4.9897323 1.0884211 -1.6594312 37 58
4.9935317 1.0571949 -1.6584833 37 58
4.9934192 1.0252001 -1.6562715 40 58
5.0145044 0.99750227 -1.6613271 26 58
5.0065556 0.96402526 -1.6565875 43 58
5.0151744 0.93380827 -1.6575354 40 58
5.0208101 0.90301818 -1.6575354 41 58
5.0327997 0.87332904 -1.6597472 26 58
5.037128 0.8422755 -1.6594312 24 58
5.0197196 0.80773664 -1.6518477 35 58
5.0358329 0.77865988 -1.6556395 17 58
5.0311308 0.74635446 -1.6524796 20 58
5.0262222 0.71413606 -1.6493199 24 58
5.0239286 0.6823889 -1.6471081 29 58
5.0308437 0.65191537 -1.6480559 17 58
5.032866 0.62080228 -1.647424 17 58
5.038465 0.59013009 -1.6480559 16 58
5.0429344 0.55930805 -1.6483719 16 58
5.0472145 0.52845341 -1.648688 20 58
5.0626369 0.49868247 -1.6527957 15 58
3.5058098 0.32374409 -1.1311123 56 58
3.5048943 0.30198273 -1.1301644 83 58
3.5095186 0.28069803 -1.1311123 80 58
3.5064437 0.25881007 -1.1295325 76 58
3.5060725 0.23716222 -1.1289004 31 58
3.5652277 0.21919003 -1.1481752 4 58
3.5305073 0.19532248 -1.136168 7 58
0 0 -0 4 58
3.5222116 0.15153557 -1.1326922 8 58
3.5249715 0.12999056 -1.1333241 66 58
3.5171678 0.10809793 -1.1304803 77 58
3.5111256 0.0863524 -1.1282685 83 58
3.5390987 0.065311559 -1.1374319 15 58
3.5498686 0.043722216 -1.1409076 5 58
3.5282488 0.021807343 -1.1336402 50 58
3.5311625 0.00015781881 -1.1345881 63 58
5.079453 -0.031111047 -1.6502678 27 58
5.0810637 -0.062300809 -1.6508998 30 58
5.080586 -0.093476459 -1.6508998 38 58
5.0969892 -0.12506881 -1.6565875 33 58
5.1018157 -0.15651599 -1.6584833 26 58
5.1073961 -0.18806209 -1.6606952 30 58
5.1184688 -0.21992734 -1.6648029 21 58
5.1189184 -0.25142276 -1.6654348 21 58
5.1068587 -0.2822504 -1.6619591 36 58
5.1126065 -0.31404611 -1.6644869 24 58
5.1134229 -0.34560272 -1.6654348 21 58
5.1197219 -0.37760031 -1.6682787 17 58
5.116363 -0.40893155 -1.6679627 19 58
5.1137576 -0.44031727 -1.6679627 18 58
5.1062355 -0.47125009 -1.6663828 19 58
5.1051364 -0.50275862 -1.6670148 19 58
5.1038427 -0.53427136 -1.6676468 19 58
5.1098981 -0.56662428 -1.6708065 14 58
5.1129212 -0.59874028 -1.6730185 15 58
5.1053848 -0.62963653 -1.6717545 28 58
5.1230659 -0.66375619 -1.6790221 23 58
5.1057348 -0.69338977 -1.6745983 31 58
5.1164136 -0.72684109 -1.679654 29 58
5.1099806 -0.75794262 -1.6790221 34 58
5.0930448 -0.78739721 -1.6749142 40 58
5.0806236 -0.81742644 -1.6723864 55 58
5.0848699 -0.85015047 -1.6755463 40 58
5.0739493 -0.88036102 -1.6736504 49 58
5.0721869 -0.91214961 -1.6749142 48 58
5.0842166 -0.94655555 -1.6809179 41 58
5.0941505 -0.98078442 -1.6862895 41 58
5.0954809 -1.0135044 -1.6888174 38 58
5.0956721 -1.0460865 -1.6910293 41 58
5.0937982 -1.0783161 -1.6926092 42 58
5.0889397 -1.1099553 -1.6932411 50 58
5.0885134 -1.1426151 -1.695453 54 58
5.0814066 -1.1738161 -1.695453 53 58
5.0759549 -1.2054116 -1.696085 51 58
5.0601673 -1.2345098 -1.6932411 65 58
5.0570989 -1.2666881 -1.694821 69 58
5.0584202 -1.3000565 -1.6979809 55 58
5.0567703 -1.332763 -1.7001927 58 58
5.0539927 -1.3652506 -1.7020886 56 58
5.0528355 -1.3982605 -1.7046164 65 58
5.0505505 -1.4310488 -1.7068282 67 58
5.0444083 -1.4628043 -1.7077762 57 58
5.0380664 -1.4945383 -1.7087241 68 58
5.032433 -1.5265251 -1.7099881 69 58
5.0193467 -1.5562507 -1.7087241 65 58
4.9852834 -1.5792814 -1.7001927 97 58
4.8780107 -1.5782902 -1.6660669 123 58
4.8105798 -1.5891405 -1.6458441 148 58
4.7926474 -1.6158991 -1.6430002 238 58
4.787128 -1.6468192 -1.6445802 253 58
4.7778282 -1.6764758 -1.6448961 235 58
4.7844243 -1.7118344 -1.6508998 261 58
4.7978954 -1.7499382 -1.6594312 288 58
4.7950716 -1.7823204 -1.6622751 266 58
4.7955794 -1.8160778 -1.6663828 324 58
4.7967381 -1.8502499 -1.6708065 243 58
4.8109035 -1.8897085 -1.67997 259 58
4.8080273 -1.9227157 -1.6831298 256 58
4.8075628 -1.9568317 -1.6872375 249 58
4.8112426 -1.9928299 -1.6929252 250 58
4.8120384 -2.0278411 -1.6976649 43 58
4.8012495 -2.0580769 -1.6982968 29 58
4.7885308 -2.0874979 -1.6982968 21 58
4.7851729 -2.1210706 -1.7017726 40 58
4.7807178 -2.1542904 -1.7049325 43 58
4.7837977 -2.1910915 -1.7109361 41 58
4.787466 -2.2284119 -1.7172556 23 58
4.7925711 -2.2666707 -1.7242072 28 58
4.7956753 -2.3042541 -1.7305268 18 58
4.7993512 -2.3423765 -1.7371624 17 58
4.8044391 -2.3814735 -1.7444299 19 58
4.8083797 -2.420294 -1.7513815 23 58
4.8111792 -2.4588203 -1.7580171 11 58
4.8128443 -2.4970348 -1.7643367 20 58
4.818418 -2.5375729 -1.7722362 15 58
4.8178182 -2.5751417 -1.7779238 11 58
4.8152695 -2.6118937 -1.7829795 16 58
4.8116202 -2.6482534 -1.7877192 10 58
4.812675 -2.6874423 -1.7943548 16 58
4.8043494 -2.7215986 -1.7975147 13 58
4.7982535 -2.7571721 -1.8016224 10 58
4.7919011 -2.7927732 -1.8057301 13 58
4.788559 -2.8303311 -1.8111018 23 58
4.7898188 -2.8708794 -1.8183693 16 58
4.7858958 -2.9085929 -1.823741 32 58
4.7703819 -2.9393971 -1.8246889 34 58
4.7683492 -2.9786665 -1.8310086 27 58
4.7571964 -3.0124373 -1.8338523 30 58
4.7482038 -3.0477207 -1.8376441 30 58
4.7413425 -3.0845594 -1.8423839 23 58
4.7262869 -3.1162052 -1.8439637 28 58
4.724432 -3.156744 -1.8509153 30 58
4.7120438 -3.1904609 -1.8537591 28 58
4.6947255 -3.2209239 -1.854707 33 58
4.675653 -3.250211 -1.855023 27 58
4.6501927 -3.2750146 -1.8528112 41 58
4.6346436 -3.3067927 -1.854707 23 58
4.609653 -3.3318331 -1.8528112 37 58
4.5914187 -3.3617363 -1.8537591 13 58
4.5714674 -3.3904107 -1.8540751 30 58
4.5543704 -3.4212463 -1.855655 26 58
4.5438628 -3.4571705 -1.8600787 32 58
4.5210614 -3.4838278 -1.8594468 27 58
4.5078273 -3.5179243 -1.8629225 29 58
4.4876456 -3.5466943 -1.8635545 30 58
4.4695024 -3.5771275 -1.8651344 28 58
4.4452581 -3.6026924 -1.8641864 29 58
4.4238024 -3.630502 -1.8645024 42 58
4.3999834 -3.6563647 -1.8638705 27 58
4.3839989 -3.6887918 -1.8667142 23 58
4.3605599 -3.7150066 -1.8663983 24 58
4.3419933 -3.7454112 -1.8682942 25 58
4.3167863 -3.7701101 -1.8673463 26 58
4.2971258 -3.799669 -1.8689262 32 58
4.2744374 -3.8265972 -1.8692422 18 58
4.260016 -3.8610361 -1.8733499 21 58
4.2369437 -3.8877439 -1.8736658 31 58
4.2150946 -3.9156055 -1.8746138 30 58
1.8993033 -1.7858983 -0.82682335 17 58
1.884874 -1.7942474 -0.82524341 25 58
1.87178 -1.8038036 -0.82429546 33 58
1.8545656 -1.8092909 -0.82145166 25 58
1.8434292 -1.8206363 -0.82145166 54 58
1.8268566 -1.8265456 -0.81892383 42 58
1.8062809 -1.8282703 -0.81450009 34 58
1.7778025 -1.8216623 -0.80628461 20 58
1.7606661 -1.826388 -0.80344081 26 58
1.7383056 -1.8254747 -0.79806912 24 58
1.716673 -1.8250474 -0.79301345 23 58
1.69382 -1.8230335 -0.7873258 24 58
1.674264 -1.8243039 -0.78321809 30 58
1.6598532 -1.8310275 -0.78163815 13 58
1.6371969 -1.8284529 -0.77595049 41 58
1.620291 -1.832067 -0.77310669 24 58
1.6034026 -1.8355427 -0.7702629 32 58
1.5958277 -1.8496572 -0.77215874 56 58
1.596138 -1.8731368 -0.77816236 22 58
1.589501 -1.8887033 -0.78069019 33 58
1.5887961 -1.911556 -0.78637785 23 58
1.5824537 -1.9278697 -0.7892217 20 58
1.5688028 -1.9353318 -0.78827375 31 58
1.5568982 -1.9449214 -0.78827375 24 58
1.5431705 -1.9522045 -0.7873258 29 58
1.5294119 -1.9593925 -0.78637785 23 58
1.4999887 -1.9461931 -0.77689844 60 58
1.4862955 -1.9530948 -0.77595049 43 58
1.4714346 -1.9583848 -0.77437061 36 58
1.4576951 -1.9650902 -0.77342266 34 58
1.4461706 -1.974763 -0.77373862 30 58
1.4512541 -2.0074375 -0.78353405 25 58
1.4499296 -2.0317516 -0.78985363 27 58
1.4396207 -2.0437131 -0.79111755 33 58
1.4346344 -2.0634148 -0.79554129 32 58
1.4353639 -2.0917382 -0.80344081 42 58
1.4246298 -2.1036487 -0.80470473 48 58
1.4069517 -2.1052504 -0.80186087 28 58
1.3861746 -2.1019616 -0.79712117 18 58
1.3737684 -2.1112227 -0.79743719 15 58
1.3510519 -2.1044414 -0.79143357 29 58
1.3299934 -2.0998662 -0.78637785 35 58
1.3090421 -2.0951121 -0.78132218 43 58
1.2921808 -2.0966425 -0.77879435 34 58
1.2684524 -2.086694 -0.77184278 46 58
1.2361164 -2.0618851 -0.75920355 81 58
1.2374401 -2.093118 -0.76836699 48 58
1.2245737 -2.1006713 -0.76836699 21 58
1.2107159 -2.1065004 -0.767735 22 58
1.1963651 -2.111413 -0.76678711 26 58
1.176912 -2.1071165 -0.76236337 13 58
1.1584717 -2.1043236 -0.75857162 6 58
2.8539362 -5.2614341 -1.952029 20 58
2.8139968 -5.2646213 -1.9466573 37 58
2.7785463 -5.2759123 -1.9444455 31 58
2.7430634 -5.2869663 -1.9422336 36 58
2.7066863 -5.2960944 -1.9393897 34 58
2.6724329 -5.3092127 -1.9381258 31 58
2.6385419 -5.3229599 -1.9371779 40 58
2.6049991 -5.3373442 -1.936546 33 58
2.5730224 -5.3549385 -1.9371779 39 58
2.5421445 -5.3749137 -1.9387578 26 58
2.5135205 -5.3998728 -1.9422336 24 58
2.4795501 -5.4134684 -1.9416016 43 58
2.4501843 -5.4372311 -1.9447614 44 58
2.4171605 -5.4530301 -1.9450774 42 58
2.3859303 -5.4729772 -1.9469733 47 58
2.3489401 -5.4796658 -1.9441295 52 58
2.31601 -5.4957242 -1.9447614 37 58
2.2768002 -5.4966826 -1.9400218 58 58
2.2469642 -5.520216 -1.9434975 47 58
2.2155161 -5.5400662 -1.9457093 55 58
2.1846025 -5.5615039 -1.9485532 52 58
2.1514609 -5.5774593 -1.9495012 45 58
2.1151819 -5.5852318 -1.9476053 43 58
2.0881431 -5.6176705 -1.9545568 40 58
2.0513592 -5.6241379 -1.9523449 56 58
2.014894 -5.631259 -1.9504491 54 58
1.9793611 -5.64083 -1.9495012 50 58
1.9465638 -5.6582522 -1.9513969 61 58
1.9133241 -5.6745849 -1.9529769 58 58
1.8817426 -5.6961279 -1.9564527 44 58
1.8426682 -5.6949291 -1.952029 54 58
1.8091223 -5.7106504 -1.9536089 55 58
1.7791049 -5.7379556 -1.9592965 37 58
0.70027715 -2.3077083 -0.76173139 5 58
0.68151796 -2.2964985 -0.75635976 5 58
0.66318703 -2.286057 -0.75130403 8 58
0 -0 -0 5 58
0 -0 -0 5 58
0 -0 -0 4 58
0.60035741 -2.2768729 -0.74277258 8 58
0.58968109 -2.2933786 -0.74719632 6 58
0.57444572 -2.2923517 -0.74561644 4 58
0.55947006 -2.2921464 -0.74435246 6 58
0 -0 -0 5 58
0.53343463 -2.3080838 -0.74751228 7 58
0.5198859 -2.3140905 -0.74846023 7 58
0.50345373 -2.3070402 -0.74498445 14 58
0.48634189 -2.2961626 -0.74024475 16 58
0.47300673 -2.3028212 -0.74150866 9 58
0.45664757 -2.2945137 -0.73771691 19 58
0.43969095 -2.2823658 -0.73266125 14 58
0.42533115 -2.2831552 -0.73202926 16 58
0.41248909 -2.2922585 -0.73424113 6 58
0.39355204 -2.2667022 -0.72476172 18 58
0.3791672 -2.2662668 -0.72381377 9 58
0.36480254 -2.2657406 -0.72286582 14 58
0.35147297 -2.2716868 -0.72412974 12 58
0.33697096 -2.2700467 -0.72286582 7 58
0.32383621 -2.2777076 -0.72476172 8 58
0.3116411 -2.2928138 -0.72918546 11 58
0.29707938 -2.2909191 -0.72792149 7 58
0.28464204 -2.3058817 -0.73234522 24 58
0.27081895 -2.3104119 -0.73329318 11 58
0.25747356 -2.3195741 -0.73582101 24 58
0.24313733 -2.3201666 -0.73550504 18 58
0.22908235 -2.3235033 -0.73613697 23 58
0.21455988 -2.3220308 -0.73518908 15 58
0.52648026 -6.1138468 -2.0022697 17 58
0.49016511 -6.1320944 -2.0073254 35 58
0.44981045 -6.0980844 -1.9950023 14 58
0.15329061 -2.2641208 -0.71433437 6 58
0.13840736 -2.24892 -0.70896268 16 58
0.12429181 -2.2440429 -0.70706683 16 58
0.10968342 -2.227706 -0.70137918 33 58
0.096053094 -2.229285 -0.70169514 31 58
0.08160574 -2.2089736 -0.69474357 50 58
0.067788824 -2.2008979 -0.69189978 92 58
0.054515313 -2.2107573 -0.6950596 77 58
0.04023587 -2.1721573 -0.68210441 32 58
0.026686972 -2.1543381 -0.67610073 37 58
0.013404347 -2.1440251 -0.67262495 53 58
0.00024947335 -2.1307843 -0.66820127 23 58
-0.012824778 -2.1307456 -0.66820127 26 58
-0.025781495 -2.1211398 -0.66504145 43 58
-0.038848657 -2.1237876 -0.6659894 30 58
-0.051879242 -2.1235092 -0.6659894 38 58
-0.065170363 -2.1316857 -0.6688332 31 58
-0.078248911 -2.1312459 -0.6688332 42 58
-0.092181325 -2.1506312 -0.6754688 22 58
-0.10551547 -2.152868 -0.67641675 23 58
-0.11851351 -2.1483908 -0.67515284 30 58
-0.13181004 -2.1495171 -0.67578477 41 58
-0.1448046 -2.145828 -0.67483681 12 58
-0.15706027 -2.1325986 -0.6707291 18 58
-0.16999137 -2.1297033 -0.67009711 23 58
-0.18215969 -2.1182222 -0.66662133 18 58
-0.19541521 -2.1198988 -0.66756928 17 58
-0.21000096 -2.1347113 -0.67294097 22 58
-0.22210686 -2.1239464 -0.66978115 18 58
-0.2380648 -2.148947 -0.67862862 5 58
-0.25223979 -2.1559267 -0.68147242 22 58
-0.26465017 -2.147747 -0.67926055 7 58
-0.79414874 -6.12888 -2.0168049 73 58
-0.83276182 -6.1314125 -2.0193326 74 58
-0.8701008 -6.1243091 -2.0187008 74 58
-0.90696609 -6.1141624 -2.0171208 75 58
-0.94257939 -6.096293 -2.0130131 88 58
-0.98313421 -6.1100655 -2.0196488 77 58
-1.0254587 -6.1329269 -2.0294442 81 58
-1.0682627 -6.1564326 -2.0395555 76 58
-1.0994658 -6.1133447 -2.0272322 98 58
-1.1378247 -6.1111474 -2.0288122 92 58
-1.1763772 -6.1096406 -2.0307081 60 58
-1.2129172 -6.0976548 -2.0291281 72 58
-1.2466825 -6.0724397 -2.0231245 84 58
-1.2888329 -6.0878801 -2.031024 78 58
-1.3302082 -6.0983968 -2.0373437 88 58
-1.3707212 -6.1040053 -2.0420833 95 58
-1.4096442 -6.1019506 -2.0442951 80 58
-1.4400415 -6.0636477 -2.0341837 93 58
-1.4763205 -6.0510111 -2.0329199 83 58
-1.5120375 -6.0363169 -2.031024 89 58
-1.5476298 -6.0214119 -2.0291281 99 58
-1.5830961 -6.0062981 -2.0272322 100 58
-1.6288301 -6.0294442 -2.0386076 94 58
-1.6625049 -6.0074496 -2.0344999 94 58
-1.6980411 -5.9925714 -2.0329199 100 58
-1.7411222 -6.0039086 -2.0405035 70 58
-0 -0 -0 6 58
-0 -0 -0 4 58
-0 -0 -0 6 58
-0 -0 -0 5 58
-0.78251094 -2.4191382 -0.80533665 9 58
-0.79555374 -2.4088862 -0.80344081 7 58
-0.8169896 -2.4237378 -0.81039238 7 58
-0.8293764 -2.4115021 -0.80786449 7 58
-0.85389769 -2.4341197 -0.81765991 13 58
-0.86785805 -2.4261546 -0.81671196 30 58
-0.88565481 -2.4288056 -0.81955576 33 58
-0.89954913 -2.4206579 -0.81860787 34 58
-0.90195024 -2.3822646 -0.80691659 98 58
-0.91450149 -2.3713744 -0.80502069 114 58
-0.93423885 -2.3789644 -0.80976039 86 58
-0.95163709 -2.3802345 -0.81228822 168 58
-0.96944374 -2.3822591 -0.81513208 61 58
-0.98731101 -2.3841546 -0.81797588 58 58
-1.0026584 -2.3798003 -0.81860787 84 58
-1.0250927 -2.3919153 -0.82524341 70 58
-1.0484717 -2.4055831 -0.83251095 41 58
-1.0659041 -2.4051759 -0.83472282 65 58
-1.0864897 -2.4115651 -0.83946252 56 58
-1.1075888 -2.418654 -0.84451824 61 58
-1.1260123 -2.4195535 -0.84736204 67 58
-1.1489514 -2.4297519 -0.85368162 60 58
-1.169181 -2.433773 -0.8577894 37 58
-1.1874219 -2.4333742 -0.86031723 29 58
-1.1875806 -2.3962913 -0.84925795 40 58
-1.1928757 -2.3703158 -0.84230638 43 58
-1.1961699 -2.340987 -0.83409089 26 58
-1.1991494 -2.311708 -0.8258754 29 58
-1.2009308 -2.2808025 -0.81702793 54 58
-1.2023785 -2.2499628 -0.80818051 32 58
-1.2053032 -2.2225282 -0.80059695 41 58
-1.2093095 -2.1976364 -0.79396141 27 58
-1.2088925 -2.1653249 -0.784482 23 58
-1.2151403 -2.1454844 -0.7797423 31 58
-1.2164631 -2.1174233 -0.77184278 21 58
-1.2241766 -2.1009028 -0.76836699 27 58
-1.2288367 -2.0794675 -0.7629953 37 58
-1.2332801 -2.0580544 -0.75762367 34 58
-1.240464 -2.0415304 -0.75414789 38 58
-1.2534651 -2.0346882 -0.75446385 31 58
-1.2588881 -2.0156939 -0.75004011 40 58
-1.2610797 -1.9919009 -0.74372053 56 58
-1.2886544 -2.0080779 -0.75319993 44 58
-1.2947422 -1.99059 -0.74940819 52 58
-1.3131996 -1.9921128 -0.75319993 36 58
-1.3190724 -1.9745516 -0.74940819 57 58
-1.3375471 -1.9758478 -0.75319993 43 58
-1.3576974 -1.9793382 -0.75793964 43 58
-1.3665673 -1.9662962 -0.75604373 50 58
-1.3862555 -1.9687334 -0.76046747 36 58
-1.3977582 -1.9594182 -0.76015151 46 58
-1.4142014 -1.9569559 -0.76267934 61 58
-1.4323484 -1.9566619 -0.76615512 26 58
-1.4482839 -1.9531705 -0.76836699 31 58
-1.4779078 -1.9677619 -0.77816236 23 58
-1.5634947 -2.0552998 -0.81860787 6 58
-0 -0 -0 4 58
-0 -0 -0 4 58
-0 -0 -0 4 58
-0 -0 -0 6 58
-0 -0 -0 4 58
-0 -0 -0 5 58
-0 -0 -0 6 58
-0 -0 -0 5 58
-0 -0 -0 4 58
-1.7838864 -2.068342 -0.86821675 19 58
-1.8065304 -2.0687902 -0.87327242 22 58
-1.8279896 -2.0676165 -0.87769616 34 58
-1.8457048 -2.062016 -0.88022399 26 58
-1.8672431 -2.0604935 -0.88464773 31 58
-1.8869073 -2.0566866 -0.88812351 14 58
-1.9408212 -2.089555 -0.90834624 8 58
-1.9711567 -2.0962667 -0.91687769 6 58
-0 -0 -0 4 58
-0 -0 -0 5 58
-0 -0 -0 9 58
-2.0786855 -2.1046305 -0.94373602 54 58
-2.0962565 -2.0965321 -0.94594789 39 58
-2.1023309 -2.0769632 -0.94278806 58 58
-2.1272593 -2.0759504 -0.94847572 51 58
-2.1611347 -2.0832682 -0.95827109 25 58
-2.1745639 -2.0706227 -0.95858711 28 58
-2.198287 -2.0676398 -0.96364278 26 58
-2.2095423 -2.0528212 -0.96301079 29 58
-2.231884 -2.0482047 -0.96743453 32 58
-2.2556581 -2.0446653 -0.97249019 47 58
-1.3944 -1.2486697 -0.58193862 40 58
-1.4013246 -1.2394619 -0.58162266 40 58
-1.3610226 -1.1890284 -0.56045198 67 58
-1.3388361 -1.1552488 -0.5474968 78 58
-1.3314545 -1.1347072 -0.54117721 92 58
-1.3289539 -1.1185759 -0.53706944 110 58
-1.3306841 -1.1061562 -0.53485757 125 58
-1.3381797 -1.0985723 -0.53517359 106 58
-1.3448952 -1.0903407 -0.53517359 104 58
-1.3508193 -1.0814753 -0.53485757 89 58
-1.3581742 -1.0737547 -0.53517359 100 58
-1.366981 -1.0671518 -0.53612149 117 58
-1.3765094 -1.0610603 -0.5373854 114 58
-1.3860145 -1.0548921 -0.53864938 89 58
-1.3970127 -1.0497864 -0.54054523 104 58
-1.4110488 -1.0468462 -0.54370505 78 58
-1.426632 -1.0448937 -0.5474968 73 58
-1.4376304 -1.0394548 -0.5493927 82 58
-1.4586562 -1.0410832 -0.55539632 61 58
-1.4719983 -1.0370297 -0.55824012 46 58
-1.4853454 -1.0328516 -0.56108397 69 58
-1.4971315 -1.0274751 -0.56329584 102 58
-1.5175495 -1.0278435 -0.56898344 67 58
-1.52935 -1.022202 -0.5711953 70 58
-1.5419303 -1.0169765 -0.57372314 65 58
-1.5529133 -1.0106002 -0.57561904 56 58
-1.5734575 -1.0102767 -0.5813067 36 58
-2.580827 -1.6345143 -0.97596598 21 58
-2.5859792 -1.6156322 -0.97407013 20 58
-2.5732265 -1.5858001 -0.96522266 8 58
-2.6048 -1.5832839 -0.97375417 34 58
-2.6055138 -1.5619066 -0.97027838 38 58
-2.5978959 -1.5357533 -0.96364278 26 58
-2.5998926 -1.5154847 -0.96079898 33 58
-2.6050291 -1.4971403 -0.95921904 26 58
-2.6191196 -1.4839336 -0.96111494 50 58
-2.6530273 -1.4817104 -0.97059435 67 58
-2.6620691 -1.4654039 -0.97059435 67 58
-2.6618364 -1.4440666 -0.96711856 48 58
-2.6689734 -1.4268124 -0.96648657 34 58
-2.672641 -1.4077567 -0.96459073 50 58
-2.6761754 -1.3887099 -0.96269482 46 58
-2.6804216 -1.3701044 -0.96111494 45 58
-2.6879306 -1.3532054 -0.96079898 44 58
-2.6970332 -1.3371084 -0.96111494 28 58
-2.704334 -1.3201184 -0.96079898 20 58
-2.7055416 -1.3002133 -0.95827109 3 58
-0 -0 -0 5 58
-0 -0 -0 5 58
-0 -0 -0 5 58
-0 -0 -0 4 58
-0 -0 -0 6 58
-0 -0 -0 4 58
-0 -0 -0 5 58
-0 -0 -0 4 58
-0 -0 -0 4 58
-0 -0 -0 4 58
-0 -0 -0 4 58
-0 -0 -0 5 58
-0 -0 -0 4 58
-0 -0 -0 5 58
-1.2723707 -0.47327361 -0.41067734 82 58
-1.2306833 -0.44920525 -0.39487836 10 58
-1.253963 -0.44899562 -0.40214589 29 58
-1.2459511 -0.43752399 -0.39835411 21 58
-1.2450235 -0.4286364 -0.3970902 19 58
-1.2521254 -0.42250437 -0.39867011 23 58
-1.2573969 -0.41570619 -0.39961806 20 58
-1.2545078 -0.40623099 -0.39772215 24 58
-1.2515498 -0.39680699 -0.39582628 19 58
-1.2811477 -0.39754772 -0.40530568 8 58
-1.2626805 -0.38334614 -0.39803815 13 58
-1.2586417 -0.37370282 -0.39582628 9 58
-0 -0 -0 4 58
-0 -0 -0 5 58
-0 -0 -0 4 58
-0 -0 -0 6 58
-0 -0 -0 5 58
-0 -0 -0 5 58
-0 -0 -0 5 58
-0 -0 -0 3 58
-0 -0 -0 4 58
-0 -0 -0 4 58
-0 -0 -0 6 58
-0 -0 -0 4 58
-0 -0 -0 4 58
-0 -0 -0 5 58
-0 -0 -0 4 58
-0 -0 -0 5 58
-0 -0 -0 4 58
-0 -0 -0 4 58
-0 -0 -0 4 58
-0 -0 -0 3 58
-0 -0 -0 3 58
-0 -0 -0 6 58
-0 -0 -0 5 58
-0 -0 -0 4 58
-0 -0 -0 4 58
-0 -0 -0 6 58
-0 -0 -0 4 58
-0 -0 -0 5 58
-0 -0 -0 5 58
-0 -0 -0 4 58
-0 -0 -0 5 58
-0 -0 -0 4 58
-0 -0 -0 4 58
-0 -0 -0 6 58
-0 -0 -0 7 58
-0 -0 -0 4 58
-0 -0 -0 4 58
-0 -0 -0 5 58
-0 -0 -0 6 58
-0 -0 -0 5 58
-0 -0 -0 5 58
-0 -0 -0 4 58
-0 -0 -0 4 58
-0 -0 -0 5 58
-1.2341038 -0.015453671 -0.36959994 12 58
-1.2389191 -0.0079098577 -0.37117982 6 58
-0 0 -0 5 58
-0 0 -0 4 58
-0 0 -0 4 58
-1.2653011 0.022987844 -0.38002726 9 58
-0 -0 -0 4 59
-0 -0 -0 5 59
-0 -0 -0 3 59
-0 -0 -0 5 59
-0 -0 -0 4 59
-0 -0 -0 4 59
-0 -0 -0 4 59
-0 -0 -0 4 59
-0 -0 -0 4 59
-0 -0 -0 3 59
-0 -0 -0 3 59
-0 -0 -0 4 59
-0 -0 -0 4 59
-0 0 -0 3 59
-0 0 -0 3 59
-0 0 -0 3 59
-0 0 -0 4 59
-0 0 -0 4 59
-0 0 -0 3 59
-0 0 -0 4 59
-0 0 -0 5 59
-0 0 -0 5 59
-0 0 -0 4 59
-0 0 -0 3 59
-0 0 -0 5 59
-0 0 -0 3 59
-0 0 -0 3 59
-0 0 -0 5 59
-0 0 -0 5 59
-0 0 -0 4 59
-0 0 -0 4 59
-0 0 -0 6 59
-0 0 -0 3 59
-0 0 -0 5 59
-0 0 -0 4 59
-0 0 -0 4 59
-0 0 -0 4 59
-0 0 -0 4 59
-0 0 -0 4 59
-0 0 -0 4 59
-0 0 -0 4 59
-0 0 -0 4 59
-0 0 -0 3 59
-0 0 -0 4 59
-0 0 -0 4 59
-0 0 -0 5 59
-0 0 -0 5 59
-0 0 -0 4 59
-0 0 -0 5 59
-0 0 -0 5 59
-0 0 -0 4 59
-0 0 -0 4 59
-1.2356286 0.31022647 -0.39853221 14 59
-1.2437724 0.32038665 -0.40212435 28 59
-1.2317286 0.32536617 -0.39853221 23 59
-1.2488728 0.33808711 -0.40538993 53 59
-1.2440417 0.34498844 -0.40441024 48 59
-1.240992 0.35235789 -0.4040837 70 59
-1.2397145 0.36022875 -0.40441024 53 59
-1.2320433 0.36621782 -0.40245092 23 59
-1.2333914 0.37486675 -0.40375715 26 59
-1.2301651 0.38214806 -0.40343058 51 59
-1.2359076 0.39225507 -0.4063696 36 59
-1.237075 0.40099362 -0.40767583 36 59
-1.2336936 0.40828046 -0.40734929 29 59
-1.2643079 0.42700377 -0.41943192 114 59
-1.2634518 0.43536767 -0.42008504 109 59
-1.2500529 0.43936038 -0.41616634 59 59
-1.2553439 0.4498851 -0.41910538 125 59
-1.2498956 0.45660865 -0.41812569 75 59
-1.24264 0.46262434 -0.41649291 41 59
-1.2070686 0.45786679 -0.40441024 10 59
-1.2606826 0.4870142 -0.42530999 4 59
-1.2207161 0.48024026 -0.41159454 3 59
-0 0 -0 4 59
-0 0 -0 7 59
-0 0 -0 5 59
-0 0 -0 4 59
-0 0 -0 4 59
-0 0 -0 3 59
-0 0 -0 4 59
-0 0 -0 3 59
-0 0 -0 3 59
-4.6368475 2.157547 -1.7253379 122 59
-4.6329222 2.1903992 -1.72893 254 59
-4.6833014 2.2494626 -1.7534219 73 59
-4.7790041 2.3315954 -1.7955478 32 59
-4.7103996 2.3340294 -1.7746482 100 59
-4.6951451 2.3624635 -1.7743216 120 59
-4.6856117 2.3938067 -1.7762809 103 59
-4.669157 2.4216421 -1.7756279 110 59
-4.7227998 2.4863358 -1.8024056 25 59
-0 0 -0 4 59
-4.7201862 2.5594165 -1.8135085 14 59
-4.6588416 2.5632815 -1.7955478 49 59
-4.6471529 2.5941219 -1.7971807 91 59
-4.642664 2.6291056 -1.8017524 131 59
-4.6403794 2.6655433 -1.8073039 131 59
-4.6435394 2.7053812 -1.8151413 111 59
-4.6512675 2.7482414 -1.8249381 113 59
-4.741354 2.8408308 -1.8680438 39 59
-5.2223024 3.17256 -2.06953 49 59
-5.1898599 3.196615 -2.0643051 41 59
-5.1460938 3.2133856 -2.0545084 33 59
-5.1158967 3.2383311 -2.0502632 15 59
-0 0 -0 3 59
-2.7142355 1.7657653 -1.0771199 11 59
-2.7088747 1.7860262 -1.0794059 20 59
-2.7049396 1.8073373 -1.0823449 19 59
-2.7031934 1.8302561 -1.0862637 17 59
-2.6981487 1.8510835 -1.0888761 24 59
-2.6968317 1.8746139 -1.0931213 23 59
-2.7038298 1.9041809 -1.1009587 19 59
-2.6990216 1.9256736 -1.1038978 30 59
-2.6955836 1.9482856 -1.1074899 27 59
-2.6919694 1.9709277 -1.1110821 17 59
-2.6836221 1.990222 -1.1127148 19 59
-2.6758955 2.0100553 -1.1146742 31 59
-2.6499679 2.01614 -1.1087961 12 59
-2.6308072 2.0271721 -1.1058571 13 59
-2.6071391 2.0345578 -1.1009587 23 59
-2.579771 2.038801 -1.0944276 12 59
-2.5458062 2.037472 -1.0849574 19 59
-2.5229733 2.0447266 -1.0803856 9 59
-2.4943008 2.0469832 -1.0732013 13 59
-2.4627874 2.0465503 -1.0647107 14 59
-2.432821 2.0470247 -1.0568734 14 59
-2.4094195 2.0527234 -1.051975 15 59
-2.3795967 2.0526583 -1.0441376 15 59
-2.3477297 2.0504405 -1.0353205 23 59
-2.3223548 2.0535424 -1.0294425 15 59
-2.292804 2.0526292 -1.0216051 20 59
-2.2626522 2.050797 -1.0134412 19 59
-2.2340028 2.0499499 -1.0059303 16 59
-2.2130699 2.0559025 -1.0020117 13 59
-2.1797504 2.050025 -0.99221486 11 59
-2.1520653 2.0490284 -0.98503059 17 59
-2.1244752 2.0477698 -0.97784632 25 59
-2.1003659 2.0495496 -0.97229481 30 59
-2.070261 2.0451353 -0.9638043 18 59
-2.0576732 2.0577996 -0.9638043 17 59
-2.0370343 2.0623202 -0.9598856 26 59
-2.0170782 2.0673418 -0.95629346 23 59
-1.9958248 2.0708356 -0.95204824 10 59
-0 0 -0 4 59
-2.0667815 2.1977265 -1.0007054 13 59
-1.8988068 2.0442266 -0.92233145 17 59
-1.8849493 2.0544467 -0.9216783 12 59
-1.8570679 2.0491717 -0.91384095 28 59
-1.8520279 2.0689754 -0.9177596 19 59
-1.8430562 2.0845473 -0.91971898 18 59
-1.838317 2.1050684 -0.9239642 16 59
-1.8371009 2.1299026 -0.93016881 13 59
-1.8362621 2.1555195 -0.93669999 17 59
-0 0 -0 12 59
-0 0 -0 17 59
-1.8298684 2.229857 -0.95498723 13 59
-0 0 -0 16 59
-1.8218658 2.2764888 -0.96576369 21 59
-1.816072 2.2980034 -0.97033548 25 59
-1.8141549 2.3247464 -0.97719318 23 59
-1.8090916 2.3478096 -0.98241812 23 59
-0 0 -0 17 59
-0 0 -0 26 59
-0 0 -0 25 59
-0 0 -0 36 59
-0 0 -0 25 59
-1.7785721 2.4928036 -1.0163802 25 59
-1.7610649 2.5005796 -1.0150739 22 59
-0 0 -0 4 59
-0 0 -0 16 59
-0 0 -0 58 59
-0 0 -0 69 59
-0 0 -0 98 59
-0 0 -0 84 59
-1.8487484 2.8800535 -1.1407988 37 59
-1.8224406 2.8777711 -1.1352473 54 59
-1.8032454 2.8864949 -1.1342677 50 59
-1.7765701 2.8830242 -1.1283896 42 59
-1.7470583 2.87449 -1.1205522 40 59
-1.7182049 2.8665137 -1.1130414 29 59
-1.6972152 2.8713078 -1.1107554 35 59
-1.5828894 2.7159324 -1.0444642 5 59
-0 0 -0 3 59
-1.5354561 2.7104859 -1.0346674 4 59
-0 0 -0 4 59
-1.5153043 2.7531326 -1.0441376 10 59
-1.483501 2.7349668 -1.0333612 26 59
-0 0 -0 25 59
-0 0 -0 51 59
-0 0 -0 91 59
-0 0 -0 56 59
-0 0 -0 63 59
-0 0 -0 45 59
-0 0 -0 24 59
-0 0 -0 35 59
-0 0 -0 47 59
-0 0 -0 34 59
-0 0 -0 41 59
-0 0 -0 16 59
-0 0 -0 77 59
-0 0 -0 31 59
-0 0 -0 99 59
-0 0 -0 33 59
-0 0 -0 20 59
-0 0 -0 47 59
-0 0 -0 42 59
-1.0064609 2.5626223 -0.90959567 45 59
-0.98527008 2.554642 -0.90437073 34 59
-0.96555567 2.550034 -0.90045202 42 59
-0.94791287 2.5505955 -0.89849269 44 59
-0.92997545 2.550149 -0.8962068 49 59
-0.91207927 2.5495787 -0.8939209 37 59
-0 0 -0 46 59
-0 0 -0 49 59
-0.858042 2.5453379 -0.88641006 42 59
-0.84033024 2.5442734 -0.88412416 62 59
-0.82237262 2.5421882 -0.88151169 38 59
-0.80504388 2.5417807 -0.8795523 51 59
-0.78691036 2.5385485 -0.87661332 55 59
-0.7699458 2.5388072 -0.87498051 46 59
-0.75166196 2.5344234 -0.87171495 56 59
-0.73451537 2.5335417 -0.86975557 51 59
-0.71663392 2.5298173 -0.86681658 42 59
-0.69806862 2.5232368 -0.86289787 50 59
-0.67961115 2.5165241 -0.85897917 51 59
-0.66270983 2.5151634 -0.85701978 43 59
-0.64443719 2.5081983 -0.85310113 36 59
-0.62834501 2.5093551 -0.85212141 49 59
-0.61158985 2.5076542 -0.85016209 47 59
-0.59531677 2.5076816 -0.84885585 59 59
-0.57885325 2.5066829 -0.84722304 44 59
-0.56242448 2.5055768 -0.84559029 43 59
-0.54623294 2.5052872 -0.84428406 47 59
-0.52967387 2.5030439 -0.84232467 38 59
-0.51297253 2.4997663 -0.84003878 42 59
-0.4965162 2.4973049 -0.83807945 39 59
-0.47993034 2.493808 -0.83579355 39 59
-0.4639262 2.4929893 -0.83448732 44 59
-0.44862077 2.4957891 -0.83448732 43 59
-0.43378425 2.5012884 -0.83546698 52 59
-0.42077172 2.5178857 -0.84036535 45 59
-0.40772226 2.5353498 -0.84559029 45 59
-0.39635623 2.5648906 -0.85506046 59 59
-0.38811865 2.6177588 -0.87269461 29 59
-0.37178251 2.6182194 -0.87204146 33 59
-0.35953692 2.6485474 -0.8818382 32 59
-0.34352258 2.6525781 -0.88249135 41 59
-0.32515132 2.6377516 -0.87661332 52 59
-0.30697504 2.6228001 -0.87073523 65 59
-0.29265305 2.6406035 -0.87628675 40 59
-0.27417359 2.6207294 -0.8687759 49 59
-0.25734398 2.6148379 -0.86616343 61 59
-0.24042259 2.6069562 -0.86289787 61 59
-0.22393343 2.6027324 -0.86093849 64 59
-0.20742951 2.5974624 -0.85865259 43 59
-0.19071919 2.5883176 -0.85506046 64 59
-0.17451349 2.5847242 -0.85342765 62 59
-0.15824248 2.5791428 -0.85114175 51 59
-0.14225662 2.577234 -0.85016209 41 59
-0 0 -0 50 59
-0 0 -0 51 59
-0 0 -0 49 59
-0 0 -0 53 59
-0.063062891 2.5775502 -0.84918243 73 59
-0.047246151 2.5778887 -0.84918243 64 59
-0.031391785 2.5752947 -0.84820276 50 59
-0.015577184 2.5735486 -0.84754962 55 59
0.00021550842 2.5698149 -0.84624338 74 59
0.015961796 2.5659845 -0.84493715 46 59
0.031706084 2.5658383 -0.84493715 59 59
0.047466218 2.5665405 -0.84526372 49 59
0.063259013 2.5680907 -0.84591681 56 59
0.078958049 2.5657649 -0.84526372 48 59
0.094837554 2.5690103 -0.84656996 51 59
0.11067939 2.5702686 -0.84722304 51 59
0.12644817 2.569541 -0.84722304 48 59
0.14226402 2.5696607 -0.84754962 50 59
0.1581437 2.5706263 -0.84820276 64 59
0.17372359 2.5667782 -0.84722304 59 59
0.18933143 2.5637786 -0.84656996 64 59
0.20490898 2.5606844 -0.84591681 57 59
0.22037496 2.5565536 -0.84493715 61 59
0.23605752 2.5551534 -0.84493715 66 59
0 0 -0 55 59
0 0 -0 47 59
0 0 -0 66 59
0 0 -0 63 59
0.31397921 2.5438955 -0.84395748 58 59
0.32934013 2.5400465 -0.8433044 59 59
0.34479252 2.5370412 -0.84297782 59 59
0.36008781 2.5330062 -0.84232467 74 59
0.37562326 2.5307491 -0.84232467 54 59
0.39114457 2.5283966 -0.84232467 65 59
0.40665117 2.525949 -0.84232467 61 59
0.42058718 2.5140834 -0.83905911 55 59
0.43552166 2.5086613 -0.83807945 68 59
0.45040545 2.5031509 -0.83709979 89 59
0.4574683 2.455735 -0.82142496 61 59
0.46468002 2.4120412 -0.80705643 74 59
0.47615835 2.392457 -0.8011784 79 59
0.48988053 2.3848608 -0.79954559 44 59
0.50313663 2.3753366 -0.79725969 74 59
0.51649547 2.3666635 -0.7953003 74 59
0.53142083 2.3652942 -0.79595345 52 59
0.54677361 2.3656731 -0.79725969 70 59
0.56149685 2.3631933 -0.79758626 77 59
0.57665759 2.3624585 -0.79856592 69 59
0.59160119 2.3607097 -0.79921901 65 59
0.60748476 2.3625283 -0.8011784 69 59
0.62269115 2.3614984 -0.80215806 71 59
0.63913858 2.3649337 -0.80477053 56 59
0.65363753 2.3609676 -0.80477053 68 59
0.66888386 2.3596408 -0.80575019 73 59
0.68387556 2.3573079 -0.80640328 68 59
0.69940078 2.3566923 -0.80770952 59 59
0.71439606 2.3541658 -0.80836266 63 59
0.73022544 2.3542523 -0.80999541 60 59
0.74551243 2.3524311 -0.81097513 64 59
0.76080459 2.3505104 -0.8119548 52 59
0.77610117 2.3484907 -0.81293446 55 59
0.79170322 2.3472674 -0.81424069 57 59
0.80609089 2.3423655 -0.81424069 48 59
0.82107347 2.3391593 -0.81489384 52 59
0.87549019 2.4462228 -0.85604012 9 59
0.91669065 2.5127389 -0.88249135 3 59
0 0 -0 6 59
0.93642098 2.4721272 -0.87171495 18 59
0.93220133 2.4160626 -0.85310113 37 59
0.94252026 2.398859 -0.84885585 66 59
0.95967609 2.3991747 -0.85114175 56 59
0 0 -0 42 59
0.99699575 2.4064314 -0.85832602 25 59
1.0183438 2.4159491 -0.86420411 80 59
1.0398458 2.4252946 -0.87008214 94 59
0 0 -0 86 59
0 0 -0 81 59
1.0703434 2.3747163 -0.85832602 39 59
0 0 -0 956 59
1.388351 2.9827578 -1.0950807 1691 59
1.3783607 2.9143622 -1.0722216 80 59
1.4174868 2.9501584 -1.0892026 168 59
1.4044929 2.8776884 -1.0647107 84 59
0 0 -0 158 59
0 0 -0 543 59
1.4714079 2.8791277 -1.0754871 5423 59
1.4838264 2.8599756 -1.0715685 3464 59
0 0 -0 70 59
0 0 -0 81 59
0 0 -0 84 59
0 0 -0 103 59
0 0 -0 77 59
0 0 -0 117 59
0 0 -0 221 59
0 0 -0 281 59
0 0 -0 379 59
0 0 -0 200 59
0 0 -0 129 59
0 0 -0 84 59
0 0 -0 141 59
0 0 -0 170 59
0 0 -0 170 59
0 0 -0 165 59
0 0 -0 97 59
0 0 -0 79 59
0 0 -0 225 59
0 0 -0 217 59
0 0 -0 264 59
0 0 -0 169 59
0 0 -0 195 59
0 0 -0 91 59
0 0 -0 77 59
0 0 -0 99 59
0 0 -0 82 59
0 0 -0 65 59
0 0 -0 256 59
0 0 -0 427 59
0 0 -0 282 59
0 0 -0 384 59
0 0 -0 927 59
1.8354152 2.2363093 -0.95792627 1473 59
1.8648016 2.2439115 -0.96641678 191 59
0 0 -0 10 59
0 0 -0 6 59
0 0 -0 52 59
0 0 -0 91 59
2.2206409 2.5114706 -1.1166335 84 59
2.2523937 2.5161133 -1.125124 73 59
2.2836518 2.5197597 -1.133288 86 59
2.312484 2.5203297 -1.1401457 95 59
2.3336923 2.5123277 -1.1430848 89 59
2.3503582 2.4993386 -1.1437378 89 59
0 0 -0 24 59
1.9638436 2.0373363 -0.9360469 47 59
1.9565123 2.004946 -0.92625016 53 59
1.9634658 1.9875218 -0.92363769 55 59
2.0297396 2.0295925 -0.95008886 35 59
0 0 -0 22 59
0 0 -0 45 59
0 0 -0 49 59
0 0 -0 55 59
0 0 -0 67 59
0 0 -0 61 59
2.3865271 2.1898885 -1.0774466 69 59
2.3285093 2.1104336 -1.0441376 184 59
2.332967 2.0885382 -1.0402189 4677 59
2.3351207 2.0647886 -1.0353205 5385 59
2.3470345 2.0497997 -1.034994 5402 59
2.3531284 2.0298014 -1.032055 5340 59
2.3669772 2.016551 -1.032708 3904 59
2.3923199 2.012948 -1.0385861 348 59
2.4169803 2.0085051 -1.0441376 50 59
2.408807 1.9768403 -1.034994 21 59
2.4223597 1.9632137 -1.0356472 23 59
2.4299338 1.9447682 -1.0336877 27 59
2.4388556 1.9274764 -1.0323815 24 59
2.4484017 1.9107302 -1.0314019 24 59
2.4585826 1.8945167 -1.0307487 25 59
2.467905 1.8776777 -1.0297691 19 59
3.6375515 2.7331963 -1.5303826 24 59
3.6565306 2.7125154 -1.5313623 34 59
3.6769176 2.6928215 -1.5329951 42 59
3.6964345 2.6724255 -1.5343014 34 59
3.7143009 2.6507928 -1.5349544 25 59
3.7374489 2.632853 -1.5378935 32 59
3.7628441 2.6163483 -1.5418122 35 59
3.7819438 2.5953507 -1.5431185 32 59
3.8009272 2.5742171 -1.5444247 27 59
3.8252933 2.5566261 -1.5480168 30 59
3.8338084 2.5284212 -1.5450778 27 59
3.8246958 2.4888625 -1.5349544 16 59
3.8470521 2.4699454 -1.5378935 20 59
3.841378 2.4331388 -1.529403 12 59
3.8490222 2.4050131 -1.526464 22 59
3.8476167 2.3714283 -1.5199327 23 59
3.874208 2.3551428 -1.5248312 15 59
4.6042795 2.760658 -1.813182 25 59
4.6447234 2.7463105 -1.8226522 56 59
4.6525064 2.7125206 -1.8190601 44 59
4.6543145 2.6754405 -1.813182 72 59
4.6624207 2.64217 -1.8099164 40 59
4.6645188 2.6056731 -1.8043649 49 59
3.8243995 2.1054409 -1.4667038 17 59
4.6878366 2.5437262 -1.8010993 23 59
4.7083569 2.5175896 -1.8030587 42 59
4.7044849 2.4785151 -1.7955478 34 59
4.7120552 2.445682 -1.7926089 14 59
4.7219238 2.4141407 -1.7906495 12 59
4.7290511 2.3812945 -1.7877104 18 59
4.7334132 2.3471918 -1.7837918 8 59
4.7502742 2.3193486 -1.7847714 24 59
4.7644157 2.2901578 -1.7847714 29 59
4.7766695 2.2600718 -1.7841183 29 59
4.8332844 2.2506793 -1.8004463 46 59
4.85044 2.2225561 -1.8017524 45 59
4.8148761 2.1706002 -1.7831386 31 59
4.8911724 2.1689999 -1.8069774 47 59
4.9104528 2.1415937 -1.8092633 58 59
4.9269753 2.1129143 -1.8105695 53 59
4.9372349 2.0815411 -1.8095899 61 59
4.9245939 2.0407088 -1.8001196 59 59
4.9238935 2.0051036 -1.7952213 64 59
4.9010048 1.960802 -1.782159 45 59
4.750216 1.8667024 -1.7217457 68 59
4.8365264 1.8664623 -1.7495031 37 59
4.8363981 1.8323948 -1.7452579 29 59
4.7873144 1.7802688 -1.7230519 17 59
4.7910452 1.7482673 -1.7204394 19 59
4.7856655 1.7130996 -1.7145615 42 59
4.8522668 1.70344 -1.7351346 7 59
4.8724575 1.6770208 -1.7387267 19 59
4.939074 1.6661385 -1.7592999 47 59
4.94382 1.6340206 -1.7573406 36 59
4.9114923 1.5899638 -1.7419924 27 59
4.8689013 1.5432221 -1.7230519 47 59
4.8566146 1.506592 -1.7152146 41 59
4.845871 1.4707205 -1.7080302 25 59
4.8439317 1.4377292 -1.7041116 48 59
4.833601 1.4024451 -1.6972538 30 59
4.8321133 1.3699222 -1.6936617 37 59
4.8331409 1.3382276 -1.6910492 36 59
4.8312249 1.3058317 -1.6874571 32 59
4.8373189 1.2756808 -1.6868039 44 59
4.8459706 1.2462112 -1.6871306 36 59
4.8306069 1.2107034 -1.6789666 13 59
4.8673258 1.1882204 -1.6894164 23 59
4.8782029 1.1592076 -1.6907227 31 59
4.8852239 1.1292536 -1.6907227 32 59
4.8883724 1.0984275 -1.6894164 36 59
4.8894796 1.0672017 -1.6874571 24 59
4.8922377 1.0363959 -1.6861509 27 59
4.8966532 1.0059774 -1.6854978 34 59
4.9064412 0.97665209 -1.6868039 30 59
4.9151258 0.94706547 -1.6877837 30 59
4.9236317 0.91740906 -1.6887634 34 59
4.9310284 0.88751626 -1.6894164 38 59
4.9401059 0.85789108 -1.6907227 30 59
4.9434128 0.82725054 -1.6900696 31 59
4.9502616 0.79720378 -1.6907227 40 59
4.9494562 0.76594591 -1.6887634 38 59
4.9503231 0.73500609 -1.6874571 35 59
4.9491253 0.70381784 -1.6854978 35 59
4.9439855 0.67216188 -1.6822321 27 59
4.9442673 0.64132631 -1.680926 23 59
4.964056 0.61294955 -1.6864774 41 59
4.9639688 0.58203799 -1.6851712 30 59
4.966507 0.55146414 -1.6848446 39 59
4.9575772 0.51969594 -1.6805995 23 59
4.9606729 0.48926705 -1.6805995 30 59
4.9579344 0.45829642 -1.67864 36 59
4.9531202 0.42721492 -1.6760275 29 59
3.5085154 0.28059605 -1.1744343 17 59
3.4875488 0.25738579 -1.1665969 66 59
3.4862335 0.23578946 -1.1656172 106 59
3.4828978 0.21410234 -1.1639844 85 59
3.4888644 0.19299026 -1.1656172 55 59
3.4956472 0.17185971 -1.1675766 6 59
3.4994686 0.1505304 -1.1685562 64 59
3.4946592 0.1288444 -1.1665969 79 59
3.4934945 0.10734046 -1.1659437 68 59
3.4884181 0.085761473 -1.1639844 95 59
3.4888787 0.064355329 -1.1639844 77 59
3.499604 0.043078203 -1.1675766 93 59
3.4988573 0.021598073 -1.16725 65 59
0 0 -0 4 59
0 -0 -0 12 59
4.9994969 -0.060670335 -1.6858243 41 59
4.9848552 -0.091089822 -1.680926 58 59
4.9832578 -0.12165176 -1.6805995 47 59
4.9890308 -0.15242666 -1.6828853 39 59
4.9965024 -0.18334587 -1.6858243 34 59
4.9981165 -0.21412107 -1.6868039 27 59
5.0118132 -0.24552135 -1.6920289 40 59
5.0149312 -0.27652773 -1.6936617 32 59
5.0084229 -0.30700552 -1.6920289 28 59
5.0196476 -0.3386184 -1.6966008 43 59
5.0174756 -0.369412 -1.6966008 39 59
5.0198255 -0.40056652 -1.6982335 47 59
5.0144477 -0.43111783 -1.6972538 39 59
5.0164142 -0.46231037 -1.6988866 43 59
5.0247712 -0.49418935 -1.7028054 53 59
5.0131836 -0.52412891 -1.6998663 35 59
5.0155096 -0.5555023 -1.7018256 40 59
5.0120068 -0.58626646 -1.7018256 46 59
5.0083151 -0.61700851 -1.7018256 46 59
5.0006857 -0.6472429 -1.7005194 33 59
5.0172257 -0.68070519 -1.7077037 49 59
5.0035963 -0.71015149 -1.7044381 48 59
4.9907298 -0.73959458 -1.7014991 26 59
4.9935708 -0.77135575 -1.7041116 31 59
4.9924769 -0.80258042 -1.7054178 32 59
4.9893227 -0.83350962 -1.7060709 31 59
4.9897027 -0.86507529 -1.7080302 48 59
4.9880219 -0.89634311 -1.7093365 41 59
4.986145 -0.9276228 -1.7106427 34 59
4.9896417 -0.95998335 -1.7139083 53 59
4.9882927 -0.99150139 -1.7155411 46 59
4.9821148 -1.0220903 -1.7155411 44 59
4.9868469 -1.0549858 -1.7194598 57 59
4.9765854 -1.0847602 -1.7181536 44 59
4.9947376 -1.1208577 -1.7269707 67 59
4.985003 -1.1508466 -1.725991 58 59
4.9714103 -1.179886 -1.7237051 54 59
4.9567304 -1.2085782 -1.7210926 37 59
4.9538059 -1.240116 -1.7227254 49 59
4.9461036 -1.2704886 -1.7227254 42 59
4.9519258 -1.3044218 -1.7276238 56 59
4.9438286 -1.3347816 -1.7276238 51 59
4.9355454 -1.3650913 -1.7276238 54 59
4.9316239 -1.3966362 -1.7292565 58 59
4.9329481 -1.4297619 -1.7328486 62 59
4.9394884 -1.4645671 -1.7384002 53 59
4.9421687 -1.4984101 -1.7426454 46 59
4.9382987 -1.5303839 -1.7446048 44 59
4.9360247 -1.5629369 -1.7472173 71 59
4.9029579 -1.5856377 -1.7387267 89 59
4.8374863 -1.5973305 -1.7184801 131 59
4.7962427 -1.6164248 -1.7070506 214 59
4.7960672 -1.6492021 -1.7106427 194 59
4.8028049 -1.6845391 -1.7168473 192 59
4.7941585 -1.714613 -1.7175004 233 59
4.7888761 -1.7459383 -1.7194598 213 59
4.7931366 -1.7808822 -1.7250113 243 59
4.7971478 -1.8159441 -1.7305628 208 59
4.8009081 -1.8511218 -1.7361143 108 59
4.8026576 -1.8857235 -1.7410127 221 59
4.8111844 -1.9232211 -1.7485235 190 59
4.8133025 -1.958402 -1.7537484 73 59
4.8081822 -1.99079 -1.7563609 65 59
4.8063297 -2.0246558 -1.7602795 36 59
4.7938166 -2.0541089 -1.7602795 46 59
4.7889214 -2.0868809 -1.7632186 38 59
4.786397 -2.1208184 -1.7671373 28 59
4.786222 -2.1559672 -1.7720357 42 59
4.7909522 -2.1935532 -1.7788934 43 59
4.7842588 -2.2260971 -1.7815058 19 59
4.7824736 -2.2610641 -1.7860776 12 59
4.7812915 -2.2965016 -1.790976 18 59
4.7764554 -2.3303528 -1.7945682 21 59
4.7773128 -2.367167 -1.8004463 15 59
4.7753644 -2.4028051 -1.8053446 14 59
4.7849431 -2.4445257 -1.8148148 12 59
4.7832799 -2.4807992 -1.8200397 8 59
4.7830243 -2.5180244 -1.8259177 29 59
4.7858262 -2.5571206 -1.833102 41 59
4.7766938 -2.5900404 -1.8357145 39 59
4.763196 -2.6206672 -1.8366941 30 59
4.7511535 -2.6521468 -1.8383269 32 59
4.738081 -2.6831119 -1.8396332 28 59
4.7239876 -2.7135453 -1.8406129 30 59
4.7072487 -2.7424803 -1.8406129 25 59
4.6944017 -2.7737148 -1.8422457 27 59
4.6781049 -2.8029525 -1.8425722 39 59
4.6341581 -2.8154149 -1.8317958 15 59
4.6530147 -2.8660955 -1.8464909 30 59
4.6385484 -2.8965938 -1.8477972 26 59
4.6238828 -2.9270222 -1.8491033 30 59
4.5954928 -2.9487054 -1.8448582 18 59
4.5931625 -2.98715 -1.8513893 29 59
4.5802722 -3.0189168 -1.8536752 29 59
4.5624485 -3.0474887 -1.8540018 20 59
4.5554061 -3.0833707 -1.8589001 33 59
4.5270462 -3.1048508 -1.8549814 16 59
4.5133443 -3.1363442 -1.8572674 23 59
4.489377 -3.1607149 -1.8553079 24 59
4.4698987 -3.1882017 -1.8553079 13 59
4.4609795 -3.223316 -1.8598799 17 59
4.4479828 -3.25565 -1.8628188 23 59
4.4248853 -3.2806301 -1.8615125 15 59
4.4092083 -3.3111234 -1.863472 25 59
4.3955803 -3.3432639 -1.866411 18 59
4.3787279 -3.3730547 -1.8680438 23 59
4.362421 -3.4033461 -1.8700031 28 59
4.3459067 -3.4335642 -1.8719624 21 59
4.3203282 -3.4566236 -1.8700031 15 59
4.3063827 -3.4890158 -1.8732687 23 59
4.281239 -3.512377 -1.8716359 19 59
4.2581525 -3.5373724 -1.8709828 18 59
4.2392612 -3.5658665 -1.8722891 24 59
4.2158623 -3.5905855 -1.8716359 15 59
4.1966152 -3.6188543 -1.8729421 21 59
4.1764679 -3.6464007 -1.8739218 14 59
4.1391411 -3.6588156 -1.8670641 11 59
4.1377463 -3.7030492 -1.8768609 22 59
4.1107435 -3.7245615 -1.8749014 15 59
4.1003528 -3.7612121 -1.8807795 27 59
4.0771971 -3.7863007 -1.8807795 22 59
1.9063095 -1.7930588 -0.8625713 25 59
1.890478 -1.8001615 -0.8602854 24 59
1.8616968 -1.7946799 -0.8517949 40 59
1.8506498 -1.8060693 -0.8517949 24 59
1.8469325 -1.8246944 -0.85538703 68 59
1.8216614 -1.8219626 -0.84852928 33 59
1.8031384 -1.8257118 -0.84493715 27 59
1.7886004 -1.8333601 -0.8433044 30 59
1.7674748 -1.8340958 -0.83840603 22 59
1.7424959 -1.8305361 -0.83154827 16 59
1.7241056 -1.8336222 -0.82795614 26 59
1.7005948 -1.8310139 -0.82175153 30 59
1.6784601 -1.8295789 -0.81620002 28 59
1.6608523 -1.8328424 -0.81293446 20 59
1.6407453 -1.833143 -0.80836266 25 59
1.6257082 -1.8389288 -0.80640328 27 59
1.6131502 -1.8474461 -0.80575019 24 59
1.6061075 -1.8623177 -0.80803609 37 59
1.6001693 -1.8786107 -0.81097513 28 59
1.6007884 -1.9028536 -0.81750625 31 59
1.5987523 -1.9242675 -0.8227312 27 59
1.5887147 -1.9362323 -0.82371086 34 59
1.5809721 -1.9510826 -0.82599682 21 59
1.5601075 -1.9496807 -0.82109845 30 59
1.5369747 -1.9451314 -0.81489384 43 59
1.5191928 -1.9470764 -0.81162822 31 59
1.4956733 -1.9413921 -0.80509704 40 59
1.469418 -1.9317329 -0.79693311 29 59
1.449586 -1.9301358 -0.79236132 40 59
1.4287025 -1.9268506 -0.78713638 34 59
1.4135007 -1.9310062 -0.78517705 25 59
1.3983018 -1.935048 -0.78321767 31 59
1.3858531 -1.9428221 -0.78289109 29 59
1.3706388 -1.9466536 -0.78093177 20 59
1.3619072 -1.9596825 -0.78289109 28 59
1.3573474 -1.9789106 -0.78746295 24 59
1.3510118 -1.9958088 -0.79105508 31 59
1.3487229 -2.0189891 -0.79725969 34 59
1.3503647 -2.048527 -0.80607677 36 59
1.3449899 -2.0678632 -0.81064856 31 59
1.3343198 -2.079258 -0.8119548 38 59
1.3093935 -2.0682456 -0.80411738 25 59
1.3087037 -2.0954754 -0.8119548 30 59
1.2854028 -2.0865717 -0.80509704 38 59
1.25784 -2.0701938 -0.7953003 21 59
1.2436553 -2.0754411 -0.79432064 15 59
1.2251223 -2.073271 -0.79040194 31 59
1.2085681 -2.0742178 -0.78778946 28 59
1.1849802 -2.0627496 -0.78027868 54 59
1.1750982 -2.0749149 -0.78223801 74 59
1.1572722 -2.0730104 -0.77864587 51 59
1.1363217 -2.0651708 -0.77276784 25 59
1.1209228 -2.0671203 -0.77080846 23 59
1.1042053 -2.0664585 -0.76786947 20 59
1.0910642 -2.0723588 -0.7675429 19 59
1.0770211 -2.076498 -0.76656324 15 59
1.0642596 -2.0830674 -0.76656324 23 59
1.0552857 -2.0971551 -0.76950222 16 59
1.043238 -2.1052842 -0.77015537 23 59
1.0385984 -2.1286309 -0.77668649 17 59
1.0361692 -2.1571097 -0.78517705 11 59
1.0366645 -2.1924725 -0.79628003 14 59
1.0271841 -2.2073596 -0.79954559 11 59
1.0289835 -2.2471287 -0.81228137 9 59
1.0260578 -2.2775242 -0.82142496 7 59
1.0074638 -2.2734098 -0.81750625 9 59
0 -0 -0 5 59
2.2694542 -5.2917819 -1.947724 16 59
2.2431872 -5.3204122 -1.9532754 21 59
2.2209985 -5.3593955 -1.9627457 36 59
2.1884286 -5.3737979 -1.9630722 35 59
0.93785721 -2.3458052 -0.8312217 9 59
0 -0 -0 3 59
2.0738218 -5.3734922 -1.948377 26 59
2.0481832 -5.4055591 -1.9555613 43 59
2.0162954 -5.4215679 -1.9568676 46 59
1.9765072 -5.416081 -1.9503365 40 59
1.9473813 -5.4396739 -1.9545816 50 59
1.905822 -5.4283352 -1.9460912 27 59
1.8792503 -5.4595871 -1.9532754 40 59
1.8448085 -5.468329 -1.9522958 30 59
1.8112208 -5.4795456 -1.9522958 31 59
1.7740691 -5.4797659 -1.948377 23 59
1.7464139 -5.5094676 -1.9552348 31 59
1.7108941 -5.5146637 -1.9532754 23 59
0.70484048 -2.32447 -0.79758626 7 59
0 -0 -0 6 59
0.6717816 -2.3175139 -0.79203475 6 59
0 -0 -0 3 59
0 -0 -0 4 59
0.62061757 -2.2984657 -0.78093177 5 59
0.60481411 -2.2958333 -0.77864587 3 59
0 -0 -0 7 59
0 -0 -0 4 59
0.55594617 -2.2799506 -0.76917565 5 59
0.53975886 -2.2741237 -0.76591009 4 59
0.5245164 -2.2718678 -0.76395077 5 59
0.50849229 -2.2658219 -0.76068515 6 59
0.49094808 -2.2522783 -0.75480711 19 59
0.4739815 -2.2404544 -0.74958217 12 59
0.45965415 -2.2405434 -0.74860251 19 59
0.44460461 -2.2368329 -0.74631661 19 59
0.42925987 -2.2311661 -0.74337757 16 59
0.41452152 -2.2281833 -0.74141824 29 59
0.40050653 -2.2288244 -0.74076509 38 59
0.38568965 -2.2247214 -0.7384792 13 59
0.3723442 -2.2289104 -0.73913234 20 59
0.35760736 -2.2246213 -0.73684645 27 59
0.34380585 -2.2258396 -0.73651987 30 59
0.32958576 -2.2241678 -0.73521364 22 59
0.31566572 -2.2242768 -0.73456049 20 59
0.30239454 -2.2289813 -0.73554021 27 59
0.28859025 -2.2298574 -0.73521364 19 59
0.27536687 -2.2353384 -0.73651987 17 59
0.26175621 -2.2379246 -0.73684645 10 59
0.24822868 -2.2413673 -0.73749954 17 59
0.23466876 -2.2447283 -0.73815268 12 59
0.22228584 -2.2602348 -0.74305105 8 59
0.20754091 -2.2521448 -0.73978543 15 59
0 -0 -0 5 59
0.47051132 -5.8732963 -1.9940952 26 59
0.16556197 -2.2489853 -0.73749954 8 59
0.15105428 -2.2395856 -0.7339074 12 59
0.13701805 -2.2357535 -0.73227459 24 59
0.12282448 -2.2280588 -0.72933561 19 59
0 -0 -0 7 59
0.095268846 -2.2246768 -0.7277028 13 59
0.080913901 -2.2063289 -0.72117162 39 59
0.066817075 -2.1888342 -0.71496701 29 59
0.052961547 -2.172195 -0.70908898 34 59
0.039454732 -2.163029 -0.70582342 37 59
0.025966804 -2.1462185 -0.69994533 34 59
0.012680515 -2.1283796 -0.69374073 22 59
-0.0003841228 -2.1151848 -0.68916893 23 59
-0.013324503 -2.1085265 -0.68688303 20 59
-0.026171941 -2.1008441 -0.68427056 33 59
-0.039079033 -2.101589 -0.68459713 27 59
-0.051904868 -2.098475 -0.68361747 31 59
-0.06483718 -2.1000066 -0.68427056 31 59
-0.07754916 -2.0948465 -0.68263775 38 59
-0.090200268 -2.0896094 -0.681005 31 59
-0.10269798 -2.0824084 -0.6787191 24 59
-0.11474799 -2.0685265 -0.67414725 19 59
-0.12709242 -2.0621228 -0.67218792 10 59
