# .PCD v0.7 - Point Cloud Data file format
VERSION 0.7
FIELDS x y z intensity ring
SIZE 4 4 4 4 1
TYPE F F F F U
COUNT 1 1 1 1 1
WIDTH 1400
HEIGHT 1
VIEWPOINT 0 0 0 1 0 0 0
POINTS 1400
DATA ascii
-0.17196159 2.8090212 -0.65327358 27 51
-0.15682007 2.8478332 -0.66260284 24 51
-0.14034764 2.8691072 -0.66762626 10 51
-0.12299179 2.8757348 -0.66906154 22 51
-0.10527243 2.8744948 -0.66858315 17 51
-0.087692834 2.8770278 -0.66906154 19 51
-0.070110127 2.8804235 -0.66977918 33 51
-0.052344549 2.8759456 -0.66858315 19 51
-0.034672882 2.8742707 -0.66810471 20 51
-0.017060628 2.8783133 -0.66906154 16 51
0.00059897534 2.8871024 -0.67121446 28 51
0.018290823 2.8831606 -0.67025763 21 51
0.036145363 2.8965867 -0.67360657 20 51
0.053988531 2.9001935 -0.67456341 30 51
0.071711853 2.8968956 -0.67384577 13 51
0.089603901 2.9002831 -0.6748026 18 51
0.1076824 2.9074414 -0.67671633 16 51
0.12564459 2.909636 -0.67743397 17 51
0.14359033 2.9107499 -0.67791235 25 51
0.16171467 2.9146616 -0.67910844 22 51
0.1801298 2.9223368 -0.68126136 18 51
0.19831872 2.9250517 -0.68221819 27 51
0.21661896 2.9286215 -0.68341422 22 51
0.23458456 2.9272373 -0.68341422 26 51
0.25287381 2.9296124 -0.68437105 28 51
0.26915285 2.9096351 -0.67982608 28 51
0.28662103 2.9040635 -0.67886925 32 51
0.30322373 2.8906617 -0.67599869 20 51
0.31977963 2.8781309 -0.67336738 15 51
0.33720797 2.8741858 -0.67288893 17 51
0.35471863 2.871099 -0.67264974 19 51
0.3723287 2.8688684 -0.67264974 19 51
0.38953328 2.8636432 -0.6719321 24 51
0.4073697 2.863122 -0.67241049 17 51
0.4250721 2.8615289 -0.67264974 24 51
0.44202942 2.8550284 -0.67169285 24 51
0.45969328 2.8532212 -0.6719321 23 51
0.47623202 2.8446007 -0.67049682 21 51
0.49317977 2.8387549 -0.66977918 20 51
0.50852865 2.8242073 -0.66690862 11 51
0.52584809 2.8210337 -0.66690862 23 51
0.54186398 2.8110797 -0.66523415 16 51
0.55929148 2.8086543 -0.6654734 27 51
0.57514894 2.7985115 -0.66379893 22 51
0.59070218 2.7873302 -0.6618852 17 51
0.60738033 2.7817559 -0.66140682 21 51
0.62358719 2.7741871 -0.66044992 20 51
0.64016086 2.7684164 -0.65997154 21 51
0.65623879 2.7606573 -0.6590147 32 51
0.67178577 2.7509186 -0.65757942 33 51
0.68723804 2.7410934 -0.65614414 32 51
0.7040441 2.736825 -0.65614414 21 51
0.71884543 2.724942 -0.65423048 18 51
0.73504579 2.718605 -0.65375203 23 51
0.75300688 2.7187228 -0.65494806 26 51
0.76729381 2.7056432 -0.6527952 26 51
0.78361058 2.6999516 -0.65255594 25 51
0.8004384 2.6960237 -0.6527952 23 51
0.81555748 2.6864154 -0.65159911 34 51
0.83662361 2.6962001 -0.6554265 22 51
0.86282223 2.7215636 -0.66332048 20 51
0.88547981 2.7346957 -0.66810471 23 51
0.95459867 2.8877985 -0.70924908 9 51
0 0 -0 7 51
0 0 -0 5 51
0 0 -0 8 51
0 0 -0 5 51
0 0 -0 3 51
1.1701341 3.146518 -0.78699279 4 51
0 0 -0 63 51
0 0 -0 75 51
0 0 -0 63 51
0 0 -0 123 51
0 0 -0 175 51
1.2970405 3.1300247 -0.79464751 156 51
1.3162216 3.1220074 -0.79464751 147 51
1.337265 3.1183348 -0.7958436 173 51
0 0 -0 117 51
0 0 -0 102 51
0 0 -0 37 51
0 0 -0 42 51
0 0 -0 180 51
1.4453264 3.0547113 -0.7924946 146 51
1.4035125 2.9197476 -0.75804818 74 51
0 0 -0 124 51
0 0 -0 137 51
0 0 -0 70 51
0 0 -0 101 51
0 0 -0 59 51
0 0 -0 97 51
0 0 -0 124 51
1.4923291 2.7500551 -0.7307781 91 51
0 0 -0 64 51
0 0 -0 63 51
0 0 -0 74 51
0 0 -0 86 51
0 0 -0 96 51
0 0 -0 94 51
0 0 -0 138 51
0 0 -0 143 51
0 0 -0 139 51
0 0 -0 135 51
0 0 -0 148 51
0 0 -0 163 51
0 0 -0 143 51
0 0 -0 133 51
0 0 -0 158 51
1.7400016 2.5688279 -0.7243194 148 51
1.7606733 2.5653098 -0.72647226 141 51
1.7797048 2.5592425 -0.72790754 142 51
0 0 -0 113 51
0 0 -0 153 51
0 0 -0 136 51
0 0 -0 149 51
0 0 -0 147 51
1.9146755 2.5479059 -0.74513078 119 51
0 0 -0 16 51
0 0 -0 6 51
0 0 -0 10 51
0 0 -0 16 51
0 0 -0 14 51
0 0 -0 7 51
0 0 -0 8 51
0 0 -0 8 51
0 0 -0 8 51
0 0 -0 10 51
0 0 -0 91 51
0 0 -0 105 51
2.2350748 2.526921 -0.79105937 110 51
2.2641349 2.5283539 -0.79608279 125 51
2.2913404 2.5273659 -0.80038857 143 51
0 0 -0 114 51
0 0 -0 119 51
0 0 -0 117 51
0 0 -0 107 51
0 0 -0 129 51
2.8885744 2.9598486 -0.97884029 114 51
2.9244189 2.9600327 -0.9850598 151 51
2.9596875 2.9592009 -0.99104005 174 51
2.9902205 2.9532695 -0.99534589 24 51
3.2403545 3.1613975 -1.0752425 79 51
3.2666812 3.1481953 -1.0776346 98 51
3.297889 3.1394761 -1.0817012 103 51
3.3319414 3.1331537 -1.0867246 72 51
3.3752859 3.1351235 -1.0948578 117 51
3.4159181 3.1340523 -1.1020341 85 51
3.4566634 3.1325996 -1.1092105 81 51
3.4924552 3.12623 -1.1147124 109 51
3.5224807 3.1143916 -1.1183006 92 51
3.567847 3.1157181 -1.1269121 92 51
3.6111557 3.1147013 -1.1348062 99 51
3.6575415 3.1157889 -1.143657 92 51
3.6929331 3.1070442 -1.1489196 100 51
3.7320876 3.1010857 -1.1553783 111 51
3.7683055 3.0922985 -1.1608801 104 51
3.8022928 3.0813484 -1.1656644 101 51
3.8090007 3.0482502 -1.161837 9 51
0 0 -0 5 51
0 0 -0 5 51
0 0 -0 4 51
3.8478937 2.9273908 -1.1510725 11 51
3.857245 2.8973088 -1.1484412 8 51
3.9053612 2.8961504 -1.1577704 94 51
3.9316745 2.8784444 -1.1604017 199 51
3.9587042 2.8610933 -1.1632723 173 51
3.9508955 2.8186977 -1.1556175 93 51
3.9887536 2.808943 -1.161837 65 51
4.1254873 2.8675704 -1.1977187 310 51
4.0717564 2.7933006 -1.1764289 90 51
4.0775647 2.7606406 -1.17308 135 51
4.1033063 2.7415047 -1.1757113 83 51
4.1370716 2.7275031 -1.1807346 90 51
4.3018379 2.7984638 -1.2242712 99 51
4.3900089 2.8176601 -1.2450825 197 51
4.3711252 2.767807 -1.2345573 23 51
4.3863792 2.7399049 -1.2340789 35 51
4.4022818 2.7124295 -1.2338396 26 51
4.4171829 2.6843576 -1.2333612 41 51
4.61344 2.7650614 -1.2850308 94 51
4.7372985 2.7999623 -1.3156499 161 51
4.7770371 2.7840474 -1.3221086 182 51
4.8234921 2.771621 -1.3304811 205 51
4.9003835 2.775964 -1.347465 311 51
4.89359 2.7325838 -1.3407671 187 51
3.8037074 2.0931802 -1.0295531 41 51
4.8781104 2.6459281 -1.3271321 236 51
4.8788419 2.6077049 -1.3228263 141 51
4.7006121 2.4754283 -1.2687645 43 51
4.7165742 2.4469867 -1.2690037 49 51
4.7418737 2.4233048 -1.2718742 38 51
4.7557864 2.3937268 -1.2716351 42 51
4.7790833 2.3688149 -1.2740271 34 51
4.807488 2.3462632 -1.2778546 26 51
4.7552867 2.2847483 -1.2596744 76 51
4.7569289 2.2497129 -1.2563255 104 51
4.7671223 2.218843 -1.2553686 84 51
4.7806473 2.1895506 -1.2553686 102 51
4.9958081 2.2511683 -1.3099089 196 51
5.03793 2.2330692 -1.3175637 315 51
5.038187 2.1962919 -1.3139755 317 51
5.0363984 2.1588304 -1.3099089 337 51
5.0352349 2.1218512 -1.3060814 273 51
4.9468007 2.048908 -1.2790506 195 51
4.9772644 2.025841 -1.2838348 187 51
5.02566 2.0096915 -1.2934033 269 51
5.0442224 1.9813031 -1.2950777 250 51
5.0445085 1.9457699 -1.291968 267 51
5.0509048 1.9127164 -1.2905327 282 51
5.0488949 1.8766115 -1.2869445 271 51
5.054842 1.8435993 -1.2855092 277 51
5.0496044 1.8066574 -1.2812035 166 51
5.0422721 1.7692062 -1.2764193 233 51
5.0456882 1.7357057 -1.2745055 231 51
5.0645232 1.707507 -1.2766584 349 51
5.0702953 1.6748757 -1.2754624 231 51
4.9779401 1.6105341 -1.24891 35 51
4.9895797 1.5805465 -1.2493883 24 51
5.0010386 1.5504768 -1.2498667 24 51
5.0132451 1.5206079 -1.2505844 27 51
5.0243425 1.4903712 -1.2510629 31 51
5.0333929 1.4595144 -1.2510629 42 51
5.038517 1.427543 -1.250106 50 51
5.0406313 1.3947864 -1.2484316 32 51
5.038784 1.3610439 -1.2458001 38 51
5.0367131 1.3273767 -1.2431688 43 51
5.0410013 1.2954795 -1.2422121 26 51
5.0422626 1.2628714 -1.2405375 28 51
5.0480299 1.2314482 -1.2400591 27 51
5.0517125 1.1995527 -1.2391022 26 51
5.0551934 1.1676584 -1.2381455 25 51
5.0584736 1.1357667 -1.2371886 24 51
5.0606046 1.1036716 -1.2359926 24 51
5.0615821 1.0713918 -1.2345573 27 51
5.0623541 1.0391417 -1.233122 21 51
5.0638733 1.0071119 -1.231926 20 51
5.066144 0.9752866 -1.2309691 21 51
5.0663056 0.94311547 -1.2295338 28 51
5.064352 0.91063505 -1.2276201 18 51
5.0660181 0.87887889 -1.2266632 24 51
5.0655694 0.84681594 -1.225228 20 51
5.0649185 0.81479162 -1.2237928 17 51
5.0621462 0.78251016 -1.221879 10 51
5.0591688 0.75029343 -1.2199653 23 51
5.0521417 0.71759564 -1.2170948 20 51
5.049715 0.68566674 -1.2154204 22 51
5.044198 0.65341979 -1.2130282 16 51
5.0519671 0.62293309 -1.2139851 20 51
5.0576229 0.59214932 -1.2144635 12 51
5.0621262 0.56121236 -1.2147027 16 51
4.0911136 0.42794126 -0.97333843 103 51
3.5564141 0.3498098 -0.84033692 31 51
3.5536594 0.32753432 -0.83914083 83 51
3.5633411 0.30639127 -0.84105456 105 51
3.5777364 0.28552952 -0.84416425 102 51
3.5939457 0.26464584 -0.84775245 91 51
3.6158457 0.24396802 -0.85277587 54 51
3.6269658 0.22237433 -0.85516798 49 51
3.6534684 0.20151386 -0.86138749 87 51
3.6662736 0.17966682 -0.86425805 86 51
3.6770077 0.15758643 -0.86665016 96 51
3.6914895 0.13552476 -0.86999911 90 51
3.7184553 0.11368098 -0.87645781 92 51
3.7384961 0.091343217 -0.88124204 102 51
3.7477236 0.068565078 -0.88339496 118 51
3.7558408 0.045665037 -0.88530862 111 51
3.7871206 0.022815522 -0.89296341 44 51
3.795928 -0.00042052785 -0.89511633 77 51
3.815273 -0.023827238 -0.89990056 105 51
3.8218513 -0.047318935 -0.90157503 107 51
3.8418758 -0.071139798 -0.90659845 43 51
3.9403763 -0.097122863 -0.93099803 5 51
3.9047678 -0.12023336 -0.92238641 107 51
3.9039564 -0.1441903 -0.92238641 96 51
3.9456818 -0.16996786 -0.93291169 30 51
0 -0 -0 4 51
3.9578414 -0.21917568 -0.93649989 28 51
3.995188 -0.24583042 -0.94606835 80 51
4.0032921 -0.27099276 -0.94846046 66 51
5.1229043 -0.37804577 -1.2254672 15 51
5.1243596 -0.40978092 -1.2264241 31 51
5.122716 -0.44129881 -1.2266632 15 51
5.1170115 -0.47245574 -1.2259456 35 51
5.1198139 -0.50441414 -1.2273809 22 51
5.1243482 -0.53662652 -1.2292947 27 51
5.1296449 -0.56902027 -1.2314475 30 51
5.1347361 -0.60149926 -1.2336004 17 51
5.1376948 -0.63382477 -1.2352749 21 51
5.1394868 -0.66608459 -1.2367102 26 51
5.1381893 -0.69799882 -1.2374278 26 51
5.136694 -0.72992218 -1.2381455 18 51
5.1263556 -0.76057291 -1.2367102 37 51
5.1244707 -0.79245782 -1.2374278 39 51
5.1329331 -0.82604289 -1.2407768 50 51
5.1344724 -0.85864198 -1.2424512 48 51
5.1358037 -0.89129102 -1.2441257 54 51
5.1311941 -0.92295861 -1.244365 40 51
5.1282983 -0.95495826 -1.2450825 32 51
5.1261559 -0.98714054 -1.2460394 30 51
5.1276212 -1.0200894 -1.2479531 29 51
5.1260214 -1.052508 -1.2491492 25 51
5.1299162 -1.0861509 -1.2517805 37 51
5.1307449 -1.1192609 -1.2536942 29 51
5.133255 -1.1528471 -1.2560862 30 51
5.1374378 -1.1869428 -1.2589568 28 51
5.1442289 -1.2218057 -1.262545 26 51
5.1309752 -1.2519673 -1.2611097 16 51
5.1410933 -1.2879059 -1.2656547 19 51
5.1462603 -1.322808 -1.2690037 18 51
5.1718493 -1.3632622 -1.2776153 24 51
5.1765108 -1.3985128 -1.2809643 17 51
5.1949716 -1.4377538 -1.2879014 30 51
5.1963286 -1.4725122 -1.2905327 34 51
5.2067804 -1.5100439 -1.2955562 51 51
5.2030025 -1.5436194 -1.2969915 233 51
5.1767073 -1.5704453 -1.2926856 314 51
5.0612421 -1.5694191 -1.2654155 205 51
4.9765368 -1.5767072 -1.2460394 191 51
4.8854675 -1.5809246 -1.2249888 185 51
4.8452487 -1.6008266 -1.2170948 170 51
4.7884083 -1.614714 -1.204895 296 51
4.7940197 -1.6494313 -1.2089616 287 51
4.7911391 -1.6813865 -1.2108753 295 51
4.7917032 -1.7146758 -1.2137458 319 51
4.7920389 -1.7480353 -1.2166164 325 51
4.7957864 -1.7828157 -1.2204437 321 51
4.7947459 -1.8159893 -1.2230752 357 51
4.7925725 -1.8488678 -1.2254672 361 51
4.7937913 -1.8832072 -1.2288162 338 51
4.7965717 -1.9183517 -1.2326436 303 51
4.7982016 -1.953235 -1.2362317 333 51
4.7959952 -1.9867249 -1.2388631 373 51
4.7837143 -2.0161152 -1.2388631 101 51
4.8033838 -2.059195 -1.2474747 10 51
4.792439 -2.0894051 -1.2479531 39 51
4.7857423 -2.1215246 -1.2496276 62 51
4.7770615 -2.1528432 -1.2508236 44 51
4.7770047 -2.1881766 -1.2544118 37 51
4.7740526 -2.2223616 -1.2572824 49 51
4.7822723 -2.261987 -1.2632626 34 51
4.79106 -2.302217 -1.2694821 31 51
4.7977877 -2.3417881 -1.2752231 22 51
4.7972488 -2.3780794 -1.2790506 27 51
4.789506 -2.4109612 -1.2809643 18 51
4.7945099 -2.4504628 -1.2864661 18 51
4.8026571 -2.4919043 -1.2929249 12 51
4.7975869 -2.5267532 -1.2957953 20 51
4.7982645 -2.5648365 -1.3003404 26 51
4.797801 -2.6025598 -1.3046461 18 51
4.7953534 -2.6394379 -1.3084736 36 51
4.7900896 -2.674964 -1.3115833 43 51
4.7947092 -2.7162657 -1.3175637 40 51
4.8048954 -2.7611094 -1.3252183 28 51
4.8096766 -2.8032472 -1.3314378 23 51
4.8099413 -2.8430779 -1.3364613 10 51
4.8165607 -2.8870091 -1.3433985 21 51
4.8186717 -2.9286072 -1.3491395 19 51
4.82128 -2.970849 -1.3551198 14 51
4.8227267 -3.0127182 -1.3608608 30 51
4.834506 -3.0614674 -1.3697116 14 51
4.8393297 -3.1062791 -1.3766488 20 51
4.8486686 -3.1544409 -1.3850212 13 51
4.8348975 -3.1878726 -1.3866957 23 51
4.8491583 -3.2401288 -1.3967426 27 51
4.8549175 -3.2872369 -1.4043974 41 51
4.8418627 -3.3219066 -1.4065503 30 51
4.8365388 -3.3620803 -1.4110953 24 51
4.8332853 -3.40399 -1.4163579 19 51
4.8328614 -3.448241 -1.4225774 19 51
4.8470292 -3.5034187 -1.4333419 21 51
4.8536487 -3.5537379 -1.4419535 16 51
4.8621721 -3.6060042 -1.4512827 13 51
4.8655772 -3.65501 -1.4591768 22 51
4.8708811 -3.705956 -1.4677883 18 51
4.8711271 -3.7535486 -1.4749647 28 51
4.8663778 -3.7976999 -1.4807057 48 51
4.8620315 -3.8425355 -1.486686 44 51
4.8671737 -3.8953457 -1.4957761 18 51
4.8688321 -3.9459178 -1.5039092 21 51
4.8640466 -3.9917297 -1.5101287 12 51
4.869338 -4.0463166 -1.5196972 22 51
4.8659678 -4.094243 -1.5266343 12 51
4.8777156 -4.1554999 -1.538595 21 51
4.8763928 -4.206275 -1.5464889 23 51
4.8775554 -4.2597437 -1.5553397 42 51
4.8818817 -4.3165994 -1.5653865 38 51
4.8856931 -4.3736677 -1.5754335 16 51
4.8897061 -4.4315958 -1.5857196 25 51
4.8946223 -4.4910498 -1.5964841 14 51
4.9046836 -4.5560155 -1.6091623 27 51
4.9084711 -4.6159515 -1.6199268 17 51
4.9060798 -4.6707497 -1.6287776 29 51
4.9032001 -4.7256913 -1.6376284 44 51
4.895659 -4.7767048 -1.645044 25 51
4.8904395 -4.8305316 -1.6534164 38 51
4.8778753 -4.8776088 -1.6593966 15 51
4.8744721 -4.934382 -1.6687258 13 51
4.8773375 -4.9982448 -1.6804472 6 51
1.8669953 -1.9379454 -0.62289375 4 51
1.8503815 -1.944443 -0.62121928 15 51
1.8364198 -1.9536386 -0.62050164 15 51
1.8356346 -1.9769611 -0.62456822 30 51
1.8313489 -1.9967707 -0.62743878 42 51
1.8249323 -2.0144439 -0.6295917 40 51
1.8261409 -2.0407927 -0.63461512 32 51
1.8193744 -2.0585048 -0.63676804 38 51
1.8175699 -2.0820599 -0.64083463 37 51
1.8085666 -2.0975835 -0.64226985 34 51
1.8019602 -2.1160309 -0.64466196 27 51
1.7889426 -2.1270478 -0.64466196 31 51
1.7708919 -2.1320112 -0.6427483 16 51
1.7620896 -2.1480904 -0.64442277 23 51
1.7268618 -2.1317101 -0.63581115 15 51
1.7283142 -2.1604567 -0.64155227 17 51
1.7084011 -2.1626425 -0.6389209 15 51
1.6861364 -2.1616042 -0.63533276 11 51
1.6752125 -2.1749854 -0.6362896 9 51
1.6641879 -2.1883137 -0.63724643 7 51
1.6874793 -2.247385 -0.65231675 19 51
1.666715 -2.2483397 -0.64944625 15 51
1.6626421 -2.2718403 -0.65351284 15 51
1.6509469 -2.2851467 -0.65446967 7 51
1.64592 -2.3078785 -0.65829706 13 51
1.6367614 -2.3250778 -0.66044992 16 51
1.6662591 -2.3980522 -0.67934763 3 51
4.5219154 -6.59026 -1.9289879 22 51
4.4852052 -6.6235094 -1.9306624 29 51
4.4369254 -6.6396041 -1.9273134 61 51
4.3811321 -6.6440091 -1.9206154 42 51
4.3582911 -6.6984348 -1.9287487 54 51
4.3150096 -6.7217827 -1.9277918 55 51
4.2674489 -6.7382898 -1.9249213 41 51
4.2270522 -6.7659945 -1.9253997 43 51
4.1747575 -6.7744465 -1.9203763 29 51
4.1421914 -6.8148685 -1.9246821 44 51
4.1057911 -6.8493161 -1.9273134 57 51
4.0617099 -6.8710365 -1.9263566 65 51
4.003334 -6.8681493 -1.9184626 35 51
3.9799898 -6.9254136 -1.9277918 49 51
3.9422088 -6.9581513 -1.9301839 51 51
3.907017 -6.9957714 -1.9340113 51 51
3.8640182 -7.0196128 -1.9340113 41 51
3.8111484 -7.0252686 -1.9289879 36 51
3.7839961 -7.0784888 -1.9373603 50 51
3.7368712 -7.0947018 -1.9354466 50 51
3.6883478 -7.1080174 -1.9328153 58 51
3.6468747 -7.1348376 -1.9340113 59 51
3.6165662 -7.1839633 -1.9414269 69 51
3.5426514 -7.145998 -1.9249213 33 51
1.5836276 -3.245713 -0.84966612 55 51
1.5401237 -3.2063634 -0.83627033 28 51
1.5067154 -3.1867902 -0.82837635 33 51
1.4600785 -3.1378825 -0.81258839 87 51
1.4468651 -3.1600225 -0.81617653 83 51
1.4386227 -3.1936255 -0.82287449 41 51
1.4296285 -3.2263575 -0.82933319 87 51
1.4160162 -3.2493086 -0.83316058 79 51
1.3983486 -3.2632899 -0.8345958 67 51
1.3798081 -3.2753875 -0.83555269 75 51
1.3607999 -3.286483 -0.83627033 67 51
1.3417076 -3.2974687 -0.83698791 95 51
1.325778 -3.3164568 -0.83985847 68 51
1.3149934 -3.3489285 -0.84631717 55 51
1.3042095 -3.3822975 -0.85301512 66 51
1.297882 -3.428371 -0.86306196 42 51
1.3546723 -3.6455836 -0.91808057 95 51
2.7966678 -7.6662388 -1.9703715 31 51
2.7482667 -7.6795979 -1.9694146 54 51
2.709779 -7.7210522 -1.9758734 70 51
2.6433899 -7.6824479 -1.9615207 81 51
2.6061344 -7.7279634 -1.9691753 76 51
2.5736005 -7.7889819 -1.9808967 67 51
2.5236661 -7.7981606 -1.9792223 69 51
2.4822252 -7.8338614 -1.9844849 78 51
2.4332478 -7.8461623 -1.9837673 56 51
2.3935199 -7.8888178 -1.9909437 72 51
2.3489387 -7.9163871 -1.9942926 83 51
2.2997792 -7.9287858 -1.9938141 77 51
2.2407551 -7.9063163 -1.9844849 71 51
2.1852036 -7.8946514 -1.9780263 67 51
2.1415365 -7.9257202 -1.9825712 59 51
2.101285 -7.9706321 -1.9907044 62 51
2.0513709 -7.9796138 -1.9897475 60 51
1.999537 -7.9807487 -1.9868771 60 51
1.9549066 -8.0107889 -1.9914221 65 51
1.9131262 -8.0538073 -1.999316 71 51
1.8623606 -8.0597181 -1.9978808 57 51
1.8188339 -8.0975189 -2.0045786 64 51
1.7548237 -8.0430717 -1.9880731 48 51
1.7187241 -8.1163797 -2.003861 68 51
1.6688906 -8.1267729 -2.003861 72 51
1.620132 -8.1425734 -2.0052962 57 51
1.5749174 -8.1771498 -2.0115159 55 51
1.5277383 -8.2028866 -2.0155823 60 51
1.4730762 -8.1882162 -2.0096021 67 51
1.4281245 -8.2277126 -2.017257 52 51
1.3788959 -8.2439823 -2.0191705 73 51
1.3299845 -8.2628326 -2.0218019 66 51
1.2819337 -8.2881088 -2.0261078 54 51
1.2329092 -8.3083048 -2.0292175 61 51
1.1823175 -8.3185968 -2.0299351 65 51
1.1312532 -8.325695 -2.0299351 60 51
1.081646 -8.3440342 -2.0328057 82 51
1.0281657 -8.3322048 -2.0282607 63 51
0.97883093 -8.3537865 -2.032088 66 51
0.93044937 -8.3856907 -2.0385468 76 51
0.87674987 -8.369997 -2.0332839 73 51
0.82938123 -8.415803 -2.0433309 91 51
0.7745077 -8.3859272 -2.0347192 79 51
0.72403997 -8.4021301 -2.0375898 70 51
0.67146361 -8.3938322 -2.0344801 86 51
0.62359995 -8.4471788 -2.04668 108 51
0.57175732 -8.4508457 -2.04668 78 51
0.52102798 -8.4726086 -2.0512249 100 51
0.4669337 -8.4378366 -2.0418956 95 51
0.4150078 -8.4376335 -2.041178 86 51
0.36398154 -8.4574823 -2.0454838 93 51
0.31143382 -8.442091 -2.041178 91 51
0.26064742 -8.47684 -2.0493112 104 51
0.20836538 -8.4676027 -2.04668 91 51
0.1491981 -8.0813723 -1.9512346 36 51
0.099548399 -8.077281 -1.9500384 49 51
0.049751617 -8.040844 -1.9409485 78 51
0.00041527746 -8.0526495 -1.943819 46 51
-0.048844915 -8.027256 -1.9375995 74 51
-0.098051414 -8.0229216 -1.9366426 71 51
-0.14752483 -8.0357599 -1.9399916 53 51
-0.1972304 -8.0512047 -1.9440582 43 51
-0.24627283 -8.0381975 -1.9411876 36 51
-0.29519862 -8.0258608 -1.9385563 30 51
-0.35900572 -8.364397 -2.0225196 54 51
-0.41933796 -8.5462999 -2.0679698 106 51
-0.47427908 -8.5891323 -2.0792127 106 51
-0.52572572 -8.5657082 -2.0741892 98 51
-0.57749051 -8.5506964 -2.0713186 102 51
-0.63072932 -8.5576439 -2.0739501 97 51
-0.68361205 -8.5584517 -2.075146 108 51
-0.73977 -8.5966625 -2.0856714 91 51
-0.79375088 -8.6054974 -2.0890203 108 51
-0.84482867 -8.5830717 -2.0847144 106 51
-0.89424837 -8.5468235 -2.0770597 108 51
-0.94859684 -8.558547 -2.0813656 105 51
-1.0037993 -8.5757113 -2.0871067 96 51
-1.0541453 -8.5510798 -2.0825615 63 51
-1.1112033 -8.58008 -2.0914123 95 51
-1.1606971 -8.5500088 -2.0856714 85 51
-1.2168195 -8.5686817 -2.0921299 78 51
-1.2670966 -8.5456867 -2.0883026 91 51
-1.321138 -8.5483065 -2.090934 86 51
-1.3771079 -8.562088 -2.0964358 103 51
-1.4289782 -8.5496464 -2.095479 105 51
-1.4820741 -8.5445442 -2.0964358 82 51
-1.5385948 -8.5582256 -2.1021769 101 51
-1.5937413 -8.5629435 -2.1057651 105 51
-1.6484532 -8.5644445 -2.1086357 103 51
-1.7007834 -8.553216 -2.1083965 102 51
-1.7421134 -8.4884033 -2.0947614 77 51
-1.8022009 -8.5155516 -2.1043298 101 51
-1.8519366 -8.4929495 -2.1014593 85 51
-1.9116654 -8.5155325 -2.1100709 103 51
-1.9713042 -8.5358105 -2.1182041 86 51
-2.0245385 -8.5273323 -2.1191609 109 51
-2.0747535 -8.5062599 -2.117008 115 51
-2.1292653 -8.5027885 -2.1194 136 51
-2.185503 -8.5055513 -2.1234667 128 51
-2.239382 -8.4985533 -2.1251411 130 51
-2.2892087 -8.4762163 -2.1229882 120 51
-2.3419509 -8.464818 -2.1237059 145 51
-2.393846 -8.4502888 -2.1237059 150 51
-2.4497046 -8.4494305 -2.1272941 133 51
-2.503159 -8.4398251 -2.1287293 108 51
-0 -0 -0 354 51
-2.4599812 -7.9354639 -2.0067315 137 51
-2.4655466 -7.7841444 -1.9715675 241 51
-2.3077362 -7.1332464 -1.80699 905 51
-2.3462868 -7.1032777 -1.8029234 1331 51
-2.3947883 -7.1034694 -1.8067509 1007 51
-2.4547451 -7.1363888 -1.8191899 760 51
-2.4772801 -7.0607195 -1.8034019 484 51
-2.4767487 -6.9228735 -1.7713476 100 51
-0 -0 -0 34 51
-2.5757177 -6.9301867 -1.7813945 848 51
-2.6285031 -6.9414949 -1.7885708 1286 51
-2.6762848 -6.9388256 -1.792159 1234 51
-2.674103 -6.808393 -1.7620183 656 51
-2.7039363 -6.7621036 -1.7541244 1096 51
-2.7534263 -6.765172 -1.759387 1093 51
-2.8197684 -6.8082576 -1.7754142 1042 51
-2.929708 -6.9527926 -1.8187114 1173 51
-2.976903 -6.9453955 -1.821582 812 51
-3.304143 -7.5803628 -1.9971632 18 51
-3.3635719 -7.589242 -2.0050571 11 51
-3.7095301 -8.2333326 -2.1847048 141 51
-3.7563417 -8.2024698 -2.1825519 131 51
-3.8225739 -8.2136011 -2.1918812 164 51
-3.8758044 -8.1961365 -2.1935556 149 51
-3.9180353 -8.155571 -2.1890106 156 51
-3.9641719 -8.1235228 -2.1868577 140 51
-4.0117869 -8.094696 -2.1856618 159 51
-4.0674887 -8.0820713 -2.1890106 178 51
-4.1196532 -8.062149 -2.1904459 166 51
-4.1779842 -8.0539589 -2.1952302 159 51
-4.234108 -8.0410595 -2.1988182 137 51
-4.266438 -7.9832411 -2.1899674 154 51
-4.3134909 -7.9534984 -2.1890106 164 51
-4.3696995 -7.9404931 -2.192838 124 51
-4.4334826 -7.9406624 -2.2004929 117 51
-4.4916906 -7.9302082 -2.205277 41 51
-1.4936001 -2.5980954 -0.69824535 12 51
-1.5031599 -2.577975 -0.69513559 14 51
-4.5944238 -7.7742934 -2.1847048 91 51
-4.6615009 -7.7784405 -2.1940341 110 51
-4.7282972 -7.7812257 -2.203124 115 51
-4.7749348 -7.7504134 -2.2026458 97 51
-4.8146868 -7.7086153 -2.1990576 115 51
-4.8686461 -7.6895933 -2.2021673 117 51
-4.9194074 -7.6652956 -2.2038417 113 51
-4.9674067 -7.6365943 -2.2043202 126 51
-5.0109644 -7.6011071 -2.2028849 133 51
-5.0726094 -7.5928254 -2.2095828 112 51
-5.1240005 -7.5687943 -2.2117357 118 51
-5.1692472 -7.5356102 -2.2112572 114 51
-5.2087388 -7.4941821 -2.2083867 91 51
-5.2540655 -7.4612865 -2.2081475 110 51
-5.2969289 -7.4249554 -2.2069516 95 51
-5.3497801 -7.4025459 -2.2100613 45 51
-1.9130841 -2.611954 -0.75756979 7 51
-1.9313878 -2.6032863 -0.75852662 6 51
-0 -0 -0 3 51
-5.4886923 -7.2149267 -2.1933165 12 51
-1.9718685 -2.558064 -0.75565606 23 51
-2.0042496 -2.5673528 -0.76235402 57 51
-2.0127418 -2.5458639 -0.75948346 55 51
-2.0180135 -2.5205767 -0.75541687 48 51
-2.0273292 -2.5006025 -0.75302476 49 51
-2.0333972 -2.4768558 -0.74943656 57 51
-2.0355277 -2.4486475 -0.74441314 64 51
-2.037389 -2.4205072 -0.73938972 61 51
-2.0408709 -2.3946543 -0.73508388 57 51
-2.0396743 -2.363703 -0.72910362 44 51
-2.0260425 -2.3189597 -0.71857828 20 51
-2.0331597 -2.2984817 -0.71594697 15 51
-2.0465772 -2.2852397 -0.71570778 19 51
-2.0546932 -2.2661631 -0.71355486 46 51
-2.0560894 -2.2399175 -0.70900983 66 51
-2.0545983 -2.2108946 -0.70350802 71 51
-2.0514991 -2.1805601 -0.69752771 104 51
-2.0614932 -2.1644144 -0.69633162 93 51
-2.0612614 -2.1377399 -0.69154739 101 51
-2.0709496 -2.1215765 -0.69035137 92 51
-2.089386 -2.114357 -0.69226503 87 51
-2.1277187 -2.1269052 -0.70111591 60 51
-2.1469448 -2.1199522 -0.70326877 71 51
-2.1745033 -2.1209817 -0.70829225 46 51
-2.1832826 -2.1035557 -0.70685697 58 51
-2.196852 -2.0907893 -0.70709616 67 51
-2.2131753 -2.0805969 -0.70829225 64 51
-2.2258999 -2.066978 -0.70829225 66 51
-2.2285266 -2.0440888 -0.70494324 77 51
-2.2712381 -2.0577688 -0.71499014 63 51
-2.2990108 -2.0573974 -0.72001356 50 51
-2.3305004 -2.0599787 -0.72623307 40 51
-2.3482146 -2.0501122 -0.72790754 49 51
-2.4401405 -2.1041756 -0.7537424 18 51
-2.4522665 -2.0885336 -0.75350314 23 51
-2.5036626 -2.1059623 -0.76594216 15 51
-2.5142972 -2.0886984 -0.76522452 9 51
-2.5473282 -2.0898669 -0.77168322 12 51
-0 -0 -0 3 51
-0 -0 -0 36 51
-2.6767635 -2.1148894 -0.80038857 84 51
-2.6828017 -2.0930476 -0.79823571 69 51
-2.6902111 -2.0723972 -0.79656124 99 51
-2.6943774 -2.0493824 -0.79392987 99 51
-2.7022443 -2.0293114 -0.7924946 87 51
-2.7045081 -2.0051713 -0.7893849 93 51
-2.7081442 -1.9822277 -0.78675354 93 51
-2.7147481 -1.9615909 -0.78507906 96 51
-2.7298944 -1.947153 -0.7860359 78 51
-2.7425842 -1.9309253 -0.78627515 109 51
-2.7639463 -1.9207132 -0.78914565 43 51
-2.8093023 -1.9267952 -0.79919255 71 51
-2.8395617 -1.9220458 -0.80469441 73 51
-2.8924701 -1.932106 -0.81689417 341 51
-2.8815763 -1.899352 -0.81019628 96 51
-2.9330518 -1.9075882 -0.82191765 34 51
-2.9471524 -1.8911294 -0.82263523 28 51
-3.015296 -1.9088646 -0.83914083 32 51
-3.085413 -1.9268626 -0.85612488 54 51
-3.1228006 -1.9236897 -0.86354041 47 51
-3.1395233 -1.9075191 -0.86497569 27 51
-7.7469974 -4.6440802 -2.1851833 53 51
-7.7369013 -4.5737238 -2.1741796 50 51
-7.7614646 -4.5242085 -2.1732228 67 51
-7.7857113 -4.4745641 -2.1722658 42 51
-7.7885227 -4.4128242 -2.1653287 40 51
-7.8120623 -4.3630571 -2.164372 52 51
-7.8650532 -4.3295598 -2.1717875 64 51
-7.8402667 -4.2534318 -2.1574347 54 51
-7.7138095 -4.1237426 -2.1148551 32 51
-7.5207758 -3.961369 -2.0540955 96 51
-7.473413 -3.8780189 -2.034241 95 51
-7.3682551 -3.7662258 -1.9985985 38 51
-8.0034733 -4.0292745 -2.1674817 80 51
-8.0106487 -3.971462 -2.1626973 50 51
-8.065403 -3.9371469 -2.1710699 50 51
-8.0587807 -3.8728602 -2.1626973 46 51
-0 -0 -0 7 51
-8.1215439 -3.7810533 -2.1670032 89 51
-8.1472387 -3.732363 -2.1677208 66 51
-8.1115665 -3.6559622 -2.151933 15 51
-0 -0 -0 4 51
-0 -0 -0 4 51
-0 -0 -0 4 51
-0 -0 -0 4 51
-0 -0 -0 3 51
-0 -0 -0 4 51
-0 -0 -0 5 51
-0 -0 -0 4 51
-0 -0 -0 4 51
-0 -0 -0 4 51
-0 -0 -0 4 51
-0 -0 -0 6 51
-0 -0 -0 4 51
-0 -0 -0 4 51
-0 -0 -0 5 51
-1.9079555 -0.64250141 -0.45592421 7 51
-1.9118619 -0.63078237 -0.45592421 9 51
-1.9286289 -0.62322682 -0.45927316 11 51
-0 -0 -0 6 51
-0 -0 -0 4 51
-0 -0 -0 6 51
-0 -0 -0 4 51
-8.3157711 -2.4120851 -2.093087 15 51
-8.3042583 -2.3535981 -2.0863891 42 51
-0 -0 -0 0 51
-0 -0 -0 0 51
-0 -0 -0 0 51
-0 -0 -0 0 51
-0 -0 -0 0 51
-0 -0 -0 0 51
-0 -0 -0 0 51
-0 -0 -0 0 51
-0 -0 -0 0 51
-0 -0 -0 0 51
-0 -0 -0 0 51
-0 -0 -0 0 51
-0 -0 -0 0 51
-0 -0 -0 0 51
-0 -0 -0 0 51
-0 -0 -0 0 51
-3.3411961 -0.57924503 -0.79536515 4 51
-3.3398991 -0.55793136 -0.79416913 5 51
-3.3566802 -0.5395897 -0.79751807 9 51
-3.3436158 -0.51645797 -0.79345149 7 51
-3.3371174 -0.49450564 -0.79105937 8 51
-3.3304758 -0.47265252 -0.78866726 3 51
-3.3294649 -0.45168474 -0.78771037 4 51
-3.3206191 -0.42974755 -0.78483987 7 51
-0 -0 -0 5 51
-3.3246782 -0.38885298 -0.78460068 6 51
-3.3241065 -0.36812419 -0.78388304 6 51
-3.3147147 -0.34650543 -0.78101248 4 51
-0 -0 -0 4 51
-8.9138222 -0.82333672 -2.1653287 5 51
-8.9167709 -0.76846004 -2.1648502 6 51
-8.923254 -0.71388841 -2.1653287 6 51
-8.356246 0.20383596 -2.1245558 5 52
-8.3722553 0.25563771 -2.1290689 3 52
-8.3966484 0.30796328 -2.135838 5 52
-0 0 -0 3 52
-0 0 -0 9 52
-6.5646353 0.36178482 -1.6624826 21 52
-6.5545616 0.40158379 -1.6604769 24 52
-0 0 -0 4 52
-0 0 -0 4 52
-0 0 -0 6 52
-0 0 -0 5 52
-0 0 -0 4 52
-0 0 -0 3 52
-0 0 -0 3 52
-0 0 -0 3 52
-0 0 -0 4 52
-0 0 -0 5 52
-6.0046878 0.77698576 -1.5278472 21 52
-5.988296 0.81225306 -1.5248386 25 52
-5.9889498 0.84979767 -1.5263429 23 52
-5.9797926 0.88596141 -1.52534 30 52
-5.9752007 0.92278385 -1.5255907 30 52
-5.9703817 0.95958328 -1.5258414 30 52
-5.9643812 0.99619883 -1.5258414 33 52
-5.9591103 1.0329422 -1.5260921 36 52
-5.9517074 1.0693159 -1.5258414 41 52
-5.9564548 1.1079398 -1.52885 57 52
-5.9400382 1.1426378 -1.5263429 48 52
-5.9262691 1.1777425 -1.5245878 45 52
-5.9047065 1.2111645 -1.5208271 25 52
-0 0 -0 4 52
-0 0 -0 4 52
-0 0 -0 3 52
-0 0 -0 4 52
-0 0 -0 3 52
-0 0 -0 4 52
-0 0 -0 4 52
-5.8897338 1.512684 -1.5346165 6 52
-0 0 -0 4 52
-0 0 -0 4 52
-0 0 -0 4 52
-0 0 -0 3 52
-0 0 -0 4 52
-0 0 -0 3 52
-0 0 -0 4 52
-5.7742028 1.7892535 -1.52534 14 52
-5.7677298 1.826111 -1.5265936 22 52
-5.7683907 1.8653396 -1.5298529 37 52
-5.7540789 1.899788 -1.5291007 34 52
-5.6845202 1.9155792 -1.5133054 6 52
-0 0 -0 4 52
-5.6852493 1.9938444 -1.5200748 9 52
-5.6710854 2.0280387 -1.5195735 4 52
-0 0 -0 5 52
-0 0 -0 4 52
-0 0 -0 2 52
-0 0 -0 4 52
-0 0 -0 4 52
-0 0 -0 4 52
-0 0 -0 3 52
-0 0 -0 3 52
-0 0 -0 4 52
-0 0 -0 4 52
-0 0 -0 4 52
-0 0 -0 4 52
-0 0 -0 4 52
-0 0 -0 3 52
-4.6576066 2.1669688 -1.2901665 238 52
-4.6591001 2.2025411 -1.2944287 341 52
-5.2964616 2.5437851 -1.4814643 189 52
-4.834435 2.3584609 -1.352846 65 52
-4.7357349 2.3463855 -1.3285264 211 52
-4.7134662 2.3714828 -1.3262699 192 52
-4.6945162 2.3981571 -1.3250163 194 52
-4.6857281 2.4300373 -1.3267714 183 52
-5.1692624 2.7212243 -1.4726892 130 52
-5.1908894 2.7734222 -1.4839715 99 52
-5.2061119 2.822757 -1.4934988 80 52
-5.171731 2.845314 -1.4884844 86 52
-5.0713396 2.8307488 -1.463914 76 52
-4.9477391 2.8017027 -1.4323236 53 52
-4.6710787 2.683002 -1.3548517 146 52
-4.6695838 2.7203853 -1.3593646 132 52
-4.6686392 2.7583432 -1.3641284 156 52
-7.0904732 4.2483649 -2.100487 65 52
-7.0866098 4.3053632 -2.1072562 59 52
-7.0378056 4.3350558 -2.100487 77 52
-7.0028629 4.3730297 -2.0979798 85 52
-6.9922571 4.4262724 -2.102994 16 52
-0 0 -0 4 52
-2.7159407 1.7660309 -0.79875934 18 52
-2.7082865 1.7847936 -0.79976225 27 52
-2.7037239 1.8056796 -0.801768 27 52
-2.7006102 1.827662 -0.80427516 24 52
-2.6973281 1.849674 -0.80678236 26 52
-2.7010317 1.8766865 -0.81154597 19 52
-2.7037134 1.9032563 -0.81605893 36 52
-2.7093225 1.932178 -0.82157469 33 52
-2.7036929 1.9533018 -0.82358044 24 52
-2.7002494 1.9761444 -0.82633835 30 52
-2.6849625 1.9903693 -0.82533544 22 52
-2.6773438 2.0102944 -0.8268398 44 52
-2.6372211 2.0055854 -0.81781393 7 52
-2.627166 2.0235019 -0.81856608 22 52
-2.6032522 2.0306511 -0.81480533 22 52
-2.580869 2.038784 -0.81154597 26 52
-2.5554609 2.0442996 -0.80728376 27 52
-2.5188007 2.0404389 -0.7992608 15 52
-2.4935107 2.0454168 -0.79499859 25 52
-2.4578307 2.0415006 -0.78722632 24 52
-2.4252565 2.0397172 -0.78045696 29 52
-2.3913236 2.036356 -0.77318615 24 52
-2.3641219 2.0383458 -0.76817179 30 52
-2.3399031 2.0426259 -0.76416028 31 52
-2.3106444 2.0421977 -0.75839376 17 52
-2.2901354 2.0492353 -0.75563586 15 52
-2.2638886 2.0508983 -0.75087225 27 52
-2.2377083 2.0523167 -0.74610859 12 52
-2.2087588 2.0508561 -0.74034208 28 52
-2.1834385 2.052434 -0.73582917 20 52
-2.1553779 2.0511091 -0.73031336 20 52
-2.1469345 2.068326 -0.73181766 11 52
-2.1016347 2.0496886 -0.72003394 17 52
-2.0773091 2.0509815 -0.71577173 34 52
-2.0523627 2.051369 -0.71125883 26 52
-2.0193255 2.0432644 -0.70373726 26 52
-1.9925512 2.0410674 -0.6984722 31 52
-1.9107862 1.9814711 -0.67264825 9 52
-0 0 -0 4 52
-1.885 2.0033598 -0.6721468 12 52
-1.8746489 2.0170159 -0.67289895 17 52
-1.8596191 2.0256276 -0.6718961 15 52
-1.8517065 2.0420206 -0.6736511 22 52
-1.8468913 2.0619981 -0.6766597 23 52
-1.8457484 2.0863442 -0.68117267 23 52
-1.8456496 2.1122115 -0.68618703 36 52
-1.8421404 2.1344907 -0.68994778 26 52
-1.8384271 2.156806 -0.69370854 17 52
-1.8345088 2.1791556 -0.69746929 22 52
-1.8316226 2.203027 -0.7017315 18 52
-1.8272837 2.2254479 -0.70549232 29 52
-1.8251768 2.2509062 -0.71025592 26 52
-1.8234309 2.2771776 -0.71527028 21 52
-1.8232318 2.3057899 -0.72103679 26 52
-1.8197714 2.3306696 -0.72554976 19 52
-1.8202107 2.3609602 -0.73181766 22 52
-1.81976 2.3905728 -0.73783493 23 52
-1.8166878 2.4171724 -0.74284929 30 52
-1.813934 2.4446011 -0.74811435 31 52
-1.8057637 2.4650574 -0.75112295 24 52
-1.7962762 2.4839361 -0.75363016 31 52
-1.7855 2.5012147 -0.75563586 26 52
-1.7734643 2.5168719 -0.75714016 18 52
-0 0 -0 5 52
-2.4994347 3.6415472 -1.1036323 8 52
-2.6029828 3.8427718 -1.161799 106 52
-2.5599902 3.8296964 -1.1527731 93 52
-2.5188556 3.8186634 -1.1444994 81 52
-2.4726734 3.7991569 -1.1337185 108 52
-2.4388554 3.797965 -1.1287042 25 52
-2.4139516 3.8104048 -1.127952 23 52
-2.3551309 3.7684975 -1.1106524 99 52
-2.3319635 3.7828772 -1.1106524 113 52
-2.2835655 3.7557542 -1.0981166 75 52
-2.0145779 3.3595376 -0.97426194 141 52
-1.9845654 3.3560026 -0.96949828 100 52
-0 0 -0 6 52
-0 0 -0 4 52
-1.8890489 3.3330064 -0.95194805 12 52
-1.8501517 3.3115735 -0.94217002 127 52
-1.8223274 3.3092947 -0.93815851 126 52
-1.794601 3.3067999 -0.93414706 127 52
-1.7656049 3.3015287 -0.9293834 40 52
-0 0 -0 9 52
-0 0 -0 16 52
-0 0 -0 74 52
-0 0 -0 77 52
-0 0 -0 78 52
-0 0 -0 72 52
-0 0 -0 97 52
-0 0 -0 105 52
-0 0 -0 91 52
-0 0 -0 31 52
-0 0 -0 13 52
-0 0 -0 13 52
-0 0 -0 6 52
-1.1473563 2.6747935 -0.71351528 6 52
-1.1320505 2.6844592 -0.71426743 6 52
-0 0 -0 5 52
-0 0 -0 11 52
-0 0 -0 35 52
-0 0 -0 44 52
-0 0 -0 47 52
-0 0 -0 24 52
-0 0 -0 47 52
-0 0 -0 45 52
-0 0 -0 30 52
-0 0 -0 29 52
-0 0 -0 39 52
-0 0 -0 79 52
-0 0 -0 77 52
-0 0 -0 69 52
-0 0 -0 68 52
-0 0 -0 52 52
-0 0 -0 55 52
-0 0 -0 49 52
-0 0 -0 54 52
-0.74951982 2.6426516 -0.67114395 56 52
-0.72889972 2.6313405 -0.66688174 65 52
-0.70794159 2.6180072 -0.66211808 53 52
-0.68766844 2.6063888 -0.65785587 54 52
-0.66949326 2.6021211 -0.65559942 50 52
-0.65257305 2.6024239 -0.65459657 55 52
-0 0 -0 53 52
-0 0 -0 43 52
-0.61306232 2.6507792 -0.66437453 75 52
-0.60166663 2.6762149 -0.67014104 75 52
-0.58791763 2.6921518 -0.6734004 92 52
-0.57219023 2.6994967 -0.67440325 44 52
-0.56029052 2.7257149 -0.68042052 88 52
-0.54412216 2.7319498 -0.68117267 90 52
-0.52533454 2.7247808 -0.67841476 84 52
-0.50701004 2.7193878 -0.67615831 83 52
-0.487057 2.704345 -0.67139465 81 52
-0.46780458 2.6920221 -0.66738319 95 52
-0.44808283 2.675746 -0.66236883 82 52
-0.42796302 2.6555071 -0.65635157 90 52
-0.40796053 2.634166 -0.6500836 74 52
-0.38908911 2.6184258 -0.64532 72 52
-0.37165272 2.6111798 -0.64281279 81 52
-0.35458073 2.6057372 -0.64080709 85 52
-0.33622009 2.5896235 -0.63604343 55 52
-0.31830782 2.5753045 -0.63178122 48 52
-0.30137298 2.5675945 -0.62927407 47 52
-0.28497201 2.5636225 -0.62776971 48 52
-0.26893383 2.5624342 -0.62701756 57 52
-0.25320598 2.5640361 -0.62701756 49 52
-0.23809214 2.5722892 -0.62877262 48 52
-0.22288652 2.5804532 -0.63052762 43 52
-0.20905727 2.6068614 -0.63704628 38 52
-0.19462697 2.6293347 -0.64256209 33 52
-0.18359084 2.7058156 -0.66211808 18 52
-0.17013659 2.7581015 -0.67540616 13 52
-0.15379891 2.7697258 -0.67816406 6 52
-0.13737257 2.7822199 -0.68117267 8 52
-0.11942349 2.7627001 -0.67590755 20 52
-0.10264832 2.7682178 -0.67716116 21 52
-0.085541718 2.7649252 -0.67615831 17 52
-0.068765745 2.7731402 -0.67816406 28 52
-0.051533692 2.7618952 -0.6751554 26 52
-0.034622006 2.7650633 -0.67590755 20 52
-0.0176492 2.7642555 -0.67565686 17 52
-0.00068792584 2.766248 -0.67615831 20 52
0.016337974 2.7749126 -0.67841476 8 52
0.033281792 2.7679842 -0.6766597 18 52
0.050265197 2.7677279 -0.6766597 22 52
0.067175753 2.7644639 -0.67590755 10 52
0.084225692 2.7669027 -0.6766597 21 52
0.10130808 2.7692358 -0.67741191 17 52
0.11846372 2.7724309 -0.67841476 20 52
0.13570979 2.7764864 -0.67966837 26 52
0.1530634 2.7814009 -0.68117267 23 52
0.17036389 2.7842743 -0.68217552 23 52
0.18542396 2.7532349 -0.67440325 11 52
0.20508727 2.7896976 -0.68418127 20 52
0.22235474 2.7903166 -0.68468273 20 52
0.2393057 2.7869709 -0.68418127 20 52
0.25613514 2.782558 -0.68342912 25 52
0.27206638 2.7693732 -0.68042052 21 52
0.28764415 2.7541723 -0.67691046 20 52
0.30464461 2.7533176 -0.67716116 17 52
0.32153291 2.7513967 -0.67716116 24 52
0.33758035 2.7426465 -0.67540616 20 52
0.35576972 2.7510839 -0.67816406 13 52
0.37472621 2.7641973 -0.68217552 9 52
0.38855055 2.7398016 -0.67640901 23 52
0.40592209 2.7411964 -0.67741191 23 52
0.42258632 2.7376974 -0.67716116 24 52
0.43922287 2.7340972 -0.67691046 17 52
0.45535254 2.7275314 -0.67590755 21 52
0.47191438 2.7237322 -0.67565686 21 52
0.48878926 2.7217381 -0.67590755 23 52
0.50441778 2.7129774 -0.67440325 17 52
0.52123773 2.7107821 -0.67465401 20 52
0 0 -0 19 52
0 0 -0 32 52
0 0 -0 26 52
0 0 -0 18 52
0.59693718 2.6614022 -0.66612959 24 52
0.61173141 2.6510868 -0.66437453 31 52
0.62664521 2.6416321 -0.66287023 24 52
0.6421541 2.6349158 -0.66211808 22 52
0.65595841 2.6215353 -0.65961093 33 52
0.67082715 2.6127729 -0.65835732 41 52
0.68659955 2.6076715 -0.65810663 35 52
0.70258701 2.6034095 -0.65810663 27 52
0.71983844 2.6037147 -0.65936017 21 52
0.73421812 2.5936604 -0.65785587 23 52
0.74715394 2.5788786 -0.65509796 20 52
0.76268834 2.5733178 -0.65484726 24 52
0.7767781 2.563031 -0.65334296 25 52
0.79105699 2.5535932 -0.65208936 31 52
0.80437261 2.5413082 -0.6500836 21 52
0.82531309 2.5529041 -0.65459657 23 52
0.83701557 2.5358422 -0.65133721 28 52
0.85194105 2.5288239 -0.65083581 12 52
0.89797914 2.6123464 -0.6751554 5 52
1.0694004 3.0498302 -0.79675364 24 52
0.91040725 2.5464396 -0.66011232 4 52
0 0 -0 6 52
0 0 -0 3 52
1.1860836 3.1340253 -0.82759196 65 52
1.2077293 3.1330113 -0.82934695 91 52
1.2290534 3.1309483 -0.83085126 112 52
0 0 -0 91 52
1.2684771 3.1183202 -0.83160341 112 52
1.2883276 3.112267 -0.83210486 110 52
1.3032655 3.0944901 -0.82934695 111 52
1.311933 3.0624106 -0.8225776 87 52
0 0 -0 108 52
0 0 -0 119 52
0 0 -0 65 52
0 0 -0 37 52
0 0 -0 112 52
1.4018313 2.9656632 -0.80928952 71 52
1.4095227 2.9351909 -0.80302155 87 52
1.4211385 2.9134367 -0.7992608 97 52
0 0 -0 195 52
0 0 -0 97 52
0 0 -0 55 52
0 0 -0 85 52
0 0 -0 99 52
1.4790487 2.7686512 -0.77268469 97 52
1.5098534 2.7850535 -0.78020626 74 52
1.5600487 2.8359547 -0.79800719 149 52
0 0 -0 167 52
0 0 -0 120 52
0 0 -0 96 52
0 0 -0 111 52
0 0 -0 108 52
0 0 -0 117 52
0 0 -0 127 52
0 0 -0 140 52
0 0 -0 137 52
0 0 -0 146 52
0 0 -0 160 52
0 0 -0 167 52
0 0 -0 164 52
0 0 -0 145 52
1.7343234 2.5627253 -0.76115167 144 52
0 0 -0 155 52
0 0 -0 141 52
0 0 -0 154 52
0 0 -0 174 52
0 0 -0 198 52
0 0 -0 147 52
0 0 -0 120 52
1.901001 2.5318198 -0.77970481 121 52
0 0 -0 24 52
0 0 -0 20 52
0 0 -0 17 52
0 0 -0 26 52
0 0 -0 34 52
0 0 -0 30 52
0 0 -0 19 52
0 0 -0 20 52
0 0 -0 15 52
1.9905323 2.3375256 -0.75488371 13 52
2.1983001 2.5495942 -0.83160341 98 52
2.2158129 2.5382454 -0.83235556 141 52
2.2460928 2.5412831 -0.83812207 121 52
2.2752016 2.5426013 -0.84338719 93 52
2.2966101 2.5350494 -0.84564364 103 52
2.3206291 2.5301836 -0.84890294 89 52
2.3473096 2.5279553 -0.85316515 95 52
2.3780286 2.529726 -0.85893166 112 52
2.4055197 2.5277085 -0.86344457 95 52
2.4451666 2.5379958 -0.87247044 123 52
2.510041 2.5735297 -0.89077282 79 52
2.5672789 2.6000957 -0.90606666 52 52
2.9856393 2.9868369 -1.0534887 70 52
2.9811852 2.9460087 -1.0452151 38 52
3.1176736 3.0432818 -1.0880879 52 52
3.2784624 3.1611588 -1.1392343 186 52
3.3034055 3.1463239 -1.1412401 170 52
3.3487384 3.1505365 -1.1505166 166 52
3.3821902 3.1431086 -1.155531 165 52
3.4142501 3.134079 -1.160044 163 52
3.4534984 3.1312759 -1.1670641 60 52
0 0 -0 101 52
0 0 -0 105 52
0 0 -0 110 52
3.6399796 3.1410706 -1.2049224 49 52
3.6621318 3.1211886 -1.2059253 138 52
3.694546 3.1098797 -1.2104383 149 52
3.7321701 3.1026216 -1.2167062 115 52
3.7705917 3.0956326 -1.2232249 120 52
3.8090672 3.0882883 -1.2297435 134 52
3.8407924 3.0751429 -1.2340057 8 52
3.8504758 3.0443144 -1.2309971 7 52
3.8667934 3.0188439 -1.2302449 5 52
0 0 -0 6 52
3.855016 2.934231 -1.2144498 17 52
3.8706257 2.9087772 -1.2136976 4 52
3.8992856 2.8930473 -1.2172076 108 52
3.9333649 2.881079 -1.2224727 173 52
3.9721506 2.8722036 -1.2292421 204 52
3.9676359 2.8320312 -1.222222 71 52
3.9960179 2.815438 -1.225732 84 52
4.1157494 2.8621559 -1.2580746 317 52
4.0685802 2.7924807 -1.2377665 112 52
4.0808287 2.7642066 -1.2362622 172 52
4.0961032 2.7380393 -1.2357607 152 52
4.1176748 2.7160523 -1.237265 148 52
4.3014102 2.7995028 -1.2889129 155 52
4.3999686 2.8253579 -1.3139848 309 52
4.3796024 2.7744792 -1.3024517 53 52
4.396544 2.7475541 -1.3024517 134 52
4.4067268 2.7164624 -1.3004459 146 52
4.4266205 2.6913834 -1.3014488 155 52
4.6215611 2.7711928 -1.3553532 135 52
4.7426424 2.8043668 -1.3866929 279 52
4.7823415 2.7883775 -1.3934623 269 52
4.8304148 2.7768302 -1.4027389 276 52
4.8936853 2.7733877 -1.4165283 443 52
4.8844104 2.7286742 -1.4087561 243 52
3.7977645 2.0912476 -1.0825721 55 52
4.8834925 2.6500628 -1.3987274 144 52
4.7067242 2.5168943 -1.3420651 77 52
4.7075186 2.4802971 -1.3378029 73 52
4.7200708 2.4500277 -1.3370508 58 52
4.735877 2.4214604 -1.3373015 55 52
4.7463226 2.3901794 -1.3360479 61 52
4.7591643 2.3601513 -1.3355465 47 52
4.7735567 2.3309052 -1.3355465 39 52
4.7877688 2.3015714 -1.3355465 42 52
4.8044262 2.2733929 -1.3362986 46 52
4.8744512 2.2700222 -1.3523445 20 52
4.8319626 2.2142639 -1.3362986 37 52
4.7969179 2.162694 -1.3225092 84 52
4.8039031 2.1304731 -1.3207541 94 52
4.8080115 2.0970874 -1.318247 109 52
4.8270164 2.0702169 -1.320002 117 52
4.9778943 2.098846 -1.3588632 197 52
5.0300293 2.0845673 -1.3698949 317 52
4.9234791 2.0051107 -1.3365493 215 52
5.0354576 2.0147738 -1.364379 352 52
5.0468245 1.9834849 -1.3641284 365 52
5.0516744 1.9496928 -1.3621225 367 52
5.051774 1.9142013 -1.3588632 372 52
5.0525355 1.8791195 -1.3558546 388 52
5.0585141 1.8460915 -1.3543503 350 52
5.0560746 1.8101249 -1.3505895 299 52
5.0561252 1.7752197 -1.3475809 275 52
5.050446 1.7384921 -1.343068 219 52
5.0775294 1.7130395 -1.3475809 380 52
5.0603695 1.6727393 -1.3400594 260 52
5.0125141 1.6228765 -1.3242642 23 52
5.0177636 1.5906276 -1.3230106 27 52
5.0302029 1.5606695 -1.3237628 65 52
5.0433898 1.5308999 -1.3247656 77 52
5.0452638 1.497722 -1.3227599 73 52
5.0497098 1.4653881 -1.3215063 66 52
5.0381165 1.4285676 -1.3159904 55 52
5.0439882 1.3968526 -1.3152384 50 52
5.0412498 1.3628461 -1.3122298 46 52
5.0382843 1.3289261 -1.309221 38 52
5.0397806 1.2962991 -1.307466 24 52
5.0429444 1.2641746 -1.3062124 37 52
5.0487256 1.2327487 -1.305711 24 52
5.0524273 1.200852 -1.3047081 29 52
5.0549846 1.1687384 -1.3034545 22 52
5.055449 1.1362141 -1.3016995 13 52
5.0566506 1.1039346 -1.3001952 17 52
5.0576468 1.0716832 -1.2986909 14 52
5.0527482 1.0382925 -1.2956823 18 52
5.0495296 1.0053803 -1.2931751 21 52
5.0508504 0.97346228 -1.2919215 17 52
5.0481634 0.94085687 -1.2896651 26 52
5.0405025 0.90746385 -1.286155 20 52
5.0507445 0.87734687 -1.2874086 27 52
5.0503044 0.84538102 -1.2859043 21 52
5.0573077 0.81468481 -1.2864058 26 52
5.0555148 0.78260225 -1.2846507 19 52
5.0707545 0.75313115 -1.2874086 14 52
5.0704885 0.72132206 -1.286155 24 52
5.0767374 0.69045728 -1.2866565 22 52
5.0779982 0.65892053 -1.2859043 18 52
5.0848279 0.62810594 -1.2866565 22 52
5.0885863 0.5968942 -1.2866565 23 52
5.0921531 0.56566 -1.2866565 22 52
5.0897512 0.53379905 -1.2851522 19 52
0 0 -0 3 52
3.6316738 0.33598948 -0.9043116 14 52
3.5680821 0.30804458 -0.88726282 86 52
3.571835 0.28629991 -0.88776422 48 52
3.6092455 0.26701701 -0.89704078 5 52
0 0 -0 5 52
3.6122503 0.22270592 -0.89704078 5 52
3.6483457 0.20246473 -0.90606666 24 52
3.6611221 0.18064636 -0.90907526 61 52
3.6437855 0.15738697 -0.9043116 9 52
3.6911178 0.13674153 -0.91634607 9 52
3.7228506 0.11504431 -0.92436904 6 52
3.7263896 0.092270754 -0.92512119 68 52
3.7297893 0.069458097 -0.92587334 82 52
3.7591848 0.046930786 -0.93339491 28 52
3.8174846 0.024226706 -0.94843799 6 52
3.7614138 0.00079648162 -0.93389636 57 52
3.8136222 -0.022598188 -0.94743508 117 52
3.8201878 -0.046080127 -0.94919014 124 52
3.8701637 -0.070440575 -0.96222746 24 52
3.8628843 -0.094020568 -0.96047246 48 52
3.8970685 -0.11878623 -0.96949828 107 52
3.9078753 -0.14312227 -0.97250688 89 52
3.9204638 -0.16767831 -0.97601694 79 52
3.9328978 -0.1923942 -0.979527 62 52
3.9741733 -0.21886876 -0.99055856 116 52
3.9833841 -0.24390154 -0.99331647 118 52
3.9963007 -0.26931629 -0.99707723 106 52
4.0109854 -0.29504094 -1.0013394 105 52
3.9840097 -0.31764349 -0.99482077 19 52
5.1075568 -0.43888763 -1.2874086 23 52
5.1076598 -0.47048536 -1.2881608 21 52
5.1114206 -0.50247997 -1.2899158 18 52
5.114018 -0.53443772 -1.2914201 19 52
5.1202641 -0.56687266 -1.2939273 25 52
5.1272659 -0.59951687 -1.2966852 24 52
5.1311774 -0.63191307 -1.2986909 21 52
5.1368041 -0.66462833 -1.3011981 30 52
5.1422219 -0.69743645 -1.3037053 22 52
5.1445546 -0.72992784 -1.3054603 31 52
5.1476398 -0.76261598 -1.307466 30 52
5.1457338 -0.79463041 -1.3082182 37 52
5.1512747 -0.82787955 -1.3109761 28 52
5.1747427 -0.86425787 -1.3184977 63 52
5.1502657 -0.89268523 -1.3134832 42 52
5.1751809 -0.92974979 -1.3215063 64 52
5.1636682 -0.96042407 -1.320002 53 52
5.1633816 -0.99318719 -1.3215063 58 52
5.1581402 -1.0250392 -1.321757 70 52
5.1612363 -1.0586154 -1.3242642 62 52
5.1555905 -1.0904646 -1.3245149 40 52
5.1563697 -1.1237278 -1.3265207 35 52
5.1559892 -1.1568296 -1.3282757 30 52
5.1563401 -1.1901866 -1.3302814 26 52
5.1602426 -1.2244859 -1.33329 25 52
5.1620374 -1.258419 -1.3357972 32 52
5.1673656 -1.2933606 -1.3393072 35 52
5.1705837 -1.3279331 -1.3423158 26 52
5.1866775 -1.3660464 -1.3488345 17 52
5.1838055 -1.3993597 -1.3503388 23 52
5.194715 -1.4365605 -1.3556039 32 52
5.2016368 -1.4728925 -1.3598661 32 52
5.2185354 -1.512328 -1.3668863 39 52
5.2082295 -1.5440447 -1.3666354 288 52
5.1875405 -1.5726018 -1.3636268 320 52
5.0686831 -1.5705845 -1.3340422 208 52
5.0072689 -1.5852894 -1.320002 206 52
4.908103 -1.5870856 -1.2956823 205 52
4.8403606 -1.5980469 -1.2798871 196 52
4.7891831 -1.6138028 -1.2686048 400 52
4.7855988 -1.645362 -1.2703598 375 52
4.7891154 -1.6795014 -1.2741206 414 52
4.7923927 -1.7137457 -1.2778814 350 52
4.7936106 -1.7474301 -1.2811407 372 52
4.7991319 -1.7828796 -1.2856536 415 52
4.8053041 -1.8188053 -1.2904172 452 52
4.8039889 -1.8520871 -1.2931751 428 52
4.8069515 -1.8871905 -1.2971866 444 52
4.8132591 -1.9238369 -1.302201 241 52
4.799571 -1.9526047 -1.3016995 171 52
4.7964439 -1.9857211 -1.3042067 91 52
4.7868457 -2.0162418 -1.3049588 33 52
4.7815027 -2.0486257 -1.3069646 27 52
4.7839289 -2.084501 -1.3112268 52 52
4.7958302 -2.1247969 -1.318247 90 52
4.7897635 -2.1573646 -1.3202527 92 52
4.7843575 -2.1903408 -1.3225092 99 52
4.7848706 -2.2261906 -1.3265207 74 52
4.8008761 -2.2695775 -1.335045 41 52
4.7894778 -2.3002498 -1.3357972 60 52
4.794414 -2.3389335 -1.341313 48 52
4.7947183 -2.3756146 -1.3455752 33 52
4.7938871 -2.4119523 -1.3495867 32 52
4.7953768 -2.4496903 -1.3543503 29 52
4.8000202 -2.48932 -1.3601168 34 52
4.8035002 -2.5286474 -1.3656327 37 52
4.8032627 -2.5662861 -1.3701456 44 52
4.8274226 -2.6173995 -1.3819293 28 52
4.8392601 -2.6623714 -1.390203 18 52
4.8312855 -2.6967332 -1.3927102 27 52
4.8289676 -2.734437 -1.3969724 44 52
4.828887 -2.7736599 -1.4019867 31 52
4.82516 -2.8110349 -1.4059982 36 52
4.819489 -2.8474834 -1.4095082 36 52
4.8226857 -2.8894415 -1.4157763 13 52
4.810657 -2.9224973 -1.4175313 34 52
4.8165369 -2.9666846 -1.4248021 18 52
4.819591 -3.009515 -1.4313207 14 52
4.8263903 -3.0550833 -1.439093 19 52
4.8238482 -3.0950966 -1.4441073 20 52
4.8299232 -3.1409991 -1.4518796 15 52
4.8331904 -3.1854939 -1.4588997 22 52
4.8328729 -3.2279956 -1.4649169 18 52
4.84905 -3.2820089 -1.4761993 40 52
4.8471818 -3.3242943 -1.4819658 37 52
4.8529263 -3.372205 -1.4902394 32 52
4.8503485 -3.414737 -1.4960059 14 52
4.8537359 -3.4618614 -1.5037782 21 52
4.847311 -3.5023513 -1.5085418 9 52
4.8522882 -3.5514693 -1.5170662 20 52
4.8506236 -3.5961668 -1.523585 17 52
4.8524628 -3.6438837 -1.5313572 17 52
4.8546681 -3.6923442 -1.5393802 19 52
4.8618288 -3.7451036 -1.5491581 39 52
4.8639445 -3.7945161 -1.5574318 60 52
4.8610787 -3.8404939 -1.5642012 32 52
4.8616099 -3.8896029 -1.5722241 35 52
4.8594642 -3.9370339 -1.5794951 29 52
4.8636546 -3.9901106 -1.5890223 18 52
4.8658857 -4.0421491 -1.5980481 19 52
4.8750687 -4.100596 -1.6095811 26 52
4.8711877 -4.1486359 -1.616852 27 52
4.8749642 -4.2037358 -1.6268808 40 52
4.87533 -4.2564907 -1.6359066 34 52
4.8766818 -4.3106899 -1.6454338 24 52
4.8761077 -4.3637738 -1.6544597 33 52
4.8779345 -4.4196119 -1.6644884 15 52
4.8778319 -4.4743271 -1.6740156 29 52
4.8772407 -4.5292068 -1.683543 30 52
4.8810954 -4.5888882 -1.6948253 25 52
4.8696752 -4.6347704 -1.7008425 20 52
1.9231721 -1.8527006 -0.65133721 5 52
