# .PCD v0.7 - Point Cloud Data file format
VERSION 0.7
FIELDS x y z intensity ring
SIZE 4 4 4 4 1
TYPE F F F F U
COUNT 1 1 1 1 1
WIDTH 1422
HEIGHT 1
VIEWPOINT 0 0 0 1 0 0 0
POINTS 1422
DATA ascii
3.6924741 2.1231215 -1.5352526 23 61
3.7029848 2.0990369 -1.5342107 14 61
3.7108834 2.0735304 -1.5321271 26 61
3.7251792 2.0516269 -1.5328217 21 61
3.7451141 2.0327594 -1.5359471 14 61
3.7566895 2.009299 -1.5355998 9 61
3.7465513 1.9743999 -1.5262237 5 61
3.8284972 1.9876902 -1.5553938 19 61
4.4116254 2.2563789 -1.7929217 21 61
4.4588838 2.2461505 -1.8068122 28 61
4.4776216 2.2212508 -1.8088958 38 61
4.4945369 2.1953819 -1.8102849 34 61
4.5079226 2.1677625 -1.8102849 30 61
4.5185966 2.1388576 -1.8092431 40 61
4.5299354 2.1102993 -1.8085485 33 61
4.5419464 2.0820735 -1.8082012 27 61
4.5529265 2.0533938 -1.8075067 23 61
4.5551548 2.020853 -1.8033396 10 61
4.5812197 1.9988687 -1.8088958 23 61
4.5925364 1.9703513 -1.8085485 23 61
4.6045399 1.942135 -1.8085485 29 61
4.6189685 1.9149234 -1.8095903 21 61
4.6314998 1.8868999 -1.8099376 30 61
4.6421199 1.8580974 -1.8095903 38 61
4.6516881 1.8288922 -1.8088958 36 61
4.6645722 1.8009915 -1.8095903 28 61
4.6702743 1.7703408 -1.8075067 28 61
4.6766548 1.7400151 -1.8057704 23 61
4.6713886 1.7054943 -1.7995197 11 61
4.6870618 1.6786975 -1.8016032 29 61
4.6857729 1.6458638 -1.7970889 19 61
4.6851444 1.6134149 -1.7929217 21 61
4.677187 1.578635 -1.7859764 19 61
4.6725407 1.5451922 -1.7804202 21 61
4.6632004 1.5104202 -1.7731277 28 61
4.6562915 1.4766723 -1.7668769 23 61
4.6491446 1.4430662 -1.7606262 31 61
4.6498365 1.4120581 -1.7575009 35 61
4.6458287 1.3797599 -1.7526392 31 61
4.6524062 1.3507043 -1.7519447 32 61
4.656096 1.3208516 -1.7502084 42 61
4.6586909 1.2907537 -1.7481247 31 61
4.6719542 1.2636147 -1.7502084 45 61
4.6669264 1.2315712 -1.7453467 28 61
4.6680384 1.2012749 -1.7429157 30 61
4.6707735 1.1714679 -1.7411795 30 61
4.6687646 1.1405588 -1.7377069 36 61
4.6473942 1.1051579 -1.7269417 14 61
4.665051 1.0791601 -1.7311089 24 61
4.6688404 1.0498977 -1.730067 21 61
4.6715298 1.020429 -1.728678 21 61
4.6786208 0.99194056 -1.7290252 19 61
4.6855373 0.96340352 -1.7293725 26 61
4.6941195 0.93518585 -1.7304143 33 61
4.701611 0.90672123 -1.7311089 27 61
4.7126169 0.87888855 -1.7331924 25 61
4.7216125 0.85062188 -1.7345815 23 61
4.7295146 0.82211709 -1.7356232 25 61
4.7372446 0.79354733 -1.736665 26 61
4.7448015 0.76491362 -1.7377069 41 61
4.7410655 0.73449153 -1.7345815 18 61
4.7454834 0.70538712 -1.7345815 34 61
4.7404385 0.67493194 -1.7311089 17 61
4.7472777 0.64621264 -1.7321507 24 61
4.748364 0.6167087 -1.7311089 32 61
4.7474051 0.58698517 -1.7293725 15 61
4.7574368 0.55861169 -1.7318034 19 61
4.7635708 0.52972168 -1.7328452 35 61
4.7667317 0.50048298 -1.7328452 35 61
4.7659798 0.47085574 -1.7314562 22 61
4.7659779 0.44134331 -1.7304143 39 61
4.7667279 0.41192955 -1.7297198 21 61
4.7672963 0.38252324 -1.7290252 18 61
4.7686186 0.35319498 -1.728678 25 61
4.7725668 0.32405615 -1.7293725 19 61
4.7744656 0.29476613 -1.7293725 23 61
4.7789931 0.26562181 -1.7304143 26 61
4.7683573 0.23568864 -1.7258999 15 61
0 0 -0 31 61
0 0 -0 32 61
4.794383 0.1485815 -1.7342342 30 61
4.7961416 0.11918445 -1.7345815 32 61
4.7995958 0.089806952 -1.7356232 40 61
4.8019319 0.060379531 -1.7363178 34 61
4.8031497 0.030920561 -1.736665 38 61
4.8032489 0.0014484072 -1.736665 32 61
4.8031673 -0.028023802 -1.736665 31 61
4.8057179 -0.057527944 -1.7377069 40 61
4.8118382 -0.087131441 -1.7401377 43 61
4.8102751 -0.11663218 -1.7397904 37 61
4.8179049 -0.14639957 -1.7429157 42 61
4.8216019 -0.17612895 -1.7446522 42 61
4.8148088 -0.2054719 -1.7425685 22 61
4.8162675 -0.23514766 -1.7436104 27 61
4.8128614 -0.2645928 -1.7429157 41 61
4.804595 -0.29372001 -1.740485 27 61
4.7970881 -0.32281852 -1.7384014 23 61
4.7959523 -0.35231528 -1.7387487 28 61
4.7937002 -0.38173607 -1.7387487 35 61
4.7903333 -0.41106251 -1.7384014 24 61
4.7914562 -0.44079044 -1.7397904 38 61
4.7858615 -0.46990773 -1.7387487 32 61
4.7828884 -0.49926439 -1.7387487 33 61
4.7769384 -0.52829367 -1.7377069 32 61
4.780127 -0.5583545 -1.7401377 28 61
4.7766113 -0.58767426 -1.7401377 34 61
4.777566 -0.61757189 -1.741874 30 61
4.7811208 -0.64788049 -1.7446522 39 61
4.7826266 -0.67799306 -1.7467357 31 61
4.7848706 -0.70828563 -1.7491665 28 61
4.7878489 -0.73877394 -1.7519447 32 61
4.7897077 -0.76917702 -1.7543755 33 61
4.7904477 -0.7994765 -1.756459 25 61
4.7937684 -0.83029342 -1.7595844 40 61
4.7858148 -0.85919535 -1.7585427 33 61
4.7832189 -0.88905782 -1.7595844 30 61
4.7776732 -0.91839039 -1.7595844 33 61
4.7857461 -0.95042509 -1.7647934 41 61
4.7651248 -0.97676253 -1.7592372 32 61
4.762712 -1.0067573 -1.7606262 36 61
4.7555289 -1.0357624 -1.7602789 30 61
4.7609801 -1.0675869 -1.7647934 37 61
4.7515984 -1.0961479 -1.7637516 36 61
4.7502584 -1.1265796 -1.7658352 47 61
4.7323222 -1.1530441 -1.761668 31 61
4.7233386 -1.1816046 -1.7609735 24 61
0 -0 -0 3 61
4.7030411 -1.2380472 -1.7588899 23 61
4.6944509 -1.2666372 -1.7585427 43 61
4.7001495 -1.2991623 -1.7637516 51 61
4.700211 -1.3302739 -1.7668769 42 61
4.7036705 -1.3624779 -1.7713914 35 61
4.7132058 -1.3966377 -1.7783366 8 61
4.7314734 -1.433683 -1.7887545 50 61
4.726171 -1.4637967 -1.7901436 36 61
4.6920643 -1.4848522 -1.7804202 5 61
4.7239151 -1.5268716 -1.7963943 8 61
0 -0 -0 6 61
4.7305965 -1.5934012 -1.8064649 10 61
4.7633033 -1.6370175 -1.8231336 45 61
4.7452035 -1.6634237 -1.8200082 43 61
4.7481546 -1.69724 -1.8252171 45 61
0 -0 -0 4 61
4.7234526 -1.7540743 -1.8238281 26 61
4.7108464 -1.7823606 -1.8231336 26 61
4.7041969 -1.8129174 -1.8248699 28 61
4.6938577 -1.84209 -1.8252171 26 61
4.6903048 -1.8739859 -1.8283426 41 61
4.6865368 -1.9059074 -1.8314679 34 61
4.6825533 -1.9378532 -1.8345932 39 61
4.6783538 -1.9698217 -1.8377186 28 61
4.6618686 -1.9966455 -1.8359823 34 61
4.6460905 -2.0237153 -1.8345932 30 61
4.6284404 -2.0499079 -1.8325096 21 61
4.6132097 -2.0771143 -1.8314679 31 61
4.5952611 -2.1030412 -1.8293843 24 61
4.5797195 -2.1300116 -1.8283426 20 61
4.5750432 -2.162077 -1.8318151 31 61
4.565073 -2.191731 -1.8332042 30 61
4.5481668 -2.2180572 -1.8318151 26 61
4.5353117 -2.2463384 -1.8321624 25 61
4.5298219 -2.278336 -1.8356351 29 61
4.5157571 -2.3060875 -1.8356351 19 61
4.5040202 -2.3350465 -1.8366768 17 61
4.5095272 -2.3731153 -1.8450111 36 61
4.4998446 -2.4033904 -1.8470947 29 61
4.499855 -2.4389958 -1.8533454 39 61
4.4798741 -2.46385 -1.8512619 22 61
4.4654908 -2.4917483 -1.8516091 30 61
4.4517503 -2.5200248 -1.8523036 32 61
4.4378304 -2.5482264 -1.8529981 24 61
4.4245424 -2.5768237 -1.8540399 17 61
4.4078407 -2.603447 -1.8536927 33 61
4.3925877 -2.6309257 -1.8540399 34 61
4.3747587 -2.6568553 -1.8533454 33 61
4.3607702 -2.6851227 -1.8543873 23 61
4.3434167 -2.711333 -1.8540399 33 61
4.3251138 -2.7369301 -1.8533454 20 61
4.3074493 -2.7629108 -1.8529981 23 61
4.2935605 -2.7913327 -1.8543873 25 61
4.274003 -2.8160777 -1.8533454 28 61
4.2714634 -2.8521404 -1.8599434 22 61
4.260097 -2.8824985 -1.8627216 27 61
4.2539339 -2.9165354 -1.8679305 23 61
2.8917928 -2.0092869 -1.2619566 17 61
2.8947496 -2.0377839 -1.2689018 10 61
2.8959377 -2.0653038 -1.2751526 13 61
2.9029789 -2.0973063 -1.2841814 10 61
2.895354 -2.1189542 -1.2866122 11 61
2.8943543 -2.1456113 -1.2921684 3 61
2.8878853 -2.1683958 -1.2952938 6 61
2.8775125 -2.1883442 -1.2966828 12 61
2.8640308 -2.2059593 -1.2966828 4 61
4.0670843 -3.1719012 -1.8679305 7 61
4.0578499 -3.2049315 -1.8727921 25 61
1.4510254 -1.1615235 -0.64625919 49 61
1.4402268 -1.1674546 -0.64452291 76 61
1.4323111 -1.1756752 -0.64417559 91 61
1.4070312 -1.1694677 -0.63549405 54 61
1.3955216 -1.1744587 -0.63341045 45 61
1.3818616 -1.1775296 -0.63028508 44 61
1.3596916 -1.1731315 -0.62299258 68 61
1.341868 -1.172205 -0.61778361 76 61
1.3241074 -1.1711043 -0.6125747 97 61
1.3161978 -1.1785817 -0.61222744 99 61
1.3096365 -1.187265 -0.6125747 88 61
1.3044008 -1.1971793 -0.61361647 77 61
1.2977179 -1.2057983 -0.61396372 108 61
1.2943957 -1.2175907 -0.61604732 84 61
1.2943752 -1.2326189 -0.61986721 70 61
1.2888143 -1.2424891 -0.62090898 74 61
1.2898964 -1.2588829 -0.62542343 70 61
1.2881553 -1.2727017 -0.6285488 94 61
1.2869565 -1.2872092 -0.63202143 77 61
1.2836499 -1.2997491 -0.63445222 72 61
1.2808928 -1.3129677 -0.63723034 73 61
1.2773706 -1.3255262 -0.63966119 64 61
1.2730953 -1.337412 -0.64174479 63 61
1.2693648 -1.3499779 -0.64417559 58 61
1.2623348 -1.3591145 -0.64487016 49 61
1.2558749 -1.3689064 -0.64591193 79 61
1.2461915 -1.3751974 -0.64521742 66 61
1.2402335 -1.3856114 -0.64660645 60 61
1.2571929 -1.4219846 -0.66084427 13 61
1.2478267 -1.4289658 -0.66049695 11 61
0 -0 -0 5 61
1.2661014 -1.4862674 -0.68098551 8 61
1.264812 -1.503332 -0.68549991 24 61
1.2891495 -1.5514356 -0.70494664 29 61
1.3706881 -1.6701771 -0.75807786 10 61
1.5412149 -1.901391 -0.86434036 15 61
1.5441785 -1.9291077 -0.87302196 23 61
1.5282395 -1.9333984 -0.8705911 24 61
1.5088421 -1.9331324 -0.86607671 34 61
1.4975251 -1.9430966 -0.86642396 44 61
1.4781872 -1.9425507 -0.86190951 45 61
1.458349 -1.9410915 -0.85704786 37 61
1.4397027 -1.9409683 -0.85288072 52 61
1.4216677 -1.9414458 -0.84906077 43 61
1.4031314 -1.9410158 -0.84489363 32 61
1.3835639 -1.9389056 -0.84003198 28 61
1.3673178 -1.9412273 -0.83725387 31 61
1.34681 -1.937265 -0.83169764 19 61
1.3301193 -1.9385356 -0.82857227 24 61
1.3129377 -1.9388983 -0.82509965 23 61
1.294759 -1.9375645 -0.82093251 35 61
1.2781963 -1.9384289 -0.81780714 22 61
1.261672 -1.9391632 -0.81468177 32 61
1.2446799 -1.9389791 -0.81120914 35 61
1.2277378 -1.9386598 -0.80773652 31 61
1.2113439 -1.939001 -0.80461115 28 61
1.1969616 -1.9424067 -0.8028748 30 61
1.1791711 -1.9401011 -0.79870766 25 61
1.1648319 -1.9432794 -0.79697132 41 61
1.1500206 -1.9455479 -0.79488778 31 61
1.1375886 -1.9517578 -0.79454052 44 61
1.1255915 -1.9587011 -0.79454052 40 61
1.1181786 -1.9737276 -0.79801315 28 61
1.1019281 -1.9731849 -0.79488778 44 61
1.0993053 -1.9971564 -0.80218029 34 61
1.0847924 -1.9997437 -0.80044395 25 61
1.084007 -2.027859 -0.8094728 30 61
1.067607 -2.0270066 -0.80634743 24 61
1.0694164 -2.0609806 -0.81780714 34 61
1.0605953 -2.0750167 -0.82093251 37 61
1.0672593 -2.1200061 -0.83690661 66 61
1.0358857 -2.0895557 -0.82162702 39 61
1.0176919 -2.0849197 -0.81711262 32 61
0.98942894 -2.0590136 -0.80391663 20 61
0.97236091 -2.0557232 -0.80009669 18 61
0.95180488 -2.0446515 -0.79315144 10 61
0.94236904 -2.0572722 -0.79592955 21 61
0.92471349 -2.051904 -0.79141515 21 61
0.90830094 -2.0489681 -0.78794253 36 61
0.89496118 -2.052784 -0.78724796 20 61
0.88086891 -2.0547898 -0.78585893 13 61
0.8660565 -2.0549722 -0.78377533 16 61
0.85271239 -2.0585151 -0.78308082 18 61
0.83723342 -2.0567615 -0.7803027 15 61
0.82355154 -2.0592484 -0.77926093 25 61
0.81124407 -2.0651355 -0.77960819 23 61
0.79923332 -2.0718238 -0.7803027 23 61
0.7845102 -2.0714281 -0.77821916 18 61
0.77211261 -2.0770814 -0.77856642 17 61
0.76064056 -2.0853033 -0.77995545 16 61
0.74814749 -2.0908141 -0.7803027 17 61
0.73623735 -2.0980194 -0.78134453 16 61
0.72426695 -2.1051571 -0.7823863 18 61
0.71103621 -2.1086731 -0.78203905 13 61
0.69661105 -2.1085448 -0.7803027 20 61
0.68366009 -2.1127794 -0.7803027 18 61
0.6706835 -2.1169345 -0.7803027 18 61
0.66046369 -2.1299653 -0.78377533 24 61
0.64547306 -2.127697 -0.78134453 19 61
0.63293999 -2.1334155 -0.78203905 11 61
0.61879098 -2.1336567 -0.78064996 21 61
0.60696822 -2.1419239 -0.7823863 10 61
0.59406477 -2.1465116 -0.78273356 7 61
0.57990265 -2.1464956 -0.78134453 11 61
0.56672108 -2.1500134 -0.78134453 13 61
0.557495 -2.1688883 -0.78724796 18 61
0.54234964 -2.1649919 -0.7844699 19 61
0.52749586 -2.1619024 -0.78203905 17 61
0.51769561 -2.1796949 -0.78759521 11 61
0.5055809 -2.1883118 -0.78967881 26 61
0.4925561 -2.1932025 -0.79037333 12 61
0.479891 -2.1998479 -0.79176241 13 61
0.4710573 -2.224767 -0.80009669 5 61
0 -0 -0 4 61
0 -0 -0 8 61
1.0384746 -5.3838921 -1.9884307 12 61
0 -0 -0 4 61
0 -0 -0 4 61
0 -0 -0 4 61
0 -0 -0 4 61
0 -0 -0 4 61
0 -0 -0 4 61
0 -0 -0 6 61
0.30206221 -2.1261411 -0.75321621 4 61
0 -0 -0 4 61
0 -0 -0 4 61
0 -0 -0 4 61
0 -0 -0 3 61
0 -0 -0 3 61
0 -0 -0 6 61
0.53823453 -5.4462843 -1.9846109 21 61
0.50445986 -5.4457493 -1.9832218 21 61
0.47087392 -5.4468732 -1.9825273 25 61
0.43744367 -5.4496603 -1.9825273 25 61
0.40413594 -5.4541121 -1.9832218 18 61
0.14878806 -2.2006083 -0.77474654 3 61
0.13481846 -2.1939921 -0.77196842 15 61
0.12140611 -2.1957142 -0.77231568 6 61
0.10700067 -2.1776857 -0.76537043 10 61
0.093636632 -2.1783011 -0.76537043 7 61
0.079778679 -2.1657152 -0.76050872 10 61
0.065844499 -2.1455431 -0.75286895 26 61
0.052490253 -2.138407 -0.75009084 13 61
0.038959477 -2.1171238 -0.74210382 23 61
0.026088508 -2.1266999 -0.74557644 12 61
0.01290099 -2.1061897 -0.73793662 38 61
-2.7192313e-05 -2.0977893 -0.73481125 34 61
-0.012878015 -2.0939987 -0.73342222 13 61
-0.02599022 -2.116385 -0.7417565 4 61
-0 -0 -0 6 61
-0.051689532 -2.1046567 -0.73758936 7 61
-0.063472301 -2.0668063 -0.72369885 20 61
-0.074452519 -2.0195203 -0.70633572 61 61
-0.086365603 -2.0077825 -0.70216852 75 61
-0.098182961 -1.9969114 -0.69834864 52 61
-0.1084352 -1.959753 -0.68480539 41 61
-0.11834919 -1.9244176 -0.67195666 47 61
-0.11654117 -1.7206155 -0.59660059 44 61
-0.12244008 -1.65627 -0.57298672 48 61
-0.13059668 -1.6302472 -0.56361061 50 61
-0.13883837 -1.6088594 -0.55597079 61 61
-0.14707962 -1.5902342 -0.54937279 93 61
-0.15683433 -1.5893018 -0.54937279 71 61
-0.16619462 -1.5845786 -0.54798377 78 61
-0.17519431 -1.5770043 -0.54555291 64 61
-0.18465018 -1.5740367 -0.5448584 74 61
-0.19350481 -1.5663587 -0.54242754 70 61
-0.20287219 -1.5632818 -0.54173303 88 61
-0.21132919 -1.5536438 -0.53860766 54 61
-0.21928141 -1.5411756 -0.53444052 65 61
-0.22818539 -1.5360904 -0.53305143 61 61
-0.23546462 -1.5207589 -0.52784252 69 61
-0.24182205 -1.5007666 -0.52089727 87 61
-0.24963872 -1.4909295 -0.5177719 93 61
-0.25766346 -1.4829012 -0.51534104 90 61
-0.26642656 -1.4794463 -0.51464653 81 61
-0.27498582 -1.4750175 -0.5136047 83 61
-0.28385437 -1.4723816 -0.51325744 111 61
-0.2932483 -1.4724519 -0.51395196 95 61
-0.30284181 -1.4733809 -0.51499379 87 61
-0.31265152 -1.4751651 -0.51638281 73 61
-0.32249445 -1.4768844 -0.5177719 81 61
-0.33196032 -1.4767079 -0.51846641 103 61
-0.34206787 -1.4792124 -0.5202027 86 61
-0.35157007 -1.4789107 -0.52089727 90 61
-0.36108142 -1.4785479 -0.52159178 96 61
-0.36969209 -1.474485 -0.52089727 92 61
-0.37873241 -1.4721888 -0.52089727 96 61
-0.38775846 -1.4698373 -0.52089727 106 61
-0.39652583 -1.466525 -0.52054995 88 61
-0.40526718 -1.4631604 -0.5202027 95 61
-0.41449249 -1.4615486 -0.52054995 81 61
-0.42293119 -1.4571761 -0.51985544 75 61
-0.43213052 -1.4554528 -0.5202027 91 61
-0.44159633 -1.454569 -0.52089727 74 61
-0.45134479 -1.4545196 -0.52193904 103 61
-0.46082652 -1.4535111 -0.52263355 106 61
-0.47060102 -1.4533333 -0.52367532 96 61
-0.48538315 -1.4682302 -0.53062063 62 61
-0.49378464 -1.4634469 -0.52992606 74 61
-0.51036942 -1.4825627 -0.53860766 63 61
-0.52317685 -1.4900236 -0.5427748 56 61
-0.53798759 -1.5026816 -0.54902554 58 61
-0.55072719 -1.5090452 -0.55284542 71 61
-0.56323868 -1.5144295 -0.55631804 63 61
-0.57650018 -1.5214709 -0.56048524 70 61
-0.58784705 -1.5231557 -0.56256878 86 61
-0.59820902 -1.5221391 -0.56361061 77 61
-0.60858065 -1.5210527 -0.56465238 69 61
-0.61931449 -1.5207649 -0.56604141 59 61
-0.63365161 -1.5290684 -0.57090312 54 61
-0.64629519 -1.5329309 -0.57402849 35 61
-0.7512607 -1.7522247 -0.66396964 7 61
-0.99031228 -2.2720821 -0.87580007 8 61
-1.0000598 -2.2565303 -0.87198013 7 61
-0 -0 -0 4 61
-0 -0 -0 4 61
-0 -0 -0 5 61
-0 -0 -0 4 61
-1.1162724 -2.3237126 -0.91260993 10 61
-1.1321529 -2.3201914 -0.91399896 13 61
-1.145952 -2.3123605 -0.9136517 11 61
-1.1601188 -2.3052855 -0.9136517 5 61
-1.1793575 -2.308147 -0.91781884 14 61
-1.1952236 -2.3041975 -0.91920793 36 61
-1.2041011 -2.2868609 -0.91504079 48 61
-1.2150191 -2.2736387 -0.91260993 27 61
-1.2168866 -2.2438776 -0.90323383 24 61
-1.2157249 -2.2092495 -0.89177412 31 61
-1.2196658 -2.1845491 -0.88448161 27 61
-1.2261202 -2.1647813 -0.8792727 54 61
-1.2062387 -2.0994699 -0.854617 30 61
-1.2040018 -2.0660944 -0.84350461 23 61
-1.2099823 -2.0473621 -0.8386429 20 61
-1.2104802 -2.019784 -0.8299613 26 61
-1.2179846 -2.004302 -0.82648867 36 61
-1.2223957 -1.9840126 -0.82093251 23 61
-1.2355391 -1.9780661 -0.82162702 41 61
-1.2481543 -1.9712402 -0.82197428 43 61
-1.2617445 -1.9659129 -0.82301605 40 61
-1.2758272 -1.9612794 -0.82440513 27 61
-1.2904162 -1.9573301 -0.82614142 38 61
-1.3055253 -1.9540554 -0.82822502 41 61
-1.3206427 -1.9506689 -0.83030862 34 61
-1.3426589 -1.9572265 -0.83690661 28 61
-1.3599913 -1.9566543 -0.84037924 32 61
-1.3789858 -1.9582437 -0.84489363 33 61
-1.3980507 -1.9596733 -0.84940803 38 61
-1.414989 -1.957901 -0.8525334 32 61
-1.4297438 -1.9529666 -0.85426974 31 61
-1.4472822 -1.9516923 -0.85774237 31 61
-1.466547 -1.9525265 -0.86225677 24 61
-1.5063035 -1.9800755 -0.8792727 5 61
-0 -0 -0 4 61
-0 -0 -0 4 61
-0 -0 -0 4 61
-0 -0 -0 3 61
-0 -0 -0 4 61
-0 -0 -0 4 61
-0 -0 -0 4 61
-0 -0 -0 4 61
-0 -0 -0 3 61
-0 -0 -0 4 61
-1.91137 -2.1891422 -1.034152 5 61
-1.8825513 -2.1295788 -1.0105381 17 61
-1.9274634 -2.1536384 -1.0282485 4 61
-0 -0 -0 5 61
-0 -0 -0 4 61
-1.9508315 -2.10061 -1.0195669 8 61
-0 -0 -0 5 61
-1.9848636 -2.085346 -1.0240813 8 61
-2.0164838 -2.0927188 -1.034152 8 61
-2.0377955 -2.0890365 -1.0386664 15 61
-2.0788977 -2.1051967 -1.0535988 34 61
-2.0970776 -2.0977089 -1.0563768 53 61
-2.107909 -2.082824 -1.055335 50 61
-2.1307118 -2.07968 -1.060544 57 61
-2.1434324 -2.0665672 -1.060544 35 61
-2.1628604 -2.0598464 -1.0640166 40 61
-2.1795554 -2.0503933 -1.0661001 35 61
-2.195529 -2.0401745 -1.0678365 24 61
-2.2107685 -2.029202 -1.0692255 27 61
-2.2280393 -2.02001 -1.0716563 27 61
-2.2396934 -2.0056751 -1.0713091 35 61
-2.2582774 -1.9974889 -1.0744345 43 61
-2.2676673 -1.9811257 -1.0730455 35 61
-2.2776513 -1.9653356 -1.0720036 16 61
-2.2903812 -1.9519317 -1.0723509 13 61
-2.3051836 -1.9402581 -1.07374 20 61
-2.3199291 -1.9284762 -1.075129 31 61
-2.3447609 -1.9249207 -1.0813798 35 61
-0 -0 -0 38 61
-0 -0 -0 36 61
-2.6379256 -2.0856719 -1.2032691 40 61
-2.6447616 -2.0648277 -1.200491 47 61
-2.5140789 -1.9380101 -1.1334692 24 61
-2.449831 -1.8645874 -1.0980483 21 61
-2.4342446 -1.8292291 -1.0855469 23 61
-2.4296117 -1.8025187 -1.0782543 33 61
-2.4186921 -1.7714992 -1.0681838 27 61
-2.4173608 -1.7478288 -1.0626276 33 61
-2.4242244 -1.7302378 -1.0608913 44 61
-2.4301968 -1.7120881 -1.0588076 31 61
-2.4337289 -1.6923234 -1.0556823 22 61
-2.4510238 -1.682137 -1.0588076 23 61
-2.4775999 -1.6781162 -1.0661001 17 61
-2.482394 -1.6592324 -1.0636693 33 61
-2.5019195 -1.650169 -1.0678365 21 61
-2.5300705 -1.6465583 -1.0758235 10 61
-2.5432818 -1.633031 -1.0772126 11 61
-2.5389979 -1.6083565 -1.0709618 14 61
-2.5273519 -1.579321 -1.0615858 18 61
-2.5282156 -1.5583676 -1.0577658 17 61
-2.5064867 -1.523814 -1.0442226 41 61
-2.5125732 -1.5064756 -1.0428336 34 61
-2.5201554 -1.4900752 -1.0421391 56 61
-2.528441 -1.4741111 -1.0417918 60 61
-2.5423152 -1.4613751 -1.0438753 26 61
-2.5536814 -1.4471363 -1.0449171 27 61
-2.5625126 -1.43144 -1.0449171 40 61
-2.5696051 -1.4147844 -1.0442226 40 61
-2.5774136 -1.3985435 -1.0438753 40 61
-2.5884266 -1.38403 -1.0449171 9 61
-0 -0 -0 4 61
-0 -0 -0 4 61
-0 -0 -0 4 61
-0 -0 -0 4 61
-0 -0 -0 4 61
-0 -0 -0 5 61
-0 -0 -0 4 61
-0 -0 -0 3 61
-0 -0 -0 7 61
-0 -0 -0 3 61
-0 -0 -0 7 61
-0 -0 -0 4 61
-0 -0 -0 4 61
-0 -0 -0 4 61
-1.027715 -0.43248913 -0.37087962 12 61
-1.0234199 -0.42330033 -0.36810151 14 61
-1.0685483 -0.4343597 -0.38511741 4 61
-0 -0 -0 4 61
-0 -0 -0 5 61
-0 -0 -0 4 61
-0 -0 -0 4 61
-0 -0 -0 5 61
-0 -0 -0 3 61
-0 -0 -0 6 61
-0 -0 -0 4 61
-0 -0 -0 5 61
-0 -0 -0 5 61
-0 -0 -0 4 61
-0 -0 -0 3 61
-0 -0 -0 5 61
-1.2156098 -0.37641203 -0.42921981 41 61
-1.2295606 -0.37249133 -0.43373424 33 61
-1.2390143 -0.36707747 -0.43651232 28 61
-0 -0 -0 4 61
-0 -0 -0 5 61
-0 -0 -0 6 61
-0 -0 -0 4 61
-2.6269212 -0.6926977 -0.96400487 6 61
-0 -0 -0 5 61
-2.6479576 -0.66360617 -0.96886653 6 61
-0 -0 -0 5 61
-0 -0 -0 4 61
-0 -0 -0 5 61
-0 -0 -0 5 61
-0 -0 -0 3 61
-1.1817646 -0.24965754 -0.40525866 10 61
-0 -0 -0 7 61
-0 -0 -0 5 61
-1.1944466 -0.22946307 -0.40838403 13 61
-0 -0 -0 5 61
-0 -0 -0 4 61
-0 -0 -0 4 61
-0 -0 -0 4 61
-0 -0 -0 3 61
-0 -0 -0 3 61
-0 -0 -0 5 61
-0 -0 -0 3 61
-0 -0 -0 4 61
-0 -0 -0 8 61
-0 -0 -0 5 61
-0 -0 -0 5 61
-0 -0 -0 3 61
-0 -0 -0 6 61
-0 -0 -0 5 61
-0 -0 -0 3 61
-0 -0 -0 6 61
-0 -0 -0 5 61
-0 0 -0 4 62
-0 0 -0 4 62
-0 0 -0 5 62
-0 0 -0 4 62
-0 0 -0 5 62
-0 0 -0 4 62
-0 0 -0 4 62
-0 0 -0 6 62
-0 0 -0 5 62
-0 0 -0 4 62
-0 0 -0 5 62
-0 0 -0 5 62
-0 0 -0 5 62
-0 0 -0 5 62
-0 0 -0 6 62
-0 0 -0 5 62
-0 0 -0 4 62
-0 0 -0 6 62
-0 0 -0 5 62
-0 0 -0 5 62
-0 0 -0 6 62
-0 0 -0 4 62
-0 0 -0 4 62
-0 0 -0 5 62
-0 0 -0 4 62
-0 0 -0 5 62
-0 0 -0 5 62
-0 0 -0 4 62
-0 0 -0 5 62
-0 0 -0 5 62
-0 0 -0 6 62
-0 0 -0 5 62
-0 0 -0 5 62
-0 0 -0 4 62
-0 0 -0 4 62
-0 0 -0 4 62
-0 0 -0 5 62
-0 0 -0 4 62
-0 0 -0 4 62
-0 0 -0 5 62
-0 0 -0 7 62
-0 0 -0 5 62
-0 0 -0 5 62
-0 0 -0 4 62
-0 0 -0 4 62
-0 0 -0 5 62
-0 0 -0 5 62
-0 0 -0 4 62
-0 0 -0 4 62
-0 0 -0 4 62
-0 0 -0 4 62
-0 0 -0 7 62
-0 0 -0 4 62
-0 0 -0 4 62
-0 0 -0 6 62
-0 0 -0 6 62
-0 0 -0 8 62
-0 0 -0 5 62
-0 0 -0 5 62
-0 0 -0 4 62
-0 0 -0 5 62
-0 0 -0 5 62
-0 0 -0 5 62
-0 0 -0 6 62
-0 0 -0 5 62
-0 0 -0 5 62
-0 0 -0 4 62
-4.8141046 2.2397945 -1.9895765 8 62
-4.6550465 2.2006245 -1.9281054 59 62
-4.7753119 2.2934451 -1.9849304 31 62
-4.7972426 2.3403137 -2.0002983 19 62
-4.8037133 2.3800724 -2.009233 26 62
-4.8190532 2.4246163 -2.022099 11 62
-4.818224 2.4613638 -2.0281746 22 62
-4.8411674 2.510663 -2.0446146 41 62
-4.8240185 2.5394504 -2.0438998 35 62
-4.8231726 2.5769253 -2.0503328 42 62
-4.8048072 2.6051357 -2.0492606 38 62
-4.7870955 2.6336677 -2.0485458 27 62
-4.7643218 2.6593492 -2.0456867 26 62
-4.7267852 2.6765659 -2.0363946 46 62
-4.7151318 2.7083099 -2.0385389 37 62
-4.6951976 2.7353096 -2.0371094 45 62
-4.68717 2.7692938 -2.0410407 51 62
-4.6773 2.8023221 -2.0442572 25 62
-4.6703935 2.8372734 -2.0489032 38 62
-4.652101 2.865387 -2.0485458 36 62
-4.6288867 2.8904147 -2.0460441 36 62
-4.6023841 2.9132674 -2.0421128 25 62
-0 0 -0 5 62
-2.723294 1.7708137 -1.2008165 11 62
-2.7131572 1.7880042 -1.2011739 24 62
-2.708348 1.8087685 -1.204033 25 62
-2.707253 1.8321587 -1.2086791 20 62
-2.7075129 1.8566599 -1.2140399 16 62
-2.7022052 1.8775018 -1.216899 17 62
-2.7066708 1.9053385 -1.2244042 21 62
-2.7078545 1.9311309 -1.2304798 16 62
-2.707309 1.955915 -1.2358407 15 62
-2.7005322 1.9763515 -1.2383425 20 62
-2.6936061 1.9967784 -1.2408442 15 62
-2.6813035 2.0132685 -1.2408442 15 62
-2.6636965 2.0257246 -1.2383425 14 62
-2.6460378 2.0380406 -1.2358407 5 62
-2.6121287 2.0375772 -1.2254764 18 62
-2.5863869 2.043144 -1.2190434 11 62
-2.5570292 2.0455546 -1.2108234 13 62
-2.5241117 2.0447423 -1.2008165 14 62
-2.4941895 2.0459735 -1.1922392 14 62
-2.465066 2.0475118 -1.1840192 16 62
-2.4395919 2.0517766 -1.1775862 14 62
-2.4106035 2.052778 -1.1693661 13 62
-2.3838172 2.0553315 -1.1622183 22 62
-2.3500557 2.051491 -1.1514966 13 62
-2.3227296 2.0528817 -1.1439915 18 62
-2.2961712 2.0546377 -1.1368437 15 62
-2.2655268 2.0523825 -1.1275516 14 62
-2.2267385 2.042253 -1.1139708 9 62
-2.1991103 2.0418949 -1.1061081 16 62
-2.172251 2.0419149 -1.0986029 16 62
-2.1414161 2.0378191 -1.0889534 16 62
-2.114749 2.0373111 -1.0814482 9 62
-2.092849 2.0411179 -1.0764447 14 62
-2.0709825 2.0447333 -1.0714413 9 62
-2.0445271 2.043535 -1.0639361 9 62
-2.0411396 2.0653429 -1.0689396 9 62
-2.0127726 2.0617869 -1.0603622 13 62
-1.9923053 2.0660295 -1.0560735 12 62
-0 0 -0 4 62
-2.0877452 2.2188962 -1.1236203 10 62
-1.8846449 2.0277739 -1.017118 9 62
-1.8519586 2.0172811 -1.0056815 25 62
-1.8464462 2.0362179 -1.0096128 13 62
-1.8326713 2.0461175 -1.008898 16 62
-1.8237945 2.0615215 -1.0110424 12 62
-1.8221709 2.0853341 -1.0174754 16 62
-1.8184929 2.1070826 -1.0228362 18 62
-1.8164334 2.1309965 -1.0292692 18 62
-1.8159529 2.1571076 -1.0367744 15 62
-1.8158168 2.184011 -1.0446371 13 62
-1.8112704 2.2059398 -1.0499979 24 62
-1.8106397 2.2329733 -1.0578605 12 62
-1.8114961 2.262269 -1.0667952 14 62
-1.8126398 2.2923911 -1.0760874 12 62
-1.8157803 2.3255565 -1.086809 15 62
-1.81402 2.3529284 -1.0946716 17 62
-1.8165166 2.3863111 -1.1053933 18 62
-1.8119389 2.4108522 -1.1118264 15 62
-1.8121359 2.4421773 -1.1214759 15 62
-1.8076016 2.467567 -1.1282663 13 62
-1.7978988 2.4861803 -1.1318402 22 62
-1.7912905 2.5093286 -1.1375585 11 62
-1.7726327 2.5156915 -1.1354141 14 62
-1.7502322 2.5165522 -1.1307681 18 62
-1.6496772 2.4032624 -1.0732282 2233 62
-1.6223308 2.3947802 -1.0646509 2509 62
-1.6013786 2.3953717 -1.0603622 1829 62
-1.592821 2.4145083 -1.0646509 2561 62
-1.5840886 2.43363 -1.0689396 1150 62
-1.5751812 2.4527349 -1.0732282 335 62
-1.6255691 2.5657132 -1.1200464 30 62
-1.6251374 2.6001928 -1.1311255 29 62
-0 0 -0 18 62
-0 0 -0 23 62
-0 0 -0 27 62
-0 0 -0 22 62
-0 0 -0 15 62
-0 0 -0 4 62
-0 0 -0 6 62
-0 0 -0 5 62
-0 0 -0 19 62
-0 0 -0 50 62
-0 0 -0 62 62
-0 0 -0 51 62
-0 0 -0 36 62
-0 0 -0 31 62
-0 0 -0 35 62
-0 0 -0 45 62
-0 0 -0 27 62
-0 0 -0 22 62
-0 0 -0 35 62
-0 0 -0 20 62
-0 0 -0 35 62
-0 0 -0 25 62
-0 0 -0 66 62
-0 0 -0 42 62
-1.1513343 2.6840706 -1.0753726 28 62
-1.1283132 2.6755936 -1.0689396 23 62
-0 0 -0 17 62
-0 0 -0 51 62
-0 0 -0 44 62
-0 0 -0 39 62
-0 0 -0 62 62
-0 0 -0 48 62
-0 0 -0 33 62
-0 0 -0 39 62
-0 0 -0 50 62
-0 0 -0 37 62
-0 0 -0 39 62
-0 0 -0 54 62
-0 0 -0 33 62
-0 0 -0 38 62
-0 0 -0 37 62
-0.78370649 2.5253198 -0.96958512 46 62
-0 0 -0 29 62
-0 0 -0 40 62
-0 0 -0 46 62
-0.7141093 2.5177345 -0.95922077 43 62
-0.69615537 2.5130677 -0.95564687 27 62
-0.67999136 2.5145872 -0.9545747 30 62
-0.66312057 2.5132937 -0.95243037 42 62
-0.64675641 2.5136971 -0.95100081 40 62
-0.6297313 2.5112765 -0.94849908 35 62
-0 0 -0 57 62
-0 0 -0 37 62
-0.58129704 2.5133429 -0.94492519 48 62
-0.56443137 2.5104835 -0.94242346 34 62
-0.54841936 2.511162 -0.94135129 38 62
-0.531259 2.5062568 -0.93813479 39 62
-0.51493132 2.504895 -0.93634784 50 62
-0.49809343 2.5006795 -0.93348873 50 62
-0.48168007 2.4981861 -0.93134439 44 62
-0.46463192 2.4919131 -0.92777044 59 62
-0.4486714 2.4910402 -0.92634088 55 62
-0.43433684 2.4992676 -0.92848521 29 62
-0.41899347 2.5018857 -0.92848521 42 62
-0.40393123 2.5062535 -0.92919999 49 62
-0.39525744 2.5520644 -0.94599736 38 62
-0.38548785 2.5941665 -0.9613651 23 62
-0.37679392 2.6473391 -0.98102158 14 62
-0.35815299 2.6320176 -0.97423118 23 62
-0.34355795 2.6462064 -0.97887725 43 62
-0.32685694 2.6445568 -0.97744769 28 62
-0.31040663 2.6446574 -0.97673291 33 62
-0.29293695 2.6353731 -0.97244424 44 62
-0.27588496 2.6287613 -0.96922773 56 62
-0.25920013 2.6248279 -0.96708339 39 62
-0.24265991 2.6217189 -0.96529645 52 62
-0.22624785 2.6194365 -0.96386689 56 62
-0.20979843 2.6161206 -0.96207988 50 62
-0.19346702 2.6136329 -0.96065032 33 62
-0.17704789 2.6091797 -0.95850599 40 62
-0.16063333 2.6036918 -0.95600426 45 62
-0.14429279 2.5981007 -0.95350254 55 62
-0.12811878 2.5942731 -0.95171559 42 62
-0.11199719 2.5903449 -0.94992864 51 62
-0.096032061 2.5891166 -0.94921386 35 62
-0.080057487 2.5868566 -0.94814169 45 62
-0.064206347 2.5882328 -0.94849908 44 62
-0.048324037 2.588578 -0.94849908 45 62
-0.032451477 2.5897598 -0.94885647 40 62
-0.01656623 2.5908439 -0.94921386 40 62
-0.00066859426 2.5890291 -0.94849908 35 62
0.015206144 2.5871165 -0.9477843 52 62
0.03102331 2.582305 -0.94599736 47 62
0.046799093 2.5783308 -0.9445678 51 62
0.062618554 2.5779951 -0.9445678 23 62
0.078264378 2.5719614 -0.94242346 52 62
0.094009884 2.5704994 -0.94206607 56 62
0.1097004 2.5680079 -0.94135129 48 62
0 0 -0 58 62
0 0 -0 54 62
0 0 -0 51 62
0 0 -0 50 62
0.18801029 2.5578458 -0.93920696 48 62
0.20370139 2.5566442 -0.93920696 49 62
0.21970496 2.5590682 -0.94063652 48 62
0.23540297 2.5576718 -0.94063652 39 62
0.251275 2.5580382 -0.94135129 34 62
0.26716039 2.5583062 -0.94206607 52 62
0.28285283 2.5566187 -0.94206607 54 62
0.29842609 2.5539074 -0.94170868 54 62
0.31420517 2.5529552 -0.94206607 45 62
0.32962409 2.5491266 -0.94135129 55 62
0.34488225 2.5442798 -0.94027913 37 62
0.36074969 2.5439651 -0.94099391 59 62
0.37607849 2.539856 -0.94027913 62 62
0.39165568 2.5375006 -0.94027913 76 62
0.40721813 2.5350497 -0.94027913 57 62
0.42184171 2.5269761 -0.93813479 58 62
0.43526459 2.5123773 -0.93348873 56 62
0.44984597 2.5050631 -0.93170178 63 62
0.46367061 2.4939921 -0.92848521 83 62
0.45902231 2.3874645 -0.88810015 26 62
0 0 -0 50 62
0 0 -0 60 62
0 0 -0 34 62
0 0 -0 42 62
0.53306395 2.376817 -0.88988709 60 62
0.54805803 2.3753214 -0.89060187 56 62
0.56348521 2.3755486 -0.89203143 59 62
0.57849324 2.3738613 -0.89274621 50 62
0.59327495 2.3711729 -0.8931036 50 62
0.6082778 2.3692973 -0.89381838 51 62
0.62327993 2.3673265 -0.89453316 50 62
0.63828081 2.3652608 -0.89524794 55 62
0.65278172 2.3613 -0.89524794 37 62
0.66802168 2.359946 -0.8963201 50 62
0.68326956 2.3584938 -0.89739227 49 62
0.69852471 2.3569431 -0.8984645 57 62
0.71351552 2.3544002 -0.89917928 45 62
0.7296074 2.3553305 -0.90132362 51 62
0.74601942 2.3570418 -0.90382534 38 62
0.76046789 2.3524201 -0.90382534 47 62
0.776645 2.3530307 -0.90596968 52 62
0.7925598 2.3526461 -0.90775663 57 62
0.80667675 2.3468556 -0.90739924 47 62
0.82137072 2.3427432 -0.90775663 60 62
0.86466813 2.4185634 -0.94063652 9 62
0 0 -0 5 62
0 0 -0 7 62
0.9199518 2.431062 -0.95243037 8 62
0.92846662 2.4088147 -0.94563997 16 62
0.94220525 2.4004645 -0.9445678 18 62
0.95275611 2.3842313 -0.94027913 37 62
0.9684236 2.3809357 -0.94135129 38 62
0.98587304 2.3818519 -0.94421041 33 62
0.999744 2.3740366 -0.94349563 41 62
1.0190744 2.3790174 -0.94814169 22 62
1.0351452 2.3761444 -0.94957125 32 62
1.0470567 2.363771 -0.94706953 28 62
1.0611572 2.3564503 -0.94671214 47 62
1.075985 2.350744 -0.94706953 49 62
0 0 -0 54 62
1.1055497 2.3390517 -0.9477843 29 62
1.1190722 2.3305404 -0.94706953 26 62
1.4155354 2.9019535 -1.1933113 371 62
1.4345589 2.8957238 -1.1943835 5467 62
1.4611161 2.9043868 -1.2018887 5004 62
0 0 -0 1863 62
0 0 -0 1985 62
1.2428195 2.3613217 -0.97887725 1769 62
1.262567 2.3635361 -0.98316592 839 62
1.2770456 2.3557446 -0.98316592 782 62
1.276618 2.3208618 -0.97137207 1880 62
1.3113213 2.3496816 -0.98745459 3300 62
1.4140831 2.4976244 -1.0560735 3667 62
1.4624132 2.5463989 -1.0814482 5688 62
1.4789505 2.5389917 -1.082163 5672 62
1.509706 2.5555992 -1.0935994 2804 62
1.5584826 2.6015658 -1.1182594 345 62
0 0 -0 751 62
1.5109338 2.4534256 -1.0603622 3647 62
1.5259593 2.4441085 -1.0603622 5236 62
1.5394286 2.432332 -1.0592901 5303 62
1.5452447 2.4086921 -1.052857 4432 62
0 0 -0 2860 62
0 0 -0 1054 62
1.5472969 2.3169355 -1.0239084 5245 62
1.5243123 2.2524855 -0.99853373 5730 62
1.5418025 2.2484813 -1.0010355 5511 62
1.5811539 2.2757914 -1.0181901 4896 62
1.6069174 2.2828469 -1.0260527 4169 62
0 0 -0 1933 62
1.6151175 2.2357042 -1.0131867 4437 62
1.5984638 2.1843028 -0.99353021 5572 62
1.6101675 2.1722031 -0.99245805 5755 62
1.6234655 2.1622822 -0.99245805 5708 62
1.6372679 2.1530235 -0.99281543 5665 62
1.6692575 2.1673522 -1.0046093 4810 62
1.7687025 2.2675204 -1.0582179 4988 62
1.8028483 2.2822733 -1.0707265 5566 62
1.8174016 2.2718976 -1.0710839 5564 62
1.8318956 2.2614291 -1.0714413 5622 62
1.8362583 2.2385938 -1.0657231 4782 62
0 0 -0 984 62
0 0 -0 78 62
0 0 -0 69 62
0 0 -0 55 62
2.1006339 2.4063365 -1.1800879 60 62
2.1821671 2.4689727 -1.218686 75 62
2.1779664 2.4339631 -1.2076069 76 62
2.2612171 2.4959905 -1.2465625 66 62
2.3124774 2.5212977 -1.2669337 83 62
2.3437936 2.5241697 -1.2758684 68 62
2.368834 2.5199473 -1.2812293 57 62
0 0 -0 91 62
0 0 -0 974 62
0 0 -0 2078 62
0 0 -0 1862 62
0 0 -0 543 62
0 0 -0 62 62
0 0 -0 28 62
0 0 -0 42 62
0 0 -0 46 62
0 0 -0 47 62
2.4205029 2.2495513 -1.2222599 46 62
2.4218748 2.2232897 -1.2158269 40 62
2.3994899 2.1757689 -1.1972426 57 62
0 0 -0 909 62
2.345556 2.0750041 -1.1561427 5199 62
2.3610575 2.0630307 -1.1575723 5369 62
2.3687215 2.044234 -1.1550705 5520 62
2.3883288 2.0357189 -1.1586444 5293 62
2.3929145 2.0144107 -1.1547132 1629 62
2.4274952 2.0181971 -1.1657922 92 62
2.4210637 1.9878573 -1.1565001 61 62
0 0 -0 56 62
0 0 -0 43 62
0 0 -0 58 62
0 0 -0 62 62
0 0 -0 72 62
0 0 -0 38 62
2.4914925 1.8725302 -1.1504245 18 62
3.316793 2.460943 -1.5381927 12 62
3.3340909 2.4422007 -1.5392649 13 62
3.3497703 2.4222443 -1.5396223 26 62
3.3691311 2.4049001 -1.5417666 15 62
3.3822968 2.3831065 -1.5410519 18 62
3.4068241 2.3692393 -1.5456979 16 62
3.416677 2.3451202 -1.5435536 21 62
3.4348686 2.3267303 -1.5453405 16 62
3.443645 2.3019779 -1.5428388 22 62
3.4460096 2.2730918 -1.537478 28 62
3.4598923 2.2519047 -1.537478 15 62
3.4712868 2.2291191 -1.5364058 29 62
3.484899 2.2077777 -1.5364058 20 62
3.4928358 2.182889 -1.5339041 15 62
3.5045738 2.1604362 -1.5331893 19 62
3.5257447 2.1437433 -1.5367632 11 62
3.5452404 2.1259112 -1.5396223 16 62
3.5541983 2.1017416 -1.5378354 15 62
3.5783234 2.0864789 -1.5428388 21 62
3.5959167 2.067276 -1.5449831 13 62
3.613409 2.0479355 -1.5471275 11 62
3.6299839 2.0280027 -1.5489144 8 62
3.6652677 2.0183034 -1.5589213 21 62
3.692359 2.0037928 -1.5653545 44 62
3.736706 1.998273 -1.5792927 22 62
3.7563336 1.979225 -1.5825092 31 62
3.8081977 1.9767896 -1.5996639 35 62
4.2385468 2.1672201 -1.7794311 27 62
4.2934737 2.1621726 -1.7973006 19 62
4.3342729 2.1494787 -1.8090944 26 62
4.3599691 2.1289897 -1.8144553 30 62
4.3746338 2.1030066 -1.81517 31 62
4.3882995 2.076524 -1.8155274 20 62
4.4026518 2.0503473 -1.8162422 19 62
4.4176965 2.0244617 -1.8173144 22 62
4.4249268 1.9950143 -1.81517 36 62
4.4464765 1.9719901 -1.8191015 26 62
4.4593487 1.9450433 -1.8194588 19 62
4.4660487 1.9154363 -1.8173144 25 62
4.4725542 1.8858203 -1.81517 31 62
4.4874926 1.8597717 -1.8165996 34 62
4.5066042 1.8353719 -1.8198162 21 62
4.5264525 1.8111541 -1.8233901 34 62
4.5383496 1.7836878 -1.8237475 17 62
4.5474658 1.7551349 -1.8230327 27 62
4.554656 1.7258757 -1.8216032 23 62
4.556406 1.6946414 -1.8180292 33 62
4.5553126 1.6624902 -1.8133831 20 62
4.558393 1.6319902 -1.810524 29 62
4.5524588 1.5984217 -1.804091 24 62
4.5418687 1.5634681 -1.795871 14 62
4.5336771 1.5296003 -1.7887232 26 62
4.5323358 1.4982367 -1.7844346 25 62
4.5307808 1.4669472 -1.7801459 20 62
4.5281224 1.4354511 -1.7754998 18 62
4.5288167 1.4051499 -1.7722833 29 62
4.5310974 1.3754367 -1.7697816 25 62
4.5322886 1.3454827 -1.7669225 28 62
4.5386653 1.3171273 -1.7662077 12 62
4.5394731 1.2872161 -1.7633486 25 62
4.5409851 1.2575939 -1.7608469 18 62
4.5441079 1.2284888 -1.7590599 17 62
4.5497541 1.2001073 -1.7583451 14 62
4.5525098 1.171005 -1.7565582 14 62
4.5614209 1.1435034 -1.757273 27 62
4.5737953 1.1168224 -1.7594173 34 62
4.5787449 1.0883052 -1.7587025 17 62
4.586246 1.0604004 -1.7590599 27 62
4.5917549 1.032035 -1.7587025 19 62
4.5989137 1.0040402 -1.7590599 23 62
4.600419 0.97483528 -1.757273 24 62
4.6044846 0.94621348 -1.7565582 19 62
4.6120358 0.91830766 -1.757273 10 62
4.6120811 0.88893139 -1.7551286 24 62
4.6183667 0.8607865 -1.755486 20 62
4.6244807 0.83259797 -1.7558434 14 62
4.6295023 0.80420703 -1.7558434 21 62
4.6380343 0.77640224 -1.757273 17 62
4.6417885 0.74778074 -1.7569156 28 62
4.6444435 0.71899956 -1.7562008 24 62
4.6459966 0.69007683 -1.7551286 30 62
4.6455197 0.66089922 -1.7533416 23 62
4.6467113 0.63200498 -1.7522694 23 62
4.6467972 0.603001 -1.7508398 15 62
4.6476288 0.57413411 -1.7497677 14 62
4.6445708 0.54484487 -1.7472659 27 62
4.6515393 0.51674819 -1.7486955 24 62
4.6574092 0.48848921 -1.7497677 29 62
4.6677547 0.46063584 -1.7526268 19 62
4.6779327 0.4326739 -1.755486 31 62
4.6851521 0.40436366 -1.757273 26 62
4.6903381 0.37583205 -1.7583451 25 62
4.6944189 0.34718323 -1.7590599 28 62
4.6973925 0.31843537 -1.7594173 21 62
4.7001901 0.28966409 -1.7597747 31 62
4.7009463 0.26076716 -1.7594173 27 62
4.7015252 0.23187186 -1.7590599 24 62
4.7028594 0.20301948 -1.7590599 18 62
4.7040167 0.17415945 -1.7590599 18 62
4.7059302 0.14532162 -1.7594173 26 62
4.7086005 0.11648989 -1.7601321 17 62
4.7073593 0.087561682 -1.7594173 25 62
4.7078075 0.058676217 -1.7594173 20 62
4.7062111 0.029776884 -1.7587025 24 62
4.7044373 0.00089934951 -1.7579877 25 62
4.7043543 -0.027966553 -1.7579877 33 62
4.7031603 -0.056820042 -1.7576303 32 62
4.7045908 -0.085711204 -1.7583451 24 62
4.7086449 -0.1146905 -1.7601321 19 62
4.7125201 -0.14372279 -1.761919 20 62
4.7152829 -0.17277266 -1.7633486 28 62
4.7197323 -0.20194183 -1.7654929 25 62
4.7174716 -0.23085205 -1.7651355 21 62
0 -0 -0 27 62
0 -0 -0 20 62
4.7161503 -0.31789771 -1.7665651 25 62
4.7113171 -0.34662366 -1.7654929 23 62
4.7072392 -0.37537661 -1.7647781 22 62
4.703917 -0.4041726 -1.7644207 27 62
4.6994882 -0.4328562 -1.763706 26 62
4.6930261 -0.46131781 -1.7622764 15 62
4.6910362 -0.49020213 -1.7626338 16 62
4.6879401 -0.51897657 -1.7626338 17 62
4.6846671 -0.54773146 -1.7626338 21 62
4.6839991 -0.57680839 -1.763706 18 62
4.6822243 -0.6057778 -1.7644207 28 62
4.6793447 -0.63462162 -1.7647781 17 62
4.6772118 -0.66358411 -1.7654929 27 62
4.6721282 -0.69213349 -1.7651355 17 62
4.6677933 -0.72078812 -1.7651355 23 62
4.6651273 -0.74971211 -1.7658503 31 62
4.665966 -0.77924621 -1.7679946 29 62
4.6666183 -0.80881882 -1.770139 26 62
4.6643252 -0.83793306 -1.7712111 26 62
4.6618509 -0.86704957 -1.7722833 20 62
4.6573601 -0.8958143 -1.7726407 24 62
4.6563559 -0.92528504 -1.7744277 13 62
4.6515055 -0.95402616 -1.774785 23 62
4.6519604 -0.98390263 -1.7772868 21 62
4.6576986 -1.0150142 -1.7819328 17 62
4.6541166 -1.0441878 -1.783005 19 62
4.6576324 -1.0750365 -1.7869363 19 62
4.6464047 -1.1025165 -1.7851493 31 62
4.6740322 -1.1394138 -1.7987301 6 62
4.6461148 -1.1628546 -1.7905102 14 62
4.6253238 -1.1878549 -1.7851493 30 62
4.6170449 -1.215975 -1.7847919 33 62
4.6085954 -1.2440383 -1.7844346 36 62
4.6053762 -1.2735376 -1.7862215 24 62
4.6055627 -1.3040625 -1.789438 22 62
4.6037536 -1.3341173 -1.7919397 25 62
4.608912 -1.3663231 -1.7973006 25 62
4.6022291 -1.3951192 -1.7980154 17 62
0 -0 -0 5 62
0 -0 -0 6 62
4.6130924 -1.4916666 -1.8130257 18 62
0 -0 -0 7 62
4.6174507 -1.5559199 -1.822318 15 62
4.6113496 -1.5854377 -1.8237475 31 62
4.6085854 -1.6161757 -1.8266066 26 62
4.5994611 -1.6447375 -1.826964 22 62
4.5989347 -1.6764475 -1.8308953 25 62
4.6489687 -1.7270811 -1.8555552 5 62
4.5858769 -1.7357334 -1.8341118 19 62
4.5760117 -1.7641752 -1.8344692 21 62
4.5685782 -1.7935853 -1.8358988 30 62
4.5557523 -1.8208904 -1.835184 15 62
4.532383 -1.8438816 -1.8301805 16 62
4.5235724 -1.8727289 -1.8312527 19 62
4.5085535 -1.8989995 -1.8298231 24 62
4.4976749 -1.9269955 -1.8301805 25 62
4.4917598 -1.9571685 -1.8326823 18 62
4.4805202 -1.9850709 -1.8330396 25 62
4.4920988 -2.0232668 -1.8430465 11 62
4.4728065 -2.0476811 -1.8401874 13 62
4.4720125 -2.0806036 -1.8451909 19 62
4.4557848 -2.1064072 -1.8437613 18 62
4.4469852 -2.1357298 -1.8455483 34 62
4.428761 -2.1605184 -1.8434039 23 62
4.4137473 -2.1868227 -1.8426892 17 62
4.3952403 -2.211345 -1.8405448 21 62
4.3749356 -2.2348723 -1.8376857 23 62
4.3619695 -2.2621045 -1.8380431 16 62
4.3488336 -2.2892616 -1.8384005 19 62
4.3347049 -2.3159025 -1.8384005 15 62
4.3286233 -2.3469083 -1.8419744 21 62
4.321506 -2.3774762 -1.8451909 11 62
4.3190689 -2.4107766 -1.8505517 12 62
4.2985067 -2.4340107 -1.84805 24 62
4.2867303 -2.4622011 -1.8494796 24 62
4.2788043 -2.4926894 -1.8526961 23 62
4.265841 -2.5203221 -1.8537682 19 62
4.2559042 -2.5498097 -1.85627 17 62
4.2497568 -2.5816951 -1.8605586 13 62
4.2354264 -2.6087022 -1.8612734 23 62
4.2233009 -2.6371148 -1.8630604 18 62
2.8718662 -1.8176934 -1.2583563 8 62
2.8669474 -1.8393159 -1.2612154 16 62
0 -0 -0 5 62
2.8503985 -1.8784714 -1.2640746 13 62
2.8434784 -1.8990384 -1.2662189 12 62
2.8255854 -1.9122616 -1.2633598 11 62
0 -0 -0 5 62
0 -0 -0 5 62
0 -0 -0 4 62
0 -0 -0 4 62
0 -0 -0 5 62
0 -0 -0 5 62
0 -0 -0 5 62
0 -0 -0 6 62
0 -0 -0 6 62
0 -0 -0 5 62
0 -0 -0 5 62
2.0367839 -1.6088747 -0.95100081 15 62
2.0057259 -1.6044201 -0.94063652 29 62
1.9856845 -1.6084651 -0.93563306 24 62
1.4320954 -1.1745294 -0.66651827 27 62
1.3910981 -1.1552433 -0.64972097 45 62
1.3811247 -1.1613522 -0.64829141 49 62
1.3689959 -1.1655655 -0.64578968 49 62
1.3441367 -1.1586946 -0.63685489 64 62
1.3292632 -1.1601632 -0.6329236 80 62
1.3207201 -1.1670604 -0.63220882 83 62
1.3121424 -1.1738964 -0.63149405 88 62
1.3056068 -1.1825526 -0.63185143 107 62
1.2997028 -1.1918042 -0.63256621 103 62
1.2951028 -1.2022988 -0.63399577 76 62
1.2911035 -1.2134216 -0.63578272 68 62
1.2843102 -1.2219647 -0.63614011 93 62
1.2841859 -1.2369509 -0.64007145 67 62
1.2805831 -1.2487203 -0.64221579 80 62
1.2788777 -1.2624607 -0.64543229 66 62
1.2777121 -1.2768873 -0.64900619 68 62
1.2770737 -1.2920113 -0.65293747 92 62
1.2736883 -1.3045017 -0.6554392 62 62
1.2727904 -1.3196884 -0.65937048 79 62
1.2704657 -1.3335603 -0.66258699 66 62
1.2686583 -1.3481336 -0.66616088 56 62
1.2635411 -1.3593135 -0.66794783 53 62
1.2570713 -1.3691051 -0.66902 71 62
1.2499014 -1.3781765 -0.66973478 72 62
1.2495209 -1.3948649 -0.6743809 48 62
1.2545511 -1.4178966 -0.68224347 19 62
1.2532007 -1.4340082 -0.68653214 21 62
1.2486489 -1.4466207 -0.68903387 33 62
1.260345 -1.4784243 -0.70118511 23 62
1.2476414 -1.4818424 -0.69904077 38 62
1.2546443 -1.5088625 -0.70869035 57 62
1.3010644 -1.5843904 -0.74228501 29 62
1.5448036 -1.9050406 -0.8963201 14 62
1.5313344 -1.9122962 -0.89524794 25 62
1.5184137 -1.9201909 -0.89453316 20 62
1.5043043 -1.9265267 -0.8931036 25 62
1.4941654 -1.9379399 -0.89417577 35 62
1.4765903 -1.9396392 -0.89060187 32 62
1.4568067 -1.9382095 -0.88559842 25 62
1.4382094 -1.9381107 -0.88130975 23 62
1.4196684 -1.9378569 -0.87702107 31 62
1.4044681 -1.9419901 -0.87487674 34 62
1.3854728 -1.9406884 -0.87023067 25 62
1.369236 -1.9430448 -0.86737156 23 62
1.3498236 -1.9406742 -0.86236805 18 62
1.330492 -1.9381391 -0.85736459 24 62
1.3122902 -1.9369867 -0.85307592 39 62
1.2931149 -1.9341313 -0.84807247 44 62
1.2812229 -1.9420294 -0.84807247 24 62
1.2616419 -1.938112 -0.84271163 32 62
1.2441757 -1.9371717 -0.83878034 30 62
1.2287678 -1.9392464 -0.83627862 35 62
1.2123915 -1.939621 -0.83306205 34 62
1.1985073 -1.9438432 -0.83163249 36 62
1.1817061 -1.94318 -0.8280586 29 62
1.1659188 -1.9439859 -0.82519948 41 62
1.1487404 -1.9422598 -0.8212682 33 62
1.1316272 -1.9403962 -0.81733692 36 62
1.1159766 -1.9408253 -0.8144778 29 62
1.0989821 -1.9386981 -0.81054652 28 62
1.0843332 -1.9405125 -0.80840218 22 62
1.069253 -1.9414022 -0.80590045 35 62
1.0524212 -1.9388964 -0.80196917 27 62
1.0383029 -1.9411994 -0.80018216 32 62
1.0246311 -1.9442285 -0.79875261 31 62
1.0109614 -1.947163 -0.79732305 30 62
1.0015455 -1.9583191 -0.79946738 26 62
0.98489064 -1.9552516 -0.7955361 42 62
0.97660881 -1.9687886 -0.79875261 36 62
0.96123224 -1.9680297 -0.79589349 31 62
0.94145149 -1.9578969 -0.78910309 49 62
0.93501204 -1.9754561 -0.79410654 40 62
0.91696 -1.9684559 -0.7887457 43 62
0.91225588 -1.9901778 -0.7955361 24 62
0.89618915 -1.9872233 -0.79196221 32 62
0.88738602 -2.0003688 -0.79517871 19 62
0.8721087 -1.9989274 -0.7923196 23 62
0.86350775 -2.0128245 -0.79589349 24 62
0.84642476 -2.006897 -0.79124743 31 62
0.83623976 -2.0172298 -0.79339176 33 62
0.82595974 -2.0275128 -0.7955361 29 62
0.81454426 -2.0351441 -0.79660827 27 62
0.80443245 -2.0461886 -0.79911 20 62
0.7915259 -2.0502148 -0.79875261 21 62
0.77893114 -2.0550327 -0.79875261 19 62
0.76533049 -2.0571473 -0.79768044 29 62
0.75461447 -2.0670688 -0.79982477 18 62
0.74286115 -2.0742981 -0.80089694 26 62
0.72795415 -2.0726485 -0.79839522 18 62
0.71613473 -2.0797255 -0.79946738 25 62
0.70365876 -2.0849655 -0.79982477 23 62
0.68909407 -2.0839231 -0.79768044 19 62
0.6788829 -2.0961092 -0.80089694 34 62
0.66600865 -2.1002352 -0.80089694 23 62
0.6522792 -2.1016061 -0.79982477 35 62
0.64018536 -2.1082499 -0.80089694 45 62
0.62617445 -2.108557 -0.79946738 45 62
0.60984188 -2.1006989 -0.79482132 20 62
0.59312004 -2.0909228 -0.78946048 17 62
0.57928246 -2.0909226 -0.78803092 18 62
0.56644189 -2.0944376 -0.78803092 20 62
0.55429441 -2.1005831 -0.78910309 15 62
0.5420928 -2.1066582 -0.79017526 23 62
0.5309726 -2.1171923 -0.79303437 13 62
0.51952207 -2.1267617 -0.7955361 18 62
0.50970113 -2.1435392 -0.80089694 16 62
0.49906287 -2.1575458 -0.80518568 21 62
0.48990962 -2.1787922 -0.81233346 14 62
0.47752726 -2.1863196 -0.81412041 31 62
0.4648774 -2.1928632 -0.81554997 15 62
0 -0 -0 5 62
0.44376636 -2.2277145 -0.82698643 5 62
0 -0 -0 7 62
0 -0 -0 4 62
0 -0 -0 6 62
0 -0 -0 4 62
0 -0 -0 5 62
0.35196778 -2.1835258 -0.80411351 6 62
0.33927733 -2.1902592 -0.80590045 7 62
0.32610604 -2.1941473 -0.80661523 7 62
0 -0 -0 4 62
0 -0 -0 4 62
0 -0 -0 3 62
0 -0 -0 5 62
0 -0 -0 4 62
0 -0 -0 4 62
0.5532245 -5.2751064 -1.9874321 12 62
0.52102989 -5.2802606 -1.9881469 26 62
0.48853511 -5.2824283 -1.9877895 17 62
0.456274 -5.2871876 -1.9885043 20 62
0.42367479 -5.2880254 -1.9877895 23 62
0.39135772 -5.2923884 -1.9885043 13 62
0 -0 -0 4 62
0 -0 -0 4 62
0 -0 -0 12 62
0.10997692 -2.225807 -0.81054652 41 62
0.093141422 -2.1527259 -0.78231269 21 62
0.079654962 -2.1457903 -0.77945358 11 62
0.065969631 -2.1294355 -0.77302057 13 62
0.052626152 -2.1185961 -0.76873183 12 62
0.039227962 -2.0974019 -0.76051188 16 62
0.026334681 -2.0957353 -0.7597971 21 62
0.013358345 -2.0771787 -0.75264931 25 62
0.00061103277 -2.0613444 -0.74657369 7 62
-0.011997748 -2.0547717 -0.74407196 28 62
-0.024457695 -2.0425189 -0.7394259 33 62
-0.036750644 -2.0292571 -0.73442239 45 62
-0.048858963 -2.0149884 -0.72906154 38 62
-0.060964856 -2.006249 -0.72584504 68 62
-0.072931074 -1.9965038 -0.72227114 52 62
-0.084900014 -1.9894871 -0.71976942 68 62
-0.09564247 -1.959078 -0.70833296 46 62
-0.10586067 -1.9258153 -0.69582427 41 62
-0.11521698 -1.8850448 -0.68045652 37 62
-0.11225411 -1.6690484 -0.59789938 48 62
-0.12009193 -1.6357281 -0.58539075 66 62
-0.12841699 -1.6135476 -0.57717079 71 62
-0.13767488 -1.605285 -0.57431161 70 62
-0.1470077 -1.59883 -0.57216728 70 62
-0.15580931 -1.5876738 -0.56823599 84 62
-0.16515958 -1.5829723 -0.56680644 88 62
-0.17476657 -1.5810008 -0.56644905 70 62
-0.18402998 -1.5761882 -0.56501949 77 62
-0.19346938 -1.5731754 -0.56430471 80 62
-0.20227918 -1.5654751 -0.56180298 86 62
-0.21125299 -1.5595771 -0.56001604 86 62
-0.21937446 -1.5480801 -0.55608475 59 62
-0.22763671 -1.53839 -0.55286825 56 62
-0.23521794 -1.5249653 -0.54822218 66 62
-0.24308787 -1.5142722 -0.54464829 81 62
-0.25145116 -1.507225 -0.54250389 66 62
-0.25877976 -1.4946111 -0.53821522 77 62
-0.26695436 -1.4874798 -0.53607088 73 62
-0.27556378 -1.4830592 -0.53499871 94 62
-0.28359959 -1.4758377 -0.53285438 66 62
-0.29228562 -1.4722377 -0.5321396 82 62
-0.30168903 -1.4722464 -0.53285438 82 62
-0.31052357 -1.4694538 -0.53249699 77 62
-0.32032984 -1.4711709 -0.53392655 102 62
-0.32914624 -1.4682664 -0.53356916 107 62
-0.33898962 -1.4698592 -0.53499871 87 62
-0.34821782 -1.4686602 -0.5353561 95 62
-0.35766533 -1.4683107 -0.53607088 105 62
-0.36689484 -1.4669944 -0.53642827 102 62
-0.37612161 -1.4656202 -0.53678566 106 62
-0.38486949 -1.4623816 -0.53642827 83 62
-0.39432219 -1.4617959 -0.53714305 90 62
-0.40353316 -1.4602491 -0.53750044 99 62
-0.41299453 -1.4595428 -0.53821522 77 62
-0.42194235 -1.4569812 -0.53821522 106 62
-0.43246743 -1.4597372 -0.54035956 65 62
-0.4419581 -1.4588437 -0.54107434 76 62
-0.45228353 -1.4605649 -0.54286128 76 62
-0.46377456 -1.4657756 -0.54607785 68 62
-0.47505903 -1.4700114 -0.54893696 67 62
-0.48406988 -1.4670688 -0.54893696 86 62
-0.4978354 -1.4782315 -0.55465519 72 62
-0.51540071 -1.4998783 -0.5646621 38 62
-0.52490324 -1.497569 -0.56501949 36 62
-0.53534043 -1.4978377 -0.56644905 46 62
-0.55187941 -1.5147059 -0.574669 65 62
-0.56409091 -1.5191704 -0.57788557 83 62
-0.57836187 -1.5287824 -0.58324641 94 62
-0.58773142 -1.5252049 -0.58324641 93 62
-0.59776157 -1.5233085 -0.58396119 80 62
-0.60709715 -1.5196121 -0.58396119 77 62
-0.61746597 -1.5184536 -0.58503336 66 62
-0.63070184 -1.5241283 -0.58896464 48 62
-0.64004183 -1.5202297 -0.58896464 52 62
-0.74022347 -1.7283113 -0.67724001 7 62
-1.0090256 -2.3162119 -0.92455393 8 62
-1.0012722 -2.2604525 -0.90382534 4 62
-1.0320024 -2.2917337 -0.91955048 5 62
-1.0122162 -2.2114811 -0.88845754 7 62
-0 -0 -0 6 62
-0 -0 -0 6 62
