# .PCD v0.7 - Point Cloud Data file format
VERSION 0.7
FIELDS x y z intensity ring
SIZE 4 4 4 4 1
TYPE F F F F U
COUNT 1 1 1 1 1
WIDTH 1286
HEIGHT 1
VIEWPOINT 0 0 0 1 0 0 0
POINTS 1286
DATA ascii
1.3635324 3.1296406 -0.0023704611 182 32
0 0 -0 204 32
0 0 -0 195 32
0 0 -0 202 32
0 0 -0 208 32
1.4806907 3.1324446 -0.0029490252 213 32
1.5037799 3.1314123 -0.003051125 248 32
1.5229656 3.1221263 -0.003051125 223 32
0 0 -0 220 32
0 0 -0 227 32
0 0 -0 692 32
0 0 -0 78 32
0 0 -0 64 32
1.617057 3.0269141 -0.0025746603 71 32
1.6413194 3.0274832 -0.0027107929 147 32
1.6208181 2.946394 -0.0017918969 59 32
0 0 -0 47 32
0 0 -0 36 32
0 0 -0 47 32
0 0 -0 99 32
0 0 -0 81 32
0 0 -0 82 32
0 0 -0 40 32
0 0 -0 30 32
0 0 -0 33 32
0 0 -0 42 32
0 0 -0 85 32
0 0 -0 104 32
0 0 -0 84 32
0 0 -0 71 32
0 0 -0 75 32
0 0 -0 89 32
0 0 -0 127 32
0 0 -0 155 32
0 0 -0 171 32
0 0 -0 122 32
0 0 -0 219 32
0 0 -0 243 32
1.9038447 2.5356061 0.0003862273 218 32
0 0 -0 213 32
0 0 -0 164 32
0 0 -0 196 32
0 0 -0 188 32
0 0 -0 172 32
0 0 -0 222 32
0 0 -0 229 32
2.0821998 2.5068176 -0.00061207963 141 32
2.1799364 2.5919383 -0.0020641624 47 32
2.4668262 2.8967054 -0.0068061203 63 32
2.4943492 2.8928733 -0.0069762864 109 32
2.4725919 2.8323212 -0.0062956223 72 32
2.4786651 2.8043606 -0.0061027678 90 32
2.4871562 2.7794127 -0.0059552905 96 32
2.5692928 2.8359745 -0.007055697 40 32
2.7610457 3.0102615 -0.0099825514 130 32
2.7862689 3.0005903 -0.010095995 129 32
2.8142173 2.9936364 -0.010254817 130 32
2.8435636 2.9879007 -0.010436327 134 32
2.868088 2.976877 -0.010538427 137 32
2.8981702 2.9713907 -0.010731282 163 32
2.9282925 2.9656467 -0.010924136 194 32
3.0333931 3.0346012 -0.012319497 46 32
3.1785693 3.1410277 -0.0143388 52 32
3.2285535 3.1514969 -0.014826609 67 32
3.2672668 3.1503656 -0.015132908 72 32
3.3017423 3.1447399 -0.01537114 88 32
3.336271 3.138809 -0.015609372 78 32
3.3686531 3.1305304 -0.01581357 88 32
3.4010589 3.1219721 -0.01601777 83 32
3.4364491 3.1158199 -0.016267348 68 32
3.4778509 3.114687 -0.016607679 73 32
3.5201163 3.1138246 -0.016959356 78 32
3.5587358 3.109271 -0.01725431 101 32
3.603488 3.1095858 -0.017640019 80 32
3.6453326 3.1068733 -0.017980352 75 32
3.6857488 3.1024759 -0.018297995 89 32
3.7224026 3.0945032 -0.018558916 91 32
3.7560048 3.0836589 -0.018774459 61 32
3.781846 3.0662215 -0.018876558 61 32
0 0 -0 6 32
0 0 -0 5 32
0 0 -0 3 32
3.8116045 2.9383028 -0.018241271 8 32
3.8255832 2.9118321 -0.01818455 11 32
3.851372 2.8943107 -0.018297995 17 32
3.8770897 2.8765821 -0.018411439 123 32
3.9382305 2.8846424 -0.019024035 26 32
3.9898906 2.8850291 -0.0195005 13 32
4.0294933 2.8761766 -0.019806799 15 32
4.0789471 2.8738565 -0.020249231 10 32
4.1129236 2.8601911 -0.020476118 18 32
4.1501832 2.8484797 -0.020748384 9 32
4.1717229 2.8257647 -0.020805106 10 32
4.2081041 2.8128936 -0.021066027 12 32
4.2327971 2.7919748 -0.021168126 13 32
4.3713746 2.8450305 -0.022813065 131 32
4.4106269 2.8322008 -0.023108019 123 32
4.4566431 2.8232763 -0.023493728 122 32
4.5052586 2.8154826 -0.023913471 147 32
4.5760775 2.8208387 -0.024628168 140 32
4.6291866 2.8145227 -0.025104633 150 32
4.6823888 2.8076606 -0.025581097 115 32
4.7356801 2.8002505 -0.026057562 108 32
4.7786889 2.7862482 -0.026397893 124 32
4.8416424 2.7832837 -0.026999146 225 32
4.8673291 2.7584531 -0.02711259 292 32
4.8649573 2.7178082 -0.026863014 211 32
4.8622708 2.6772969 -0.026613437 206 32
4.8680601 2.6416898 -0.026477305 203 32
4.8691864 2.6037552 -0.026284449 219 32
4.8726854 2.5673048 -0.026125629 201 32
4.8732586 2.5295279 -0.025932774 269 32
4.8744421 2.4922962 -0.025751263 220 32
4.8771391 2.4560447 -0.025592441 205 32
4.8957009 2.4278498 -0.025637819 163 32
4.9410572 2.4126799 -0.026023528 144 32
4.9728913 2.3905468 -0.026239073 233 32
4.9874659 2.3599887 -0.026239073 215 32
4.9946008 2.3259652 -0.026148317 188 32
5.0015063 2.2919431 -0.026057562 325 32
4.9653368 2.238611 -0.02543362 173 32
4.9186482 2.1813512 -0.024684889 186 32
4.9713531 2.1683171 -0.025172699 438 32
4.9974303 2.1432896 -0.02533152 263 32
5.0021944 2.1090896 -0.025229421 312 32
5.0011845 2.0726156 -0.025059255 270 32
4.9989901 2.0358567 -0.024877744 306 32
5.000247 2.0006883 -0.024741612 284 32
5.0021915 1.9659472 -0.024616823 302 32
5.0122943 1.9344974 -0.024594134 375 32
5.0175242 1.9012264 -0.024514724 334 32
4.9878569 1.8550696 -0.02401557 258 32
5.0057211 1.8268291 -0.02409498 308 32
5.0149531 1.7954062 -0.024072291 277 32
5.0183272 1.7619517 -0.023981538 280 32
5.0252619 1.7298251 -0.02393616 341 32
5.0329385 1.6979994 -0.023902126 330 32
5.0261726 1.6614381 -0.023697928 243 32
4.9934626 1.6167098 -0.023187429 20 32
4.9985223 1.5845295 -0.023130707 33 32
5.0043306 1.5526445 -0.02308533 23 32
5.0061083 1.5195862 -0.022994574 16 32
5.007669 1.4865648 -0.022903819 15 32
4.9955688 1.449681 -0.022654243 11 32
5.007256 1.4198196 -0.022688275 12 32
5.0023818 1.3853337 -0.022529455 18 32
5.0040307 1.3527874 -0.022450043 13 32
5.0074029 1.320783 -0.022393322 10 32
5.0173497 1.2905314 -0.02241601 15 32
5.022264 1.258992 -0.022381976 16 32
5.024066 1.2267295 -0.022313911 17 32
5.0256615 1.1944925 -0.022245845 9 32
5.0192566 1.1604806 -0.022087023 22 32
5.0165262 1.1274693 -0.021973578 13 32
5.0174885 1.0953881 -0.021905512 19 32
5.0065069 1.060851 -0.021701314 12 32
5.0070448 1.0289044 -0.021633247 15 32
5.0034571 0.99621058 -0.021519803 9 32
0 0 -0 16 32
5.0202203 0.93565118 -0.021576526 14 32
5.025867 0.90483004 -0.021576526 14 32
5.0323095 0.87414593 -0.021587869 16 32
5.0346198 0.84275681 -0.021553837 6 32
5.0219259 0.80898786 -0.021349637 7 32
5.0297599 0.77861738 -0.021383669 14 32
5.0265298 0.74656606 -0.021292916 21 32
5.0201263 0.71416146 -0.021168126 14 32
5.0184689 0.68253702 -0.021100061 17 32
5.0215707 0.6516028 -0.021088716 21 32
5.0254745 0.6207788 -0.021088716 23 32
5.0252161 0.58946568 -0.021043338 15 32
5.0297322 0.55873078 -0.021054683 28 32
5.0360494 0.52817106 -0.021088716 19 32
5.0391955 0.49726051 -0.021088716 21 32
5.0451388 0.46660724 -0.02112275 22 32
5.0508957 0.43589979 -0.021156782 32 32
5.0524783 0.40482008 -0.021145437 30 32
5.0518756 0.37359002 -0.021111405 23 32
5.0530748 0.34251773 -0.021100061 26 32
5.0500913 0.31119907 -0.021043338 21 32
5.0539026 0.28031704 -0.021066027 27 32
5.0575247 0.24939993 -0.021088716 32 32
5.0609579 0.21844894 -0.021111405 41 32
5.0681987 0.18761286 -0.021179471 41 32
5.0752511 0.15669613 -0.021247538 26 32
5.0921111 0.1259464 -0.021429047 19 32
5.0787916 0.094440222 -0.021270227 23 32
5.0762758 0.063238427 -0.021236192 30 32
5.0825677 0.032127261 -0.021304259 29 32
5.0896688 0.00094137172 -0.021383669 29 32
0 -0 -0 19 32
5.0852976 -0.061468117 -0.021338293 32 32
5.0758266 -0.09250509 -0.021236192 34 32
5.0801616 -0.12377019 -0.021292916 23 32
5.0763083 -0.15484746 -0.021258881 30 32
5.0842562 -0.18632245 -0.021360982 27 32
5.0930071 -0.21794361 -0.021474425 23 32
0 -0 -0 24 32
0 -0 -0 26 32
0 -0 -0 23 32
5.0970988 -0.34360725 -0.021599215 36 32
5.1008782 -0.37531671 -0.021667279 28 32
5.1014695 -0.40684676 -0.021701314 29 32
5.1008697 -0.4383125 -0.021724002 22 32
5.0990801 -0.46969438 -0.021735346 9 32
5.104063 -0.50175613 -0.021826101 8 32
5.1148114 -0.53452069 -0.021984924 12 32
5.1124291 -0.56600463 -0.021996267 18 32
5.1138258 -0.59794426 -0.02205299 22 32
5.118 -0.6302892 -0.022143744 10 32
5.1110611 -0.66129565 -0.022109712 18 32
5.1059165 -0.69250965 -0.022098368 20 32
5.1104813 -0.7250908 -0.022200467 17 32
5.1039577 -0.75614125 -0.022177778 16 32
5.0962577 -0.78698629 -0.022143744 15 32
5.0942945 -0.81871772 -0.022177778 26 32
5.0950928 -0.85094905 -0.022245845 18 32
5.092731 -0.88270849 -0.022279877 21 32
5.0970607 -0.91570914 -0.022393322 17 32
5.104126 -0.94934487 -0.022540798 18 32
5.1266804 -0.98612481 -0.022869786 12 32
5.1254368 -1.0185379 -0.022926508 18 32
5.1416202 -1.0545905 -0.023187429 12 32
5.1399436 -1.0871539 -0.023244152 19 32
5.1439233 -1.1210145 -0.02336894 15 32
5.1428018 -1.1538697 -0.023437006 15 32
5.1375737 -1.1858536 -0.023459695 17 32
5.1340923 -1.2182785 -0.023505073 17 32
5.132349 -1.2511792 -0.023573138 21 32
5.1313653 -1.2843472 -0.02365255 28 32
5.1369472 -1.3192918 -0.023811372 13 32
5.1374578 -1.3530793 -0.023913471 17 32
5.1406431 -1.3877047 -0.024049604 21 32
5.1474514 -1.4234865 -0.024231113 12 32
5.1492033 -1.4580413 -0.024355901 39 32
5.1526451 -1.493228 -0.02450338 24 32
5.1539311 -1.527943 -0.024628168 135 32
5.1530709 -1.5621496 -0.024730267 384 32
5.0641146 -1.5691686 -0.023788683 167 32
5.0038671 -1.5842122 -0.023187429 148 32
4.8865438 -1.5801125 -0.021905512 198 32
4.8131394 -1.5890576 -0.021145437 168 32
4.7653961 -1.6057854 -0.020691661 329 32
4.7563992 -1.6353203 -0.020703007 348 32
4.7585421 -1.668777 -0.020850483 360 32
4.7576284 -1.7013111 -0.020963928 352 32
4.7574334 -1.7342392 -0.021088716 388 32
4.7588878 -1.7679254 -0.021236192 447 32
4.7544966 -1.7995704 -0.021315604 381 32
4.7610917 -1.8355452 -0.021531148 490 32
4.7571855 -1.8676481 -0.021621903 563 32
4.7604918 -1.9027416 -0.021803413 551 32
4.7653985 -1.9386994 -0.022007613 533 32
4.7663474 -1.9732586 -0.022166433 542 32
4.7661295 -2.0075142 -0.022313911 498 32
4.7298255 -2.0264802 -0.022018956 66 32
4.7301354 -2.0610569 -0.022177778 62 32
4.8024201 -2.1277173 -0.023232806 21 32
4.7856274 -2.1555014 -0.023187429 26 32
4.7804937 -2.1885717 -0.02328953 23 32
4.7724147 -2.2203941 -0.023357594 27 32
4.7659326 -2.2530549 -0.02344835 20 32
4.764637 -2.2883172 -0.023607172 25 32
4.7684798 -2.3262792 -0.023834059 20 32
4.7711391 -2.3639302 -0.024049604 27 32
4.7726226 -2.4012516 -0.024253802 23 32
4.7658129 -2.4345853 -0.024355901 30 32
4.7703128 -2.473911 -0.024605479 28 32
4.8072462 -2.5306196 -0.025274798 13 32
4.7695799 -2.5482869 -0.024991188 36 32
4.7934098 -2.5989549 -0.025501687 23 32
4.7905135 -2.6355486 -0.025671853 25 32
4.7812366 -2.6687922 -0.025762606 35 32
4.7830429 -2.7084274 -0.026000839 33 32
4.7802072 -2.7456942 -0.02618235 33 32
4.7822771 -2.7860484 -0.026431927 18 32
4.7960835 -2.8336527 -0.026840325 13 32
4.7914724 -2.8707373 -0.027010491 14 32
4.7891498 -2.9094293 -0.027214689 14 32
4.7805724 -2.9445293 -0.027339479 24 32
4.7870107 -2.9891677 -0.027668467 9 32
4.789701 -3.0318556 -0.027952075 15 32
4.7903633 -3.0736086 -0.028212996 14 32
4.8057814 -3.1252971 -0.028678117 6 32
4.7965331 -3.16133 -0.028814251 18 32
4.7986636 -3.205143 -0.029109204 13 32
4.7971239 -3.2468584 -0.029358782 16 32
4.7985506 -3.2909377 -0.029653735 17 32
4.801259 -3.3362973 -0.029971378 17 32
4.8052254 -3.3829651 -0.030311711 12 32
4.8112407 -3.4315484 -0.030686075 20 32
4.8176503 -3.4809177 -0.031071786 22 32
4.8147593 -3.5239973 -0.031332705 22 32
4.8267808 -3.5784879 -0.03180917 22 32
4.8327169 -3.6290543 -0.032206226 23 32
4.8334384 -3.6761951 -0.032535214 24 32
4.8353467 -3.7247014 -0.032886889 23 32
4.8344755 -3.7715232 -0.033204533 24 32
4.8387027 -3.8228137 -0.033601586 19 32
4.841701 -3.8736725 -0.033987295 11 32
4.8364873 -3.918416 -0.034259561 19 32
4.8386364 -3.9695835 -0.034645271 13 32
4.8341856 -4.0158119 -0.034940224 26 32
4.8438873 -4.0743651 -0.035450723 10 32
4.8340206 -4.1169777 -0.035677612 14 32
4.8359289 -4.1700711 -0.036086008 21 32
4.842639 -4.2279458 -0.036573816 11 32
4.8398294 -4.278111 -0.036925495 12 32
4.8485074 -4.3390703 -0.037458681 16 32
4.8484669 -4.39291 -0.03786708 25 32
4.8538423 -4.4523196 -0.038366232 15 32
4.8513432 -4.5051546 -0.038751941 23 32
4.8571196 -4.5663452 -0.039273784 23 32
4.8572564 -4.6229491 -0.039716214 28 32
4.8590403 -4.6818075 -0.040192679 27 32
4.8681574 -4.7485414 -0.040793933 25 32
4.870945 -4.8099408 -0.041304432 28 32
4.8703327 -4.8687239 -0.041769553 19 32
4.8790202 -4.9376383 -0.042393494 24 32
4.8793616 -4.9989691 -0.042892646 17 32
4.8756628 -5.0568895 -0.043335076 26 32
4.8741946 -5.1178484 -0.043822888 22 32
4.881752 -5.1891751 -0.044469517 20 32
4.879087 -5.2505302 -0.044957325 32 32
4.8853183 -5.3223605 -0.045603957 25 32
4.8921928 -5.3959451 -0.046273276 21 32
4.9196925 -5.4936504 -0.047305617 20 32
4.9309382 -5.574667 -0.048077036 35 32
4.922296 -5.6341872 -0.048519466 22 32
4.9287848 -5.7119803 -0.049234163 34 32
4.9241261 -5.7778864 -0.049767353 26 32
4.9181995 -5.8431835 -0.050289195 32 32
4.9231606 -5.9224663 -0.051015235 29 32
4.9260631 -6.0004816 -0.051718589 34 32
4.9401565 -6.093513 -0.052637484 30 32
4.9582911 -6.1931853 -0.053647134 35 32
4.9605036 -6.2744808 -0.054384522 47 32
4.9557509 -6.3481526 -0.055008464 47 32
4.9447861 -6.4148722 -0.055530306 49 32
4.9313712 -6.4793081 -0.056018114 50 32
4.9593968 -6.5997791 -0.057300031 88 32
4.9902983 -6.7264562 -0.058661357 217 32
5.0026951 -6.8303618 -0.059693698 498 32
4.9735794 -6.8787565 -0.059943274 468 32
4.9771667 -6.9734445 -0.060839482 183 32
4.9550157 -7.0332813 -0.061247882 133 32
5.0213671 -7.2211819 -0.063426003 49 32
5.0556083 -7.3664584 -0.065002874 23 32
5.0349851 -7.4337692 -0.065502033 26 32
5.0353942 -7.5335259 -0.066443615 21 32
5.0331159 -7.6310606 -0.067351162 26 32
5.0341911 -7.7355533 -0.068349473 35 32
5.0276895 -7.8302464 -0.069211647 24 32
5.0186081 -7.9226146 -0.070039786 42 32
5.0181189 -8.0304279 -0.071072131 38 32
5.0359058 -8.1700268 -0.072524212 30 32
5.0594378 -8.3221035 -0.074135117 47 32
5.0566106 -8.4336071 -0.075201489 42 32
5.0536213 -8.5471077 -0.076290548 42 32
5.0539598 -8.6686611 -0.077481709 38 32
5.0853844 -8.8468876 -0.079410262 52 32
5.0847378 -8.9727516 -0.080646798 55 32
5.0759096 -9.0867157 -0.081724517 58 32
5.0557456 -9.1825113 -0.082564004 68 32
5.1070786 -9.4119921 -0.085127838 76 32
5.0977926 -9.5339775 -0.086296305 63 32
5.1179585 -9.7145901 -0.088213511 74 32
5.1130667 -9.8514271 -0.089563496 69 32
5.0962176 -9.9680872 -0.090652555 48 32
5.1190486 -10.166183 -0.092773959 49 32
5.110321 -10.3058 -0.094146632 24 32
5.1364813 -10.52027 -0.096460886 48 32
5.1342092 -10.681369 -0.098094478 51 32
5.1263027 -10.834695 -0.099625975 50 32
5.1382308 -11.034553 -0.10173603 45 32
5.1291542 -11.194051 -0.10333559 39 32
5.1232424 -11.364787 -0.10507128 34 32
5.1814928 -11.684866 -0.10865612 110 32
0 -0 -0 302 32
5.1330752 -11.969973 -0.11140146 43 32
5.2448092 -12.440757 -0.11681274 17 32
5.2254062 -12.610347 -0.11850305 21 32
5.279912 -12.966311 -0.12247359 16 32
5.2652469 -13.160934 -0.12445886 15 32
5.2717938 -13.415422 -0.12717018 14 32
5.2656932 -13.64529 -0.12957518 25 32
0 -0 -0 35 32
5.2923102 -14.231862 -0.13590536 18 32
5.3440385 -14.645448 -0.14051118 9 32
5.3342743 -14.902026 -0.14321114 12 32
5.3252025 -15.169407 -0.14603589 12 32
5.3530707 -15.553527 -0.15025602 20 32
5.3530912 -15.869379 -0.15364799 36 32
5.4005771 -16.340565 -0.1588891 46 32
5.4276962 -16.767248 -0.16358568 201 32
5.3238058 -16.797377 -0.16355164 478 32
5.2129364 -16.804895 -0.16325669 59 32
5.1091447 -16.834652 -0.16323401 9 32
5.5326357 -18.641031 -0.18424383 36 32
5.4058938 -18.632374 -0.18374468 167 32
5.308919 -18.726763 -0.18447071 47 32
5.2894287 -19.103983 -0.18853201 57 32
5.2608094 -19.464283 -0.1923891 27 32
4.435565 -16.819855 -0.16098782 7 32
4.3320279 -16.845785 -0.16097647 13 32
4.2195888 -16.836161 -0.16055673 244 32
4.1152563 -16.857849 -0.16051136 561 32
4.0054998 -16.856516 -0.16020505 571 32
3.8981669 -16.864214 -0.1600122 563 32
3.7928631 -16.880011 -0.15992144 509 32
3.6826086 -16.872679 -0.15956977 345 32
3.576524 -16.883219 -0.15943363 435 32
3.4692416 -16.887217 -0.15922944 521 32
3.3634112 -16.897398 -0.15910465 544 32
3.2613699 -16.926554 -0.15920675 355 32
3.2753882 -17.579313 -0.16651253 108 32
3.2870047 -18.263365 -0.17417 395 32
3.1702623 -18.25659 -0.17386371 473 32
3.0535619 -18.248083 -0.17354606 452 32
2.9340653 -18.220078 -0.17301288 217 32
2.8168626 -18.203152 -0.17261583 390 32
2.6941049 -18.14591 -0.171765 258 32
2.5770826 -18.122499 -0.17131121 467 32
2.4631431 -18.118155 -0.17108433 499 32
2.3490965 -18.111113 -0.17083475 523 32
2.2342494 -18.095413 -0.17049442 451 32
2.1189849 -18.073029 -0.17008603 506 32
2.0040793 -18.049911 -0.16967763 481 32
1.8904754 -18.035017 -0.16937132 541 32
1.7731068 -17.978611 -0.1685999 322 32
1.6599984 -17.95928 -0.16825958 338 32
1.5485685 -17.955181 -0.16810076 516 32
1.4356557 -17.930456 -0.16771504 419 32
1.3242098 -17.919979 -0.1674995 460 32
1.2116631 -17.889856 -0.16706841 511 32
1.1003959 -17.873001 -0.16679615 558 32
0.98949194 -17.857452 -0.16654657 542 32
0.87842685 -17.833225 -0.16620624 553 32
0.76769638 -17.80831 -0.16586591 573 32
0.65752625 -17.788702 -0.16559364 573 32
0.54762566 -17.768415 -0.16532138 580 32
0.43809745 -17.751448 -0.16509449 492 32
0.32881659 -17.734806 -0.16487895 507 32
0.21976882 -17.718493 -0.16467474 512 32
0.11087745 -17.692511 -0.16436845 562 32
0.0023139848 -17.672859 -0.16414157 584 32
-0.10593786 -17.641542 -0.16378988 534 32
-0.21381749 -17.610565 -0.16344956 625 32
-0.32146734 -17.586927 -0.16319998 625 32
-0.42895731 -17.567629 -0.16300713 628 32
-0.53603923 -17.541679 -0.16274621 650 32
-0.64336926 -17.530066 -0.16265544 623 32
-0.75040573 -17.5138 -0.16251931 618 32
-0.85721779 -17.495882 -0.16237183 653 32
-0.96372813 -17.475317 -0.16220167 625 32
-1.0703244 -17.459093 -0.16208823 601 32
-1.1764213 -17.437233 -0.16191806 645 32
-1.2818495 -17.408743 -0.16167982 643 32
-1.3880069 -17.392576 -0.16158907 732 32
-1.4935857 -17.370781 -0.16144159 699 32
-1.5993166 -17.352329 -0.16133949 683 32
-1.705171 -17.336218 -0.16127142 729 32
-1.8096398 -17.307528 -0.16106723 730 32
-1.9094166 -17.238455 -0.16040926 689 32
-1.9922618 -17.030762 -0.15817441 1591 32
-2.0745878 -16.838587 -0.15612108 699 32
-2.1792805 -16.836449 -0.15624586 709 32
-2.2852354 -16.842577 -0.15647274 641 32
-2.3914878 -16.849028 -0.15671098 609 32
-2.4968791 -16.847885 -0.1568698 613 32
-2.6031096 -16.851023 -0.15708534 634 32
-2.7091551 -16.851517 -0.1572782 622 32
-2.8156343 -16.853315 -0.15749374 659 32
-2.9206996 -16.845573 -0.15760718 684 32
-3.0280755 -16.849972 -0.1578681 517 32
-2.2709482 -12.20675 -0.10450406 444 32
-2.3055584 -11.983437 -0.10208771 788 32
-2.3782642 -11.965141 -0.10204233 977 32
-2.4566607 -11.974812 -0.10232594 843 32
-2.5317464 -11.967339 -0.10241669 876 32
-2.6085367 -11.967211 -0.10259821 902 32
-2.6862967 -11.970493 -0.1028251 945 32
-2.7632952 -11.969374 -0.10300661 941 32
-2.8410738 -11.970678 -0.10322215 207 32
-6.1839609 -25.360239 -0.25978616 24 32
-6.3411517 -25.328608 -0.25986558 34 32
-6.5091348 -25.338615 -0.26044413 11 32
-6.672894 -25.330109 -0.26081851 11 32
-0 -0 -0 5 32
-8.3660355 -30.245251 -0.31966189 9 32
-8.5558195 -30.20874 -0.31984341 6 32
-0 -0 -0 6 32
-7.5704136 -25.530521 -0.26575333 16 32
-0 -0 -0 5 32
-0 -0 -0 5 32
-0 -0 -0 5 32
-2.3168085 -7.1642127 -0.049063999 550 32
-2.3585289 -7.1432157 -0.048984587 1686 32
-2.4007175 -7.1238718 -0.048927866 1779 32
-2.4518628 -7.1307554 -0.049188785 1151 32
-2.5068235 -7.1476583 -0.049574494 1004 32
-0 -0 -0 794 32
-0 -0 -0 1605 32
-2.5832818 -6.9531465 -0.047793426 1607 32
-2.6297913 -6.9474516 -0.047918215 1561 32
-2.6806452 -6.9526429 -0.048179135 1461 32
-2.7250829 -6.9407177 -0.048235856 1525 32
-2.7412643 -6.8579435 -0.047430404 1309 32
-2.7780159 -6.8280277 -0.047271583 1758 32
-0 -0 -0 1162 32
-2.931865 -6.9602141 -0.049324919 1720 32
-2.979243 -6.9531226 -0.049461052 1637 32
-3.0314386 -6.9567113 -0.049733318 695 32
-5.4585772 -12.318933 -0.11650643 188 32
-5.4330254 -12.060931 -0.11371572 33 32
-5.4794517 -11.967363 -0.11296698 45 32
-5.478107 -11.773051 -0.11095903 37 32
-5.4998055 -11.632547 -0.10962038 36 32
-5.5121942 -11.476001 -0.10807755 36 32
-5.5719819 -11.420394 -0.10780528 21 32
-5.5988836 -11.299083 -0.10670488 75 32
-5.6793456 -11.286846 -0.10698849 372 32
-5.7157364 -11.187674 -0.10617169 1566 32
-5.8118997 -11.20565 -0.10685235 2484 32
-5.8022842 -11.021133 -0.10494649 1751 32
-5.818902 -10.890077 -0.10372131 2167 32
-5.8398523 -10.769783 -0.10263224 4518 32
-5.8884706 -10.702209 -0.10222384 2589 32
-5.8716526 -10.518324 -0.10030664 713 32
-5.8774414 -10.378558 -0.098956652 1939 32
-5.8872175 -10.248658 -0.097731464 1720 32
-5.9137454 -10.150136 -0.096914664 2730 32
-5.9148698 -10.010355 -0.095553339 2220 32
-5.8589945 -9.7783117 -0.092966817 1047 32
-5.8409982 -9.6139936 -0.091265157 79 32
-5.5820541 -9.0620499 -0.084390447 83 32
-5.6089501 -8.9818296 -0.083777852 82 32
-5.6163526 -8.8720522 -0.082768202 68 32
-5.6166801 -8.7532682 -0.081633762 91 32
-5.6310291 -8.658288 -0.080816962 54 32
-5.6444254 -8.5634623 -0.08000017 82 32
-5.6313214 -8.4305534 -0.078661531 166 32
-5.6874285 -8.4024668 -0.078752287 239 32
-5.7541494 -8.3896751 -0.07905858 1040 32
-5.7364697 -8.2548552 -0.077685915 132 32
-5.9009976 -8.3813858 -0.079932101 266 32
-5.9929619 -8.4020033 -0.080726206 835 32
-6.0613875 -8.3885765 -0.081055194 923 32
-6.144639 -8.3947973 -0.081667796 713 32
-6.2246203 -8.3954906 -0.082212329 85 32
-5.7655997 -7.6775208 -0.072569586 50 32
-6.405272 -8.4211378 -0.08367575 631 32
-6.49893 -8.4363337 -0.084458515 868 32
-6.5727162 -8.4246798 -0.084866911 809 32
-6.6707802 -8.4430342 -0.085717745 783 32
-6.7586946 -8.4472284 -0.086375721 702 32
-6.8406153 -8.4428902 -0.086920254 805 32
-6.937324 -8.4556427 -0.087725699 235 32
-7.0695901 -8.5098267 -0.0891551 120 32
-6.8686957 -8.1655693 -0.084696747 163 32
-6.9296923 -8.1362114 -0.084889606 239 32
-6.876956 -7.9746528 -0.083108529 227 32
-6.8935313 -7.8953991 -0.082552657 240 32
-6.9557552 -7.8686852 -0.082790889 230 32
-7.6374373 -8.5336857 -0.093568064 46 32
-7.7198701 -8.5200062 -0.094078563 47 32
-7.8051248 -8.5085831 -0.094634444 127 32
-7.8633099 -8.4671259 -0.094736539 257 32
-7.9664874 -8.4733553 -0.095587373 140 32
-8.0610723 -8.4692192 -0.096290722 13 32
-7.7583308 -8.0516615 -0.090493739 8 32
-8.1504307 -8.3553448 -0.096063837 19 32
-8.1558743 -8.2589321 -0.095326446 11 32
-8.1562004 -8.1585264 -0.094520994 19 32
-8.1456451 -8.0485907 -0.093556724 6 32
-8.1848583 -7.9886804 -0.0933979 6 32
-8.2459602 -7.9501066 -0.093590759 29 32
-8.4046526 -8.0041761 -0.095315106 450 32
-8.5220718 -8.0168562 -0.096381478 335 32
-8.6377621 -8.0263529 -0.097413816 227 32
-9.3926029 -8.6209335 -0.10828175 88 32
-9.4556942 -8.5725422 -0.10844057 80 32
-6.3130813 -5.6534348 -0.059784453 579 32
-6.3012123 -5.5735197 -0.0590811 429 32
-2.7040052 -2.3626153 -0.0043784194 70 32
-2.6874104 -2.3191977 -0.0039132992 123 32
-2.7038734 -2.30461 -0.0039473325 345 32
-2.7003672 -2.2731669 -0.0036864111 109 32
-2.7104194 -2.2533591 -0.0036296891 270 32
-2.7056453 -2.2214594 -0.0033574237 158 32
-2.7036896 -2.1922224 -0.0031305356 121 32
-2.6999164 -2.1618435 -0.0028809591 114 32
-2.6990104 -2.1340747 -0.0026767598 125 32
-2.6994424 -2.1076293 -0.0024952495 143 32
-2.7202437 -2.0971303 -0.0026086934 286 32
-2.7163501 -2.067683 -0.0023704611 167 32
-2.7137971 -2.0395644 -0.0021549177 126 32
-2.7206388 -2.0187042 -0.0020755068 149 32
-2.7224865 -1.994292 -0.0019280297 118 32
-2.72981 -1.9740345 -0.0018599633 114 32
-2.7426851 -1.9578285 -0.0018713076 141 32
-2.7562814 -1.9421146 -0.0018939965 122 32
-2.7829239 -1.9354408 -0.0020981955 78 32
-2.8071141 -1.9268154 -0.0022683616 84 32
-2.8370986 -1.9218907 -0.0025179384 87 32
-2.8737783 -1.9211153 -0.0028582702 109 32
-2.9155629 -1.9232644 -0.0032666684 355 32
-2.9474237 -1.9184278 -0.003538934 112 32
-2.9986873 -1.9256973 -0.0040721204 246 32
-3.0602863 -1.9388298 -0.0047414401 66 32
-3.0967174 -1.9353817 -0.0050704274 67 32
-3.139179 -1.9352316 -0.0054788259 80 32
-3.228749 -1.9632003 -0.0065111658 54 32
-3.4165456 -2.0487556 -0.0088367676 48 32
-3.4815586 -2.0587959 -0.0095287757 55 32
-3.5139942 -2.0489774 -0.0097896969 51 32
-0 -0 -0 6 32
-0 -0 -0 6 32
-0 -0 -0 7 32
-0 -0 -0 5 32
-9.5148239 -5.1628718 -0.086455129 128 32
-9.5181055 -5.0893059 -0.086092107 151 32
-9.536768 -5.0242839 -0.08593329 162 32
-9.5052891 -4.9334302 -0.085139178 55 32
-9.4766188 -4.844974 -0.084390447 80 32
-9.4731236 -4.7700973 -0.083970711 92 32
-9.4762335 -4.6989999 -0.083641723 89 32
-9.4905109 -4.6337471 -0.083460212 122 32
-9.5376902 -4.5845237 -0.083698444 89 32
-9.5900459 -4.5374613 -0.084004737 91 32
-9.6077356 -4.4738898 -0.083879955 84 32
-9.6040974 -4.4006925 -0.083494246 119 32
-9.6181564 -4.335927 -0.083335422 101 32
-9.5449429 -4.2326503 -0.082098879 147 32
-9.455245 -4.123642 -0.080669485 73 32
-9.3756018 -4.0206242 -0.079376228 145 32
-9.3779821 -3.9536989 -0.079103962 151 32
-9.3540277 -3.8761787 -0.078514054 150 32
-9.3470745 -3.8062668 -0.078139685 165 32
-9.3581839 -3.7440145 -0.077992208 139 32
-9.4154148 -3.7000539 -0.078411952 117 32
-9.4174175 -3.6342928 -0.07816238 118 32
-9.3609924 -3.5466838 -0.07720945 185 32
-9.3741436 -3.4860427 -0.077107348 168 32
-9.3643579 -3.4171479 -0.076732986 207 32
-9.346549 -3.3458092 -0.076267861 171 32
-9.3404856 -3.2791235 -0.07595022 138 32
-9.3557024 -3.2201228 -0.075893499 92 32
-9.5515175 -3.2220993 -0.078003556 63 32
-9.927145 -3.2810936 -0.082257703 167 32
-10.033663 -3.248142 -0.08329004 471 32
-8.3347635 -2.6418464 -0.062836096 938 32
-8.3412657 -2.587693 -0.062722653 1017 32
-8.3493319 -2.5341403 -0.062631898 1012 32
-8.3608894 -2.481724 -0.062586516 1031 32
-8.3663568 -2.4275899 -0.062473074 1080 32
-8.35993 -2.3702097 -0.062223498 1080 32
-8.3617878 -2.3154011 -0.062076021 1012 32
-8.3758373 -2.2640505 -0.062076021 1027 32
-8.3944063 -2.2138894 -0.062132742 676 32
-8.6112032 -2.2146342 -0.064515069 351 32
-9.9912786 -2.5042415 -0.080499321 340 32
-9.9753704 -2.4353013 -0.080136299 904 32
-9.9677505 -2.3687313 -0.07987538 578 32
-9.9723539 -2.305274 -0.079761937 90 32
-9.9472866 -2.2352736 -0.07930816 561 32
-9.0893822 -1.9840188 -0.06918896 29 32
-9.1004066 -1.9280028 -0.069177613 33 32
-9.1042299 -1.870518 -0.069086857 41 32
-9.0978832 -1.8111069 -0.068882659 25 32
-9.0921326 -1.7520335 -0.068689808 35 32
-9.080102 -1.6920002 -0.068428881 45 32
-9.0647259 -1.6316493 -0.068133928 45 32
-9.0450106 -1.5708666 -0.0677936 45 32
-9.0337687 -1.5118726 -0.067555368 45 32
-9.0231304 -1.4532349 -0.067328475 48 32
-9.0200195 -1.396008 -0.067192346 53 32
-8.9967642 -1.3359374 -0.066829324 29 32
-8.9651928 -1.2750788 -0.066375546 21 32
-8.9609585 -1.2184292 -0.066239417 21 32
-8.9573574 -1.1620083 -0.066114627 15 32
-1.6850481 -0.20840658 0.017096523 11 32
-1.6515354 -0.19398871 0.017493578 27 32
-1.6477255 -0.18329981 0.017550299 25 32
-1.6458358 -0.17287344 0.017584333 28 32
-1.6508459 -0.163164 0.017538955 27 32
-1.6458418 -0.15247947 0.017607022 20 32
-1.6347916 -0.1413471 0.017743153 30 32
-1.6475891 -0.13227098 0.017607022 22 32
-1.6334114 -0.12105404 0.017777188 42 32
-1.6331258 -0.11096179 0.017788531 40 32
-1.6497446 -0.10192183 0.017607022 21 32
-1.6443485 -0.091465473 0.017675089 32 32
-1.64388 -0.081325039 0.017686432 33 32
-1.6483442 -0.071409032 0.017641054 32 32
-1.6487513 -0.061293639 0.017641054 36 32
-1.6490963 -0.051175937 0.017641054 38 32
-1.6243885 -0.04044009 0.017924665 25 32
-1.6106093 -0.030213065 0.018083487 9 32
-1.6147639 -0.020379502 0.018038109 14 32
-4.3796268 -0.027737334 -0.013329148 24 32
-1.619892 -0.0005628778 0.017981386 72 32
-1.631864 0.0094489204 0.017845254 9 32
-1.6457733 0.019631935 0.017686432 10 32
-1.6446221 0.029711545 0.017697778 17 32
-1.59627 -0.1166167 -0.00089020556 55 33
-1.5909708 -0.10641529 -0.00074989384 66 33
-1.5925916 -0.096712597 -0.00077327911 56 33
-1.5811766 -0.086276397 -0.00049265579 69 33
-1.5806777 -0.076523773 -0.00046927051 65 33
-1.5821164 -0.066866428 -0.00049265579 57 33
-1.5834959 -0.057194304 -0.00051604107 45 33
-1.5688282 -0.047016758 -0.00016526185 54 33
-1.5800807 -0.037659843 -0.00042249993 12 33
-0 -0 -0 4 33
-1.5924197 -0.018414466 -0.00070312328 6 33
-0 -0 -0 5 33
-0 -0 -0 4 33
-1.5814922 0.010832659 -0.00044588521 6 33
-0 0 -0 4 33
-1.6082282 0.030735442 -0.0010772878 4 33
-1.5820242 0.039965436 -0.00046927051 6 33
-1.5947396 0.050070181 -0.00077327911 36 33
-1.5724232 0.059045319 -0.00025880299 124 33
-1.5940051 0.069636323 -0.00077327911 65 33
-1.5895537 0.079219513 -0.000679738 71 33
-1.5930305 0.089191973 -0.00077327911 60 33
-1.5954468 0.099148788 -0.000843435 57 33
-1.5918161 0.10873419 -0.00077327911 63 33
-1.5891248 0.11835229 -0.00072650856 70 33
-1.5963411 0.12873787 -0.00091359083 61 33
-1.592533 0.13827315 -0.000843435 70 33
-1.5956366 0.14840959 -0.00093697611 62 33
-1.593701 0.15809947 -0.00091359083 67 33
-1.6016496 0.1688119 -0.0011240584 66 33
-1.6025709 0.17885661 -0.0011708289 49 33
-1.5964786 0.18810511 -0.0010539026 66 33
-1.6042242 0.19899857 -0.00126437 52 33
-1.602973 0.20883816 -0.00126437 53 33
-1.6036427 0.21893893 -0.0013111406 56 33
-1.6111772 0.23003997 -0.0015216081 50 33
-1.6166577 0.2409483 -0.001685305 52 33
-1.611197 0.25025246 -0.0015917639 58 33
-1.6283848 0.26315093 -0.0020360842 41 33
-1.6375859 0.27495089 -0.0022933222 35 33
-1.6427631 0.28619 -0.0024570194 32 33
-1.6439279 0.29679522 -0.0025271752 30 33
-1.6450244 0.3074255 -0.0025973311 33 33
-1.6411438 0.31713539 -0.0025505605 31 33
-1.6470112 0.32875943 -0.0027376427 25 33
-1.6547559 0.34086937 -0.0029714955 28 33
-1.666326 0.35391483 -0.0032988894 22 33
-1.6641231 0.36413255 -0.0032988894 20 33
-1.6677102 0.37565067 -0.003439201 13 33
-1.6643997 0.38565147 -0.0034158158 15 33
-8.4153118 1.9995072 -0.16577981 48 33
-8.437849 2.0596347 -0.16662169 108 33
-8.4134159 2.1084549 -0.16634107 265 33
-8.4148436 2.1637714 -0.16669184 289 33
-8.396575 2.2140894 -0.16657491 312 33
-8.370285 2.2621791 -0.16627091 346 33
-8.3918972 2.3233604 -0.16713616 176 33
-8.3592081 2.3696303 -0.16669184 406 33
-8.3502722 2.4225476 -0.16683215 275 33
-8.3841314 2.4882379 -0.16802481 144 33
-8.3486156 2.5335412 -0.16753371 207 33
-8.4637318 2.6252785 -0.17073749 338 33
-8.40553 2.6638777 -0.16970854 278 33
-8.3405161 2.699708 -0.16851589 194 33
-8.3380337 2.7555373 -0.16886668 199 33
-8.3654938 2.8216581 -0.16996577 192 33
-9.186553 3.1613877 -0.19070852 116 33
-8.3000507 2.9135113 -0.16921745 171 33
-8.3780289 2.9987359 -0.17160276 414 33
-8.3115721 3.0326161 -0.1704101 137 33
-8.2899961 3.0825131 -0.17033994 197 33
-8.3139334 3.1496077 -0.17141567 260 33
-8.302846 3.2037997 -0.17162614 283 33
-8.2737265 3.2510297 -0.17139228 156 33
-8.2656898 3.3065608 -0.17169629 264 33
-8.2795067 3.3711605 -0.17256154 313 33
-8.4757195 3.5118003 -0.17805709 167 33
-8.2365923 3.4721208 -0.17253816 298 33
-8.3024254 3.5600111 -0.17475976 917 33
-8.312501 3.6248691 -0.17557825 186 33
-8.1804266 3.6271923 -0.17277202 321 33
-8.2136154 3.7023716 -0.17419851 715 33
-8.19347 3.7539485 -0.17426868 232 33
-8.1394663 3.7898085 -0.17347357 296 33
-8.122385 3.8426721 -0.17363727 359 33
-8.1500177 3.9171162 -0.17497022 344 33
-8.1123524 3.9604728 -0.17461945 268 33
-8.0681934 4.0004072 -0.17410497 360 33
-8.1444025 4.1006274 -0.17674752 278 33
-8.6897163 4.4421396 -0.19173747 329 33
-8.1777725 4.2440004 -0.17896912 38 33
-8.0569296 4.2442546 -0.17646688 97 33
-8.1409464 4.3525171 -0.17939004 291 33
-8.3680544 4.5401387 -0.18614839 644 33
-8.3496742 4.5967011 -0.18640563 710 33
-8.3553534 4.6668558 -0.18731765 261 33
-8.7136488 4.9373064 -0.1977241 506 33
-8.6814566 4.9896836 -0.19767734 534 33
-7.9493136 4.6341119 -0.1786885 84 33
-8.7159634 5.1528139 -0.20029649 235 33
-8.7742205 5.2601609 -0.20275195 493 33
-8.8391733 5.3730879 -0.20541787 518 33
-8.8715763 5.4676037 -0.20721853 669 33
-8.8641453 5.5383549 -0.20794347 459 33
-2.7266691 1.7279375 -0.03896144 21 33
-2.7219045 1.7484155 -0.039125137 25 33
-2.7270474 1.7754419 -0.03956946 40 33
-2.7211101 1.7954431 -0.039709769 48 33
-2.7208486 1.8193258 -0.040013779 54 33
-2.7220516 1.8443937 -0.04036456 56 33
-2.7271709 1.8723724 -0.040832262 29 33
-2.7263024 1.8964887 -0.041136272 54 33
-2.7268751 1.9218158 -0.041487053 36 33
-2.7264254 1.9466403 -0.041814446 39 33
-2.7217219 1.9686033 -0.042024914 36 33
-2.7128181 1.9876287 -0.042118452 38 33
-2.704586 2.0072143 -0.042235382 48 33
-2.6986139 2.0285752 -0.042422462 17 33
-2.6526995 2.0196714 -0.041440282 37 33
-2.6291704 2.0273674 -0.041112889 36 33
-2.5961895 2.0274704 -0.040504869 39 33
-2.5609539 2.0253859 -0.039826695 38 33
-2.533648 2.0291927 -0.039382376 30 33
-2.5032854 2.0302234 -0.038844515 31 33
-2.4730065 2.0309582 -0.038306653 41 33
-2.4466579 2.0345933 -0.037885718 27 33
-2.4157684 2.0341201 -0.037324473 37 33
-2.3872607 2.03529 -0.036833379 38 33
-2.3550451 2.0329223 -0.036225364 55 33
-2.331985 2.0381277 -0.03589797 24 33
-2.2992139 2.0345182 -0.035266567 35 33
-2.2717896 2.0352516 -0.034798861 32 33
-2.2437027 2.0350542 -0.03430777 38 33
-2.2179143 2.0366168 -0.033886835 55 33
-2.1958539 2.0413423 -0.033582825 48 33
-2.1709065 2.0431345 -0.033185277 44 33
-2.1474681 2.0460763 -0.032834496 34 33
-2.1262355 2.0508893 -0.032553874 40 33
-2.0993004 2.0499334 -0.032086167 34 33
-2.0760138 2.0522377 -0.03173539 46 33
-2.0457094 2.0472648 -0.031150758 28 33
-2.0169497 2.0434206 -0.030612897 31 33
-1.9792383 2.029999 -0.029771026 29 33
-1.8959779 1.9686866 -0.027385728 77 33
-1.9114373 2.0092444 -0.02832114 16 33
-1.8853745 2.0063698 -0.027853433 37 33
-1.8675847 2.0120411 -0.027666351 55 33
-1.8579077 2.0264089 -0.027759893 54 33
-1.8501385 2.0429559 -0.02792359 27 33
-1.8509051 2.0691664 -0.028391294 47 33
-1.8500946 2.0939648 -0.02881223 36 33
-1.8483914 2.1180778 -0.02920978 50 33
-1.8445024 2.1399772 -0.029537173 39 33
-1.8417108 2.1634305 -0.029911337 50 33
-1.841275 2.1899891 -0.030379044 38 33
-0 0 -0 37 33
-1.8370943 2.2402396 -0.031220913 45 33
-0 0 -0 39 33
-1.8307048 2.2891524 -0.032016013 36 33
-1.8271627 2.3136759 -0.032413565 45 33
-1.8283089 2.3445463 -0.032998197 57 33
-1.8248729 2.3699744 -0.033419129 43 33
-1.8230091 2.3978348 -0.033910222 50 33
-0 0 -0 42 33
-0 0 -0 47 33
-0 0 -0 40 33
-0 0 -0 35 33
-1.8037621 2.5299377 -0.036131822 34 33
-1.7939614 2.5491314 -0.036365677 19 33
-2.6764779 3.8521333 -0.073174104 225 33
-2.6641033 3.8849704 -0.073641814 228 33
-2.5981758 3.8391583 -0.071887918 82 33
-2.5706823 3.8492095 -0.071724221 94 33
-2.5464652 3.8640759 -0.071700834 69 33
-2.5308857 3.8921978 -0.072051615 82 33
-2.5020955 3.9000819 -0.071841143 54 33
-2.4781179 3.9153609 -0.071841143 39 33
-2.5313799 4.0542827 -0.075255394 60 33
-2.5353012 4.11655 -0.076541588 62 33
-2.0323009 3.3460608 -0.055027127 147 33
-2.0055637 3.3481779 -0.054746505 105 33
-0 0 -0 5 33
-0 0 -0 17 33
-1.8200637 3.1695607 -0.048946954 12 33
-1.8473957 3.2633033 -0.051168557 146 33
-1.8190513 3.2597389 -0.050771009 159 33
-1.7941949 3.2620807 -0.050537154 174 33
-1.7665184 3.2589681 -0.05016299 54 33
-1.7078429 3.197449 -0.048245396 5 33
-0 0 -0 12 33
-0 0 -0 29 33
-0 0 -0 30 33
-0 0 -0 29 33
-0 0 -0 28 33
-0 0 -0 24 33
-0 0 -0 18 33
-0 0 -0 24 33
-0 0 -0 19 33
-0 0 -0 12 33
-0 0 -0 33 33
-0 0 -0 54 33
-0 0 -0 57 33
-0 0 -0 75 33
-1.2157167 2.887625 -0.036739841 58 33
-0 0 -0 66 33
-0 0 -0 108 33
-0 0 -0 98 33
-1.0710125 2.7295589 -0.0320394 63 33
-1.0499263 2.7248864 -0.031758774 63 33
-1.0271674 2.7153838 -0.031361226 109 33
-1.0118803 2.7253835 -0.031454768 84 33
-0.99479598 2.7306018 -0.031431381 78 33
-0.96084487 2.6886492 -0.030238733 1664 33
-0.95624685 2.7284539 -0.031080602 5369 33
-0.92485148 2.6917295 -0.030028265 4512 33
-0.89969319 2.6717761 -0.029396862 704 33
-0.89519995 2.7133181 -0.030285502 170 33
-0.86868536 2.6883225 -0.029537173 94 33
-0.85458928 2.7012265 -0.029724255 114 33
-0.83651835 2.7016449 -0.02960733 130 33
-0.81847447 2.7019434 -0.029490404 152 33
-0.80244899 2.7088315 -0.029537173 118 33
-0.79193902 2.7348278 -0.03005165 24 33
-0.77895945 2.7531013 -0.030379044 6 33
-0.75965214 2.7491577 -0.030168576 10 33
-0.73937964 2.7412205 -0.029864568 8 33
-0 0 -0 3 33
-0.70394284 2.7433095 -0.02970087 6 33
-0.68320996 2.7320611 -0.029326705 7 33
-0.66240484 2.7196908 -0.028929157 9 33
-0 0 -0 5 33
-0 0 -0 4 33
-0.60675544 2.707037 -0.028344525 6 33
-0.58842939 2.7028949 -0.028157443 4 33
-0.57183361 2.7064545 -0.028157443 9 33
-0 0 -0 5 33
-0.53506714 2.6956189 -0.027736507 8 33
-0.51643765 2.6880527 -0.027479269 7 33
-0 0 -0 4 33
-0.48093456 2.6804125 -0.027151875 6 33
-0.46208569 2.669523 -0.026824482 12 33
-0.445862 2.6732941 -0.026847865 5 33
-0.42706802 2.6611741 -0.026497087 6 33
-0.41088411 2.6647325 -0.026520472 10 33
-0.39555287 2.6741257 -0.026684169 8 33
-0.38096562 2.6893697 -0.026988178 13 33
-0.36607158 2.7035441 -0.027268801 14 33
-0.34960455 2.7067308 -0.027292186 16 33
-0.33445856 2.7207315 -0.027572811 12 33
-0.32078218 2.7485487 -0.028180826 15 33
-0.30600545 2.7693443 -0.028625147 52 33
-0.28723735 2.754267 -0.028227597 82 33
-0.27111617 2.7639368 -0.02841468 112 33
-0.25249755 2.7476294 -0.027993744 109 33
-0.22799787 2.6604795 -0.025912454 46 33
-0.21150982 2.6598356 -0.025865685 57 33
-0.18952079 2.5843129 -0.024065018 92 33
-0.17244613 2.5674732 -0.023644082 111 33
-0.15668917 2.5684829 -0.023644082 111 33
-0.1408159 2.5673995 -0.023597313 126 33
-0 0 -0 131 33
-0 0 -0 141 33
-0 0 -0 164 33
-0 0 -0 150 33
-0.063443981 2.629477 -0.024977043 77 33
-0.048469301 2.6927888 -0.026450317 58 33
-0.032142386 2.7090299 -0.026824482 69 33
-0.015611826 2.7241719 -0.027175261 53 33
0.0010947299 3.1341043 -0.036763225 76 33
0.0173118 2.6411824 -0.025234282 141 33
0.033382755 2.6300304 -0.024977043 88 33
0.048472036 2.5728014 -0.023644082 136 33
0.06433107 2.5754538 -0.023714239 117 33
0.079979323 2.5700142 -0.023597313 132 33
0.095673576 2.567477 -0.023550542 117 33
0.11129681 2.5638452 -0.023480386 117 33
0.12702617 2.5631139 -0.023480386 129 33
0.14264043 2.5602899 -0.023433615 147 33
0.15822482 2.5573709 -0.023386845 145 33
0.17398098 2.5573492 -0.023410231 162 33
0.18981636 2.5582275 -0.023457 133 33
0.20543014 2.5560184 -0.023433615 150 33
0.22102395 2.5537136 -0.023410231 127 33
0.23659721 2.5513139 -0.023386845 157 33
0 0 -0 128 33
0 0 -0 139 33
0 0 -0 143 33
0 0 -0 153 33
0.31413516 2.5378945 -0.023269918 129 33
0.32957304 2.5349278 -0.023246532 135 33
0.3455244 2.5358298 -0.023316689 154 33
0.36206165 2.5405905 -0.023480386 129 33
0.37911031 2.5482101 -0.023714239 138 33
0.39641875 2.556704 -0.023971478 81 33
0.41765669 2.5887697 -0.024789961 160 33
0.51447284 3.0703049 -0.036272135 47 33
0.51416212 2.956769 -0.033652984 39 33
0.50274682 2.7892396 -0.029747641 35 33
0.45654473 2.4460397 -0.021656334 121 33
0.47097775 2.4402471 -0.021586178 124 33
0.48574695 2.4363308 -0.021562792 111 33
0.501692 2.438201 -0.02167972 129 33
0.51705712 2.4370329 -0.021726491 94 33
0.53327894 2.4396751 -0.021866802 98 33
0.55699927 2.4753745 -0.022802213 184 33
0.56722736 2.4504805 -0.022287738 96 33
0.58525521 2.4595988 -0.022591745 127 33
0.60057294 2.4569325 -0.022615131 99 33
0.61660868 2.4570804 -0.022708671 93 33
0.63217109 2.4551873 -0.022755442 100 33
0.6469692 2.4502954 -0.022732057 104 33
0.66199172 2.4462795 -0.022732057 96 33
0.67618948 2.439281 -0.022661902 102 33
0.68978131 2.4302769 -0.022544974 30 33
0.70273125 2.4192774 -0.022381278 70 33
0.71926826 2.4206707 -0.022521589 169 33
0.73410767 2.4162118 -0.022521589 127 33
0.74951154 2.4135716 -0.02256836 129 33
0.76340115 2.4060681 -0.022498203 141 33
0.7778424 2.4003875 -0.02247482 120 33
0.79098839 2.3908231 -0.022357892 35 33
0 0 -0 48 33
0 0 -0 94 33
0 0 -0 18 33
0.92082065 2.5702455 -0.027315572 10 33
0 0 -0 6 33
1.1786891 3.167861 -0.042516004 185 33
0 0 -0 192 33
0 0 -0 200 33
0 0 -0 187 33
0 0 -0 176 33
0 0 -0 185 33
1.3032894 3.1435735 -0.043053865 202 33
1.3241063 3.1392026 -0.043147407 188 33
1.3457063 3.1365323 -0.043287717 203 33
0 0 -0 225 33
0 0 -0 209 33
0 0 -0 229 33
0 0 -0 194 33
1.4568946 3.1273122 -0.044152975 239 33
1.4769108 3.1201215 -0.044199742 248 33
1.5064187 3.1326272 -0.044760991 377 33
1.5242964 3.1206298 -0.044690836 214 33
1.5460794 3.1165924 -0.044831146 240 33
0 0 -0 240 33
0 0 -0 594 33
0 0 -0 86 33
0 0 -0 49 33
1.6103215 3.0103903 -0.043311104 77 33
1.5958738 2.939817 -0.041697521 51 33
0 0 -0 51 33
0 0 -0 54 33
0 0 -0 60 33
0 0 -0 64 33
0 0 -0 71 33
0 0 -0 108 33
0 0 -0 140 33
0 0 -0 150 33
0 0 -0 155 33
0 0 -0 109 33
0 0 -0 141 33
0 0 -0 134 33
0 0 -0 135 33
0 0 -0 113 33
0 0 -0 120 33
0 0 -0 123 33
1.8005464 2.6224751 -0.037862334 126 33
1.823451 2.6212285 -0.038142957 101 33
0 0 -0 113 33
0 0 -0 129 33
0 0 -0 92 33
0 0 -0 214 33
0 0 -0 215 33
1.9066868 2.5363495 -0.03767525 157 33
1.928267 2.5325589 -0.037909105 164 33
1.9578047 2.5388935 -0.038446967 149 33
0 0 -0 144 33
0 0 -0 159 33
0 0 -0 154 33
0 0 -0 170 33
0 0 -0 198 33
2.1016812 2.5273931 -0.040341172 128 33
0 0 -0 54 33
2.439842 2.8621299 -0.051425796 60 33
2.4847827 2.8789001 -0.052407976 249 33
2.451107 2.8048658 -0.050583925 72 33
2.4596622 2.7800372 -0.050279915 128 33
2.4526691 2.7380774 -0.049438048 60 33
2.5204468 2.7792745 -0.051215328 37 33
2.7442756 2.9891658 -0.058371224 108 33
2.7843378 2.9957099 -0.059119552 152 33
2.817734 2.9945912 -0.05963403 147 33
2.8443274 2.9859343 -0.059914652 137 33
2.8688393 2.9749041 -0.06012512 136 33
2.895417 2.9658318 -0.060405742 135 33
2.9219911 2.9565451 -0.060686365 166 33
2.9718874 2.9703722 -0.061738703 55 33
3.1934669 3.1530185 -0.068426892 59 33
3.2470984 3.166878 -0.069549389 92 33
3.2679083 3.1482821 -0.069596156 102 33
3.2965767 3.1371331 -0.06990017 101 33
3.3325136 3.1325996 -0.070438027 81 33
3.3692508 3.1284232 -0.070999272 83 33
3.4053247 3.1232371 -0.071537137 72 33
3.4451649 3.1210825 -0.072191924 102 33
3.4798923 3.1138883 -0.072683014 125 33
3.5184052 3.1096959 -0.073291034 96 33
3.5622675 3.109751 -0.07406275 79 33
3.6002061 3.1041601 -0.074647382 86 33
3.6412537 3.1008136 -0.075325549 97 33
3.6823947 3.0970793 -0.076003723 84 33
3.7167063 3.0872056 -0.076471433 87 33
3.7471709 3.0738559 -0.076822206 85 33
3.7721744 3.0558417 -0.07700929 73 33
0 0 -0 6 33
3.7913506 2.9950633 -0.076471433 6 33
3.8041399 2.967438 -0.076307736 7 33
0 0 -0 3 33
3.8251519 2.90903 -0.075863414 20 33
3.844528 2.8867056 -0.075910181 14 33
3.8766217 2.8737817 -0.076331116 150 33
3.9014413 2.8552566 -0.076541588 19 33
3.9375226 2.844734 -0.077079445 11 33
3.9907107 2.8460701 -0.0781084 21 33
4.0399752 2.8439808 -0.079020426 6 33
4.0688419 2.8271275 -0.079347819 9 33
4.1116672 2.8196418 -0.080072761 20 33
4.1479301 2.8072522 -0.080610625 9 33
4.190845 2.7989666 -0.081335567 9 33
4.2237983 2.7836556 -0.08177989 11 33
4.3723621 2.843282 -0.085451379 118 33
4.4015045 2.8239605 -0.085778773 132 33
4.4592905 2.8225741 -0.086901262 129 33
4.5078969 2.8147573 -0.087766521 104 33
4.5625319 2.8101208 -0.088795476 138 33
4.6138611 2.8028421 -0.089730881 125 33
4.6729889 2.7996643 -0.090876766 166 33
4.7305284 2.794848 -0.091975868 152 33
4.7769551 2.7828858 -0.092770971 117 33
4.8320794 2.7754393 -0.093799926 208 33
4.8559771 2.7496803 -0.093987003 252 33
4.8587918 2.7120337 -0.093612842 219 33
4.8578248 2.6725283 -0.093145132 195 33
4.8644652 2.6374273 -0.092887893 221 33
4.8673315 2.6004605 -0.09253712 256 33
4.8646207 2.5607631 -0.09204603 210 33
4.866931 2.5239596 -0.091695249 305 33
4.8618517 2.4835846 -0.091157384 269 33
4.8671761 2.4487615 -0.090900145 275 33
4.8812141 2.418407 -0.090876766 222 33
4.9309998 2.405513 -0.091788791 176 33
4.9772053 2.3903666 -0.092607275 338 33
4.9953933 2.3614919 -0.092700817 328 33
5.0034447 2.327843 -0.09253712 284 33
5.0094538 2.2933514 -0.092326649 282 33
4.9851503 2.2453194 -0.091344468 255 33
4.9604478 2.1976724 -0.090362288 248 33
4.9875851 2.1731875 -0.090713069 229 33
4.9971504 2.1409676 -0.090619527 341 33
5.0028229 2.1071594 -0.090432443 346 33
5.0045748 2.0718317 -0.090151817 361 33
5.0088596 2.0376928 -0.089941353 387 33
5.0036316 1.9998672 -0.08949703 364 33
5.0027814 1.9640105 -0.089169636 353 33
5.0110073 1.9318377 -0.089076094 415 33
5.0208964 1.9003462 -0.089029327 388 33
5.0193434 1.8646259 -0.088701934 305 33
5.0184803 1.8293391 -0.08839792 305 33
5.0164328 1.7937964 -0.088070527 304 33
5.0169683 1.759341 -0.087813288 265 33
5.0257783 1.7278738 -0.087766521 301 33
5.031549 1.6954066 -0.087649591 316 33
5.035212 1.6623063 -0.087485895 279 33
4.9768329 1.609219 -0.08580216 24 33
4.982801 1.5774436 -0.085708618 37 33
4.9923863 1.54684 -0.085708618 34 33
4.9998703 1.5155977 -0.085661843 28 33
5.003325 1.4831845 -0.085521534 28 33
5.0017695 1.4493936 -0.085264295 34 33
4.9951792 1.414315 -0.084890135 22 33
4.9912376 1.3801719 -0.084586121 35 33
4.9938216 1.3479558 -0.084445812 30 33
4.9990983 1.3165245 -0.084375657 24 33
5.0080504 1.2860746 -0.084399037 29 33
5.0187569 1.2560505 -0.084469199 41 33
5.0253983 1.2249953 -0.084445812 27 33
5.0308747 1.1936749 -0.084399037 31 33
5.035182 1.1621085 -0.084328882 28 33
5.0334387 1.1292198 -0.084118418 23 33
5.0334353 1.0968224 -0.083954722 28 33
5.0293121 1.0636393 -0.083697483 21 33
5.0239925 1.0303471 -0.083416857 33 33
5.0233564 0.99813575 -0.08325316 20 33
5.0244775 0.96634901 -0.083136238 29 33
5.026381 0.93476915 -0.083042696 22 33
5.0290704 0.90337932 -0.082972541 33 33
5.0355039 0.87267548 -0.082995921 23 33
5.0397778 0.8415969 -0.082972541 25 33
5.0418854 0.81018102 -0.082902379 16 33
5.04281 0.77861822 -0.082808845 26 33
5.0465035 0.74751478 -0.082785457 18 33
5.0480261 0.71611398 -0.082715303 20 33
5.0414281 0.6836462 -0.082458064 22 33
5.0445361 0.65257126 -0.082434677 18 33
5.0415001 0.62074947 -0.08227098 27 33
5.0412421 0.58933848 -0.082177438 27 33
5.0417824 0.55806428 -0.082107283 28 33
5.0411348 0.52670151 -0.082013741 24 33
5.0392971 0.49526972 -0.081896812 28 33
0 0 -0 32 33
5.0410113 0.43304929 -0.081803277 33 33
5.0425768 0.40203041 -0.08177989 31 33
5.0419579 0.37086147 -0.081709735 34 33
5.0501232 0.34032232 -0.081850044 45 33
5.054112 0.30945158 -0.081896812 62 33
5.0509243 0.27815831 -0.08177989 73 33
5.046545 0.24686672 -0.08163958 105 33
0 0 -0 91 33
5.0511923 0.18499289 -0.081686348 92 33
5.046237 0.15381174 -0.081546038 81 33
5.0390902 0.12264927 -0.081358954 60 33
5.0407476 0.091746107 -0.081382342 56 33
5.0462141 0.060876384 -0.081499264 45 33
5.0504913 0.029936876 -0.081592806 49 33
5.0535789 -0.0010528534 -0.08166296 44 33
5.0564766 -0.03207935 -0.081733115 46 33
5.0561848 -0.063104704 -0.081733115 45 33
5.0567017 -0.094146058 -0.081756502 54 33
5.0610261 -0.12529419 -0.081873432 46 33
5.0601621 -0.15634571 -0.081873432 35 33
5.0611057 -0.18746488 -0.081920199 31 33
5.0648541 -0.21873024 -0.082037129 20 33
5.0654135 -0.24990155 -0.082083896 24 33
5.0627866 -0.28092247 -0.082060516 22 33
5.0659571 -0.31228828 -0.082177438 22 33
5.0659404 -0.34350133 -0.082224213 23 33
5.0717134 -0.37516707 -0.082411289 30 33
5.0762916 -0.40683693 -0.082574986 43 33
5.0826645 -0.43874857 -0.082785457 34 33
5.0878406 -0.47066185 -0.082972541 25 33
5.0948057 -0.50285107 -0.083206393 34 33
5.1005731 -0.53503942 -0.083416857 31 33
5.1031561 -0.56698686 -0.083557174 27 33
5.10256 -0.5986374 -0.083627328 30 33
5.0987906 -0.62993485 -0.083627328 18 33
5.0978036 -0.66159391 -0.083697483 28 33
5.0986013 -0.6935336 -0.083814405 20 33
5.0932603 -0.72466433 -0.083791025 10 33
5.1065183 -0.75854242 -0.08421196 22 33
5.1086836 -0.79093027 -0.084375657 14 33
5.1106439 -0.82337326 -0.084539354 13 33
5.1074677 -0.85504574 -0.084586121 21 33
5.1080351 -0.88739383 -0.084726438 20 33
5.1054459 -0.91925025 -0.084796593 21 33
5.1046233 -0.95147425 -0.084913515 21 33
5.109488 -0.98485667 -0.085170753 31 33
5.1219788 -1.0198946 -0.085615076 22 33
5.1273761 -1.0537156 -0.085895695 23 33
5.1325507 -1.0876412 -0.086176321 24 33
5.1365247 -1.1214567 -0.08643356 13 33
5.1324735 -1.1536099 -0.086503714 23 33
5.125298 -1.1850804 -0.086503714 28 33
5.1257119 -1.2183541 -0.086690798 21 33
5.1424208 -1.2557054 -0.087275431 7 33
5.1278305 -1.2855349 -0.087111734 14 33
5.1266241 -1.3187163 -0.087275431 14 33
5.1368036 -1.3549886 -0.087719753 27 33
5.1390095 -1.3893496 -0.087976985 32 33
5.1352053 -1.4221889 -0.088093914 32 33
5.1388865 -1.457214 -0.08839792 46 33
5.1413703 -1.4920592 -0.088678546 90 33
5.1311603 -1.5232937 -0.088655159 265 33
5.1485043 -1.5628744 -0.089309946 629 33
5.0356898 -1.5624623 -0.08678434 235 33
4.9726372 -1.5764247 -0.085474767 213 33
4.8877273 -1.5825948 -0.083627328 231 33
4.8019824 -1.5874695 -0.081756502 199 33
4.7608895 -1.606364 -0.080984786 370 33
4.7471623 -1.6342453 -0.080891252 446 33
4.7445922 -1.6659905 -0.081078328 436 33
4.7380457 -1.6964185 -0.08117187 472 33
