# .PCD v0.7 - Point Cloud Data file format
VERSION 0.7
FIELDS x y z intensity ring
SIZE 4 4 4 4 1
TYPE F F F F U
COUNT 1 1 1 1 1
WIDTH 303
HEIGHT 1
VIEWPOINT 0 0 0 1 0 0 0
POINTS 303
DATA ascii
3.9558716 1.2016265 -1.2347854 83 56
3.9851542 1.1838596 -1.2418624 35 56
4.0721788 1.1825614 -1.2675165 13 56
4.0278792 1.1429501 -1.2510035 99 56
4.0449457 1.1210202 -1.2542472 85 56
3.9621913 1.1765473 -1.2849872 54 57
3.9757364 1.1540735 -1.2871259 71 57
3.91852 1.3205925 -0.82437909 57 48
3.912606 1.2919216 -0.82131159 144 48
3.9279108 1.270299 -0.82294756 135 48
3.9477632 1.2500141 -0.82560605 123 48
3.9777994 1.2327195 -0.83051395 70 48
4.004961 1.2142514 -0.83480835 85 48
4.0292292 1.1946616 -0.83848929 134 48
4.0383639 1.1704611 -0.8388983 127 48
4.0793767 1.155259 -0.84626013 39 48
4.0816708 1.1289024 -0.84523767 9 48
4.124433 1.1135286 -0.85300851 107 48
4.1425471 1.0911916 -0.85546243 118 48
3.789789 1.3833925 -0.85472745 32 49
3.8055582 1.362748 -0.85645896 89 49
3.8433218 1.3497322 -0.86338502 13 49
3.9018085 1.2901103 -0.87139326 23 49
3.9124372 1.2670482 -0.8720426 98 49
3.9452627 1.2509927 -0.87788647 25 49
3.9799335 1.2084461 -0.88243169 45 49
4.0228348 1.1945738 -0.89065641 90 49
4.0479016 1.1750437 -0.89476877 100 49
4.0813322 1.1576509 -0.90082908 16 49
4.1015296 1.1362393 -0.90385926 67 49
4.1169057 1.1133475 -0.9058072 91 49
4.1406498 1.0925537 -0.90970308 101 49
4.1661844 1.0719975 -0.91403192 93 49
3.8092017 1.3375223 -0.90554971 111 50
3.8532429 1.3264811 -0.91444212 34 50
3.8908324 1.3127711 -0.92173851 26 50
3.9136059 1.293761 -0.92538667 144 50
3.9168389 1.268224 -0.92424661 144 50
3.9755957 1.2603452 -0.93678725 26 50
4.0056701 1.2159874 -0.94043541 28 50
4.0130558 1.1913862 -0.94043541 99 50
4.0548892 1.1767777 -0.94887179 12 50
4.0676537 1.1534685 -0.9502399 6 50
4.0859151 1.1316056 -0.95297599 6 50
4.1106405 1.11134 -0.95730823 54 50
4.1249142 1.0880828 -0.95913231 8 50
4.1616883 1.0705115 -0.96642864 7 50
3.8347247 1.3188411 -0.95898575 65 51
3.864825 1.3027366 -0.96472681 122 51
3.8893399 1.2844836 -0.96903265 99 51
3.9100807 1.2647821 -0.97238159 127 51
3.9298003 1.244581 -0.97549134 89 51
3.9577646 1.2267749 -0.98075396 94 51
3.9828703 1.2078261 -0.98529899 114 51
3.9967222 1.1852994 -0.98697346 129 51
4.0374894 1.1704957 -0.99558508 77 51
4.0707517 1.1531171 -1.002283 30 51
4.0796218 1.128636 -1.0027615 87 51
4.1005297 1.1073838 -1.0063496 98 51
4.1250858 1.086908 -1.0108947 62 51
4.1710768 1.0444689 -1.019267 63 51
3.868546 1.305254 -1.0171347 78 52
3.8718863 1.2799736 -1.0158811 94 52
3.9561114 1.2809359 -1.0366907 7 52
3.9703562 1.2586848 -1.0384457 8 52
3.9863262 1.2368805 -1.0407022 5 52
3.9929142 1.2121165 -1.0404514 62 52
3.9956362 1.1862165 -1.0391979 77 52
4.0195746 1.1665324 -1.0437108 10 52
4.0434208 1.1465992 -1.0482237 5 52
4.080235 1.130033 -1.0562466 123 52
4.0936337 1.1067438 -1.0580018 157 52
4.1396623 1.0919718 -1.0685319 33 52
4.1247206 1.0610058 -1.0627654 23 52
4.1705923 1.0455606 -1.0732955 158 52
3.8941438 1.2868226 -1.0722916 58 53
3.898294 1.2617146 -1.0712442 96 53
3.9657581 1.2567389 -1.0882646 5 53
3.9614124 1.2286618 -1.0848606 37 53
3.9577954 1.2009659 -1.0817183 113 53
3.9974701 1.1862776 -1.0908831 52 53
3.9977996 1.1331815 -1.0869553 5 53
4.0800118 1.1295079 -1.1081654 66 53
4.0924554 1.1059644 -1.1097364 32 53
4.0123816 1.0579251 -1.0853842 6 53
4.0309477 1.0364133 -1.0887883 6 53
4.1439462 1.0384332 -1.1186395 30 53
3.8949406 1.2611358 -1.1209162 33 54
3.9117763 1.2401196 -1.1236458 119 54
3.9285002 1.2189441 -1.1263752 116 54
3.952476 1.1998448 -1.1312884 129 54
3.9735978 1.1796759 -1.1353827 108 54
3.9890766 1.1576846 -1.1378392 55 54
4.0210948 1.1402704 -1.145209 134 54
4.0363603 1.1178861 -1.1476655 126 54
4.0552168 1.0963613 -1.1512139 120 54
4.0832629 1.0770999 -1.1574918 97 54
4.1233368 1.06065 -1.167318 117 54
4.1558962 1.0418776 -1.1749607 97 54
3.9294562 1.2452238 -1.1785955 28 55
3.9296963 1.2188151 -1.176326 103 55
3.958204 1.20109 -1.1828507 36 55
4.0004296 1.1871568 -1.1936306 7 55
4.0398693 1.171948 -1.2035594 6 55
4.0303788 1.1424259 -1.1984532 13 55
4.0539465 1.1222843 -1.2035594 75 55
4.0635333 1.0981399 -1.2044104 66 55
4.0748305 1.0744095 -1.2058289 75 55
3.9389956 1.3282535 -0.42027166 126 40
3.9621727 1.3090471 -0.42202464 150 40
4.0032306 1.2954186 -0.42585927 151 40
4.0281606 1.2762332 -0.42783138 133 40
4.0473084 1.2550246 -0.42914611 127 40
4.069201 1.2344942 -0.4307895 111 40
4.1281586 1.2247649 -0.4367058 21 40
4.1623263 1.2071619 -0.4397735 10 40
4.1476588 1.1753685 -0.43725359 88 40
4.1614985 1.1517521 -0.43802053 110 40
3.8963611 1.3668542 -0.46815228 111 41
3.9093673 1.3445362 -0.46876076 105 41
3.9448175 1.3297255 -0.47228995 43 41
3.9774051 1.3135954 -0.47545406 6 41
4.0023875 1.2946693 -0.47764459 8 41
3.9998484 1.2667873 -0.47630593 37 41
4.0331416 1.2501625 -0.47959173 122 41
4.0464354 1.2271219 -0.48032188 92 41
4.0748219 1.208485 -0.48299921 10 41
4.1193366 1.1942484 -0.48774537 70 41
4.14855 1.1751782 -0.49054438 93 41
4.1671615 1.1528801 -0.49200472 113 41
3.8967741 1.367501 -0.51858664 143 42
3.9125886 1.3461438 -0.51965576 167 42
3.9254704 1.3236941 -0.52032399 130 42
3.947634 1.3042451 -0.52232856 40 42
3.9869611 1.2631842 -0.52566957 100 42
4.0059958 1.2422181 -0.52727324 129 42
4.0600128 1.2317077 -0.53382164 12 42
4.1205101 1.1950384 -0.54023635 5 42
4.1449285 1.174595 -0.54264188 32 42
3.7798975 1.3790338 -0.55493122 6 43
3.8945398 1.3669753 -0.57025176 48 43
3.8935006 1.3398314 -0.5687927 128 43
3.9072723 1.3178146 -0.56966817 115 43
3.9453406 1.3037568 -0.5743373 20 43
3.9974997 1.2938546 -0.58119506 63 43
3.9902754 1.264516 -0.57886052 121 43
4.0187449 1.2464616 -0.58207053 111 43
4.0499825 1.2289679 -0.58571827 107 43
4.0792589 1.210574 -0.58907419 70 43
4.1065612 1.1913151 -0.59213835 112 43
4.1261659 1.169606 -0.59403515 92 43
4.1380315 1.1455873 -0.59476471 56 43
3.8483491 1.3505124 -0.61309487 58 44
3.8705697 1.3316915 -0.61546206 95 44
3.8917682 1.3123332 -0.61767149 12 44
3.9100616 1.2918357 -0.61940742 6 44
3.9235516 1.2696432 -0.62035429 7 44
4.0046959 1.2688013 -0.63266373 56 44
3.9699621 1.231048 -0.62556213 25 44
4.0131712 1.1906613 -0.63029653 8 44
4.1029134 1.1899366 -0.64402628 105 44
4.1158381 1.1663541 -0.64497316 120 44
4.1172066 1.139498 -0.64402628 27 44
4.1717868 1.127087 -0.65191698 47 44
3.8300488 1.3692724 -0.66075581 93 45
3.8486078 1.3493356 -0.66262054 111 45
3.8670657 1.3292223 -0.66448528 104 45
3.8928924 1.3114525 -0.66770619 110 45
3.9345539 1.2986714 -0.67380899 44 45
3.970578 1.2836074 -0.67889464 110 45
3.9821374 1.2604108 -0.6795727 114 45
3.9888549 1.2356613 -0.67940319 66 45
3.9642968 1.2014353 -0.67363948 5 45
4.0358419 1.1961493 -0.68516695 20 45
4.0875921 1.1842654 -0.69313443 88 45
4.0758176 1.1537881 -0.689744 29 45
4.106566 1.1353295 -0.69398206 6 45
4.152463 1.1206493 -0.70093244 6 45
4.1716499 1.0984148 -0.70313621 25 45
3.8279841 1.3698051 -0.71076733 7 46
3.8474524 1.3501978 -0.71294385 111 46
3.870544 1.3316826 -0.71584588 41 46
3.9304826 1.2985804 -0.72437066 13 46
3.9542832 1.2795845 -0.72745407 121 46
3.9836228 1.2621269 -0.73162574 137 46
3.9790812 1.2338748 -0.72926784 99 46
4.0185742 1.2191403 -0.73543465 17 46
4.0589776 1.2042469 -0.7417829 143 46
4.0785689 1.1828786 -0.7441408 128 46
4.0971045 1.1610472 -0.74631733 154 46
4.1287942 1.1427039 -0.75103313 107 46
4.1499691 1.1211947 -0.75375378 128 46
4.1710348 1.0994685 -0.75647444 146 46
3.8206604 1.3659128 -0.75897169 96 47
3.8363762 1.3450432 -0.76051599 115 47
3.875175 1.3320123 -0.76688612 53 47
3.8842049 1.3085231 -0.76707917 4 47
3.9052038 1.2889746 -0.76978171 3 47
3.9326437 1.2713321 -0.77383542 70 47
3.9600132 1.2534013 -0.77788919 42 47
3.9732523 1.2308232 -0.77904737 8 47
4.0360312 1.1962055 -0.78889221 16 47
4.0734506 1.1801641 -0.79506934 33 47
4.1162696 1.1108712 -0.79950917 43 47
4.1372399 1.0893446 -0.8024047 82 47
4.1485977 1.0651599 -0.80336988 38 47
3.7874441 1.380829 -0.80270249 135 48
3.8032191 1.3602 -0.80433846 130 48
3.8161123 1.3384578 -0.80536091 149 48
3.8372128 1.3194723 -0.80822384 105 48
3.8888354 1.3910706 -0.468274 71 41
3.8207791 1.4203537 -0.51137006 113 42
3.8350086 1.3989203 -0.51217192 146 42
3.8705804 1.3850431 -0.51604748 138 42
3.7885911 1.4351352 -0.5590167 123 43
3.8130877 1.4177274 -0.56149715 55 43
3.7771072 1.4305623 -0.60678238 132 44
3.7959957 1.4111433 -0.6085183 111 44
3.8157153 1.3918846 -0.61041206 22 44
3.8688128 1.3844107 -0.6179871 8 44
3.7880158 1.4068981 -0.65617877 132 45
3.8012064 1.3853174 -0.65702635 32 45
3.8079634 1.4959298 -0.71548313 15 46
3.7887626 1.4084553 -0.70641428 6 46
3.8028767 1.3872029 -0.70750254 7 46
3.7801898 1.4304469 -0.7558831 60 47
3.7879758 1.4068834 -0.7556901 66 47
3.8232687 1.393365 -0.76128811 10 47
4.0495687 1.2549534 -0.32518172 51 38
4.1010547 1.243376 -0.3291029 104 38
4.1095619 1.2184721 -0.32918814 125 38
4.116961 1.1932334 -0.32918814 110 38
4.0008998 1.2941875 -0.37310305 66 39
4.0135093 1.2711179 -0.37358925 123 39
4.0411949 1.2526612 -0.37563118 111 39
4.0783277 1.2368033 -0.37864548 36 39
4.0839314 1.2111894 -0.37845102 4 39
4.0979772 1.1880498 -0.37913164 5 39
4.1568952 1.1775446 -0.38438237 59 39
4.3028169 0.96513635 -0.82827151 71 47
4.3317699 0.97204101 -0.8879773 6 48
4.332871 0.94440162 -0.88695484 42 48
4.40658 0.93217564 -0.90147406 27 48
4.3256888 0.97264379 -0.94325125 95 49
4.3439741 0.94879514 -0.94606495 114 49
4.3573542 0.92374492 -0.94779646 126 49
4.3094149 0.96860105 -0.99447399 71 50
4.3333507 0.94608516 -0.99880624 141 50
4.3485994 0.92149597 -1.0010864 135 50
4.3579869 0.89557976 -1.0019984 139 50
4.3901381 0.87414438 -1.0083827 47 50
4.3233433 0.97053593 -1.0515605 31 51
4.3358574 0.94543993 -1.0532351 117 51
4.338727 0.91821396 -1.0525174 66 51
4.2457228 0.98169637 -1.0883386 131 52
4.2866135 0.96347821 -1.0976151 76 52
4.2557259 1.037196 -0.82248044 94 47
4.2763295 1.0144649 -0.82537597 105 47
4.2996817 0.99218237 -0.82885063 102 47
4.1765165 1.0455016 -0.85996139 3 48
4.2294536 1.0312128 -0.86998171 31 48
4.2423682 1.0068237 -0.87141317 45 48
4.2789879 0.98781717 -0.87795705 10 48
4.1963563 1.0523576 -0.91944289 88 49
4.2254949 1.0321555 -0.92463744 117 49
4.245995 1.0096004 -0.92788404 121 49
4.2968125 0.99388105 -0.93805671 40 49
4.2002897 1.0530028 -0.97418106 12 50
4.2132931 1.0288267 -0.97577709 106 50
4.2460504 1.0092572 -0.9821614 28 50
4.2844172 0.99063969 -0.98991382 9 50
4.2464004 1.0910865 -1.0400784 4 51
4.217967 1.0287601 -1.0295531 107 51
4.2742662 1.01476 -1.0422313 21 51
4.3040624 0.99398291 -1.0482116 5 51
4.2239518 1.0314285 -1.0858314 109 52
4.2358518 1.006834 -1.0873357 121 52
4.2027411 1.0258166 -1.1333032 100 53
4.2061396 0.99933964 -1.1325177 54 53
4.2203059 1.1401907 -0.44393682 31 40
4.1837387 1.1298796 -0.4932217 109 41
4.2203445 1.1120353 -0.49699426 34 41
4.1778464 1.156275 -0.54625016 10 42
4.1886897 1.131652 -0.54678476 4 42
4.2214293 1.1127474 -0.55039304 41 42
4.2387357 1.0895371 -0.55186307 64 42
4.2633986 1.1522115 -0.61285764 6 43
4.1976919 1.1068407 -0.60176843 70 43
4.2178173 1.084516 -0.60381114 144 43
4.2320685 1.0605414 -0.60497844 75 43
4.2053604 1.1085132 -0.65633577 139 44
4.2235599 1.0856378 -0.65822953 115 44
4.2473836 1.0640198 -0.66107017 121 44
4.285491 1.0456599 -0.666278 94 44
4.1983557 1.0779496 -0.70669615 8 45
4.2945647 1.0466726 -0.72144455 10 45
4.2711816 1.0132421 -0.71618938 84 45
4.1891322 1.0767916 -0.75865096 157 46
4.2710233 1.0699395 -0.7729798 15 46
4.2345142 1.0332265 -0.76481783 89 46
4.2761769 1.0156295 -0.77152878 152 46
4.296701 0.99269164 -0.77424943 128 46
4.1817055 1.0463606 -0.80877489 7 47
