# .PCD v0.7 - Point Cloud Data file format
VERSION 0.7
FIELDS x y z intensity ring
SIZE 4 4 4 4 1
TYPE F F F F U
COUNT 1 1 1 1 1
WIDTH 1353
HEIGHT 1
VIEWPOINT 0 0 0 1 0 0 0
POINTS 1353
DATA ascii
-4.4429207 1.1701014 1.120207 767 12
-4.4375362 1.1978481 1.1206677 799 12
-4.4319787 1.2255726 1.1211286 749 12
-4.4309292 1.2545999 1.1227412 796 12
-4.4371672 1.2858279 1.1261971 723 12
-4.4431882 1.3171794 1.1296529 751 12
-4.442472 1.3466765 1.1314961 726 12
-4.4462085 1.3776547 1.1344911 663 12
-4.4423103 1.4063791 1.135643 597 12
-4.4447079 1.4372038 1.1384077 432 12
-4.4395018 1.4656694 1.1393293 213 12
-7.8017249 2.6291902 1.9816331 328 12
-7.7744031 2.6732137 1.9788684 165 12
-4.0867128 1.4331149 1.0577714 61 12
-4.0631824 1.4529198 1.0540851 46 12
-4.0359063 1.4711568 1.0494773 40 12
-4.000351 1.4860636 1.0427961 33 12
-3.9784164 1.5057578 1.0395707 33 12
-3.9554834 1.5248888 1.0361148 36 12
-3.9379005 1.5459294 1.0340413 31 12
-3.9265337 1.5693403 1.0335805 31 12
-3.9177318 1.5937703 1.0338109 34 12
-3.9114752 1.6192682 1.0347325 34 12
-3.9149172 1.6489052 1.0381883 30 12
-3.9065151 1.6736622 1.0386491 27 12
-3.9140134 1.705376 1.0432569 16 12
-3.9319446 1.7419757 1.0506294 33 12
-3.9433627 1.7760612 1.0563891 40 12
-4.6455026 2.1267591 1.242083 274 12
-4.6438351 2.1605604 1.245078 199 12
-4.6322498 2.1898456 1.2455388 180 12
-4.6038146 2.2110643 1.2416222 201 12
-4.5438104 2.216655 1.2294115 227 12
-4.4656024 2.2125196 1.2123628 260 12
-4.4076109 2.2175701 1.2006129 187 12
-4.3991203 2.2472293 1.2019953 321 12
-4.3982062 2.2809005 1.205451 355 12
-4.3720732 2.3014975 1.2022256 411 12
-4.3638773 2.331491 1.2038383 425 12
-4.3332362 2.3494096 1.1994609 274 12
-4.4918075 2.471185 1.24623 214 12
-4.4867558 2.5043917 1.2489946 403 12
-4.4882393 2.5414658 1.2536024 534 12
-4.4860611 2.5767128 1.2572887 598 12
-4.4844594 2.6125185 1.2612053 567 12
-4.4985046 2.6578074 1.2694993 374 12
-4.489624 2.6898613 1.2715728 401 12
-4.486341 2.7254431 1.275259 468 12
-4.4852753 2.7626169 1.2796364 452 12
-4.4830961 2.7993643 1.2837834 473 12
-4.5291433 2.8668993 1.3015234 342 12
-4.6990118 3.0149865 1.3542826 170 12
-4.7872849 3.1132665 1.3844637 238 12
-4.787591 3.1554356 1.389993 242 12
-4.7568116 3.1771848 1.3867675 258 12
-4.7557611 3.2188585 1.3920665 164 12
-4.740736 3.2512813 1.3934488 143 12
-4.6919303 3.2603166 1.3851548 183 12
-4.7028675 3.3108933 1.39414 230 12
-4.6840482 3.3408175 1.3946007 245 12
-4.6603065 3.3672156 1.3936791 185 12
-4.655262 3.407243 1.3982869 151 12
-4.6350493 3.4363225 1.3985174 280 12
-4.6076527 3.4600229 1.3966743 185 12
-4.5987272 3.4976561 1.4003605 268 12
-4.5725546 3.5222442 1.3989781 242 12
-4.5600629 3.5574176 1.4017428 164 12
-4.5610542 3.6034296 1.4086545 270 12
-4.5327797 3.6264842 1.4068114 422 12
-4.5172472 3.6597421 1.4088849 468 12
-4.5293117 3.7157836 1.4194828 377 12
-4.5116663 3.747858 1.4210955 414 12
-4.5325193 3.8124299 1.4346886 518 12
-4.520153 3.8496339 1.4381443 511 12
-6.4647288 5.5747738 2.0535145 187 12
-6.4326 5.6162558 2.0542057 291 12
-6.4009342 5.6581974 2.0551271 295 12
-6.3573947 5.689579 2.0523627 283 12
-6.3367863 5.7415481 2.0569704 294 12
-6.3129106 5.7908473 2.0606565 281 12
-6.2259226 5.7817941 2.0440686 213 12
-4.4562607 4.1894403 1.480536 187 12
-6.1960874 5.8973441 2.0576615 211 12
-6.1737995 5.9487562 2.0622692 246 12
-6.1441479 5.9933209 2.0645733 202 12
-6.1044884 6.028173 2.0636516 272 12
-6.070138 6.0682678 2.0645733 250 12
-6.0642505 6.1372414 2.0751712 201 12
-4.3511047 4.4577036 1.5072612 19 12
-4.3115139 4.4717073 1.5031142 82 12
-4.3557992 4.5734801 1.5277659 309 12
-4.3383226 4.6114612 1.5314521 311 12
-4.327167 4.6565285 1.5374422 124 12
-5.8118749 6.3319154 2.067338 19 12
-4.1481342 4.5751829 1.4945898 32 12
-5.7577529 6.4295821 2.0758624 170 12
-5.7207718 6.4677057 2.0767839 158 12
-5.6790586 6.5004873 2.0760927 231 12
-5.6225376 6.5160551 2.0701025 237 12
-5.5673027 6.5326562 2.0645733 224 12
-5.5177155 6.5555258 2.0611174 58 12
-5.4792533 6.5915036 2.0618086 184 12
-5.4442625 6.6317687 2.0638821 76 12
-5.388761 6.6469073 2.0583527 199 12
-5.4080801 6.755054 2.0811613 260 12
-5.0829039 6.4293189 1.9728782 191 12
-5.3134017 6.8063364 2.0767839 355 12
-5.2543116 6.8164592 2.0701025 651 12
-5.1882257 6.8168221 2.0606565 683 12
-5.1147356 6.8065181 2.0482156 682 12
-5.0560622 6.8151088 2.0415342 701 12
-4.7927933 6.5437484 1.9528344 388 12
-4.8323693 6.6834359 1.9850888 478 12
-4.8042707 6.7311788 1.9903878 565 12
-4.7449455 6.7350736 1.9830153 586 12
-4.6951981 6.7520771 1.9795595 438 12
-0 0 0 4 12
-0 0 0 5 12
-0 0 0 5 12
-0 0 0 3 12
-0 0 0 3 12
-0 0 0 4 12
-0 0 0 3 12
-0 0 0 3 12
-0 0 0 5 12
-0 0 0 3 12
-0 0 0 3 12
-0 0 0 3 12
-0 0 0 3 12
-0 0 0 5 12
-0 0 0 3 12
-0 0 0 3 12
-0 0 0 16 12
-0 0 0 27 12
-0 0 0 21 12
-0 0 0 22 12
-0 0 0 30 12
-0 0 0 29 12
-0 0 0 37 12
-0 0 0 28 12
-0 0 0 41 12
-0 0 0 26 12
-0 0 0 15 12
-0 0 0 30 12
-0 0 0 36 12
-0 0 0 48 12
-0 0 0 63 12
-0 0 0 60 12
-0 0 0 68 12
-0 0 0 55 12
-0 0 0 64 12
-0 0 0 56 12
-0 0 0 64 12
-0 0 0 50 12
-0.98839253 2.5604064 0.68223667 63 12
-0 0 0 51 12
-0 0 0 59 12
-0.93809444 2.5699382 0.68016315 52 12
-0.92230797 2.5756459 0.68016315 35 12
-0.91422194 2.6032927 0.68569249 20 12
-0.89063138 2.5867701 0.68016315 25 12
-0.86976635 2.5774333 0.6764769 43 12
-0 0 0 37 12
-0 0 0 45 12
-0 0 0 52 12
-0.79904389 2.5747669 0.67071718 51 12
-0.78633875 2.589864 0.67325145 188 12
-0.76683366 2.5825126 0.67025638 115 12
-0.74636406 2.5712817 0.66633976 56 12
-0.7300421 2.5739405 0.66587901 67 12
-0.71293676 2.5736823 0.66472703 47 12
-0.69586211 2.5733113 0.66357511 54 12
-0.67832273 2.5709462 0.66196239 57 12
-0.65841526 2.5590384 0.65804577 39 12
-0.64246434 2.5620861 0.6578154 139 12
-0.6209628 2.5423465 0.65205562 61 12
-0.60175246 2.5309608 0.64836943 46 12
-0.58423924 2.5260725 0.64629591 29 12
-0.56808859 2.5267615 0.64560473 48 12
-0.55340391 2.5340025 0.64652628 46 12
-0.54369283 2.5649579 0.6532076 30 12
-0.54184604 2.6359227 0.6695652 11 12
-0.52376264 2.6296539 0.66726136 10 12
-0.50688118 2.6289959 0.66633976 8 12
-0.48967108 2.6263168 0.66495746 9 12
-0 0 0 3 12
-0 0 0 4 12
-0 0 0 3 12
-0 0 0 4 12
-0 0 0 3 12
-0 0 0 4 12
-0.35343748 2.4830675 0.626252 8 12
-0 0 0 3 12
-0 0 0 3 12
-0.30636099 2.478529 0.62371773 6 12
-0 0 0 6 12
-0.27645937 2.4869378 0.6248697 3 12
-0 0 0 5 12
-0.2452516 2.4833643 0.62325698 7 12
-0.23081523 2.4935431 0.62533045 7 12
-0.21659753 2.5075159 0.62832552 3 12
-0.20213935 2.5204377 0.63109022 4 12
-0.18652704 2.5196896 0.63062942 4 12
-0 0 0 6 12
-0 0 0 4 12
-0.14334519 2.5809927 0.64445281 4 12
-0.12884572 2.6090374 0.6509037 4 12
-0.11442633 2.6467223 0.65965849 4 12
-0.10353674 2.7922673 0.69398654 4 12
-0 0 0 4 12
-0.066936776 2.6989658 0.67163873 3 12
-0.050573166 2.7100279 0.674173 20 12
-0.032618564 2.6032548 0.64883018 58 12
-0.016638603 2.6024327 0.6485998 116 12
-0.00066995603 2.6015127 0.64836943 128 12
0.015304368 2.6034141 0.64883018 101 12
0.031432185 2.6159205 0.65182525 87 12
0.050082173 2.7577269 0.68546212 49 12
0.068476371 2.8176818 0.69974625 43 12
0.086091228 2.8279078 0.70228052 56 12
0.11597588 3.1686537 0.78314722 117 12
0.13554122 3.170799 0.78383839 126 12
0.15513726 3.1728234 0.78452957 125 12
0.17470962 3.1737552 0.78499031 109 12
0.19423969 3.1735947 0.78522074 135 12
0.21364333 3.1713722 0.78499031 127 12
0.23281255 3.1661198 0.78406876 131 12
0.25215769 3.1636617 0.78383839 129 12
0.2716482 3.1630244 0.78406876 129 12
0.2912297 3.1632359 0.78452957 124 12
0.31082401 3.1633263 0.78499031 130 12
0.33022797 3.1613595 0.78499031 163 12
0.34940517 3.1573396 0.78452957 115 12
0.36831933 3.1512702 0.78360802 132 12
0.38705316 3.1441219 0.78245604 155 12
0.40608799 3.1397576 0.7819953 147 12
0.42534554 3.1372068 0.7819953 142 12
0.44513413 3.1383917 0.78291684 156 12
0.46452525 3.136564 0.78314722 141 12
0.48361352 3.1326928 0.78291684 140 12
0.50251728 3.1277452 0.78245604 162 12
0.52218044 3.1274822 0.78314722 164 12
0.54252428 3.1309307 0.78475994 165 12
0.56293005 3.1342473 0.78637266 155 12
0.58232886 3.1316907 0.78660303 156 12
0.60153359 3.1280587 0.78660303 135 12
0.62033617 3.1224 0.78614229 152 12
0.63811409 3.1118624 0.78452957 200 12
0.65961331 3.1193125 0.78729421 145 12
0.68122792 3.1266158 0.79005891 154 12
0.70103896 3.1252255 0.79075009 138 12
0.7210775 3.1246576 0.79167163 114 12
0.71124512 2.9980385 0.76195139 25 12
0.72178882 2.9614744 0.75411814 9 12
0.7413646 2.9626536 0.7555005 15 12
0.79657477 3.1022506 0.79075009 86 12
0.81385946 3.0907176 0.78913736 52 12
0 0 0 5 12
0 0 0 5 12
0.84621453 2.9890769 0.76794153 4 12
0.8986758 3.1015906 0.79697061 110 12
0.91741323 3.0950851 0.79674017 145 12
0.93582231 3.0875354 0.79627943 118 12
0.9538852 3.0789466 0.79558825 148 12
0.97275931 3.0730357 0.79558825 139 12
0.99219573 3.068861 0.796049 125 12
1.0143638 3.0728793 0.79858333 149 12
1.03724 3.0785851 0.80157834 112 12
1.0592749 3.0813649 0.80388224 145 12
1.0781618 3.0748074 0.80388224 139 12
0 0 0 114 12
0 0 0 147 12
0 0 0 134 12
0 0 0 153 12
0 0 0 136 12
1.2002097 3.0574954 0.81010276 167 12
1.2207537 3.0545912 0.81125474 136 12
1.2416739 3.0524514 0.81263709 154 12
0 0 0 143 12
0 0 0 141 12
0 0 0 182 12
0 0 0 207 12
0 0 0 168 12
0 0 0 183 12
1.3861804 3.028172 0.82093108 146 12
1.4076087 3.0257852 0.8225438 181 12
0 0 0 175 12
0 0 0 153 12
0 0 0 173 12
0 0 0 171 12
0 0 0 244 12
0 0 0 222 12
1.5622196 3.0126555 0.83590639 167 12
1.5843023 3.0099015 0.83774948 191 12
0 0 0 207 12
0 0 0 161 12
0 0 0 181 12
0 0 0 179 12
0 0 0 146 12
0 0 0 158 12
1.7473539 2.9996347 0.85433757 183 12
1.7741424 3.0030987 0.85825419 148 12
1.796537 2.9988339 0.86009729 152 12
1.8189461 2.9944072 0.86194038 137 12
1.8413683 2.9898179 0.86378354 155 12
1.863287 2.9842408 0.86539626 155 12
1.885727 2.9793291 0.86723936 147 12
1.9092278 2.9758923 0.86954325 152 12
1.938063 2.9804361 0.87415105 167 12
1.9632764 2.9790502 0.87714612 174 12
1.9863833 2.9742301 0.87921959 143 12
2.0089595 2.9684327 0.88106275 156 12
2.0326397 2.9640746 0.88336664 131 12
2.0574529 2.9611356 0.88613129 150 12
2.0856674 2.9627774 0.89027828 147 12
2.1105888 2.9594305 0.89304298 145 12
2.1378269 2.959044 0.89672923 165 12
2.1668639 2.9607897 0.9011066 168 12
2.1931045 2.9583817 0.90433204 152 12
2.2182279 2.9542065 0.90709674 156 12
2.2416151 2.9475105 0.90917021 140 12
2.2650034 2.9406383 0.91124374 140 12
2.2913845 2.9374261 0.91446918 132 12
2.3147948 2.9301827 0.91654271 158 12
2.3436737 2.9296007 0.9206897 173 12
2.3787587 2.9363346 0.92714059 181 12
2.3998172 2.9254451 0.92829257 188 12
2.4289155 2.9241376 0.93243957 322 12
2.4443061 2.9062004 0.93151802 173 12
2.4810219 2.9133716 0.93842971 160 12
2.5230012 2.926096 0.9471845 164 12
2.5498681 2.9208219 0.95040995 157 12
2.5735426 2.9116826 0.95248348 132 12
2.5991478 2.9045379 0.95524812 147 12
2.6267219 2.8993516 0.95870394 132 12
2.6569612 2.8968041 0.96308136 126 12
2.6899166 2.8968461 0.96838033 119 12
2.7209723 2.8944652 0.97298813 143 12
2.7494156 2.8889925 0.97667432 146 12
2.7826207 2.8881843 0.98197329 160 12
2.808444 2.8794148 0.98473799 197 12
2.8390508 2.8752832 0.98911536 192 12
2.8669598 2.8681314 0.99257123 215 12
2.8997331 2.8655326 0.99763978 200 12
2.9339747 2.8639982 1.0031691 216 12
2.9676056 2.8614755 1.008468 177 12
3.0083623 2.8653579 1.016071 177 12
3.0400629 2.8601797 1.0206788 157 12
3.0682485 2.8514078 1.0241345 127 12
3.0950067 2.8410814 1.0271297 156 12
3.1419399 2.8488338 1.0365756 283 12
3.1666102 2.8359931 1.0388795 199 12
3.1970725 2.8281138 1.0430264 173 12
3.2326865 2.8244486 1.0487863 162 12
3.2867947 2.836344 1.0603057 155 12
3.3248746 2.8337953 1.0667566 167 12
3.3541121 2.8233664 1.0704428 150 12
3.3870881 2.8157952 1.075281 142 12
3.4231055 2.8103945 1.0810407 158 12
3.4584274 2.8040447 1.0865701 148 12
3.4900012 2.7943258 1.0909475 172 12
3.5269291 2.7885489 1.0969377 175 12
3.573889 2.7902076 1.1059228 178 12
3.610981 2.7836711 1.111913 175 12
3.658968 2.7850344 1.1211286 185 12
3.7086623 2.787082 1.1308049 201 12
3.7428875 2.7770283 1.1358734 209 12
3.7747731 2.7649341 1.1402508 237 12
3.823211 2.7645257 1.1494664 252 12
3.8709927 2.7630606 1.1584516 293 12
3.9133306 2.7571895 1.1658241 277 12
3.960535 2.7542353 1.1745789 296 12
4.0062447 2.7497036 1.1828729 306 12
4.0472121 2.7414401 1.1897845 295 12
4.0906558 2.7343988 1.1973875 312 12
4.1398506 2.7306771 1.2066029 332 12
4.1850743 2.7237999 1.2146666 387 12
4.2303686 2.7164702 1.2227303 424 12
4.2839499 2.7138932 1.2330978 409 12
4.3285799 2.7050881 1.240931 406 12
4.3707767 2.6943052 1.2480731 252 12
4.4512529 2.7063575 1.2658131 338 12
4.4961514 2.6960065 1.2736464 330 12
4.5394144 2.6842153 1.2810187 394 12
4.5961514 2.6798356 1.2920774 450 12
4.6175699 2.6544931 1.2934598 534 12
4.630384 2.6241913 1.2925383 506 12
4.6362042 2.5900362 1.2897736 425 12
4.6341076 2.5516846 1.2849354 470 12
4.6394134 2.5176334 1.2821708 470 12
4.6333203 2.477649 1.2764109 362 12
4.6381044 2.4437304 1.2736464 440 12
4.6357369 2.4062607 1.2690386 418 12
4.6313524 2.3680265 1.2639699 417 12
4.6379728 2.3356259 1.2618965 450 12
4.6687813 2.3153369 1.2662739 323 12
4.7414885 2.3152494 1.2817099 448 12
4.7415724 2.2793679 1.2780237 554 12
4.7475524 2.2464859 1.2759502 471 12
4.7533078 2.2136166 1.2738767 403 12
4.7588387 2.1807613 1.2718031 541 12
4.7676945 2.1495211 1.2706512 582 12
4.7505484 2.1068158 1.262818 267 12
4.7607102 2.0764604 1.2621268 525 12
4.7706785 2.0460596 1.2614356 518 12
4.7741761 2.0129688 1.2591318 508 12
4.7765489 1.9795398 1.2565975 564 12
4.7804937 1.9468915 1.254524 535 12
4.7797008 1.9124624 1.2512985 544 12
4.7768545 1.8774046 1.2476124 560 12
4.7792058 1.8445559 1.2453084 611 12
4.7877035 1.8141624 1.2446172 639 12
4.7795911 1.7776294 1.2397791 390 12
4.7867522 1.7469347 1.2388575 698 12
4.788219 1.7142515 1.2365535 771 12
4.7738566 1.6761372 1.2303331 533 12
4.7803707 1.6455473 1.2294115 794 12
4.7857676 1.6146294 1.2282596 801 12
4.7789536 1.5797379 1.2241126 159 12
4.7774467 1.5467891 1.2213479 182 12
4.7655125 1.5106845 1.216049 294 12
4.7756214 1.4817036 1.2162794 171 12
4.8134894 1.461133 1.2234215 212 12
4.8951287 1.4531654 1.2413918 218 12
5.0104933 1.4540108 1.2676562 191 12
13.168093 3.7331903 3.2729657 304 12
13.170119 3.64661 3.2678971 299 12
13.148094 3.5537987 3.2570689 296 12
13.113196 3.4581699 3.2432456 279 12
13.081392 3.364073 3.2303438 292 12
13.080077 3.2783034 3.2250447 310 12
13.079148 3.1929071 3.2199762 327 12
13.068198 3.1053967 3.2126038 295 12
13.056667 3.018141 3.2052312 263 12
5.0531974 1.1357083 1.258671 849 12
5.0515146 1.1028137 1.2565975 845 12
5.0581861 1.0717975 1.2565975 808 12
5.0608544 1.0399576 1.2556759 850 12
5.063323 1.0081254 1.2547544 818 12
5.0684576 0.97685444 1.254524 766 12
5.0686164 0.94466728 1.2531416 732 12
5.0685711 0.91251493 1.2517593 708 12
5.0683222 0.88039881 1.2503769 662 12
5.0707493 0.84880185 1.2496858 710 12
5.0720191 0.81705356 1.2487643 639 12
5.0750136 0.78561926 1.2483034 606 12
5.0768514 0.75403613 1.2476124 625 12
5.0784922 0.72246003 1.2469212 633 12
5.0828295 0.69128537 1.2469212 589 12
5.08215 0.65945899 1.2457691 646 12
5.0793405 0.62742853 1.2441565 691 12
5.0908265 0.59715682 1.2459996 666 12
5.0856905 0.5649426 1.243926 752 12
5.0861578 0.53342247 1.2432349 772 12
5.0873981 0.50201339 1.2427741 793 12
5.0894136 0.47069868 1.2425437 796 12
5.0902672 0.43929458 1.242083 824 12
5.0909266 0.40789774 1.2416222 899 12
5.0933337 0.37665272 1.2416222 916 12
5.0936069 0.34526205 1.2411613 996 12
5.0927162 0.31382242 1.2404702 994 12
5.0916309 0.28240675 1.2397791 993 12
5.0922961 0.25111192 1.2395487 1016 12
5.0976295 0.22002901 1.2404702 1088 12
5.0949941 0.18860272 1.2395487 1017 12
5.0980005 0.15739678 1.2400094 1061 12
5.0978975 0.12608908 1.2397791 1075 12
5.0956564 0.09475255 1.2390879 1043 12
5.1087914 0.063641019 1.242083 1057 12
5.114924 0.032329332 1.2434653 1062 12
5.1033492 0.00094286405 1.2407006 1003 12
5.1013126 -0.030358985 1.2402399 989 12
5.1010303 -0.061659478 1.2402399 934 12
5.1054206 -0.09304668 1.2413918 868 12
5.102808 -0.12432365 1.240931 929 12
5.099031 -0.15554231 1.2402399 929 12
5.0999255 -0.18689787 1.2407006 956 12
5.104516 -0.21843699 1.242083 946 12
5.1059957 -0.24989651 1.2427741 908 12
5.1033945 -0.28116801 1.2425437 900 12
5.1044869 -0.31265524 1.2432349 927 12
5.1092687 -0.34442857 1.2448477 894 12
5.1109409 -0.37605789 1.2457691 918 12
5.1124172 -0.40772069 1.2466908 900 12
5.1166062 -0.43966588 1.2483034 909 12
5.120595 -0.47167784 1.2499162 912 12
5.1185727 -0.5031836 1.2501466 908 12
5.1163568 -0.53468233 1.2503769 879 12
5.120717 -0.56692284 1.25222 893 12
5.1239076 -0.5991239 1.2538328 892 12
5.1259298 -0.63126642 1.2552152 916 12
5.1277504 -0.66345626 1.2565975 885 12
5.1303325 -0.69582301 1.2582102 896 12
5.1307836 -0.72797292 1.2593622 886 12
5.1233325 -0.75901306 1.258671 805 12
5.1301193 -0.79221791 1.2614356 823 12
5.1309261 -0.82460773 1.262818 825 12
5.1315289 -0.85703719 1.2642003 814 12
5.1376791 -0.89050263 1.266965 797 12
5.1302028 -0.92166579 1.2665043 742 12
5.1234941 -0.95294875 1.2662739 665 12
5.1290174 -0.98657453 1.2690386 678 12
5.1314573 -1.0197346 1.271112 657 12
5.1270099 -1.0515927 1.2715728 557 12
0.91252756 -0.19268484 0.25325152 107 12
0.90657431 -0.19724402 0.25209957 113 12
0.90059954 -0.20173742 0.25094765 128 12
0.89934474 -0.2072596 0.25094765 135 12
0.90089649 -0.21344818 0.2516388 122 12
0.90051526 -0.21920252 0.2518692 122 12
0.90198517 -0.22543286 0.25256038 95 12
0.90152746 -0.23120522 0.25279075 97 12
0.89915085 -0.23648463 0.25256038 105 12
0.90707737 -0.24453403 0.25486428 162 12
0.91775227 -0.2534678 0.25785932 207 12
0.91337097 -0.2582987 0.25716814 28 12
0.91083425 -0.26362726 0.25693777 20 12
0.90826654 -0.2689344 0.25670737 15 12
4.9574413 -1.5028293 1.2589014 26 12
4.9072299 -1.5205437 1.2487643 43 12
4.898735 -1.5509191 1.2489946 45 12
4.8872747 -1.580349 1.2485338 110 12
4.8821063 -1.6118326 1.2496858 107 12
4.9145422 -1.6560555 1.2602837 431 12
4.848156 -1.6668754 1.24623 319 12
4.7717233 -1.6734006 1.2296419 381 12
4.7118878 -1.6849506 1.2172009 409 12
4.6018105 -1.6774961 1.1920885 315 12
4.5467348 -1.6890923 1.1807994 287 12
0.97975808 -0.37050924 0.2804375 125 12
0.97837412 -0.37686408 0.28066787 113 12
0.97151452 -0.38108176 0.27951592 135 12
0.96554369 -0.38559076 0.27859437 139 12
0.95775157 -0.38930738 0.27721202 140 12
0.9391616 -0.38847548 0.27306503 173 12
0.92510229 -0.38931933 0.27006996 192 12
0.90749079 -0.38847232 0.26615334 228 12
0.90509003 -0.39403325 0.26615334 224 12
0.89998633 -0.39839664 0.26546219 227 12
0.89397597 -0.40231258 0.26454061 215 12
0.8897211 -0.40698007 0.26407984 213 12
0.88720715 -0.41243163 0.26407984 217 12
0.88465983 -0.41786766 0.26407984 246 12
0.88207918 -0.42328799 0.26407984 193 12
0.87946528 -0.42869234 0.26407984 176 12
0.87507451 -0.43321642 0.26361907 243 12
0.87935382 -0.44207698 0.26546219 162 12
0.87229204 -0.44525054 0.26431024 117 12
0.87127125 -0.45149055 0.26477101 116 12
0.90809256 -0.47768205 0.27536893 24 12
0.91458517 -0.48828983 0.2779032 11 12
0 -0 0 4 12
4.526762 -2.4904189 1.2556759 39 12
4.5173435 -2.5214679 1.2572887 43 12
4.5043273 -2.5505772 1.2579799 57 12
4.5054679 -2.5878618 1.2625877 46 12
4.5004344 -2.6218269 1.2655827 51 12
4.496829 -2.6568174 1.2690386 22 12
4.5013099 -2.6968639 1.2747983 42 12
4.5038052 -2.7360544 1.2800972 29 12
4.5117874 -2.7789493 1.2870089 28 12
4.5128093 -2.8179209 1.2920774 24 12
4.5135217 -2.8570094 1.2971461 35 12
4.5147429 -2.8967376 1.3024449 30 12
4.5278816 -2.9445467 1.3111998 17 12
4.5194788 -2.9787004 1.3139645 36 12
4.5172997 -3.0171862 1.3185723 38 12
4.5204592 -3.0595751 1.3247927 13 12
4.5144401 -3.0960615 1.3284789 35 12
4.5153351 -3.1375866 1.3342388 31 12
4.516685 -3.1797993 1.3402288 27 12
4.5176864 -3.2221458 1.3462189 25 12
4.5151825 -3.2623441 1.3512875 23 12
4.5162807 -3.3055065 1.3575081 18 12
4.5146732 -3.3470659 1.3630373 22 12
4.5142813 -3.3898981 1.3690275 29 12
4.5073371 -3.4281378 1.3731745 13 12
4.5193648 -3.4812665 1.3830813 20 12
4.5278401 -3.5322766 1.3920665 30 12
4.5266962 -3.5762813 1.3982869 30 12
4.5274615 -3.6222284 1.4051987 36 12
4.5323687 -3.6719944 1.4134927 48 12
4.5263023 -3.7133148 1.4185612 29 12
4.5423536 -3.7733538 1.4305415 44 12
4.5399656 -3.8186941 1.4369924 38 12
4.5364504 -3.8635156 1.4432129 29 12
4.5413985 -3.9160635 1.4521981 37 12
4.5378084 -3.961776 1.458649 42 12
4.5498667 -4.021771 1.4701685 30 12
4.5417809 -4.064539 1.4754674 35 12
4.5383887 -4.1119328 1.4823791 41 12
4.5417552 -4.1660156 1.4915947 47 12
4.5396371 -4.2156577 1.4991976 47 12
4.5413337 -4.2694297 1.5081828 27 12
4.5460644 -4.3267345 1.5183198 40 12
4.5488601 -4.3829069 1.5279962 37 12
4.5497437 -4.4379158 1.5372118 36 12
4.5508142 -4.493784 1.5466578 43 12
4.5520582 -4.550519 1.5563341 51 12
4.5418329 -4.5963621 1.5623243 64 12
4.557723 -4.6694098 1.5772996 31 12
4.555326 -4.7246094 1.5862848 36 12
4.5564485 -4.7841825 1.5966523 43 12
4.5696783 -4.8574133 1.6113971 38 12
4.570919 -4.9188657 1.6222255 33 12
4.5682869 -4.9769306 1.6319019 34 12
4.5690346 -5.0394726 1.6429605 46 12
4.5782733 -5.1123595 1.6572447 33 12
4.5900116 -5.1891923 1.6726807 22 12
4.5772905 -5.239244 1.6795925 35 12
4.5882831 -5.3173313 1.695259 19 12
4.5770297 -5.3705668 1.7030922 27 12
4.5721869 -5.4320531 1.7134597 30 12
4.5773349 -5.5064025 1.7277439 41 12
4.5953245 -5.5975652 1.7470965 30 12
4.5872416 -5.6581607 1.7570033 23 12
4.5840607 -5.7257037 1.7689836 23 12
4.5826359 -5.796473 1.7818854 25 12
4.5865016 -5.8751092 1.7970911 36 12
4.5824447 -5.9447603 1.8095322 24 12
3.5045776 -4.6044655 1.402434 33 12
3.4476166 -4.5877624 1.3911449 125 12
3.4414325 -4.6385288 1.3998997 227 12
3.4071567 -4.6517067 1.3975958 266 12
3.373419 -4.6654277 1.3955224 179 12
3.3650789 -4.7145534 1.4038163 148 12
3.336648 -4.735908 1.4040468 135 12
3.2880833 -4.7283287 1.3959831 229 12
3.2672679 -4.7604504 1.399439 289 12
3.2352686 -4.7763796 1.3982869 208 12
3.2172554 -4.8131309 1.4031252 196 12
3.1871262 -4.8319688 1.4028947 225 12
3.1818321 -4.8889523 1.4134927 195 12
3.1722775 -4.9403191 1.4224778 203 12
3.2788475 -5.1758947 1.4830703 148 12
3.3635619 -5.382422 1.5351382 236 12
3.3274093 -5.3979888 1.533756 160 12
3.3134332 -5.4499011 1.5425107 119 12
3.2804313 -5.470964 1.5427412 87 12
3.2368956 -5.4742365 1.5381334 192 12
3.2120669 -5.5091267 1.5422804 169 12
3.1995394 -5.5658531 1.5524175 202 12
3.2061048 -5.6573439 1.5720006 179 12
3.8000801 -6.8025708 1.8772666 338 12
3.7437201 -6.7993336 1.8701246 533 12
3.6926484 -6.8050704 1.8655168 534 12
3.6416476 -6.8104372 1.860909 541 12
3.593895 -6.8214612 1.8579139 534 12
3.5367315 -6.8140187 1.8500806 628 12
3.4833386 -6.8130636 1.8440906 621 12
3.4279027 -6.8073649 1.8369485 676 12
3.3735332 -6.8029876 1.8302672 609 12
3.3244698 -6.8086934 1.8263506 666 12
3.2750423 -6.8131766 1.8222035 674 12
3.2244365 -6.8146715 1.8173654 657 12
3.1735256 -6.8149204 1.8122967 589 12
3.125165 -6.8201103 1.8086106 654 12
3.0780602 -6.8276248 1.8056155 653 12
3.0309811 -6.8348184 1.8026204 692 12
2.9831519 -6.8399076 1.7991645 722 12
2.9319229 -6.8366189 1.7936352 798 12
2.8808472 -6.8329597 1.7881058 890 12
2.8351419 -6.8415179 1.785802 851 12
2.7824678 -6.8326488 1.7791207 953 12
2.7368767 -6.8405581 1.7768168 943 12
2.6870232 -6.8372974 1.7717483 921 12
2.6394145 -6.8391304 1.768062 926 12
2.5929193 -6.8433666 1.765067 960 12
2.5461323 -6.8463788 1.7618415 947 12
2.4980721 -6.845418 1.7576945 959 12
2.4514313 -6.8477902 1.754469 939 12
2.4074342 -6.8571939 1.7530867 864 12
2.3637307 -6.8672361 1.7519348 789 12
1.6544384 -4.9037914 1.2577494 240 12
2.2655406 -6.8541479 1.7415673 700 12
2.2192464 -6.8549585 1.7383418 328 12
1.5148002 -4.7784991 1.2192744 120 12
1.5088025 -4.8629866 1.2379359 209 12
1.4520905 -4.7836919 1.216049 106 12
1.4119135 -4.7561293 1.2070638 66 12
1.3889399 -4.7861981 1.2123628 131 12
1.3622 -4.8039927 1.2146666 129 12
1.3246489 -4.7831879 1.2075245 94 12
1.3013679 -4.8137712 1.2130539 130 12
1.2673407 -4.804729 1.2089069 113 12
1.2436516 -4.8350334 1.2144362 125 12
1.2184553 -4.8605075 1.2188137 130 12
1.1821479 -4.8414226 1.2123628 109 12
1.153319 -4.8523722 1.2132843 118 12
1.122209 -4.8536687 1.2119019 104 12
1.0958192 -4.8756537 1.2155882 126 12
1.0677494 -4.8908424 1.2176616 117 12
1.0348967 -4.8839741 1.2144362 99 12
1.0058887 -4.8949986 1.2155882 117 12
0.97051615 -4.8743558 1.2091373 82 12
0.94150978 -4.8849964 1.2102892 106 12
0.90741926 -4.8686786 1.2049903 87 12
0.8756327 -4.8636203 1.202456 92 12
0.84510773 -4.8650665 1.2015344 99 12
0.81427681 -4.8644018 1.200152 49 12
0.78534222 -4.8750706 1.2015344 67 12
0.75705129 -4.8903761 1.2040687 56 12
0.72788757 -4.9007044 1.205451 58 12
0.69739276 -4.9021883 1.2047598 59 12
0.67162555 -4.9381948 1.2123628 56 12
0.6638391 -5.1159258 1.2538328 27 12
0.63601255 -5.1488757 1.2607445 24 12
0.60202849 -5.1323853 1.2559063 29 12
0.57159907 -5.1456542 1.2582102 28 12
0.5427537 -5.1751952 1.2644308 23 12
0.68162251 -6.9089632 1.6761366 318 12
0.63903797 -6.9110775 1.6756759 924 12
0.59653676 -6.9138989 1.6754454 951 12
0.55441326 -6.921309 1.676367 545 12
0.51114583 -6.9139056 1.6738328 1068 12
0.46864754 -6.9159408 1.6736023 1105 12
0.42584464 -6.9128585 1.67222 1150 12
0.38315105 -6.9104834 1.6710681 1174 12
0.34088546 -6.9156199 1.6717592 1177 12
0.29831994 -6.9146647 1.6710681 1235 12
0.25574306 -6.9124756 1.6701465 1256 12
0.21335404 -6.914887 1.6703769 1300 12
0.17096904 -6.9180117 1.6708376 1268 12
0.12864383 -6.9257412 1.6724504 1323 12
0.086218141 -6.9322381 1.6738328 1337 12
0.043705411 -6.9365292 1.6747543 1403 12
0.0011428479 -6.9366665 1.6747543 1393 12
-0.041419759 -6.936543 1.6747543 1336 12
-0.084063657 -6.9429693 1.676367 1381 12
-0.12669894 -6.9442687 1.6768278 1420 12
-0.16932957 -6.9443336 1.6770582 1413 12
-0.21190627 -6.9421911 1.6768278 1512 12
-0.25482017 -6.949512 1.6789013 1407 12
-0.29770684 -6.953651 1.6802837 1379 12
-0.34070152 -6.958497 1.6818963 1387 12
-0.38365966 -6.9611335 1.6830484 1335 12
-0.4267821 -6.9654474 1.684661 1325 12
-0.46931669 -6.959785 1.6839699 1312 12
-0.51215523 -6.958715 1.6844306 1271 12
-0.55507576 -6.9583516 1.6851218 1203 12
-0.59792775 -6.9567537 1.6855826 1234 12
-0.64069164 -6.9539232 1.685813 1170 12
-0.68420553 -6.9585767 1.6878865 1192 12
-0.72780061 -6.9629579 1.68996 1155 12
-0.77136803 -6.9660988 1.6918031 1102 12
-0.8148883 -6.9679999 1.6934159 1093 12
-0.85798484 -6.965766 1.6941071 1128 12
-0.9014594 -6.9661608 1.6954893 1153 12
-0.94510198 -6.9672484 1.6971021 1231 12
-0.98933887 -6.9719157 1.6996363 1208 12
-1.0332406 -6.9734149 1.7014794 1208 12
-1.0766035 -6.9707904 1.702401 1203 12
-1.1209 -6.9736609 1.7047049 1241 12
-1.1649514 -6.9743304 1.7065481 1200 12
-1.2093858 -6.9766388 1.7088519 1157 12
-1.2530316 -6.9738755 1.7100039 1235 12
-1.297935 -6.9775362 1.7127686 1169 12
-1.3429304 -6.9809074 1.7155333 1169 12
-1.3880161 -6.9839892 1.718298 1148 12
-1.4357327 -6.9991717 1.7240577 1071 12
-1.4802632 -6.9978466 1.7259008 1074 12
-1.5252461 -6.9981399 1.7282046 1093 12
-1.57178 -7.0047908 1.7321212 1107 12
-1.6191095 -7.0139775 1.736729 1114 12
-1.6659365 -7.0200062 1.7406456 1048 12
-1.7108234 -7.0172153 1.7424887 1010 12
-1.7555025 -7.0131936 1.7441015 982 12
-1.801165 -7.0126576 1.7466358 994 12
-1.8483744 -7.0174704 1.7505524 956 12
-1.8946958 -7.0182099 1.7535474 1024 12
-1.9408362 -7.0177069 1.7563121 1014 12
-1.9875721 -7.0187736 1.7595376 1084 12
-2.0333104 -7.0157919 1.7618415 1058 12
-2.0774267 -7.0069156 1.762763 369 12
-1.757813 -5.7983403 1.466943 17 12
-1.793646 -5.7883749 1.4671735 19 12
-1.829129 -5.7772603 1.4671735 21 12
-1.8636447 -5.7631502 1.4664823 15 12
-1.9004974 -5.756227 1.4676342 19 12
-1.9364028 -5.7463017 1.4680949 24 12
-1.9735237 -5.7398329 1.4694773 34 12
-2.006773 -5.7221065 1.4680949 22 12
-2.519016 -7.0437465 1.803542 836 12
-2.568855 -7.046442 1.8081498 960 12
-2.6194997 -7.0506148 1.8132184 1067 12
-2.6699474 -7.0535202 1.8180565 1136 12
-2.7177281 -7.0488081 1.8210516 1110 12
-2.7651958 -7.0428691 1.8238163 1164 12
-0 -0 0 862 12
-2.8704863 -7.055275 1.8357965 1202 12
-2.9234023 -7.060905 1.8417866 1133 12
-2.9738503 -7.0598726 1.846164 1178 12
-3.0286117 -7.0683255 1.8530757 1137 12
-3.0835884 -7.0763712 1.8599874 1030 12
-3.1226134 -7.0475311 1.8574531 384 12
-2.3895917 -5.3052506 1.4100368 308 12
-2.3929296 -5.2267861 1.3934488 212 12
-2.3818476 -5.1193686 1.3692579 49 12
-2.3915849 -5.0589123 1.3572776 27 12
-2.3977213 -4.9923911 1.3436847 65 12
-2.4078262 -4.9356065 1.332626 16 12
-2.4220784 -4.8884788 1.3241016 31 12
-2.4301567 -4.8300629 1.3125821 165 12
-2.4438088 -4.7838655 1.3042881 23 12
-2.4610186 -4.7454576 1.2980676 13 12
-3.7318077 -7.0886679 1.9291042 855 12
-3.788074 -7.0896673 1.9355551 1171 12
-3.8491316 -7.0987964 1.9443099 1182 12
-3.9118505 -7.1099997 1.9537559 1121 12
-3.9620435 -7.0977583 1.9569813 1052 12
-4.0232635 -7.1046433 1.9655057 773 12
-3.1622698 -5.5053406 1.5355991 674 12
-3.1597378 -5.4236155 1.5185503 524 12
-3.1587985 -5.3463202 1.5026534 501 12
-3.15453 -5.265069 1.4856045 668 12
-3.1332154 -5.1574616 1.4611833 319 12
-3.1709266 -5.1480818 1.463948 477 12
-3.1452386 -5.0369134 1.4383748 277 12
-3.1870162 -5.0347853 1.4432129 608 12
-3.1342866 -4.8849187 1.406581 133 12
-3.2215021 -4.9536943 1.4314631 252 12
-3.3418109 -5.0703282 1.4701685 639 12
-3.3831291 -5.0651016 1.4745458 575 12
-3.4266906 -5.0627818 1.4798448 626 12
-3.4742036 -5.0657349 1.4867566 629 12
-3.5213258 -5.0674953 1.4934378 630 12
-3.5742021 -5.0768237 1.502423 568 12
-3.6148922 -5.068265 1.5063397 430 12
-4.9311666 -6.8245454 2.0258677 228 12
-4.675786 -6.3882089 1.9067564 403 12
-4.7172136 -6.362525 1.907678 241 12
-4.7567492 -6.3342395 1.9079084 228 12
-4.8155565 -6.3312659 1.9157417 152 12
-4.8370914 -6.2792439 1.9090604 231 12
-4.8689442 -6.2410069 1.9065261 232 12
-4.8884444 -6.187345 1.899384 255 12
-4.9336128 -6.1663513 1.9021486 230 12
-4.9431758 -6.1011844 1.8915508 216 12
-4.9731121 -6.0617113 1.8887861 252 12
-4.0040598 -4.8200402 1.516016 303 12
-3.9890833 -4.7425108 1.4996583 661 12
-4.0099049 -4.7083149 1.4966632 762 12
-4.0005879 -4.6394072 1.4828399 536 12
-5.1535134 -5.9026446 1.8876342 146 12
-5.2005911 -5.883306 1.8915508 255 12
-5.2365923 -5.851285 1.8915508 270 12
-5.2756639 -5.8226495 1.8927027 243 12
-5.3001084 -5.7779789 1.8887861 255 12
-5.3381104 -5.7482009 1.8897077 234 12
-5.3852787 -5.7280998 1.8938546 257 12
-5.4008679 -5.6745081 1.8871733 265 12
-4.4747376 -4.6441565 1.5593292 225 12
-5.4734936 -5.6112866 1.8883253 246 12
-5.5037184 -5.573442 1.886943 240 12
-4.1459694 -4.1474204 1.4208652 361 12
-5.5613151 -5.4952245 1.8834871 210 12
-5.579608 -5.4460449 1.8784186 191 12
-4.2391214 -4.0872884 1.4266249 379 12
-4.2450943 -4.0430818 1.4204043 694 12
-4.2606077 -4.0082908 1.4174093 719 12
-4.2544684 -3.9535909 1.4075025 608 12
-4.2406502 -3.8925383 1.3952919 718 12
-4.2341747 -3.838995 1.3856156 844 12
-4.2489514 -3.8051527 1.3828509 773 12
-4.2525387 -3.7616036 1.3766304 332 12
-3.8035808 -3.3231571 1.2282596 6 12
-3.8283203 -3.3035703 1.2296419 23 12
-3.8425932 -3.2749686 1.2277988 15 12
-3.8574042 -3.2469432 1.226186 11 12
-3.872016 -3.2188594 1.2245734 17 12
-2.968056 -2.436862 0.94165516 25 12
-2.9444003 -2.3873527 0.9299053 116 12
-2.9513967 -2.3631599 0.9276014 158 12
-2.9688947 -2.3474197 0.92852294 280 12
-2.9548607 -2.3070045 0.91999853 144 12
-2.9782093 -2.295959 0.92276323 284 12
-2.9798512 -2.2682128 0.91907698 143 12
-2.9797091 -2.2393644 0.91492999 123 12
-2.9785445 -2.2100236 0.91055256 130 12
-2.974777 -2.1790571 0.90548402 142 12
-2.9762626 -2.1522112 0.90202814 186 12
-2.9846599 -2.130517 0.90064585 189 12
-2.977788 -2.0981534 0.89488608 145 12
-2.9698331 -2.0653992 0.88889599 127 12
-2.9752293 -2.0421822 0.88682246 111 12
-2.9828696 -2.0206141 0.88544011 138 12
-2.9895484 -1.9984885 0.88382739 148 12
-3.012315 -1.9870721 0.88682246 116 12
-3.0513663 -1.986066 0.89442533 89 12
-3.0815098 -1.9788718 0.89949387 67 12
-3.1116796 -1.971382 0.90456247 62 12
-3.1790087 -1.9868 0.91999853 255 12
-3.2010806 -1.9733834 0.92276323 108 12
-3.2530413 -1.9779676 0.93382192 311 12
-3.3018391 -1.9799861 0.94395906 86 12
-3.3599968 -1.9869269 0.95663047 69 12
-3.3990269 -1.9819556 0.96400291 58 12
-3.4246225 -1.9688209 0.96768916 51 12
-4.3586164 -2.4701977 1.2185832 71 12
-4.3966293 -2.4562194 1.2248038 113 12
-4.4397488 -2.4446831 1.2324066 96 12
-4.4649291 -2.4229641 1.2351713 93 12
-4.4737048 -2.3923106 1.2335585 112 12
-4.4702201 -2.3552911 1.2287204 102 12
-4.4750867 -2.3228874 1.226186 136 12
-4.5005193 -2.3011432 1.2291812 103 12
-4.5049934 -2.2686715 1.2266469 63 12
-4.4333911 -2.1986241 1.2040687 68 12
-4.454668 -2.1752222 1.2061422 60 12
-4.5117841 -2.1689248 1.2176616 82 12
-4.546998 -2.1516039 1.2234215 113 12
-4.5415888 -2.1150379 1.2185832 77 12
-4.5571351 -2.0883474 1.2192744 96 12
-4.6195426 -2.0827398 1.2321762 155 12
-4.5601797 -2.0224063 1.2135147 95 12
-4.647429 -2.027061 1.2328674 172 12
-7.2551732 -3.1113966 1.9014575 119 12
-7.241847 -3.0532134 1.8931634 205 12
-5.7393618 -2.378473 1.5033445 102 12
-5.8538871 -2.3839452 1.5289178 166 12
-5.8539486 -2.3421988 1.5252316 205 12
-4.3855968 -1.7236661 1.148084 98 12
-4.3579607 -1.682011 1.1384077 160 12
-4.3600092 -1.6521368 1.1363342 166 12
-4.3372293 -1.6131439 1.1280402 194 12
-4.3342476 -1.5818312 1.1248147 218 12
-4.3337941 -1.5515997 1.1222805 247 12
-4.3294601 -1.5201445 1.1188246 227 12
-4.3331857 -1.4916508 1.1174423 234 12
-4.3431787 -1.4653457 1.1176727 208 12
-4.3410006 -1.4350048 1.114908 241 12
-4.340466 -1.4053452 1.1126041 209 12
-4.3443689 -1.3772163 1.1114521 166 12
-4.3211374 -1.3407321 1.1036189 238 12
-4.3162465 -1.3102368 1.1003934 55 12
-0 -0 0 4 12
-0 -0 0 5 12
-0 -0 0 4 12
-4.2176819 -1.1680858 1.0685997 4 12
-0 -0 0 3 12
-4.1950021 -1.106564 1.0596145 13 12
-4.1941733 -1.0788646 1.0577714 14 12
-4.2016582 -1.0533458 1.0580018 29 12
-4.2156053 -1.0293911 1.059845 53 12
-4.2171082 -1.0023805 1.0586929 50 12
-4.2099056 -0.97341812 1.0554675 38 12
-4.2053556 -0.94522184 1.0529332 26 12
-4.1778011 -0.91213864 1.0448697 7 12
-4.1947427 -0.88890672 1.0476342 8 12
-4.1982117 -0.86275989 1.0471735 13 12
-4.1986547 -0.83603418 1.0460216 7 12
-4.2056165 -0.81062418 1.0464823 10 12
-4.2200775 -0.78658593 1.0487863 8 12
-4.2794142 -0.77050102 1.0619184 10 12
-4.3645968 -0.75821179 1.0812712 113 12
-4.3941207 -0.73559195 1.0872613 87 12
-4.4225693 -0.71248353 1.093021 65 12
-4.4191647 -0.68414342 1.0911778 93 12
-4.431942 -0.65830106 1.0932513 74 12
-4.4378247 -0.6313687 1.0937122 82 12
-4.402082 -0.59875315 1.0842662 55 12
-4.3516316 -0.56472301 1.0713644 34 12
-4.4245501 -0.54659534 1.0879524 93 12
-4.4355526 -0.52034289 1.0897956 119 12
-4.4531693 -0.49472746 1.0932513 75 12
-4.4696703 -0.46881399 1.0964768 83 12
-4.4656839 -0.44071138 1.0948641 80 12
-4.4624901 -0.41276491 1.0934818 76 12
-4.4659085 -0.38545942 1.0937122 124 12
-4.4652796 -0.35781693 1.093021 113 12
-4.4586568 -0.32976651 1.0909475 88 12
-4.4673924 -0.30286267 1.0925602 76 12
-4.4701381 -0.27550533 1.0927906 95 12
-4.4834037 -0.2487177 1.0955553 78 12
-4.4712381 -0.22053342 1.0923299 130 12
-4.4900069 -0.19384827 1.0964768 87 12
-4.4852772 -0.16607891 1.0950944 73 12
-4.4881568 -0.13861455 1.0955553 56 12
-4.4684944 -0.1105694 1.0907171 64 12
-4.4700613 -0.083167173 1.0909475 80 12
-4.4802179 -0.055858299 1.0932513 77 12
-4.4843688 -0.028391456 1.094173 85 12
-4.4902968 -0.00087599043 1.0955553 47 12
-4.4571328 0.026476571 1.0877221 99 12
-4.4578595 0.053836361 1.0879524 110 12
-4.4730124 0.081473149 1.0916387 135 12
-4.6158085 -0.34103197 1.0706059 88 13
-4.6810927 -0.31700456 1.0848294 183 13
-4.6907411 -0.2887575 1.08658 148 13
-4.6047416 -0.25509053 1.0668858 93 13
-4.6588469 -0.22943652 1.0787024 172 13
-4.6240973 -0.19928247 1.0706059 108 13
-4.6427851 -0.17155877 1.0745448 121 13
-4.6964159 -0.14470378 1.0863613 208 13
-4.6650252 -0.1150822 1.0791401 127 13
-4.6744237 -0.086620882 1.0811095 240 13
-4.6309614 -0.057382409 1.0712624 157 13
-4.6487899 -0.029080566 1.0752012 152 13
-4.7074265 -0.00057729427 1.0883306 370 13
-4.6126938 0.02776129 1.0671047 139 13
-4.6729298 0.056783687 1.0806718 200 13
-4.6598105 0.085226394 1.0778271 156 13
-4.6679792 0.11402911 1.0797966 81 13
-4.6964512 0.14355624 1.0863613 191 13
-4.6837807 0.17194377 1.0837353 83 13
-4.7031097 0.20155193 1.0883306 72 13
-4.6345367 0.22712719 1.0732318 120 13
-4.6710534 0.25764626 1.0817659 51 13
-4.6372442 0.28433985 1.0745448 99 13
-4.6539102 0.3140316 1.0787024 119 13
-4.6441102 0.34201017 1.0769519 52 13
-4.6166344 0.3684873 1.0712624 107 13
-4.6201196 0.39730766 1.0725753 80 13
-4.6506319 0.42868561 1.0800153 97 13
-4.6848154 0.46083397 1.0883306 136 13
-4.5974665 0.48076308 1.0692929 74 13
-4.6177068 0.51153612 1.0745448 118 13
-4.614481 0.53986019 1.0745448 100 13
-4.5471625 0.5603044 1.0601023 63 13
-4.4400926 0.574817 1.0366881 219 13
-4.4297137 0.60113335 1.0351564 235 13
-4.4346366 0.6295343 1.0371257 235 13
-4.4384127 0.65787542 1.0388763 263 13
-4.4468293 0.6870302 1.0417211 318 13
-4.4974456 0.72311753 1.0541941 215 13
-4.6074572 0.76980633 1.0802342 149 13
-4.6430283 0.80505407 1.0894248 119 13
-4.6744971 0.84007758 1.0977402 215 13
-4.6260839 0.86072278 1.087893 102 13
-4.6283813 0.89056474 1.0896436 134 13
-4.5979457 0.91400701 1.0839542 149 13
-4.6037216 0.94455278 1.08658 115 13
-4.587338 0.97056383 1.084173 129 13
-4.573669 0.99703217 1.0824224 192 13
-4.6036463 1.0331875 1.0907377 129 13
-4.5953183 1.060977 1.0903001 95 13
-4.5858736 1.0884781 1.0896436 124 13
-4.574368 1.1154413 1.0885495 154 13
-4.5712242 1.144435 1.0894248 183 13
-4.5622258 1.1719769 1.0889871 128 13
-4.5540051 1.1996999 1.0887684 121 13
-4.5691686 1.2337191 1.0940201 183 13
-4.5483451 1.2580931 1.0909566 115 13
-4.5574403 1.2907596 1.0948954 167 13
-4.5325642 1.3138136 1.0909566 160 13
-4.5421929 1.3468664 1.0951142 193 13
-4.5189018 1.3701849 1.0916131 147 13
-4.5076132 1.3970207 1.0909566 123 13
-4.5017471 1.4255356 1.0916131 139 13
-4.4984865 1.4549313 1.092926 165 13
-4.470015 1.4760855 1.0883306 141 13
-4.3665509 1.4717209 1.0660106 36 13
-0 0 0 4 13
-4.17136 1.4632282 1.0239962 4 13
-0 0 0 3 13
-4.2099323 1.5350161 1.0375634 7 13
-0 0 0 8 13
-4.21907 1.5972654 1.0443469 6 13
-4.1809645 1.6122471 1.0375634 11 13
-4.1982431 1.6485631 1.0441282 31 13
-4.181706 1.6717582 1.0425963 33 13
-4.1523876 1.6896669 1.0380011 22 13
-4.1870232 1.7337674 1.0489423 9 13
-0 0 0 4 13
-0 0 0 4 13
-4.0577831 1.7684655 1.0253092 8 13
-4.0557775 1.7972811 1.0274974 9 13
-0 0 0 5 13
-0 0 0 3 13
-4.4688206 2.0794098 1.1380038 172 13
-4.4674463 2.11221 1.1408485 354 13
-6.6183672 3.1783693 1.6791569 250 13
-4.5060921 2.1985204 1.1570415 124 13
-4.5738378 2.2664001 1.1773922 43 13
-4.5633321 2.2961755 1.1782676 38 13
-4.6742978 2.3880298 1.2097783 101 13
-4.7817044 2.4799826 1.2406325 209 13
-4.7560353 2.5038235 1.2380066 247 13
-4.7603793 2.5435309 1.2430396 160 13
-4.7258096 2.562464 1.2382255 229 13
-4.7219677 2.5979953 1.241289 136 13
-4.7255363 2.6378543 1.2463219 93 13
-4.7024684 2.662955 1.2445713 131 13
-4.6631923 2.6786408 1.2386631 130 13
-4.6491985 2.7086763 1.2393196 163 13
-4.6324906 2.7371523 1.2393196 137 13
-4.6482568 2.7850773 1.2478538 88 13
-4.6260762 2.8105073 1.2465408 104 13
-4.6087441 2.8388393 1.2465408 107 13
-4.5945497 2.8691313 1.2474161 121 13
-4.5760341 2.8967471 1.2471973 95 13
-4.5573521 2.9242439 1.2469784 80 13
-4.5401416 2.9526839 1.2471973 69 13
-4.5284576 2.9847808 1.2489479 130 13
-4.5076237 3.0108852 1.2482914 136 13
-4.4922967 3.040674 1.2491667 242 13
-4.4542398 3.0549395 1.243915 174 13
-4.4554462 3.0961289 1.2493855 156 13
-4.509779 3.1750722 1.2695174 236 13
-4.4925957 3.2043831 1.2701738 209 13
-4.4894609 3.2438862 1.2747692 212 13
-4.4907351 3.2869282 1.2806774 205 13
-4.4924331 3.330688 1.2868046 157 13
-4.5998936 3.4542568 1.3226917 54 13
-4.7673669 3.6259193 1.3758661 39 13
-4.7960553 3.6943932 1.3903085 210 13
-4.7717581 3.7225516 1.3898709 187 13
-4.7457638 3.7493415 1.3889955 238 13
-4.7302895 3.7844846 1.3911839 213 13
-4.6902966 3.7999277 1.3863697 152 13
-4.7234807 3.8750408 1.4027815 170 13
-4.6703377 3.8796396 1.3942473 198 13
-4.6397233 3.9025717 1.392278 219 13
-4.6223769 3.9366598 1.3942473 202 13
-4.6188297 3.9827859 1.4003744 127 13
-4.5972457 4.013618 1.4012498 111 13
-4.5732632 4.0423965 1.4014685 180 13
-4.538919 4.061924 1.3986238 145 13
-4.531991 4.1060734 1.4040945 224 13
-4.5218148 4.1476521 1.4086897 217 13
-4.4941344 4.1733279 1.4080333 197 13
-4.4727092 4.204834 1.4093462 171 13
-4.5457969 4.3263583 1.4399817 314 13
-4.5353298 4.3697381 1.4450146 213 13
-6.4583287 6.2986894 2.0557537 154 13
-6.4188647 6.337513 2.0555351 177 13
-6.381238 6.3781586 2.0559726 195 13
-6.35776 6.4331536 2.0610056 204 13
-6.3290744 6.4832129 2.0645068 198 13
-6.2878203 6.5205207 2.0640693 206 13
-6.234231 6.5448503 2.0596926 229 13
-6.1785741 6.566637 2.0546596 133 13
-4.2772617 4.6026855 1.4417323 25 13
-4.2331004 4.6115942 1.4364805 39 13
-4.1981688 4.6302538 1.4342922 17 13
-4.2100477 4.7009854 1.4478593 32 13
-4.3602409 4.9291444 1.5084738 233 13
-4.3555994 4.9851933 1.5172267 302 13
-4.3453326 5.0354609 1.524229 130 13
-5.8824749 6.9012489 2.0662575 509 13
-5.8104792 6.9021325 2.0559726 378 13
-5.7168579 6.8761363 2.038029 520 13
-5.6553612 6.8877091 2.0312455 597 13
-5.5441504 6.8374033 2.0067372 202 13
-5.4813528 6.8453984 1.9992971 571 13
-5.4071655 6.8383408 1.9876994 438 13
-5.2311692 6.6998987 1.9389015 249 13
-5.2531238 6.8137755 1.9620969 589 13
-5.1775222 6.8016291 1.9496239 610 13
-5.1116505 6.8012919 1.9406521 565 13
-5.0483046 6.8035383 1.9325557 569 13
-4.8420949 6.6100683 1.8701906 400 13
-4.8374743 6.6894627 1.8839766 487 13
-4.8025746 6.7277536 1.8863837 520 13
-4.7449012 6.7339659 1.8800378 490 13
-4.6940203 6.7493362 1.8763177 511 13
-0 0 0 5 13
-0 0 0 6 13
-0 0 0 10 13
-0 0 0 5 13
-2.1219325 3.2611413 0.90517455 41 13
-2.0844789 3.2470081 0.89795333 53 13
-2.0347431 3.2127585 0.88548034 76 13
-2.0041289 3.207808 0.88088506 100 13
-1.9818476 3.2158921 0.8797909 99 13
-1.9549788 3.2163208 0.8767274 56 13
-1.7017988 2.8391647 0.77497399 16 13
-1.6773906 2.837796 0.77191043 30 13
-1.6451972 2.8227491 0.76534569 21 13
-0 0 0 21 13
-0 0 0 27 13
-1.5639218 2.8005965 0.75199741 23 13
-1.5363504 2.7913373 0.74718326 16 13
-0 0 0 15 13
-0 0 0 5 13
-0 0 0 4 13
-0 0 0 19 13
-0 0 0 42 13
-1.2999785 2.5828276 0.68109828 56 13
-0 0 0 42 13
-0 0 0 65 13
-1.2462959 2.5940075 0.67803472 55 13
-1.2240931 2.588377 0.67475235 61 13
-1.2007703 2.5799186 0.6708135 81 13
-1.1788176 2.5739331 0.66753113 99 13
-1.1577863 2.5695548 0.66468644 96 13
-0 0 0 76 13
-0 0 0 100 13
-0 0 0 86 13
-1.0811032 2.5657279 0.6570276 74 13
-1.0604812 2.5605958 0.65418285 58 13
-1.0406994 2.5571146 0.65177578 41 13
-1.024627 2.5625463 0.65155697 36 13
-1.0113839 2.5751414 0.65308875 128 13
-0.99240047 2.5731065 0.65111929 52 13
-0.97451794 2.573673 0.64980638 82 13
-0.96177071 2.5878344 0.65177578 39 13
-0.94386578 2.5881877 0.65046287 26 13
-0.92994153 2.599442 0.65177578 33 13
-0.9117102 2.5986547 0.650244 39 13
-0.891617 2.5922067 0.64739931 21 13
-0.87101322 2.5837612 0.64411694 37 13
-0.8529982 2.5825722 0.64258516 51 13
-0.8374365 2.5886858 0.64280397 30 13
-0.81416106 2.570523 0.63733339 55 13
-0.79750538 2.5726745 0.63667691 45 13
-0.7783016 2.5663159 0.63405102 142 13
-0.76337391 2.5738492 0.63470745 67 13
-0.7451176 2.5700512 0.63273805 51 13
-0.7261377 2.5633104 0.63011217 37 13
-0.7096141 2.5648966 0.62945569 36 13
-0.69233388 2.5635509 0.62814271 39 13
-0.67434984 2.5592599 0.62617332 33 13
-0.65644461 2.5548449 0.62420392 42 13
-0.6383816 2.5493603 0.62201566 46 13
-0.61971581 2.5409069 0.61917096 49 13
-0.60140371 2.5332704 0.61654502 34 13
-0.58386868 2.5283568 0.61457562 30 13
-0.56877226 2.5337958 0.6150133 36 13
-0.55238128 2.5334249 0.61413795 39 13
-0.54330438 2.5673115 0.62114036 24 13
-0.53697747 2.6164732 0.63164395 15 13
-0.52320164 2.6312022 0.63426983 12 13
-0.50612283 2.6295724 0.63317573 5 13
-0.4914102 2.6403022 0.63492632 14 13
-0 0 0 4 13
-0 0 0 3 13
-0 0 0 5 13
-0 0 0 4 13
-0 0 0 4 13
-0 0 0 4 13
-0.35804674 2.5217936 0.60385323 13 13
-0.34401503 2.5345783 0.6062603 28 13
-0.32707348 2.5259976 0.60385323 51 13
-0.3112087 2.5250518 0.60319674 46 13
-0.29434311 2.5152845 0.60057086 76 13
-0.27879617 2.5160735 0.60035205 69 13
-0.26314867 2.5157959 0.59991437 84 13
-0.24761106 2.5163922 0.59969556 70 13
-0.2327964 2.5246654 0.60122734 75 13
-0.21629202 2.5143807 0.59860146 38 13
-0 0 0 7 13
-0 0 0 4 13
-0.17156194 2.5413003 0.60385323 7 13
-0 0 0 3 13
-0.14085133 2.5519826 0.60582262 6 13
-0.12441818 2.5372057 0.60232145 4 13
-0 0 0 7 13
-0.10814688 2.938328 0.69203949 19 13
-0.097355656 3.1720316 0.74433857 104 13
-0.071546152 2.9179738 0.68722534 18 13
-0.049994286 2.724215 0.64367926 16 13
-0 0 0 59 13
-0 0 0 89 13
0.00019788231 2.6173398 0.61960858 123 13
0.016285699 2.6221681 0.62070268 100 13
0.032490835 2.6317756 0.62289095 107 13
0 0 0 78 13
0.068534285 2.7862799 0.65768403 29 13
0.086368531 2.81019 0.66315466 42 13
0.10432097 2.8291094 0.66753113 37 13
0.13056682 3.0370402 0.71435958 62 13
0.15642187 3.1843221 0.74762094 147 13
0.17574358 3.1794052 0.74674565 156 13
0.19447558 3.1656058 0.7439009 136 13
0.21343757 3.1575379 0.74236912 155 13
0.23273642 3.1551957 0.74215031 135 13
0.25216934 3.154681 0.74236912 160 13
0.271438 3.152102 0.74215031 176 13
0.29077384 3.1503773 0.74215031 150 13
0.31028926 3.150476 0.74258798 136 13
0.32961437 3.1485128 0.74258798 150 13
0.34881991 3.1454611 0.74236912 136 13
0.36811352 3.1432617 0.74236912 179 13
0.38810778 3.1467545 0.74368209 124 13
0.40715855 3.1423786 0.74324441 153 13
0.42630121 3.138854 0.7430256 170 13
0.44500527 3.1323149 0.74215031 165 13
0.46478766 3.1333864 0.7430256 152 13
0.48385629 3.1295111 0.74280679 184 13
0.50258553 3.1235931 0.74215031 168 13
0.52238435 3.1243002 0.7430256 142 13
0.54304302 3.1296895 0.74499506 151 13
0.56327033 3.132061 0.74630797 142 13
0.58301246 3.1314237 0.74696445 134 13
0.60184723 3.1258712 0.74652678 134 13
0.61968589 3.1154199 0.74499506 122 13
0.63937765 3.1144266 0.74565148 129 13
0.65928239 3.1142635 0.74652678 151 13
0.67900151 3.1130199 0.74718326 119 13
0.699157 3.1135557 0.74827743 143 13
0.7189061 3.1120596 0.74893385 142 13
0.72605717 3.0572693 0.73733616 29 13
0.73810565 3.0252635 0.73099023 10 13
0 0 0 15 13
0 0 0 50 13
0 0 0 45 13
0 0 0 3 13
0 0 0 3 13
0 0 0 8 13
0.90098083 3.1069999 0.75812447 107 13
0.91891938 3.0976708 0.75724918 139 13
0 0 0 145 13
0 0 0 129 13
0 0 0 147 13
0 0 0 140 13
0 0 0 137 13
0 0 0 153 13
1.0555196 3.0682764 0.76031274 133 13
1.07594 3.0663464 0.76140684 123 13
0 0 0 146 13
0 0 0 124 13
0 0 0 110 13
0 0 0 115 13
0 0 0 140 13
0 0 0 130 13
1.2225385 3.0571895 0.77103513 133 13
1.2431117 3.0541501 0.7721293 109 13
0 0 0 152 13
0 0 0 121 13
0 0 0 132 13
0 0 0 140 13
0 0 0 137 13
0 0 0 148 13
1.3836614 3.0210257 0.77781868 124 13
1.4050521 3.0186722 0.77935046 134 13
1.429384 3.0223453 0.78241402 112 13
1.4555027 3.0293519 0.78635287 123 13
1.4757737 3.0238721 0.78722817 125 13
1.493867 3.0138857 0.78700936 128 13
1.513647 3.007278 0.78766578 141 13
1.5369518 3.0074933 0.79007286 145 13
1.5625614 3.0118668 0.79357409 127 13
1.5864648 3.0125847 0.79619998 134 13
1.6118146 3.0157044 0.79948235 129 13
1.632148 3.0091891 0.80035764 130 13
1.6585743 3.013653 0.80407763 139 13
1.6827396 3.0136447 0.80670357 125 13
1.705525 3.0109055 0.80867296 114 13
1.725425 3.0029225 0.80932945 110 13
1.7457821 2.995652 0.81020474 129 13
1.7651227 2.9865639 0.81064236 108 13
1.783916 2.9765143 0.81086123 119 13
1.8092364 2.9771888 0.81392473 115 13
1.8320742 2.9735098 0.81589419 126 13
1.8549347 2.9696622 0.81786358 116 13
1.8799037 2.9689441 0.82070833 149 13
1.9080942 2.972959 0.824866 124 13
1.9358724 2.9759212 0.82880479 126 13
1.9589273 2.9713204 0.83077425 107 13
1.9792893 2.9624908 0.83164954 98 13
2.0050843 2.9616048 0.8347131 101 13
2.0292876 2.9580989 0.83712018 134 13
