# .PCD v0.7 - Point Cloud Data file format
VERSION 0.7
FIELDS x y z intensity ring
SIZE 4 4 4 4 1
TYPE F F F F U
COUNT 1 1 1 1 1
WIDTH 1300
HEIGHT 1
VIEWPOINT 0 0 0 1 0 0 0
POINTS 1300
DATA ascii
4.5689716 -2.9701409 0.10825977 15 30
4.5715346 -3.011874 0.10859137 15 30
4.5679364 -3.0498629 0.10883012 13 30
4.5648713 -3.0884809 0.10908214 14 30
4.5771723 -3.1379192 0.10958618 9 30
4.5619383 -3.1687977 0.1096525 15 30
4.562851 -3.2111177 0.1099841 19 30
4.5674858 -3.2564704 0.11038202 19 30
4.5717349 -3.302 0.11077995 12 30
4.5723691 -3.3453422 0.11112481 21 30
4.5734453 -3.389411 0.11148295 17 30
4.582149 -3.4396217 0.11197372 16 30
4.582448 -3.4840138 0.11233184 15 30
4.5871272 -3.5321989 0.11276957 14 30
4.5819249 -3.5731926 0.11304811 21 30
4.5858078 -3.6216922 0.11348583 16 30
4.5923905 -3.6728716 0.1139766 8 30
4.5938549 -3.7204912 0.11438779 13 30
4.6010914 -3.773339 0.11490509 9 30
4.5993905 -3.8193877 0.11527648 8 30
4.6003575 -3.8681309 0.11570093 11 30
4.6001372 -3.9163809 0.11611212 12 30
4.5957108 -3.9615085 0.11645699 10 30
4.593163 -4.0087013 0.11684164 13 30
4.5894585 -4.0553489 0.11721304 10 30
4.5942965 -4.1101022 0.1177436 18 30
4.5941873 -4.1610384 0.11819459 16 30
4.6039424 -4.2215891 0.11883126 15 30
0 -0 0 6 30
4.6180925 -4.3400874 0.1200383 12 30
4.6167288 -4.3924661 0.12050254 16 30
4.6256967 -4.4553967 0.12116574 14 30
4.6197481 -4.5046387 0.12156367 14 30
4.619772 -4.5602975 0.12208097 20 30
4.6171646 -4.6140041 0.12255848 18 30
4.6119623 -4.6657162 0.1229962 15 30
4.6090922 -4.7203994 0.12348697 28 30
4.6105828 -4.7802601 0.12407058 16 30
4.6163387 -4.8453836 0.12474706 16 30
4.6194119 -4.9085712 0.12538373 24 30
4.6218829 -4.9719782 0.12602042 18 30
4.6217189 -5.0333891 0.1266173 23 30
4.6310506 -5.1060944 0.12741314 19 30
4.6329904 -5.1716542 0.12807634 20 30
4.6376119 -5.2411728 0.12880588 30 30
4.6408954 -5.3101883 0.12952214 15 30
4.6435051 -5.3794403 0.1302384 23 30
4.6434922 -5.4466395 0.13091487 41 30
4.6505566 -5.5232186 0.13175051 18 30
4.6549363 -5.5977812 0.13254635 28 30
4.6592093 -5.6733766 0.13335547 26 30
4.6652474 -5.7523398 0.13421763 44 30
4.6579905 -5.815979 0.13481452 25 30
4.6612906 -5.8938622 0.13565016 56 30
4.6582704 -5.96491 0.13636643 42 30
4.666153 -6.0511861 0.1373347 36 30
4.6713338 -6.1353951 0.1382632 57 30
4.6894732 -6.238277 0.13949676 39 30
4.6856685 -6.3135056 0.14026608 50 30
4.6935253 -6.4058595 0.14131394 49 30
4.713315 -6.5163698 0.14265361 52 30
4.7133312 -6.6013198 0.14356883 53 30
4.684257 -6.6464629 0.14383411 66 30
4.6639419 -6.7046313 0.14431162 48 30
4.7042069 -6.85183 0.14622165 506 30
4.7147961 -6.9583797 0.14746848 311 30
4.7186952 -7.0570021 0.14858267 542 30
4.6984324 -7.1208773 0.14913976 103 30
4.798667 -7.3708034 0.15264149 21 30
4.7879333 -7.4539537 0.15349039 17 30
4.7704716 -7.527957 0.15419339 20 30
4.7565212 -7.6088076 0.1550025 17 30
4.7643223 -7.7263675 0.15638196 18 30
4.7604671 -7.82722 0.15749615 17 30
4.7658377 -7.9454627 0.15887561 23 30
4.7373567 -8.0089817 0.15940619 28 30
4.7440405 -8.1337757 0.16087851 27 30
4.754353 -8.2676172 0.16248345 30 30
4.7666516 -8.4079781 0.16418126 25 30
4.7744775 -8.5435581 0.16579948 29 30
4.7629685 -8.6471405 0.16692694 31 30
4.785665 -8.8159323 0.16903593 29 30
4.7993927 -8.9720964 0.17094597 42 30
4.8095164 -9.1252184 0.17280294 41 30
4.7958236 -9.2362013 0.17402324 55 30
4.8078108 -9.3998804 0.17602612 41 30
4.8134694 -9.5551195 0.17789637 73 30
4.8094029 -9.6946526 0.17952785 56 30
4.826623 -9.8812122 0.18184906 52 30
4.8352318 -10.054826 0.18397133 72 30
4.8307672 -10.205413 0.18574871 52 30
4.8453236 -10.400732 0.18817605 45 30
4.8497453 -10.579337 0.19035137 48 30
4.8887401 -10.839508 0.19370718 23 30
4.8914723 -11.025597 0.19597535 19 30
4.8689113 -11.158966 0.1974742 18 30
4.8831353 -11.381604 0.20025966 30 30
4.857893 -11.517304 0.20178503 23 30
4.885541 -11.784284 0.20519391 101 30
4.8848171 -11.989983 0.20771408 228 30
4.7918358 -11.971457 0.20702435 302 30
4.6732912 -11.886172 0.20539287 505 30
4.5952291 -11.901564 0.20520717 571 30
4.5221157 -11.929536 0.20520717 592 30
4.4481354 -11.955184 0.20518064 792 30
4.3825827 -12.003856 0.20548572 502 30
0 -0 0 149 30
0 -0 0 45 30
4.9881105 -14.484834 0.23918983 51 30
4.9921842 -14.790864 0.24304968 41 30
4.9751072 -15.044315 0.24616675 37 30
5.0204206 -15.499774 0.25209582 24 30
5.0430989 -15.90201 0.25726882 9 30
5.0995569 -16.429241 0.26416615 19 30
5.0959806 -16.780741 0.26860964 60 30
5.0114226 -16.873999 0.26947179 463 30
4.9105787 -16.914034 0.26960444 275 30
4.8037024 -16.933264 0.26945853 23 30
4.7114577 -17.00482 0.27004215 11 30
5.0693398 -18.74284 0.29353291 169 30
4.9583225 -18.789061 0.29374513 79 30
5.1579056 -20.043146 0.31051096 63 30
5.0744734 -20.232508 0.312673 21 30
5.3194385 -21.774685 0.33331198 21 30
4.0217609 -16.91184 0.26656696 21 30
3.9244509 -16.964451 0.26695162 53 30
3.8119495 -16.951141 0.26644757 583 30
3.7048802 -16.960535 0.26626188 615 30
3.595973 -16.960451 0.26595682 550 30
3.4894216 -16.970444 0.26579764 566 30
3.381125 -16.970942 0.26551908 483 30
3.273711 -16.974676 0.2652936 497 30
3.167295 -16.982649 0.26513442 522 30
3.0603728 -16.987001 0.26493546 564 30
0 -0 0 562 30
2.9132972 -17.391121 0.26988298 123 30
2.9526083 -18.314892 0.28205943 299 30
2.84094 -18.337605 0.28212577 500 30
2.7254293 -18.334909 0.28186047 523 30
2.6080856 -18.317629 0.2814095 502 30
2.4898431 -18.290684 0.28083915 450 30
2.3717721 -18.260996 0.28024226 520 30
2.2550182 -18.237495 0.27973822 535 30
2.1385255 -18.212257 0.27922091 526 30
2.0235326 -18.196217 0.27883625 523 30
1.9086084 -18.177464 0.27842507 478 30
1.794089 -18.158979 0.27802715 437 30
1.6785777 -18.125837 0.27744353 501 30
1.5650041 -18.108898 0.27708539 500 30
1.4513818 -18.087261 0.27667421 558 30
1.3380102 -18.063917 0.27624977 518 30
1.2246413 -18.034876 0.27575898 547 30
1.1123568 -18.016102 0.27541411 526 30
1.0005152 -17.999624 0.27510905 512 30
0.88872039 -17.97846 0.27475092 529 30
0.77743912 -17.961597 0.27445909 495 30
0.66624987 -17.94005 0.27411425 586 30
0.55535442 -17.917814 0.27376938 565 30
0.44458318 -17.887899 0.27333164 558 30
0.3343682 -17.866297 0.27301332 566 30
0.22447275 -17.847015 0.27273476 592 30
0.11482008 -17.826059 0.27244297 555 30
0.0054347399 -17.810429 0.27223074 572 30
-0.10371351 -17.78713 0.27192566 542 30
-0 -0 0 555 30
-0.32140124 -17.752525 0.27150121 552 30
-0.42988604 -17.732225 0.27126247 546 30
-0.53697908 -17.673285 0.27051967 693 30
-0.6451546 -17.662663 0.27042681 703 30
-0.75275075 -17.64039 0.27018806 719 30
-0.86039066 -17.623455 0.27002889 712 30
-0.96779615 -17.604864 0.26985645 706 30
-1.0743955 -17.57564 0.2695514 699 30
-1.1816802 -17.560736 0.26944527 717 30
-1.2883095 -17.538195 0.26924631 694 30
-1.3950243 -17.518995 0.2691004 641 30
-1.501552 -17.499147 0.26895449 650 30
-1.6084384 -17.484627 0.26888818 701 30
-1.7144213 -17.461491 0.26871574 657 30
-1.8208039 -17.443682 0.26862291 644 30
-1.926263 -17.418266 0.26843721 612 30
-2.032059 -17.397182 0.26831782 630 30
-2.137913 -17.377439 0.26822498 610 30
-2.2438576 -17.359035 0.26815864 623 30
-2.3465683 -17.317196 0.26778725 395 30
-2.3936868 -16.885677 0.26220307 623 30
-2.5000327 -16.889465 0.26245508 656 30
-2.60621 -16.890608 0.26268056 639 30
-2.712971 -16.894043 0.26294586 690 30
-2.8216829 -16.907654 0.26335704 750 30
-2.927592 -16.90283 0.26352948 704 30
-2.2744038 -12.669333 0.20671928 29 30
-2.3552053 -12.67185 0.20694476 56 30
-2.4368782 -12.677781 0.20722331 93 30
-2.51618 -12.670436 0.20732942 58 30
-2.5505023 -12.443178 0.20446438 233 30
-2.5831659 -12.220875 0.20166565 361 30
-0 -0 0 897 30
-2.6939931 -12.014585 0.19930464 882 30
-2.7721581 -12.017315 0.19956993 1041 30
-2.8483813 -12.010781 0.19971582 976 30
-2.929363 -12.023193 0.20012702 1027 30
-3.0093906 -12.030213 0.20047188 1118 30
-3.0868793 -12.026049 0.20067084 955 30
-3.1692669 -12.039759 0.20112182 45 30
-3.4249091 -12.693924 0.21038017 36 30
-7.0457993 -25.489805 0.38677961 161 30
-7.2224932 -25.518251 0.38777444 282 30
-7.3897848 -25.510912 0.38829172 258 30
-7.5652132 -25.529322 0.38918042 239 30
-7.7379551 -25.536011 0.38992321 276 30
-7.907217 -25.529121 0.39049357 266 30
-8.0857372 -25.549715 0.39146185 263 30
-8.2651138 -25.570026 0.39244339 219 30
-8.4378357 -25.567259 0.39311987 273 30
-8.6105146 -25.562382 0.39378306 240 30
-8.7928762 -25.583773 0.39483094 205 30
-8.9672232 -25.57935 0.39553392 175 30
-2.5870297 -7.2378726 0.13793159 342 30
-2.6228328 -7.1983757 0.13759999 1627 30
-2.6666036 -7.1812096 0.13758671 1787 30
-2.7208786 -7.191833 0.13797139 1157 30
-2.7717881 -7.1927299 0.13822339 982 30
-0 -0 0 956 30
-0 -0 0 1632 30
-2.8505967 -7.0098929 0.13635315 1752 30
-2.8966141 -6.999661 0.13645928 1690 30
-2.9495978 -7.0057163 0.13680413 1761 30
-3.0000088 -7.0049496 0.13705616 1758 30
-3.0153804 -6.9231567 0.13614093 1362 30
-3.0476797 -6.8816686 0.13580933 1755 30
-3.1235123 -6.9376016 0.13689698 1264 30
-3.2080514 -7.0101352 0.13823666 1485 30
-3.2552216 -6.9993854 0.13836931 1491 30
-3.2985349 -6.9801841 0.13838257 438 30
-5.7225685 -11.919274 0.21136172 20 30
-5.7671051 -11.82552 0.21049955 23 30
-5.8036065 -11.717334 0.20942515 38 30
-5.8295627 -11.590389 0.20807222 25 30
-5.8646421 -11.484052 0.20702435 29 30
-5.9142852 -11.407905 0.20642747 31 30
-5.9469166 -11.300612 0.20536634 70 30
-6.0104909 -11.253326 0.20520717 76 30
-6.0941987 -11.243486 0.20561835 308 30
-6.1066909 -11.103374 0.20406646 48 30
-6.1328006 -10.990603 0.20292574 42 30
-6.0956893 -10.768294 0.20011374 204 30
-6.1601539 -10.728088 0.20007396 224 30
-0 -0 0 42 30
-6.1723418 -10.450227 0.19697015 50 30
-6.1731477 -10.306648 0.19533867 194 30
-6.1677547 -10.155766 0.19358781 32 30
-6.1638913 -10.010449 0.19191653 39 30
-6.1632447 -9.8732014 0.19036463 52 30
-6.1862798 -9.7760534 0.18943614 36 30
-5.8811855 -9.1689663 0.1804696 74 30
-5.9008169 -9.0765409 0.1795809 71 30
-5.8997307 -8.9541636 0.1782147 73 30
-5.8940353 -8.8271561 0.17676891 75 30
-5.9071794 -8.7303705 0.17580064 77 30
-5.9148355 -8.627162 0.17472623 91 30
-5.9351406 -8.5438986 0.17397018 80 30
-5.9609795 -8.4697075 0.17336003 152 30
-6.0279303 -8.4541397 0.17370491 202 30
-6.0668087 -8.3991613 0.17341308 116 30
-6.0591831 -8.2810841 0.17208669 34 30
-6.2760029 -8.4678717 0.17578736 132 30
-6.1159234 -8.1469316 0.17110513 41 30
-6.0786438 -7.9946365 0.1691951 11 30
-6.1025691 -7.9247074 0.16865127 14 30
-6.0692906 -7.7822499 0.16688715 41 30
-6.1727076 -7.8154826 0.16808091 11 30
-6.2149248 -7.7704325 0.16796154 11 30
-6.2599688 -7.7290444 0.16790849 20 30
-6.3535662 -7.7469263 0.16887677 436 30
-6.4086471 -7.7170262 0.16903593 140 30
-6.4989953 -7.7288322 0.16992463 50 30
-6.5936179 -7.7443862 0.17089291 48 30
-6.6782279 -7.7469501 0.17164896 20 30
-6.7690339 -7.7555456 0.17252439 25 30
-6.8469524 -7.7483315 0.17313455 50 30
-6.9330368 -7.7493944 0.17390387 25 30
-7.0099921 -7.7393155 0.17448749 18 30
-7.0789742 -7.7197394 0.17491193 11 30
-7.1432166 -7.694478 0.17524354 13 30
-7.2211113 -7.68329 0.17584042 20 30
-7.2887974 -7.6605687 0.17623834 19 30
-7.4875865 -7.7734108 0.17914319 132 30
-0 -0 0 255 30
-0 -0 0 268 30
-7.742496 -7.7474313 0.18126544 389 30
-7.8574486 -7.7665534 0.18252553 248 30
-7.9843726 -7.7957301 0.18399785 407 30
-8.0903549 -7.8028154 0.18507224 302 30
-8.1713839 -7.7847528 0.1856824 311 30
-8.4345446 -7.9372954 0.18960857 31 30
-9.2828655 -8.6287708 0.20409298 37 30
-9.3842487 -8.6162815 0.20496842 66 30
-9.4902706 -8.6069021 0.20592344 78 30
-9.6315346 -8.6279001 0.20750186 65 30
-9.7389622 -8.6170073 0.20847014 64 30
-9.8481216 -8.6064348 0.20946495 67 30
-9.9348068 -8.5752459 0.21006183 53 30
-10.856243 -9.2549105 0.22520946 214 30
-6.6162853 -5.5708208 0.15070494 274 30
-11.032813 -9.1740513 0.22631037 306 30
-11.018575 -9.0484381 0.22510333 110 30
-2.9238114 -2.3715045 0.085909732 127 30
-2.9554784 -2.3672702 0.086201541 296 30
-2.9213207 -2.3106372 0.085379168 141 30
-2.9409602 -2.2969768 0.085472018 230 30
-2.9447045 -2.270951 0.085299581 168 30
-2.9482408 -2.244966 0.085127153 131 30
-2.9539671 -2.2208257 0.08499451 135 30
-2.94907 -2.1889536 0.084689438 116 30
-2.9430871 -2.1566348 0.084371097 154 30
-2.9651768 -2.1449814 0.084517002 314 30
-2.9546824 -2.1098983 0.084132344 150 30
-2.9528604 -2.0813611 0.08389359 109 30
-2.9549046 -2.0557811 0.083721153 103 30
-2.9625168 -2.0342159 0.083641574 101 30
-2.9625256 -2.0075872 0.083442606 126 30
-2.9722943 -1.9877044 0.08340282 126 30
-3.0011275 -1.9804423 0.083668098 103 30
-3.0467427 -1.983811 0.084198661 68 30
-3.0664296 -1.9699425 0.084318042 99 30
-0 -0 0 0 30
-0 -0 0 0 30
-0 -0 0 0 30
-0 -0 0 0 30
-0 -0 0 0 30
-0 -0 0 0 30
-0 -0 0 0 30
-0 -0 0 0 30
-0 -0 0 0 30
-0 -0 0 0 30
-0 -0 0 0 30
-0 -0 0 0 30
-0 -0 0 0 30
-0 -0 0 0 30
-0 -0 0 0 30
-0 -0 0 0 30
-9.7167559 -4.8948874 0.18029717 198 30
-9.7242126 -4.8240662 0.17996556 196 30
-9.6970263 -4.7366624 0.17912993 126 30
-10.597316 -5.0960851 0.19195633 124 30
-10.595849 -5.0155654 0.19147882 378 30
-10.58473 -4.9310341 0.19086866 530 30
-9.801259 -4.4930921 0.17899728 124 30
-9.8031216 -4.4213581 0.17862588 115 30
-9.7962475 -4.3461223 0.17813511 98 30
-9.7512445 -4.2547436 0.17710051 69 30
-9.7339783 -4.1763024 0.1764771 56 30
-9.5825262 -4.0418916 0.17393039 178 30
-9.5831308 -3.9730625 0.17358552 190 30
-9.5906601 -3.9073963 0.17334677 204 30
-9.5903187 -3.8388155 0.1730019 198 30
-9.5960121 -3.7729471 0.17274988 233 30
-9.6105862 -3.7107549 0.1726305 134 30
-9.6126041 -3.6439188 0.17233869 239 30
-9.6104155 -3.5758033 0.17199384 256 30
-9.605876 -3.5071664 0.17162244 286 30
-9.5952082 -3.4366975 0.17117146 281 30
-9.5840378 -3.366492 0.17072047 306 30
-9.5808783 -3.2994833 0.17038888 305 30
-9.6066275 -3.2425525 0.17046845 106 30
-9.7535563 -3.2256122 0.17224585 40 30
-10.184111 -3.2988007 0.17797594 211 30
-10.27088 -3.2574074 0.17890443 390 30
-8.5975065 -2.6688156 0.15538716 911 30
-8.5936279 -2.609911 0.15510862 1054 30
-8.6037292 -2.5554245 0.15502903 1114 30
-8.6144457 -2.5011909 0.1549627 1098 30
-8.6200104 -2.4455578 0.15483007 1147 30
-8.6184721 -2.388082 0.15460458 1038 30
-8.6252413 -2.3330669 0.15449846 1131 30
-8.6345606 -2.2788239 0.15443215 1088 30
-8.6474123 -2.2255511 0.15441889 714 30
-6.4777117 -1.6249303 0.12456136 208 30
-6.5273857 -1.5948815 0.12510519 151 30
-6.5302391 -1.5531811 0.12501234 369 30
-6.5445175 -1.5142097 0.12507866 388 30
-10.166162 -2.28631 0.17419568 57 30
-9.3779793 -2.0487127 0.16330583 246 30
-9.3845043 -1.9898878 0.16322625 349 30
-9.3955584 -1.9320668 0.16321298 376 30
-9.3905649 -1.8710594 0.1629875 378 30
-9.3733959 -1.8079141 0.16260284 370 30
-9.3390961 -1.7419341 0.16199268 431 30
-9.3643703 -1.6872567 0.16219164 187 30
-9.3006611 -1.6169243 0.16119684 280 30
-9.2926559 -1.5568528 0.16095808 359 30
-9.2970982 -1.4990093 0.16089177 378 30
-9.2982159 -1.4407107 0.16078566 355 30
-9.2781982 -1.3793678 0.160401 309 30
-9.2508497 -1.3173385 0.15992349 344 30
-9.309288 -1.2674289 0.16059996 129 30
-9.3734102 -1.2176241 0.16135602 153 30
-9.2427673 -1.1430343 0.1595123 370 30
-9.2515926 -1.0865334 0.15953882 351 30
-9.2451668 -1.0283098 0.1593664 453 30
-9.2314129 -0.96947533 0.15910111 438 30
-9.2033558 -0.90947229 0.15865013 370 30
-9.1878538 -0.85104859 0.15837158 470 30
-9.3253975 -0.8061046 0.16013572 75 30
-9.1916256 -0.73775566 0.158292 452 30
-9.1730442 -0.6796447 0.15798692 546 30
-9.1530991 -0.62172186 0.15766859 639 30
-9.1577396 -0.5656094 0.15768185 896 30
-9.1300879 -0.50768822 0.15727067 601 30
-9.1400223 -0.45200291 0.15736352 461 30
-9.1366291 -0.39565298 0.15728393 281 30
-9.124896 -0.33906502 0.15709823 214 30
-9.0718355 -0.28136677 0.1563687 427 30
-9.0713921 -0.22564808 0.15634218 337 30
-9.0716066 -0.16996412 0.15632892 312 30
-9.055481 -0.11408518 0.15610342 511 30
-9.0360126 -0.058391262 0.15583815 458 30
-9.0082035 -0.002938288 0.15546675 613 30
-9.2300291 0.053634156 0.15841138 49 30
-6.606945 0.078825928 0.12361961 165 30
-9.8255253 0.17771535 0.16633005 231 30
-9.170105 -0.67546248 0.048996568 438 31
-9.1511297 -0.61763132 0.048964456 476 31
-9.1357822 -0.56030393 0.048937924 475 31
-9.1360531 -0.50407159 0.048933737 452 31
-9.1399727 -0.44805345 0.048935134 464 31
-9.1495438 -0.39226392 0.048944905 261 31
-9.1377878 -0.33560038 0.048925359 154 31
-9.0607119 -0.27710062 0.048815053 547 31
-6.5769944 -0.16043627 0.045343943 751 31
-6.5778551 -0.12007757 0.045343943 661 31
-9.0682774 -0.11032477 0.048820641 920 31
-9.0377846 -0.054489899 0.048777357 459 31
-9.0239487 0.00096623338 0.048757806 485 31
-0 0 0 67 31
-6.6074405 0.082108587 0.045384437 562 31
-6.6068125 0.12264954 0.045384437 156 31
-9.6930046 0.23890175 0.049696095 158 31
-8.9497051 0.27562791 0.04866007 571 31
-8.9778252 0.33164063 0.048701957 401 31
-6.6028118 0.28479481 0.045385834 374 31
-8.9531031 0.44080648 0.048674032 555 31
-8.9392471 0.49512649 0.048658673 599 31
-8.9170761 0.54880267 0.048632145 459 31
-9.7636013 0.66095012 0.049821761 413 31
-9.7025166 0.71665406 0.049742173 1012 31
-8.9423466 0.71579134 0.048683807 511 31
-8.9308119 0.77004665 0.048674032 1019 31
-8.9079952 0.82317662 0.048648898 1403 31
-8.904767 0.87801558 0.048651692 1442 31
-8.8912554 0.93180484 0.048640523 1075 31
-8.900279 0.98799604 0.048661467 605 31
-8.9049749 1.0438678 0.048676826 617 31
-9.709259 1.1984798 0.04981757 1312 31
-8.8091822 1.1424034 0.048560936 241 31
-8.8247976 1.1995288 0.048593048 108 31
-8.8162813 1.2535136 0.048591651 255 31
-8.7955647 1.3056785 0.048573501 214 31
-8.7883759 1.3597752 0.048574898 207 31
-8.7640696 1.4111327 0.048552558 307 31
-9.6370077 1.6122944 0.049800817 871 31
-9.6417131 1.6739597 0.049821761 1406 31
-8.7484217 1.5743353 0.04856931 614 31
-8.7444954 1.629083 0.048577689 647 31
-8.7696857 1.6895133 0.048627954 857 31
-8.7532692 1.7421209 0.048619576 1172 31
-8.7365379 1.7945906 0.048611201 892 31
-8.7116652 1.845264 0.048591651 718 31
-8.6796608 1.8942082 0.048562329 524 31
-9.5538158 2.1463542 0.049830139 933 31
-8.6284809 1.9942765 0.048523236 371 31
-8.654027 2.0561929 0.048577689 280 31
-8.649991 2.1113873 0.048590258 573 31
-8.6281424 2.1622362 0.048577689 601 31
-8.6243982 2.2176259 0.048591651 372 31
-8.606761 2.2694831 0.048586067 326 31
-9.0763388 2.4528975 0.049285594 142 31
-8.5638056 2.37093 0.048565123 361 31
-8.5654535 2.428066 0.048588861 242 31
-8.5859299 2.4908814 0.048640523 1310 31
-8.5704842 2.5435169 0.048640523 1007 31
-8.5968218 2.6088281 0.048701957 354 31
-8.6026211 2.668339 0.048734073 349 31
-8.627079 2.7340589 0.048794109 156 31
-8.5892086 2.78017 0.048763394 250 31
-9.4227705 3.1138599 0.050014444 1052 31
-9.4233866 3.1783276 0.050043765 1089 31
-9.4093809 3.2380402 0.050052144 1143 31
-9.3949976 3.2977006 0.050060522 1078 31
-9.384943 3.3589907 0.050075881 1127 31
-9.3829451 3.4233651 0.050103806 1167 31
-9.3786354 3.4871447 0.050128937 1145 31
-9.3664141 3.5481665 0.050142899 1092 31
-9.3481989 3.6070106 0.050148487 1131 31
-9.3016901 3.6547968 0.050112184 599 31
-9.1156721 3.6464539 0.049866442 1000 31
-9.1060934 3.7075958 0.049885988 1056 31
-9.0933352 3.7676091 0.049901348 1037 31
-9.080183 3.8276055 0.049916707 1015 31
-9.0684748 3.88837 0.049934857 951 31
-9.0609455 3.9511328 0.049959991 932 31
-9.0502443 4.0127335 0.049980935 918 31
-9.04004 4.0747623 0.050003275 931 31
-9.0330515 4.1384826 0.0500312 1021 31
-9.013834 4.1967845 0.050040971 978 31
-9.0059938 4.2605639 0.0500689 1078 31
-8.9995117 4.3252711 0.050099615 948 31
-8.982688 4.3852344 0.050114974 1009 31
-8.9475479 4.4362712 0.050102409 643 31
-8.6334314 4.3467703 0.049654208 477 31
-8.6101589 4.4014826 0.049659792 753 31
-8.5927544 4.4592962 0.049675152 769 31
-8.5776186 4.5184598 0.049694698 814 31
-8.5532598 4.5728912 0.049700286 841 31
-8.5514107 4.6395907 0.049742173 512 31
-8.8951159 4.8968935 0.050335586 327 31
-8.8945866 4.9679565 0.050383057 782 31
-8.1487169 4.6172929 0.049235329 61 31
-8.8121433 5.0647759 0.050349548 179 31
-9.059967 5.2813873 0.05080054 711 31
-8.9516335 5.2921038 0.050677668 526 31
-9.0699549 5.4374089 0.050923411 717 31
-0 0 0 4 31
-2.9306059 1.8070643 0.040965263 19 31
-2.9839208 1.8652757 0.041071381 52 31
-2.9808681 1.8888994 0.041085344 50 31
-2.9683805 1.9066141 0.041083947 41 31
-2.9683609 1.9324261 0.041103493 43 31
-2.9647968 1.9561076 0.041117456 45 31
-2.9577274 1.9775957 0.041125834 66 31
-2.9513338 1.9996313 0.041135609 62 31
-2.9497285 2.0250568 0.041153759 50 31
-2.9421742 2.0465426 0.041162137 48 31
-2.9352846 2.0685875 0.041171912 50 31
-2.9225366 2.0865591 0.041171912 46 31
-2.9250777 2.115582 0.04119844 83 31
-2.8692782 2.1021807 0.041124437 28 31
-2.8378513 2.106046 0.041092325 40 31
-2.800889 2.1054013 0.041050438 42 31
-2.749717 2.0934839 0.040983416 24 31
-2.6995902 2.0816293 0.040917791 20 31
-2.6686344 2.0840044 0.040885676 35 31
-2.6212759 2.0730579 0.040824242 30 31
-2.5811803 2.0672333 0.040775374 36 31
-2.5451405 2.0641437 0.040733483 35 31
-2.5084634 2.0600557 0.040690199 25 31
-2.4703951 2.0543182 0.040644124 35 31
-2.4347882 2.050123 0.040602237 41 31
-2.3970428 2.0436237 0.040556159 35 31
-2.3624988 2.0393517 0.040515669 31 31
-2.3250856 2.0321021 0.040469591 22 31
-2.287102 2.023809 0.040422119 32 31
-2.2507987 2.0164607 0.040377438 33 31
-2.1902208 1.9865831 0.040286679 16 31
-2.1146228 1.9418422 0.040166602 5 31
-2.1121926 1.9636283 0.040184751 23 31
-2.0935481 1.9703859 0.040172186 42 31
-2.0756245 1.9776784 0.040161017 57 31
-2.0699308 1.9966226 0.040173583 33 31
-2.0626509 2.0141742 0.040183358 38 31
-2.0616364 2.0380363 0.040205698 44 31
-2.0611136 2.0626686 0.040229432 33 31
-2.0582573 2.0852363 0.040248983 37 31
-2.0565979 2.1092777 0.040271323 45 31
-2.0533328 2.1319368 0.04029087 35 31
-0 0 0 44 31
-0 0 0 36 31
-0 0 0 26 31
-0 0 0 43 31
-2.0353231 2.2472665 0.0403914 39 31
-2.0335021 2.2731235 0.040416531 35 31
-2.0340898 2.3020387 0.04044725 27 31
-2.0324252 2.3287866 0.040473778 34 31
-0 0 0 34 31
-0 0 0 40 31
-0 0 0 47 31
-0 0 0 41 31
-2.0183992 2.4611506 0.040602237 38 31
-2.0120752 2.4843652 0.040621784 27 31
-2.008666 2.511498 0.040648311 16 31
-2.8786833 3.6441021 0.042642176 81 31
-2.8495016 3.6530252 0.042626817 240 31
-2.8520598 3.7029164 0.042684063 290 31
-2.8444235 3.740242 0.042718969 284 31
-2.8352349 3.7760139 0.042751085 287 31
-2.8161824 3.7989616 0.042760856 166 31
-2.7875025 3.8089085 0.042748291 169 31
-2.7582207 3.817836 0.042734329 80 31
-2.7312582 3.8298042 0.04272595 134 31
-2.7059798 3.844038 0.042721763 110 31
-2.6777761 3.8540006 0.042710591 109 31
-2.6444602 3.8563409 0.042686857 65 31
-0 0 0 41 31
-0 0 0 12 31
-0 0 0 6 31
-2.1122048 3.2486699 0.041568451 89 31
-2.0835886 3.2481043 0.04154611 106 31
-1.9887172 3.14255 0.041350633 17 31
-2.0165515 3.230175 0.041474901 109 31
-1.9888245 3.2297175 0.041453958 150 31
-1.9653343 3.235878 0.041444182 177 31
-1.9459565 3.2487338 0.041445579 166 31
-1.9371806 3.2795517 0.041476294 352 31
-1.9009074 3.2637296 0.041431617 180 31
-1.871379 3.2588582 0.041405085 177 31
-1.8306453 3.2337363 0.041346442 126 31
-1.7820024 3.1933961 0.041264065 96 31
-1.7469442 3.1762362 0.041219383 62 31
-1.7355281 3.2018385 0.041243121 16 31
-1.7177351 3.2159548 0.041248705 35 31
-1.694242 3.2193558 0.041237537 18 31
-1.7453824 3.3663857 0.041452561 169 31
-1.7228733 3.3734701 0.041446976 181 31
-1.6962966 3.3723662 0.041428823 196 31
-1.6706866 3.3728554 0.041413464 198 31
-1.6477665 3.3785498 0.041406482 223 31
-1.603617 3.3399243 0.041331086 112 31
-1.2649781 2.6771407 0.040292267 126 31
-1.2447294 2.6766927 0.040279698 107 31
-1.2241176 2.6751883 0.040265735 75 31
-1.2006953 2.6671503 0.040242001 174 31
-1.1794442 2.663497 0.040225245 4953 31
-1.1594824 2.6624336 0.04021268 5605 31
-0 0 0 1883 31
-1.1240042 2.6700113 0.040202904 151 31
-1.1041559 2.6685429 0.040190339 161 31
-1.0851221 2.6687841 0.040180564 146 31
-1.0687263 2.6753922 0.040180564 185 31
-1.0504621 2.6772456 0.040173583 156 31
-1.0318556 2.6780429 0.040165205 97 31
-1.0146956 2.6824534 0.040162414 70 31
-0.9964751 2.6839423 0.040155433 9 31
-0.98067337 2.691885 0.040158223 10 31
-0 0 0 5 31
-0.95385736 2.7216449 0.040184751 7 31
-0 0 0 3 31
-0 0 0 4 31
-0.97167253 2.944787 0.040487744 6 31
-0.93141872 2.8821909 0.04038721 6 31
-0.96566492 3.0518191 0.040627368 8 31
-0.94484794 3.0510008 0.040617596 7 31
-0.99810529 3.2940602 0.04096387 123 31
-0.97559911 3.2924531 0.040952697 120 31
-0.95287174 3.2897334 0.040940132 78 31
-0.91085702 3.218549 0.040828429 26 31
-0 0 0 9 31
-0.71845436 2.6637669 0.040010221 6 31
-0.7528187 2.8605523 0.040288076 5 31
-0.69492286 2.7082181 0.040061884 9 31
-0.66031039 2.6406491 0.039958559 9 31
-0.61896849 2.5416722 0.039810553 167 31
-0.5922696 2.4987216 0.039743535 580 31
-0.61294341 2.6582019 0.039966937 11 31
-0.70683998 3.152688 0.040669255 42 31
-0.58560532 2.689949 0.040001843 10 31
-0.57530302 2.722841 0.04004373 13 31
-0.63923663 3.1191251 0.04060363 36 31
-0.63608515 3.2034125 0.040718127 92 31
-0.61339194 3.1915438 0.040695786 71 31
-0.5941636 3.1972136 0.040698577 89 31
-0.57913733 3.2263887 0.04073488 135 31
-0.56103951 3.2397342 0.040748842 136 31
-0.53950095 3.2332525 0.04073488 117 31
-0.44386643 2.7655613 0.040068865 51 31
-0.41573313 2.6960902 0.039966937 95 31
-0.39771488 2.6886988 0.039952975 94 31
-0.38289803 2.7029691 0.039969727 72 31
-0.3654981 2.6993222 0.039961349 67 31
-0.34969959 2.7074642 0.039969727 58 31
-0.33063167 2.6897097 0.039941803 63 31
-0.31575048 2.7055926 0.039961349 47 31
-0.29837161 2.7005217 0.039951578 52 31
-0.28721136 2.7540188 0.040024184 39 31
-0.26736644 2.7258739 0.039982297 60 31
-0.26608011 2.8947515 0.040216867 32 31
-0.2485707 2.8993185 0.040221054 43 31
-0 0 0 48 31
-0 0 0 0 31
-0 0 0 0 31
-0 0 0 0 31
-0 0 0 0 31
-0 0 0 0 31
-0 0 0 0 31
-0 0 0 0 31
-0 0 0 0 31
-0 0 0 0 31
-0 0 0 0 31
-0 0 0 0 31
-0 0 0 0 31
-0 0 0 0 31
0 0 0 0 31
0 0 0 0 31
0 0 0 0 31
0 0 0 124 31
0 0 0 139 31
0 0 0 140 31
0 0 0 139 31
0.12303851 2.4819071 0.039627645 110 31
0.13815454 2.4791086 0.039624851 127 31
0.15342477 2.4792123 0.039626248 133 31
0.16863403 2.4782243 0.039626248 123 31
0.18471947 2.4891102 0.039643005 90 31
0.19951092 2.4819491 0.039634626 110 31
0.21851024 2.5245161 0.03969606 225 31
0.28490174 3.0747833 0.040469591 66 31
0.30778071 3.11378 0.040526837 84 31
0.25130424 2.3897781 0.039513152 119 31
0.2667343 2.3951485 0.039522924 88 31
0.28165823 2.3954532 0.039525717 76 31
0.29524964 2.3847475 0.039513152 110 31
0.31039053 2.386858 0.039518736 79 31
0.32516474 2.3858993 0.039520133 66 31
0.34247032 2.4026704 0.039546661 128 31
0.35779321 2.4044805 0.039552245 113 31
0.37330398 2.4071813 0.039559226 113 31
0.38854364 2.4078071 0.039563417 119 31
0.40331036 2.4053779 0.039563417 120 31
0.41806188 2.4028578 0.039563417 114 31
0.43244371 2.398279 0.039560623 103 31
0.44660208 2.3926311 0.039556436 110 31
0.46051839 2.3859179 0.039550848 98 31
0.4733938 2.3742204 0.039538283 70 31
0.48976257 2.3800871 0.039550848 30 31
0.49980134 2.355514 0.039520133 90 31
0.51381892 2.3504488 0.039517339 112 31
0.52801222 2.3462763 0.039515942 107 31
0.54239875 2.3429923 0.039515942 87 31
0.55699593 2.3405929 0.039517339 100 31
0.57205808 2.3400457 0.039521527 93 31
0.58689147 2.3384316 0.039524321 96 31
0 0 0 52 31
0 0 0 137 31
0.65512985 2.4208765 0.039659757 17 31
0.80518436 2.905448 0.040367663 19 31
0.68151724 2.4011092 0.039643005 22 31
0.70125031 2.4141703 0.039668135 17 31
0.91625816 3.0847528 0.040651105 203 31
0 0 0 231 31
0 0 0 194 31
0 0 0 219 31
0 0 0 219 31
0 0 0 217 31
0 0 0 226 31
1.060228 3.0784986 0.040704165 216 31
1.0807528 3.0766532 0.040711146 211 31
0 0 0 183 31
0 0 0 204 31
0 0 0 219 31
0 0 0 190 31
0 0 0 201 31
0 0 0 231 31
1.2252289 3.0608366 0.040761411 198 31
1.2451177 3.0560398 0.040765598 221 31
0 0 0 192 31
0 0 0 230 31
0 0 0 312 31
0 0 0 227 31
0 0 0 218 31
0 0 0 248 31
1.3851842 3.0215783 0.040799107 816 31
1.4024322 3.0103023 0.04079492 71 31
0 0 0 44 31
0 0 0 49 31
0 0 0 54 31
1.4279233 2.8782129 0.040644124 45 31
0 0 0 46 31
0 0 0 42 31
0 0 0 67 31
1.3653305 2.5901332 0.040246189 77 31
0 0 0 79 31
0 0 0 81 31
0 0 0 64 31
0 0 0 79 31
0 0 0 57 31
1.4746872 2.5641358 0.040288076 93 31
1.4929103 2.5593591 0.040295057 118 31
1.5111301 2.5544548 0.040302038 111 31
0 0 0 97 31
0 0 0 103 31
0 0 0 111 31
0 0 0 103 31
0 0 0 79 31
1.6457204 2.561904 0.04040955 177 31
1.6477762 2.530802 0.040374644 162 31
1.6456599 2.4939277 0.040329963 173 31
0 0 0 174 31
0 0 0 280 31
0 0 0 251 31
0 0 0 220 31
0 0 0 246 31
0 0 0 224 31
1.7740724 2.4525743 0.040384419 243 31
1.7985396 2.4545522 0.04040676 248 31
1.8213105 2.4539123 0.040424909 233 31
1.8441409 2.4530849 0.040443063 199 31
1.8633964 2.4472942 0.040452834 243 31
1.8783777 2.4358146 0.040452834 206 31
1.9302011 2.4715447 0.040536612 73 31
0 0 0 38 31
2.2784297 2.8450739 0.041247308 84 31
2.3052883 2.8426938 0.041268252 204 31
2.273206 2.7681994 0.041159343 77 31
2.2767274 2.7380476 0.041130021 99 31
2.2915535 2.7217309 0.041125834 57 31
2.3023741 2.700768 0.041113269 30 31
2.502439 2.8993695 0.041505616 87 31
2.5464938 2.9140882 0.041561469 135 31
2.5702879 2.9051507 0.041574035 104 31
2.6047397 2.9079518 0.041608941 135 31
2.6319351 2.9022882 0.041628487 171 31
2.6598349 2.8971369 0.041649431 157 31
2.6877701 2.891752 0.041670378 148 31
2.7116284 2.881762 0.041682944 168 31
2.7402921 2.8766577 0.041705284 229 31
2.8980701 3.0052328 0.04198733 8 31
3.0128291 3.0861669 0.042180013 77 31
3.0429525 3.0790055 0.042202353 67 31
3.0738082 3.0722973 0.042226091 80 31
3.1039844 3.0646234 0.042248428 61 31
3.1341815 3.0566943 0.042270768 78 31
3.1636777 3.0478156 0.042291712 84 31
3.1946311 3.0400686 0.04231545 89 31
3.2307074 3.0368519 0.042348962 97 31
3.280051 3.0455573 0.042407602 103 31
3.3134127 3.0388961 0.042435531 92 31
3.3505199 3.0352976 0.042470437 81 31
3.3891971 3.0326915 0.042508133 87 31
3.427968 3.0297244 0.042545833 80 31
3.4690886 3.0283682 0.04258772 84 31
3.5042632 3.0213954 0.042618439 97 31
3.5356765 3.0108619 0.042642176 84 31
3.5647962 2.9981246 0.042661723 78 31
3.5908163 2.9825864 0.042675685 75 31
0 0 0 4 31
0 0 0 4 31
0 0 0 5 31
3.6158586 2.8563607 0.042591911 8 31
3.6309519 2.8322747 0.04258772 20 31
3.6530144 2.8136046 0.042596098 9 31
3.6622515 2.7850819 0.042582136 150 31
3.6864672 2.7679641 0.042594701 72 31
3.7306902 2.7655466 0.042642176 53 31
3.7717941 2.7603266 0.042684063 44 31
3.8056796 2.7494335 0.042713385 44 31
3.8493409 2.745198 0.042759463 43 31
3.9086263 2.7514701 0.042832069 36 31
3.9615633 2.7525506 0.042893503 31 31
4.0253787 2.7604387 0.04297309 7 31
4.0546613 2.7440977 0.042994034 9 31
4.0863886 2.7291677 0.043019168 23 31
4.1548185 2.7381723 0.043105736 130 31
4.1966877 2.7289875 0.043147624 113 31
4.2537475 2.7291148 0.043214645 125 31
4.3092756 2.7275736 0.043278873 101 31
4.3615508 2.7233336 0.043337516 110 31
4.4190435 2.7217016 0.043404534 151 31
4.4877877 2.7262173 0.043489706 166 31
4.5258737 2.7114825 0.043524615 169 31
4.5716949 2.7009621 0.043572087 137 31
4.6132364 2.687463 0.043612577 165 31
4.6729913 2.6840184 0.043682393 390 31
4.6397781 2.6271987 0.043602806 160 31
4.6523185 2.5967298 0.043597221 210 31
4.6629076 2.5652416 0.043588843 246 31
4.6680121 2.5308604 0.043572087 212 31
4.6702247 2.4950993 0.043551143 227 31
4.6633267 2.4547465 0.043516237 250 31
4.665874 2.4196386 0.043496687 259 31
4.6672764 2.3841374 0.043475743 232 31
4.6827106 2.3559043 0.04347714 286 31
4.6890144 2.3231301 0.043464575 206 31
4.7454176 2.3149309 0.0435302 222 31
4.7811646 2.2961648 0.043563709 278 31
4.7933555 2.2659297 0.043560918 271 31
4.7872243 2.2271912 0.0435302 272 31
4.7926173 2.1940274 0.043517634 263 31
4.8023424 2.1629357 0.043512046 307 31
4.8054676 2.1289704 0.043496687 318 31
4.7799401 2.0826595 0.043438047 174 31
4.7990627 2.0560493 0.043447819 348 31
4.8051376 2.0238454 0.043438047 342 31
4.8091502 1.9908793 0.043425478 364 31
4.8046041 1.9545469 0.043400347 366 31
4.8025789 1.9194596 0.043379404 384 31
4.8012357 1.8848366 0.043359853 337 31
4.8099113 1.8542614 0.043355666 449 31
4.8165226 1.8229426 0.043348685 375 31
4.8210559 1.7909156 0.04333891 374 31
4.7887392 1.745537 0.043274682 168 31
4.8115993 1.7205009 0.043292835 339 31
4.7947016 1.6813424 0.043252341 196 31
4.8200574 1.6570963 0.043274682 307 31
4.8235016 1.6252532 0.043264911 313 31
4.8257871 1.5931165 0.043253738 296 31
4.8040743 1.5533164 0.043207664 224 31
4.7734761 1.5111247 0.043149021 227 31
4.8027163 1.4880264 0.043178342 113 31
4.8328085 1.4649162 0.043209057 109 31
4.8982692 1.4520164 0.043291438 86 31
4.9925642 1.4467238 0.043415707 79 31
14.125079 4.0015278 0.056656469 338 31
14.11949 3.9065137 0.056613185 371 31
14.130644 3.8164141 0.056595031 288 31
14.186671 3.7383044 0.056642503 170 31
14.237429 3.6584058 0.056682996 280 31
14.235358 3.5649025 0.05664809 272 31
14.21519 3.4672961 0.05658805 266 31
14.212847 3.3744621 0.056554541 276 31
14.199183 3.2793114 0.056505669 258 31
14.193668 3.1864281 0.056469366 283 31
14.185596 3.0933096 0.056430273 282 31
14.17496 2.9999962 0.056388386 254 31
14.155877 2.9053211 0.056335326 245 31
14.146956 2.8131397 0.056297626 260 31
14.143331 2.7223117 0.056268305 299 31
14.129292 2.6298037 0.05622502 286 31
14.112683 2.5372167 0.056178946 311 31
14.109265 2.4473264 0.056152415 324 31
14.099359 2.3565841 0.056117509 334 31
14.080972 2.2647846 0.056071434 274 31
14.068909 2.1743696 0.056035131 324 31
14.060224 2.084775 0.056004412 307 31
14.05196 1.9955094 0.055975091 300 31
14.043131 1.906424 0.055945769 351 31
14.033738 1.8175222 0.055916447 336 31
14.01783 1.7280729 0.055878747 372 31
13.987448 1.6372586 0.055821501 382 31
13.976358 1.5490873 0.055792179 389 31
13.97466 1.4621553 0.05577682 366 31
13.963465 1.37442 0.055748895 330 31
13.949728 1.2866936 0.05571818 311 31
13.939427 1.1995306 0.055693045 353 31
13.933566 1.1129411 0.055674896 350 31
13.922182 1.026101 0.055649761 311 31
12.828728 0.86630958 0.054111078 262 31
12.831805 0.78745502 0.054108288 273 31
12.842386 0.70903701 0.054116666 493 31
12.884449 0.63208967 0.054169722 739 31
12.880093 0.55267662 0.054158553 308 31
12.88524 0.47370908 0.054161344 328 31
12.887904 0.39463782 0.054161344 348 31
12.893082 0.3156254 0.054165535 332 31
12.892776 0.23647213 0.054162741 323 31
12.898984 0.15742056 0.054169722 303 31
12.906707 0.078314021 0.054179497 348 31
12.902945 -0.00088160683 0.054173913 296 31
12.906696 -0.08007703 0.054179497 310 31
12.913961 -0.15936752 0.054190665 324 31
12.90974 -0.23854794 0.054186478 309 31
12.909034 -0.31778064 0.054187875 291 31
12.90884 -0.3970443 0.054190665 253 31
13.065053 -0.48209286 0.054412674 234 31
13.080832 -0.56306487 0.054439202 243 31
13.08612 -0.64375818 0.054451767 229 31
13.082922 -0.72409612 0.054453164 254 31
13.081226 -0.80454171 0.054457352 269 31
13.090012 -0.88573533 0.054476902 259 31
13.098293 -0.96706706 0.054496448 242 31
13.106068 -1.0485337 0.054515995 200 31
13.100384 -1.1290171 0.054517392 208 31
13.098188 -1.2098377 0.054524373 225 31
12.996971 -1.2809724 0.054393124 106 31
12.940133 -1.3555952 0.054324709 268 31
12.937535 -1.4356301 0.054333087 268 31
12.940401 -1.5163819 0.05434984 265 31
13.336778 -1.6458112 0.054920912 118 31
13.346263 -1.7301826 0.054948837 175 31
13.349268 -1.813925 0.054968387 140 31
13.353727 -1.8980507 0.054990724 72 31
13.347765 -1.9808321 0.054999102 99 31
13.340301 -2.0634592 0.055006083 115 31
13.343185 -2.1478162 0.055028424 137 31
13.352441 -2.2334404 0.055060539 131 31
13.348338 -2.3170369 0.055074502 99 31
13.336823 -2.3994281 0.055078689 132 31
13.107531 -2.441318 0.054774303 131 31
12.986252 -2.5012813 0.054623507 240 31
12.085989 -2.4049644 0.053364079 287 31
12.060229 -2.4768655 0.05334872 299 31
12.074154 -2.5570316 0.053390607 200 31
16.440226 -3.5867724 0.059652846 129 31
15.983719 -3.5900898 0.059031509 142 31
15.664214 -3.6194525 0.058605649 93 31
15.278803 -3.6293213 0.058084846 161 31
14.901646 -3.6364963 0.057575207 104 31
14.538569 -3.6425841 0.057085119 146 31
14.265097 -3.6672556 0.056723487 157 31
13.909685 -3.6670492 0.056243174 219 31
13.278721 -3.5880415 0.055363528 99 31
13.045387 -3.6110454 0.055057745 210 31
13.025871 -3.6918402 0.055061936 271 31
13.008736 -3.7733669 0.055070311 266 31
5.1440592 -1.52712 0.043650277 176 31
5.0522947 -1.533692 0.0435302 186 31
4.9807048 -1.5454149 0.04343944 207 31
4.9301362 -1.5629616 0.043379404 135 31
4.9518504 -1.6033412 0.043425478 60 31
4.9048877 -1.6214622 0.043371025 165 31
4.9194837 -1.659834 0.043407328 521 31
4.8269382 -1.661688 0.043285854 201 31
4.7741895 -1.6763754 0.04322302 202 31
4.676249 -1.6743089 0.043093167 268 31
4.5991855 -1.6786429 0.042994034 285 31
4.5353703 -1.6869727 0.042914446 346 31
4.5230637 -1.7140611 0.042911656 495 31
4.5105953 -1.7410622 0.042908862 358 31
4.5175118 -1.7756522 0.04293539 480 31
4.5074601 -1.8037089 0.042936787 364 31
4.512054 -1.837741 0.042960525 441 31
4.5200944 -1.8734277 0.042989846 435 31
4.5269446 -1.9088938 0.043017771 467 31
4.5151467 -1.9366347 0.043017771 315 31
4.5205956 -1.9718951 0.043044299 160 31
4.5230389 -2.0060794 0.043066639 390 31
4.5480247 -2.0506382 0.043123886 101 31
4.538084 -2.0797551 0.043128077 499 31
4.5243311 -2.1071389 0.04312668 373 31
4.5176449 -2.1378529 0.043136451 57 31
4.522469 -2.1741939 0.04316438 43 31
4.5315104 -2.212867 0.043199286 20 31
4.5259113 -2.2446272 0.043211851 21 31
4.520092 -2.2764018 0.043224417 22 31
4.5167251 -2.3095543 0.043241173 19 31
4.514008 -2.3432119 0.043259323 18 31
4.5119328 -2.3773885 0.043278873 15 31
4.5043159 -2.4087994 0.043290041 13 31
4.5184588 -2.4521258 0.04333612 19 31
4.5024514 -2.4793222 0.043334723 10 31
4.5046163 -2.5166528 0.043362647 11 31
4.5325942 -2.5688891 0.043432459 19 31
4.5358219 -2.6076128 0.043463178 8 31
4.5482478 -2.6520112 0.043509256 16 31
4.565464 -2.6997123 0.043563709 7 31
4.5565324 -2.7323015 0.043576274 9 31
4.5550637 -2.7695563 0.043601409 16 31
4.5584173 -2.8100433 0.043634918 14 31
4.5656853 -2.8533242 0.043675411 11 31
4.5548506 -2.8855648 0.04368658 16 31
4.5648308 -2.9312835 0.043732658 10 31
4.5626855 -2.9695983 0.043759186 11 31
4.555232 -3.0046942 0.043777339 23 31
4.5516763 -3.042588 0.04380247 14 31
4.5478268 -3.0805509 0.043827605 11 31
4.5486298 -3.1219749 0.043861113 8 31
4.5425258 -3.1589582 0.043883454 17 31
4.5434971 -3.2011659 0.04391836 16 31
4.5530753 -3.2498927 0.043968625 12 31
4.5638466 -3.3000283 0.044021685 14 31
4.5580354 -3.3386028 0.044046815 7 31
4.5679865 -3.3891435 0.044099875 11 31
4.5774879 -3.4399309 0.044152934 7 31
4.5682325 -3.4770355 0.044173878 8 31
4.5658231 -3.519649 0.044207387 7 31
4.5670033 -3.5654392 0.044247877 9 31
4.5646544 -3.6088958 0.044282787 14 31
4.5736547 -3.6618297 0.044338636 8 31
4.5744071 -3.7087128 0.044380523 17 31
4.5840316 -3.7633548 0.044439167 15 31
4.5962334 -3.8208101 0.044503395 12 31
4.6017795 -3.873405 0.044556454 12 31
4.6038074 -3.9236169 0.044603925 9 31
4.6031199 -3.9720392 0.044647209 19 31
4.6035166 -4.0219159 0.044693287 19 31
4.5952334 -4.0646596 0.044724002 20 31
4.5947938 -4.1147895 0.044770081 17 31
4.5924296 -4.1637225 0.044813365 14 31
4.5925841 -4.2154856 0.044862233 9 31
4.5864139 -4.2619615 0.044899933 9 31
4.5878587 -4.3160558 0.044952992 12 31
4.5851903 -4.3668795 0.044999067 9 31
4.5979104 -4.4330988 0.045075864 20 31
4.5949578 -4.484972 0.045123335 14 31
4.6043477 -4.549624 0.045195941 17 31
4.6046295 -4.6060739 0.04525179 20 31
4.6128249 -4.6712341 0.045324396 16 31
4.6085196 -4.7244997 0.045373265 19 31
4.6148372 -4.7894077 0.045444477 18 31
4.6115661 -4.8451543 0.045497533 18 31
4.6146345 -4.9083247 0.045564555 18 31
4.6184616 -4.9731793 0.045634367 16 31
4.6189609 -5.0353169 0.045698594 16 31
4.6269293 -5.1065378 0.045779578 31 31
4.6115174 -5.1527128 0.045813087 5 31
4.6453948 -5.2550745 0.045951318 26 31
4.6518741 -5.3279166 0.046033699 20 31
4.6491418 -5.3911905 0.046097927 19 31
4.6477528 -5.4569135 0.046166342 26 31
4.6437993 -5.5205259 0.046230573 29 31
4.643713 -5.5896778 0.046304572 26 31
4.6416826 -5.6574883 0.046375781 29 31
4.6484389 -5.7371364 0.046467938 33 31
4.657515 -5.820982 0.046567071 27 31
4.6607752 -5.8988767 0.046655037 28 31
4.6706362 -5.9864883 0.046759754 35 31
4.6649461 -6.0554309 0.046830963 31 31
4.6731176 -6.1436272 0.046935685 36 31
4.6641636 -6.2105627 0.047002707 31 31
4.6670728 -6.2944846 0.047099046 29 31
4.6584921 -6.3641515 0.047170255 43 31
4.6644626 -6.4550195 0.047277767 40 31
4.6857548 -6.5689912 0.047424376 43 31
4.6873956 -6.6573014 0.047526304 39 31
4.6841311 -6.7401295 0.047618456 44 31
4.7071819 -6.8627453 0.04777763 449 31
4.7160063 -6.9668498 0.047904693 359 31
4.7059493 -7.0447116 0.04798707 376 31
4.6901588 -7.1151967 0.048056882 83 31
4.7271233 -7.2678962 0.048263531 55 31
4.718092 -7.3523064 0.048355684 71 31
4.7397671 -7.4867229 0.048530217 80 31
4.7334766 -7.5792727 0.048634935 55 31
4.749835 -7.7103353 0.048802488 68 31
4.7481408 -7.8145347 0.048925359 49 31
4.7391758 -7.9087081 0.049031474 37 31
4.7434797 -8.0271673 0.049176686 30 31
4.7409673 -8.1364698 0.049306538 24 31
4.7502451 -8.2685833 0.049472693 34 31
4.7477264 -8.3828421 0.049609527 35 31
4.7732368 -8.5497637 0.049830139 38 31
4.7693887 -8.6673727 0.04997116 23 31
4.7804875 -8.8151388 0.050159656 27 31
4.7956071 -8.9739456 0.050364908 26 31
4.813149 -9.1412287 0.050582722 25 31
4.8044062 -9.2620153 0.050726537 26 31
4.8084688 -9.4106388 0.050913636 20 31
4.8077388 -9.5534048 0.051090963 27 31
4.8183155 -9.7224932 0.051308781 21 31
4.8204165 -9.8785868 0.051505651 26 31
4.8012905 -9.9945068 0.051639695 27 31
4.8189764 -10.191015 0.051898003 28 31
0 -0 0 38 31
4.8401442 -10.569407 0.052389488 23 31
4.8725748 -10.814979 0.052720401 21 31
4.8628602 -10.972661 0.052915879 23 31
4.870575 -11.174626 0.053178377 27 31
4.8499861 -11.316432 0.05334872 24 31
4.8394899 -11.486047 0.053560954 28 31
4.8867946 -11.800076 0.053991001 90 31
0 -0 0 180 31
4.7768984 -11.947364 0.054123648 313 31
4.6585279 -11.861966 0.053951904 572 31
4.5813379 -11.879131 0.053935152 420 31
4.5115499 -11.915435 0.053947717 478 31
4.442883 -11.955078 0.053965867 338 31
4.3725286 -11.990569 0.053978436 447 31
4.3126869 -12.055776 0.054035682 113 31
5.0071778 -14.272073 0.057276409 19 31
4.9972658 -14.528525 0.057610113 18 31
4.9556351 -14.700104 0.057818159 16 31
4.9848642 -15.092002 0.058350135 23 31
5.0079265 -15.480041 0.058875129 13 31
5.0085912 -15.812673 0.059317745 15 31
5.0038776 -16.141109 0.059753377 20 31
5.0885067 -16.777246 0.060637213 46 31
5.0102129 -16.89156 0.060758688 374 31
4.9039669 -16.913342 0.060746122 204 31
4.7916446 -16.913286 0.060702838 13 31
4.6888433 -16.946224 0.060708422 77 31
5.0605011 -18.735542 0.063255206 161 31
4.9589558 -18.817492 0.063329205 94 31
5.1628013 -20.09017 0.065120615 69 31
5.4428153 -21.73171 0.067438409 14 31
5.3086581 -21.761784 0.067434222 14 31
4.0189419 -16.926359 0.060448717 22 31
3.9120815 -16.938034 0.060430564 45 31
3.8041339 -16.944157 0.060405433 505 31
3.6990292 -16.962294 0.060398452 469 31
3.5909455 -16.966084 0.060371924 497 31
3.4815466 -16.96233 0.060335621 471 31
3.3746705 -16.969641 0.060316071 455 31
3.2667015 -16.97039 0.060288146 499 31
3.1595826 -16.974384 0.060265806 536 31
3.0530689 -16.980658 0.060247656 554 31
2.9483073 -16.996115 0.060243465 548 31
2.9171965 -17.451805 0.060863405 108 31
2.9473312 -18.322399 0.062069777 261 31
2.8345459 -18.338163 0.062066987 482 31
2.7172756 -18.323557 0.062022306 425 31
2.6009948 -18.313154 0.061984606 479 31
2.482656 -18.285168 0.061923172 511 31
2.3641162 -18.251465 0.061854754 531 31
2.2481649 -18.233868 0.061810073 543 31
2.131937 -18.210569 0.06175841 506 31
2.0167415 -18.192497 0.061715126 489 31
1.9016397 -18.171709 0.061669052 544 31
1.7859868 -18.141237 0.061610408 556 31
1.6717908 -18.120985 0.061567124 610 31
1.557739 -18.098024 0.061521046 625 31
1.4443508 -18.078333 0.061480556 574 31
1.3309687 -18.053946 0.061434478 573 31
1.2182777 -18.033836 0.061395384 507 31
1.1064972 -18.023006 0.06137025 541 31
0.9945088 -18.004494 0.061335344 484 31
0.88161117 -17.961317 0.061266929 588 31
0.77069867 -17.950403 0.061244588 581 31
0.65965867 -17.930809 0.061211076 673 31
0.54894954 -17.912531 0.061180361 590 31
0.4382931 -17.885571 0.06113847 597 31
0.32811719 -17.864927 0.061106358 554 31
0.21821113 -17.843605 0.061074242 623 31
0.10859141 -17.823608 0.06104492 570 31
-0.00077470549 -17.80294 0.061015598 567 31
-0.10989531 -17.7836 0.060989071 583 31
-0.21875411 -17.761593 0.060959749 559 31
-0.32742053 -17.74292 0.060936011 643 31
-0.43544921 -17.706587 0.06088854 651 31
-0.54362679 -17.688589 0.060867596 740 31
-0.65115851 -17.657938 0.060829896 697 31
-0.75837749 -17.627634 0.060793594 617 31
-0.86564153 -17.604671 0.060768463 645 31
-0.97298336 -17.587046 0.060751706 643 31
-1.0800803 -17.56777 0.060733553 633 31
-1.1867075 -17.54385 0.060709819 639 31
-1.2935233 -17.525269 0.06069446 657 31
-1.4007133 -17.513014 0.060688876 629 31
-1.5072012 -17.49313 0.060673516 678 31
-1.6137736 -17.475586 0.060662344 620 31
-1.7198935 -17.454409 0.060646985 667 31
-1.8251896 -17.42662 0.060623251 693 31
-1.931532 -17.410122 0.06061627 758 31
-2.0379732 -17.394964 0.060612079 651 31
-2.1435668 -17.373199 0.060599513 762 31
-2.2489703 -17.350794 0.060586948 739 31
-2.3493352 -17.292078 0.060524117 380 31
-2.4011075 -16.895174 0.059985157 701 31
-2.5054626 -16.885069 0.059992138 662 31
-2.6108537 -16.881237 0.060008895 611 31
-2.7178802 -16.88662 0.060039613 598 31
-2.8249061 -16.890337 0.060068935 675 31
-2.9298575 -16.880568 0.060080104 689 31
-3.1383302 -17.445911 0.060908087 143 31
-3.2515399 -17.459753 0.060955562 97 31
-3.351804 -17.404121 0.060905296 56 31
-2.5101066 -12.614634 0.054116666 25 31
-2.5510652 -12.421692 0.053863943 261 31
-2.5868526 -12.215033 0.053591669 460 31
-0 -0 0 869 31
-2.6971207 -12.006741 0.053340342 895 31
-2.7770436 -12.017247 0.053379439 1028 31
-2.8546555 -12.016521 0.053403173 1070 31
-2.9335477 -12.020153 0.053433891 1160 31
-3.0125918 -12.023267 0.05346461 1147 31
-3.0897932 -12.018115 0.053484157 1032 31
-3.1678092 -12.015369 0.053507894 47 31
-3.409673 -12.618388 0.054408483 16 31
-7.0313635 -25.405878 0.072964817 19 31
-7.2100172 -25.443075 0.073082104 5 31
-0 -0 0 8 31
-0 -0 0 5 31
-0 -0 0 5 31
-0 -0 0 4 31
-8.0982161 -25.560755 0.073595926 6 31
-0 -0 0 4 31
-9.9670334 -30.169142 0.08052139 12 31
-0 -0 0 4 31
-0 -0 0 8 31
-0 -0 0 9 31
-2.5899189 -7.2353835 0.04688821 306 31
-2.6253569 -7.1949296 0.046851907 1611 31
-2.6694548 -7.1786852 0.046851907 1820 31
-2.7208891 -7.1818099 0.046881229 1150 31
-2.7746212 -7.1901703 0.046918929 863 31
-2.7938268 -7.1097178 0.046823982 825 31
-2.8017542 -7.003304 0.046689942 1471 31
-2.8473117 -6.9924645 0.046699718 1542 31
-2.8936071 -6.9831772 0.046712283 1512 31
-2.9534869 -7.0058379 0.046773717 1725 31
-3.0011458 -6.9986129 0.046790473 1697 31
-3.0148611 -6.9131484 0.046688545 1185 31
-3.0503337 -6.8789778 0.046664808 1681 31
-3.1245291 -6.9312453 0.046773717 1364 31
-3.2136376 -7.0137711 0.046930101 1686 31
-3.2642083 -7.0102391 0.046955232 1563 31
-3.3080161 -6.9918866 0.046958026 409 31
-5.7353592 -11.934331 0.054645848 38 31
-5.7900577 -11.861171 0.054587204 38 31
-5.7970004 -11.692816 0.054380558 35 31
-5.8304219 -11.581101 0.054261874 31 31
-5.8717933 -11.487228 0.054171119 26 31
-5.905786 -11.380859 0.054060813 38 31
-5.9559364 -11.307246 0.05400217 56 31
-6.017662 -11.256377 0.053979833 91 31
-6.0856628 -11.217484 0.053977039 401 31
-6.0955539 -11.07305 0.053806696 84 31
-6.1336427 -10.982181 0.053721521 77 31
-6.1013508 -10.768579 0.053439476 242 31
-6.160336 -10.7188 0.053419929 426 31
-6.1554966 -10.559841 0.053224452 55 31
-6.1698022 -10.436646 0.053086221 66 31
-6.1710062 -10.293949 0.052915879 205 31
-6.1629033 -10.138814 0.052724592 64 31
-6.1882777 -10.041213 0.052626852 67 31
-6.1650076 -9.8673525 0.05240345 63 31
-6.1687288 -9.7397833 0.052255448 75 31
-5.8724141 -9.1471577 0.051335309 69 31
-5.8957114 -9.0606585 0.051251534 62 31
-5.9060593 -8.9558535 0.051137041 83 31
-5.9020119 -8.8313084 0.050989036 67 31
-5.912919 -8.7311678 0.050881524 70 31
