# .PCD v0.7 - Point Cloud Data file format
VERSION 0.7
FIELDS x y z intensity ring
SIZE 4 4 4 4 1
TYPE F F F F U
COUNT 1 1 1 1 1
WIDTH 1281
HEIGHT 1
VIEWPOINT 0 0 0 1 0 0 0
POINTS 1281
DATA ascii
4.9217319 -12.984796 0.39696938 32 29
4.9158797 -13.213371 0.40248191 43 29
4.9509521 -13.561612 0.41129676 42 29
4.9347343 -13.779015 0.41647124 27 29
4.9680533 -14.144795 0.42572811 18 29
4.9576735 -14.397127 0.43183869 11 29
0 -0 0 3 29
4.9708657 -15.03203 0.44759619 9 29
4.9811339 -15.378931 0.45625502 21 29
5.0232968 -15.839903 0.46800813 32 29
5.0475368 -16.261858 0.47866917 38 29
5.0740461 -16.708605 0.48998022 61 29
5.0158367 -16.888914 0.49403661 357 29
4.9109988 -16.915533 0.4939326 300 29
4.7781887 -16.843409 0.49117634 13 29
4.6763511 -16.878189 0.49133235 8 29
4.5695677 -16.894985 0.49102032 12 29
4.4642854 -16.916906 0.49086431 17 29
4.3559155 -16.926554 0.49039626 15 29
4.2500281 -16.945206 0.49018824 16 29
4.1400418 -16.946688 0.48953819 26 29
4.0338988 -16.963018 0.48930418 20 29
3.9250069 -16.966999 0.48875812 38 29
3.8107336 -16.9459 0.487562 507 29
3.7026291 -16.950407 0.48706797 489 29
3.593576 -16.949337 0.48644391 457 29
3.486891 -16.958338 0.48610586 502 29
3.3806217 -16.96863 0.48581985 458 29
3.2739787 -16.976294 0.4854818 448 29
3.1659021 -16.975426 0.48493576 536 29
3.0583146 -16.97584 0.4844417 518 29
2.9522111 -16.983452 0.48415568 586 29
2.899662 -17.309837 0.49229446 90 29
2.9469957 -18.279671 0.51738685 176 29
2.8416684 -18.341862 0.51855695 503 29
2.7231894 -18.319403 0.51751685 414 29
2.6074898 -18.313004 0.51691878 456 29
2.4884641 -18.280123 0.51564467 518 29
2.3701978 -18.248455 0.51442254 544 29
2.2543778 -18.231899 0.5136165 458 29
2.1383841 -18.21064 0.5127064 531 29
2.0229571 -18.190632 0.51184833 503 29
1.9083786 -18.174864 0.51112026 496 29
1.7930864 -18.14843 0.51013213 529 29
1.6783751 -18.123255 0.50919604 562 29
1.5642987 -18.100348 0.50833797 556 29
1.4507269 -18.078714 0.50753188 549 29
1.3374056 -18.055374 0.5066998 555 29
1.224561 -18.033319 0.50591975 502 29
1.1125308 -18.018543 0.50534767 465 29
1.0003949 -17.997082 0.5046196 481 29
0.88866311 -17.976923 0.50394356 554 29
0.7770865 -17.953074 0.5031895 547 29
0.66565025 -17.92354 0.50230539 611 29
0.55500925 -17.906303 0.50175935 592 29
0.44455498 -17.886387 0.50116128 629 29
0.33436608 -17.865789 0.50056326 618 29
0.2244214 -17.842516 0.49991319 577 29
0.11483349 -17.827562 0.49949715 577 29
0.0054356735 -17.806938 0.49895108 555 29
-0.10373354 -17.790642 0.49853504 526 29
-0.2126074 -17.76568 0.49791098 580 29
-0.3213231 -17.748049 0.49749494 602 29
-0.42951632 -17.716763 0.49674088 605 29
-0.53709537 -17.676823 0.4957788 605 29
-0.64500183 -17.658209 0.49538875 705 29
-0.75227457 -17.62895 0.4947387 625 29
-0.8595534 -17.60603 0.49427065 587 29
-0.96679848 -17.586451 0.49390662 623 29
-1.0737748 -17.56522 0.49351656 617 29
-1.1809963 -17.550322 0.49330854 649 29
-1.2879292 -17.532776 0.49304852 625 29
-1.3944533 -17.511587 0.4927105 643 29
-1.5003389 -17.484774 0.49224246 645 29
-1.606497 -17.463293 0.49193043 623 29
-1.7132292 -17.449127 0.49182642 641 29
-1.8199515 -17.435305 0.49174839 597 29
-1.9258002 -17.413872 0.49148837 71 29
-1.3792229 -11.804643 0.34491244 68 29
-2.1372762 -17.372061 0.49104634 340 29
-2.2444694 -17.363577 0.49117634 722 29
-2.3466747 -17.31778 0.49034426 415 29
-2.3939881 -16.887348 0.47942322 603 29
-2.4991713 -16.883219 0.47970927 607 29
-2.6050034 -16.882387 0.48009929 620 29
-2.7107608 -16.879904 0.48046333 596 29
-2.8172438 -16.880701 0.48093137 665 29
-2.923327 -16.877872 0.48132142 656 29
-3.0291281 -16.872408 0.48165944 31 29
-2.3588648 -12.689208 0.37148696 55 29
-2.4398868 -12.691184 0.37192899 120 29
-2.5190752 -12.682838 0.37211102 26 29
-2.5442717 -12.410563 0.36529836 176 29
-2.5837915 -12.221601 0.36069593 424 29
-0 -0 0 839 29
-2.6920283 -12.003636 0.35575545 918 29
-2.7710221 -12.010271 0.35637951 934 29
-2.8492761 -12.012496 0.35689956 1027 29
-2.9276614 -12.014213 0.35741961 1031 29
-3.0069025 -12.018328 0.35801768 1038 29
-3.0848131 -12.016112 0.35845971 1052 29
-3.1620464 -12.010492 0.35882375 127 29
-3.434067 -12.72632 0.37863764 40 29
-7.0480919 -25.50094 0.72395051 174 29
-7.2027969 -25.451443 0.72379446 38 29
-7.3919187 -25.521032 0.72688878 276 29
-7.5656953 -25.533665 0.72847492 242 29
-7.7370057 -25.535555 0.72980106 248 29
-7.9086237 -25.536301 0.7311272 242 29
-8.0850649 -25.550198 0.73284334 254 29
-8.2573633 -25.54862 0.73416948 240 29
-8.4346437 -25.560129 0.73588562 190 29
-8.6114187 -25.567579 0.73752379 244 29
-8.7915249 -25.582329 0.73939598 232 29
-8.9671764 -25.581676 0.74087811 175 29
-2.5828273 -7.223495 0.235312 264 29
-2.6219683 -7.1934223 0.23492196 1494 29
-2.6622293 -7.1668901 0.23463593 1702 29
-2.7142894 -7.1719251 0.23523399 1144 29
-2.7733405 -7.1943135 0.2363261 870 29
-2.7907763 -7.1092281 0.23442791 779 29
-2.8002272 -7.0065641 0.23203568 1443 29
-2.8442955 -6.9920282 0.23211369 1483 29
-2.8863797 -6.9725971 0.23206168 1470 29
-2.9496658 -7.0035868 0.23343982 1677 29
-2.9980927 -6.9982214 0.23380385 1685 29
-3.0154309 -6.9210367 0.23213969 1251 29
-3.0461028 -6.8758965 0.23138562 1629 29
-3.1124465 -6.9108582 0.23291977 1179 29
-3.208034 -7.0079842 0.23624809 1644 29
-3.2547677 -6.996326 0.23648211 1526 29
-3.3014786 -6.9843583 0.23671614 544 29
-5.7478704 -11.971062 0.38118589 26 29
-5.7809067 -11.852903 0.37879366 38 29
-5.7954092 -11.699856 0.37538734 28 29
-5.8055587 -11.541722 0.37182498 44 29
-5.8449006 -11.444451 0.37003082 31 29
-5.8984504 -11.376422 0.36909473 23 29
-5.9458003 -11.297551 0.36784661 66 29
-6.0107708 -11.252919 0.3676126 56 29
-6.0692253 -11.19649 0.36704054 151 29
-6.1166167 -11.120498 0.36589643 40 29
-6.1102152 -10.949191 0.36191803 33 29
-6.0871725 -10.752288 0.35715958 93 29
-6.1595035 -10.726006 0.35749763 177 29
-6.1472282 -10.554111 0.35346726 34 29
-6.1656127 -10.437863 0.35110101 26 29
-6.1668816 -10.295205 0.3479287 137 29
-6.1884265 -10.188815 0.34584853 30 29
-6.1790261 -10.034029 0.34228617 17 29
-6.1748433 -9.89077 0.33906186 23 29
-6.1921206 -9.7842703 0.33695567 24 29
-5.8677893 -9.146965 0.3184419 60 29
-5.8960176 -9.0680428 0.31711578 62 29
-5.9119496 -8.97159 0.3152436 74 29
-5.9130449 -8.8545017 0.31272137 62 29
-5.9129276 -8.7377396 0.31019911 56 29
-5.9415598 -8.6650152 0.309055 44 29
-5.9524145 -8.5676384 0.30713084 52 29
-5.9525194 -8.4565592 0.3047646 107 29
-6.0246067 -8.4483652 0.3056747 158 29
-6.0429692 -8.3650475 0.30419254 62 29
-6.0457811 -8.2616539 0.30206034 32 29
-6.111835 -8.2452841 0.3027364 39 29
-6.1725144 -8.2212191 0.30317846 60 29
-6.1339059 -8.0662088 0.2993561 43 29
-6.1357131 -7.966639 0.29732791 54 29
-6.0553861 -7.7632961 0.29186738 17 29
-6.0991898 -7.7212877 0.29171136 43 29
-6.1732993 -7.717289 0.29282948 26 29
-6.2255683 -7.6854796 0.2930375 23 29
-6.3264894 -7.7128391 0.2952477 12 29
-6.3762498 -7.6769519 0.29535171 24 29
-6.4508977 -7.6705847 0.29646981 20 29
-6.5678277 -7.7130666 0.29927808 49 29
-6.6339579 -7.6945806 0.30003217 45 29
-6.7467766 -7.7290478 0.30263239 29 29
-7.5426989 -8.5347691 0.3320412 58 29
-7.6169195 -8.5129147 0.33289927 72 29
-7.7213531 -8.5238113 0.33492747 78 29
-7.8066125 -8.5123777 0.33620161 107 29
-7.8763795 -8.483366 0.33687767 86 29
-7.9440293 -8.4516335 0.33747572 85 29
-8.0984049 -8.5106449 0.34135008 142 29
-8.0325832 -8.3383913 0.33692968 25 29
-7.5532103 -7.7449784 0.31716779 14 29
-0 -0 0 5 29
-8.3111868 -8.3157005 0.34158412 33 29
-8.6876612 -8.586421 0.35349324 57 29
-8.7938251 -8.5853338 0.35544342 67 29
-8.8751183 -8.5589743 0.35648352 71 29
-9.0266209 -8.5988283 0.36004588 43 29
-8.2908278 -7.8012929 0.33188519 10 29
-9.2654467 -8.611968 0.36480433 38 29
-9.3954277 -8.6259489 0.36753458 64 29
-9.4963074 -8.6117916 0.36922473 68 29
-9.598855 -8.598053 0.37096691 80 29
-9.7180605 -8.5979538 0.37328112 69 29
-9.8489132 -8.6065807 0.37598538 76 29
-9.9212112 -8.5629711 0.37666145 53 29
-10.85218 -9.2510414 0.40669429 206 29
-6.6044121 -5.5597806 0.26032639 270 29
-11.050201 -9.1881227 0.40958059 206 29
-11.031437 -9.0586033 0.40705833 185 29
-2.9308112 -2.3756065 0.13390234 155 29
-2.946893 -2.3588288 0.13395435 321 29
-2.9291644 -2.3152769 0.13288824 171 29
-2.9456792 -2.2991061 0.13296625 311 29
-2.9502313 -2.2736628 0.13265422 170 29
-2.9458339 -2.2415891 0.13205616 151 29
-2.9435518 -2.2114573 0.13153613 131 29
-2.9506438 -2.1885879 0.13132811 136 29
-2.9519219 -2.1615791 0.13093807 132 29
-2.9562199 -2.1369808 0.13065204 266 29
-2.9464972 -2.102536 0.12992397 161 29
-2.9536231 -2.0803854 0.12974195 130 29
-2.9581263 -2.0565143 0.12948193 129 29
-2.9624481 -2.0326664 0.1292219 144 29
-2.9723818 -2.0127685 0.12914389 153 29
-2.988831 -1.9972709 0.12927391 163 29
-3.0110421 -1.9855012 0.12958594 121 29
-3.0449495 -1.9811702 0.130262 88 29
-3.0738699 -1.9732554 0.13078205 72 29
-3.107029 -1.9677356 0.13143212 91 29
-3.1495593 -1.967712 0.13236819 363 29
-3.2160294 -1.9819323 0.13403235 126 29
-3.2161727 -1.9548888 0.13366832 247 29
-3.3232615 -1.9921993 0.1365546 73 29
-3.349189 -1.9799143 0.13697064 79 29
-3.4027224 -1.9835038 0.13821876 70 29
-3.504952 -2.0144193 0.14092301 56 29
-3.6668191 -2.0776808 0.14539544 55 29
-3.8383152 -2.1439054 0.15012789 9 29
-3.8732874 -2.1323724 0.15077795 5 29
-0 -0 0 5 29
-3.9009264 -2.0856237 0.15082996 9 29
-3.9198403 -2.0649118 0.15101197 10 29
-10.659837 -5.5344009 0.34818873 303 29
-10.633965 -5.4383869 0.34644657 629 29
-10.630532 -5.3545942 0.34538049 737 29
-10.615726 -5.2657175 0.34400234 629 29
-10.612805 -5.1833682 0.34298825 609 29
-10.600267 -5.096921 0.34171411 678 29
-10.587973 -5.011251 0.34046599 716 29
-10.575933 -4.9263473 0.33924389 717 29
-10.549622 -4.8355308 0.33763173 656 29
-10.543555 -4.7546778 0.33661765 641 29
-10.546946 -4.6785421 0.33588958 709 29
-10.536973 -4.5969462 0.33479747 755 29
-10.530991 -4.5176206 0.33383536 768 29
-10.499564 -4.428051 0.3321712 545 29
-10.480365 -4.344399 0.33087111 262 29
-10.475348 -4.2671852 0.32998702 707 29
-10.474422 -4.1920547 0.32923293 745 29
-10.463663 -4.1134386 0.32821885 808 29
-10.448606 -4.0336723 0.32710072 831 29
-10.436706 -3.9556634 0.32608664 874 29
-10.420494 -3.8765588 0.32496852 756 29
-10.291025 -3.7566552 0.32073012 810 29
-10.277179 -3.6802921 0.31971604 857 29
-10.275045 -3.6085484 0.31903997 847 29
-10.270529 -3.5363185 0.3183119 796 29
-10.229522 -3.4521298 0.31659573 346 29
-10.204955 -3.3742292 0.31534761 101 29
-10.255898 -3.3214085 0.31617969 724 29
-10.291331 -3.263253 0.31659573 859 29
-8.5898209 -2.6656272 0.26971328 997 29
-8.5926247 -2.6088033 0.26934925 1021 29
-8.5950546 -2.5520456 0.26898521 1033 29
-8.5971117 -2.4953563 0.26862118 973 29
-8.609376 -2.4417398 0.26854315 1036 29
-8.609746 -2.3848629 0.26815313 1010 29
-8.6184273 -2.3304234 0.26799712 980 29
-8.6267643 -2.2759669 0.2678411 974 29
-8.6444397 -2.2239881 0.26794511 701 29
-6.4636884 -1.6204128 0.2091015 327 29
-9.025527 -2.2043557 0.27743602 258 29
-10.220501 -2.4300137 0.30902901 921 29
-6.5761776 -1.5205446 0.21133772 285 29
-10.183232 -2.2894909 0.30726084 171 29
-10.197088 -2.2269647 0.30726084 773 29
-10.190024 -2.1599991 0.3067148 880 29
-10.134545 -2.0833356 0.30489463 160 29
-10.117725 -2.0152504 0.30411455 292 29
-10.106343 -1.9485865 0.30349049 999 29
-10.106317 -1.8843383 0.30317846 1141 29
-10.116705 -1.8221143 0.30315244 1008 29
-10.12671 -1.7598338 0.30312645 1088 29
-10.123514 -1.6953512 0.30276242 1103 29
-10.115962 -1.6303376 0.30229437 1117 29
-10.10503 -1.5650212 0.30174831 1075 29
-10.097633 -1.5004885 0.30130628 1036 29
-10.091805 -1.4363878 0.30091625 1043 29
-10.068732 -1.3701217 0.30008417 916 29
-10.066045 -1.3068982 0.29979813 972 29
-10.054032 -1.2426548 0.29927808 931 29
-10.049554 -1.1795412 0.29896605 960 29
-10.055609 -1.1177456 0.29894006 1024 29
-10.014556 -1.0510107 0.29769194 154 29
-10.006889 -0.9881658 0.29732791 687 29
-10.008782 -0.92637706 0.2972239 1081 29
-10.008303 -0.86443007 0.29706788 1150 29
-9.9984713 -0.80180365 0.29667783 1106 29
-9.0115604 0.21828052 0.15554632 133 30
-8.9580803 0.27199009 0.15485659 673 30
-8.9612389 0.32713333 0.15492292 584 30
-6.6533661 0.28367344 0.12430934 288 30
-8.9705315 0.43775979 0.15510862 718 30
-8.9167585 0.48999342 0.15443215 526 30
-8.9046011 0.54414713 0.15431276 612 30
-9.7929983 0.65881109 0.16617088 281 30
-9.7229548 0.71405125 0.16529545 1065 30
-8.9459047 0.71216732 0.15501577 1400 30
-8.9363852 0.76661742 0.15494944 1458 30
-8.9275303 0.82106918 0.15489639 1633 30
-8.9322758 0.87680924 0.15502903 2518 30
-8.9267273 0.93160015 0.15502903 2330 30
-8.9218369 0.98646593 0.15504229 1083 30
-8.9166098 1.0413067 0.15505555 1036 30
-9.7059784 1.1939374 0.16569337 978 30
-8.8099442 1.1385975 0.15380873 292 30
-8.7909012 1.1910214 0.15364955 120 30
-8.8151083 1.2494307 0.15407401 980 30
-8.8191452 1.3052529 0.15423319 840 30
-8.7981234 1.3573591 0.15406075 376 30
-8.7708712 1.408305 0.15380873 460 30
-9.6428022 1.6091002 0.16565359 755 30
-9.6534376 1.6718211 0.16593213 1425 30
-8.7572422 1.5719835 0.15399443 777 30
-8.7503805 1.6262355 0.15403423 695 30
-8.7716589 1.6859369 0.15445867 1183 30
-8.7699766 1.7414802 0.15457805 1323 30
-8.7522688 1.7938534 0.1544852 1048 30
-8.7097921 1.8409045 0.15406075 916 30
-8.6885624 1.8921839 0.1539281 694 30
-9.5773401 2.1474175 0.16617088 704 30
-8.6374073 1.9923694 0.15355672 548 30
-8.6649094 2.0547912 0.15410054 351 30
-8.656024 2.1088665 0.1541536 614 30
-8.6477718 2.1631525 0.15421991 532 30
-8.6353045 2.2164221 0.15423319 373 30
-8.5973682 2.2630014 0.15390158 495 30
-9.053463 2.4425735 0.1603612 152 30
-8.5699139 2.3686004 0.15391484 259 30
-8.5696507 2.4252245 0.1541138 221 30
-8.5882235 2.4874992 0.15457805 212 30
-8.5804682 2.5424216 0.15468416 535 30
-8.5962858 2.6045921 0.15512188 212 30
-8.5973349 2.6626141 0.15536062 180 30
-8.6094351 2.7243676 0.15575856 316 30
-8.6505947 2.7959034 0.15656766 234 30
-9.426137 3.1106064 0.1676432 1146 30
-9.4210873 3.1731734 0.16784216 1292 30
-9.4127865 3.2348206 0.16800134 1225 30
-9.4172945 3.3011167 0.1683462 1354 30
-9.4006281 3.3601842 0.16839926 1327 30
-9.3929863 3.4225953 0.16858496 1324 30
-9.3774328 3.4822538 0.16866453 1231 30
-9.3680477 3.5443275 0.16883697 1168 30
-9.3610516 3.6074955 0.1690492 1198 30
-9.309886 3.6535411 0.16863801 570 30
-9.1377993 3.6508625 0.16650249 1031 30
-9.1189318 3.708369 0.16655554 1088 30
-9.108016 3.769223 0.16672798 1060 30
-9.0985403 3.8308585 0.16692694 1076 30
-9.086812 3.891732 0.16709937 1040 30
-9.0765123 3.9534042 0.16729833 1024 30
-9.0648832 4.0146914 0.16748403 1069 30
-9.0564909 4.0776267 0.16772279 1062 30
-9.0476665 4.1406102 0.16796154 1169 30
-9.0356894 4.202373 0.1681605 1126 30
-9.0305262 4.2675629 0.16846557 1128 30
-9.0185938 4.3298178 0.16867781 1043 30
-9.0053368 4.3916483 0.16887677 1104 30
-8.9943495 4.4548101 0.16911551 1069 30
-8.9918575 4.5224953 0.16948691 1051 30
-8.9790773 4.5853148 0.16971241 1001 30
-8.9587622 4.6444654 0.16983178 927 30
-8.9592962 4.7147155 0.17026949 1053 30
-8.931962 4.7705421 0.17029603 963 30
-8.7293453 4.7313857 0.16768299 214 30
-8.8990316 4.8942485 0.17069395 574 30
-8.8967743 4.9643521 0.17111839 856 30
-8.1552334 4.6163874 0.16028161 94 30
-8.8854771 5.102036 0.17188771 428 30
-9.101119 5.3003893 0.17568125 822 30
-8.9866371 5.3078218 0.17442116 671 30
-9.0894318 5.4440451 0.17651689 802 30
-2.9905469 1.8158894 0.082381479 8 30
-2.978497 1.8336805 0.082368217 19 30
-2.9926355 1.8678071 0.082766138 60 30
-2.9844983 1.8882734 0.082819194 45 30
-2.9787474 1.9103295 0.082912043 42 30
-2.9728379 1.932386 0.083004892 52 30
-2.9717793 1.9577429 0.083177328 43 30
-2.9696896 1.982604 0.083336495 50 30
-2.9640937 2.0052714 0.083442606 44 30
-2.9599805 2.0290754 0.083575249 53 30
-2.9499381 2.0489109 0.083615042 39 30
-2.9422169 2.070426 0.083694629 47 30
-2.9286435 2.0878594 0.08368136 45 30
-2.9336095 2.1186714 0.083973177 83 30
-2.8584197 2.0911648 0.082951836 16 30
-2.8535678 2.1146185 0.083084479 43 30
-2.8149507 2.1128771 0.082660027 34 30
-2.778851 2.1125579 0.082275368 29 30
-2.7412779 2.1106555 0.081864178 28 30
-2.7014682 2.1065276 0.081413202 47 30
-2.6547513 2.0964134 0.080842845 27 30
-2.6098232 2.0870552 0.080299012 38 30
-2.5736582 2.0841486 0.079901092 30 30
-2.529897 2.0745363 0.079370528 33 30
-2.48789 2.0657442 0.078866489 35 30
-2.4483831 2.0584462 0.078402244 41 30
-2.4098217 2.0513902 0.077951267 40 30
-2.3699255 2.0426335 0.07747376 24 30
-2.3422813 2.0439858 0.077208474 28 30
-2.3109641 2.0417657 0.076876871 39 30
-2.2693305 2.0299046 0.07635957 36 30
-2.182725 1.9766619 0.075033158 10 30
-0 0 0 4 30
-2.1267941 1.9740441 0.074462801 28 30
-2.0964267 1.9699363 0.074131198 39 30
-2.0806782 1.9793162 0.074064881 46 30
-2.0749753 1.9982891 0.074184261 41 30
-2.0698335 2.0179644 0.074316896 40 30
-2.0687978 2.0418665 0.074529126 43 30
-2.0618882 2.0601768 0.074635237 31 30
-2.0604546 2.0841682 0.074847467 48 30
-2.0560098 2.1053574 0.075006634 42 30
-2.0513823 2.12657 0.075165801 56 30
-2.0486405 2.149977 0.075364761 51 30
-2.0470588 2.1748862 0.075590253 55 30
-2.0452483 2.1998565 0.075815745 34 30
-2.0452366 2.2270956 0.076081023 39 30
-2.0436237 2.2529356 0.076319784 43 30
-2.0437715 2.2810736 0.076598324 44 30
-2.0416629 2.3070507 0.076837078 29 30
-2.041286 2.3353465 0.077115625 51 30
-0 0 0 42 30
-0 0 0 51 30
-0 0 0 38 30
-0 0 0 47 30
-2.0200882 2.4594572 0.078190021 51 30
-2.0093677 2.4772425 0.07828287 40 30
-2.042882 2.5504034 0.079317473 9 30
-2.866359 3.624064 0.097263813 49 30
-2.871146 3.67626 0.097847439 89 30
-2.8601353 3.7088532 0.098099455 104 30
-2.857312 3.7525876 0.098537169 126 30
-2.8510547 3.7924292 0.098908566 124 30
-2.8265395 3.8082457 0.098882034 110 30
-2.7942553 3.8134181 0.098683074 139 30
-2.7813516 3.8450756 0.098921828 35 30
-2.7449243 3.8441656 0.098630019 81 30
-2.7137976 3.8503103 0.098457582 88 30
-2.6849825 3.8595016 0.098338209 98 30
-2.6618166 3.8767281 0.098351471 52 30
-0 0 0 3 30
-0 0 0 4 30
-0 0 0 5 30
-2.1125524 3.2445097 0.087328993 60 30
-1.8634911 2.9006879 0.081705011 14 30
-2.0447483 3.226269 0.086639263 107 30
-2.0259738 3.2404504 0.086665787 144 30
-2.0013297 3.2451603 0.086546414 121 30
-1.9782628 3.2522533 0.086466826 122 30
-1.9623845 3.2711904 0.086572938 157 30
-1.9488933 3.2943583 0.086745374 292 30
-1.9069819 3.2691131 0.086175017 142 30
-1.877417 3.2642827 0.085923001 123 30
-1.8519284 3.2661724 0.085777096 142 30
-1.7850281 3.1936777 0.08450374 51 30
-1.7581626 3.1914322 0.08430478 49 30
-1.7471334 3.2179785 0.084543534 10 30
-1.7282985 3.2304015 0.084570058 13 30
-0 0 0 4 30
-1.7594819 3.3880315 0.086612731 128 30
-1.7318308 3.3854101 0.086413771 176 30
-1.7020292 3.3781123 0.086148486 185 30
-1.6746044 3.3750558 0.085949525 174 30
-1.6499144 3.3771813 0.085830152 152 30
-1.623095 3.3746252 0.085644454 164 30
-1.5908083 3.3601186 0.085286319 150 30
-1.5655166 3.3598459 0.085140415 171 30
-1.5427883 3.3648438 0.085074097 187 30
-1.5188243 3.3669546 0.084967986 180 30
-0 0 0 77 30
-0 0 0 196 30
-0 0 0 210 30
-0 0 0 128 30
-0 0 0 106 30
-0 0 0 130 30
-0 0 0 96 30
-0 0 0 52 30
-1.0375251 2.6863477 0.074170992 92 30
-0 0 0 36 30
-0 0 0 11 30
-0.99441737 2.7228363 0.074423015 15 30
-0.98375994 2.7458313 0.074661769 6 30
-0.97153217 2.7650237 0.074847467 6 30
-0.96203566 2.7926776 0.075152539 4 30
-0.93465024 2.7682109 0.074728087 7 30
-0 0 0 6 30
-0 0 0 4 30
-0 0 0 14 30
-0.88807034 2.8600278 0.075696364 12 30
-0.96027875 3.1610661 0.079794981 38 30
-0.91723841 3.0873401 0.078694053 23 30
-0.91026455 3.1342015 0.07926441 31 30
-0.87928295 3.0983634 0.078694053 19 30
-0.86612833 3.1248999 0.07898587 19 30
-0.84902638 3.1378775 0.079091981 41 30
-0.82695043 3.1323929 0.078946076 10 30
-0.80821323 3.1393447 0.0789726 17 30
-0.79015154 3.1490941 0.079038925 17 30
-0.77128875 3.1558259 0.07906545 13 30
-0.74566495 3.1342337 0.078707322 12 30
-0.73453188 3.1738207 0.07918483 27 30
-0.71570194 3.1811948 0.079224624 24 30
-0.69616902 3.1855264 0.079224624 28 30
-0.67847621 3.1985414 0.079343997 38 30
-0.65903896 3.2036238 0.079357259 33 30
-0.64327651 3.2272201 0.079622544 41 30
-0.62175858 3.22227 0.079503164 42 30
-0.60692453 3.2525644 0.079861298 60 30
-0.59085566 3.2778769 0.080153108 96 30
-0.56491017 3.2479458 0.079702131 73 30
-0.54315352 3.2405028 0.079556227 76 30
-0.51975924 3.2220569 0.07926441 56 30
-0.50487733 3.2568054 0.079688862 94 30
-0.48473746 3.258853 0.0796756 163 30
-0.46416867 3.2578063 0.079622544 128 30
-0.44322646 3.2536576 0.079529695 165 30
-0.4222239 3.2483833 0.079423584 155 30
-0.40179354 3.2469435 0.079370528 155 30
-0.38093036 3.2414029 0.07926441 202 30
-0.35937691 3.2287724 0.07906545 159 30
-0.33851483 3.2209723 0.078932807 175 30
-0.31825349 3.2180133 0.078866489 163 30
-0.29850215 3.2199056 0.078866489 167 30
-0.27899778 3.2246652 0.078906283 157 30
-0.25944623 3.2293065 0.078946076 145 30
-0.18594433 2.5058863 0.069303066 79 30
-0.17036185 2.5039873 0.069263272 88 30
-0.15524086 2.5089774 0.069316328 99 30
-0.14006503 2.5138762 0.069369383 143 30
-0.12424277 2.5066988 0.069263272 124 30
-0.1088164 2.5064151 0.06925001 119 30
-0.093286924 2.5030386 0.069196954 104 30
-0.077772036 2.4985666 0.069130629 114 30
-0.062315542 2.493999 0.069064312 113 30
-0.0469741 2.4923348 0.06903778 111 30
-0.031655431 2.4905765 0.069011256 137 30
-0.016366525 2.4897239 0.068997987 135 30
-0.0010892743 2.4887776 0.068984725 135 30
0.014175747 2.4877374 0.068971463 130 30
0.02940399 2.4846041 0.068931669 121 30
0.044612437 2.4823775 0.068905137 163 30
0.059794668 2.4800577 0.068878613 149 30
0.075010888 2.4796443 0.068878613 177 30
0.090224288 2.4791372 0.068878613 143 30
0.10543429 2.4785371 0.068878613 146 30
0.12059154 2.4768448 0.068865351 171 30
0.135732 2.4750597 0.068852082 157 30
0.15097716 2.4751782 0.068865351 155 30
0 0 0 167 30
0 0 0 122 30
0 0 0 82 30
0 0 0 138 30
0 0 0 58 30
0.23767933 2.4241586 0.068281725 105 30
0.2463194 2.3629842 0.067485884 1395 30
0.26081374 2.3614283 0.067485884 5135 30
0.27669063 2.3717015 0.067645051 1830 30
0 0 0 568 30
0 0 0 420 30
0 0 0 456 30
0 0 0 427 30
0.35019052 2.3680327 0.067724638 356 30
0.36379889 2.35991 0.067645051 211 30
0.37779647 2.3546717 0.067605257 225 30
0.39371893 2.3611856 0.067724638 182 30
0.40802881 2.3577402 0.067711368 226 30
0.4231948 2.3591287 0.067764424 214 30
0.43894136 2.3633692 0.067857273 199 30
0.45494467 2.3684869 0.067963392 138 30
0.46888447 2.3627086 0.067923598 177 30
0.48337296 2.359787 0.067923598 146 30
0.49660233 2.3509071 0.067844011 145 30
0.51037943 2.3448846 0.067804217 126 30
0.52410138 2.3387818 0.067764424 173 30
0.53866678 2.3364964 0.067777693 147 30
0.55368537 2.3360658 0.067817487 141 30
0.56848228 2.3345675 0.067844011 147 30
0.58206815 2.3281255 0.067804217 155 30
0.6003204 2.3400061 0.068016447 99 30
0.61746734 2.3469152 0.068162352 60 30
0.6334191 2.3488746 0.068241931 52 30
0.6709978 2.4287915 0.069395915 12 30
0.68997282 2.4390604 0.069594875 12 30
0.87964958 3.0379279 0.077924736 19 30
0.91475177 3.0880778 0.078694053 191 30
0.93600255 3.0900624 0.078800172 172 30
0.95642447 3.0890367 0.078866489 186 30
0.97566217 3.0840633 0.078879751 226 30
0.99518234 3.0799215 0.078906283 223 30
1.015942 3.0794544 0.07898587 183 30
1.0376909 3.081691 0.079105243 199 30
1.0588553 3.0818853 0.079198092 203 30
1.0780762 3.0762739 0.079211354 205 30
0 0 0 204 30
0 0 0 216 30
0 0 0 210 30
0 0 0 213 30
0 0 0 229 30
0 0 0 203 30
1.228465 3.0754294 0.079901092 198 30
1.2507027 3.07617 0.080020465 204 30
0 0 0 193 30
0 0 0 228 30
0 0 0 224 30
0 0 0 201 30
0 0 0 195 30
0 0 0 213 30
1.3928702 3.0441785 0.080378599 689 30
1.4064623 3.0246952 0.080219433 65 30
0 0 0 45 30
0 0 0 43 30
0 0 0 112 30
0 0 0 46 30
0 0 0 36 30
0 0 0 39 30
0 0 0 84 30
1.3603895 2.5857115 0.074728087 125 30
1.3762295 2.5773156 0.074728087 78 30
1.3991653 2.5820086 0.074927047 54 30
1.4120905 2.5681181 0.074847467 61 30
1.4302579 2.5637712 0.074913785 54 30
1.4563068 2.5732203 0.075192332 123 30
1.4740601 2.5677044 0.075245388 114 30
0 0 0 121 30
1.5115613 2.5597534 0.075404555 97 30
0 0 0 91 30
0 0 0 119 30
0 0 0 89 30
0 0 0 133 30
0 0 0 88 30
0 0 0 179 30
0 0 0 192 30
1.6468953 2.500035 0.075683102 210 30
0 0 0 200 30
0 0 0 255 30
0 0 0 311 30
0 0 0 282 30
0 0 0 334 30
1.759859 2.4686604 0.076187141 144 30
1.7779008 2.4618683 0.076253459 144 30
1.8018303 2.463017 0.076452419 114 30
0 0 0 150 30
0 0 0 140 30
0 0 0 208 30
0 0 0 202 30
1.9337256 2.4799132 0.077685982 48 30
1.9538639 2.4742787 0.077792093 40 30
2.2781777 2.848762 0.084357835 251 30
2.2956145 2.8347299 0.084357835 187 30
2.2730153 2.7718842 0.083522193 72 30
2.2867863 2.754039 0.083455876 97 30
2.3210177 2.7606182 0.083814003 39 30
2.3398576 2.7486088 0.083853796 36 30
2.5264328 2.9311051 0.087302469 114 30
2.5522606 2.9245877 0.087461635 144 30
2.5781033 2.9178634 0.087620802 164 30
2.6039591 2.9109316 0.087779976 154 30
2.6298268 2.9037921 0.087939143 133 30
2.657732 2.8986554 0.088138103 148 30
2.6877139 2.8954833 0.088376857 149 30
2.718441 2.8927805 0.088628881 154 30
2.7451003 2.885463 0.088801309 217 30
2.8716652 2.9816265 0.090883777 10 30
3.0141699 3.0913742 0.093244791 52 30
3.0387015 3.0785141 0.093350902 73 30
3.0681365 3.0704195 0.093549863 81 30
3.0975859 3.0620794 0.093748823 92 30
3.1291947 3.0555887 0.093987577 93 30
3.1709163 3.0585425 0.094412029 80 30
3.2077231 3.0562706 0.094743632 74 30
3.238795 3.0481799 0.094969124 98 30
3.2720854 3.0418646 0.095234409 73 30
3.3098388 3.0393124 0.095579274 70 30
3.3506463 3.0390978 0.095977195 68 30
3.3878508 3.0351603 0.096308798 73 30
3.4206393 3.0269043 0.096560813 87 30
3.4579709 3.0223079 0.096892416 74 30
3.4961312 3.0180199 0.097237289 80 30
3.5328465 3.0120792 0.097555622 87 30
3.56809 3.0045133 0.097847439 83 30
3.6002975 2.9940705 0.098086193 81 30
0 0 0 3 30
3.6251187 2.9402168 0.097887225 5 30
3.6399693 2.9154181 0.09783417 10 30
3.6577895 2.8930287 0.09783417 5 30
3.6715314 2.8674536 0.097767852 23 30
3.6953914 2.8497558 0.097873963 6 30
3.6682544 2.7931094 0.09713117 128 30
3.710901 2.7897742 0.097555622 164 30
3.7536438 2.78602 0.097980075 154 30
3.7964795 2.7818456 0.098404527 134 30
3.8353529 2.7743199 0.098762661 133 30
3.8832281 2.7728121 0.099266693 130 30
3.9246891 2.7662125 0.099664621 140 30
3.9793482 2.7683432 0.10027477 164 30
4.0152197 2.7568905 0.10057984 144 30
4.0552387 2.7479053 0.10095124 150 30
4.1177416 2.7535377 0.10168076 168 30
4.1646061 2.7480433 0.10215827 114 30
4.2090435 2.7404399 0.10259599 129 30
4.2602735 2.736717 0.10313982 139 30
4.309926 2.7313974 0.10365712 130 30
4.3588247 2.7250407 0.10416115 150 30
4.4086571 2.7187107 0.10467845 115 30
4.4705358 2.7191448 0.10538145 132 30
4.528296 2.7163494 0.10601813 120 30
4.5681157 2.7022569 0.10637626 127 30
4.6131144 2.6908 0.10681397 143 30
4.6754799 2.6888607 0.10751697 414 30
4.6231704 2.6211667 0.10646911 146 30
4.6627345 2.6059196 0.10682724 243 30
4.6690021 2.5719543 0.10668133 243 30
4.6715131 2.5361023 0.10648237 255 30
4.6834598 2.5055041 0.10642932 216 30
4.67663 2.4650652 0.10609771 207 30
4.6774688 2.4289515 0.10588549 207 30
4.6816015 2.3947418 0.10572632 218 30
4.68817 2.3619225 0.10560694 203 30
4.6891379 2.326447 0.10540798 149 30
4.7626233 2.3265941 0.10628341 239 30
4.7930303 2.3051269 0.10652217 311 30
4.7908158 2.2679741 0.10628341 243 30
4.7937651 2.233469 0.10612424 165 30
4.7973804 2.1994298 0.10597834 228 30
4.8062277 2.167897 0.10591201 200 30
4.8011589 2.1302564 0.10564674 219 30
4.806808 2.097558 0.10554062 161 30
4.7984524 2.0589576 0.10523555 265 30
4.8017826 2.0255904 0.1051029 328 30
4.8131971 1.9957061 0.10508964 274 30
4.8142395 1.9616084 0.10493048 313 30
4.813189 1.9268303 0.10474478 345 30
4.7988648 1.8870171 0.10437338 311 30
4.8038235 1.8550154 0.10428053 366 30
4.8160501 1.8258592 0.10429379 352 30
4.8046708 1.7879064 0.10397546 276 30
4.7854939 1.7474191 0.10355101 155 30
4.822484 1.7274626 0.1039224 317 30
4.7914824 1.6832607 0.10333878 149 30
4.8225198 1.6609911 0.10363059 317 30
4.8212519 1.6275325 0.10347142 343 30
4.8273501 1.5966636 0.10341837 353 30
4.7971029 1.5540736 0.10286127 175 30
4.7922511 1.520076 0.10266231 200 30
4.8014879 1.4906428 0.10266231 99 30
4.8392472 1.4698693 0.10306023 108 30
4.9325266 1.465198 0.10422748 93 30
5.0153646 1.4563702 0.10524881 84 30
14.121456 4.0061026 0.23068753 230 30
14.115899 3.9111037 0.23027635 322 30
14.119362 3.8189347 0.2299978 280 30
14.182168 3.7426879 0.23054163 210 30
14.231011 3.6623251 0.23089975 376 30
14.238667 3.5712879 0.23070079 332 30
14.236029 3.4779217 0.2303692 172 30
14.207488 3.3787086 0.22969273 362 30
14.200675 3.2851601 0.22932133 161 30
14.183494 3.1896288 0.22881728 375 30
14.173491 3.0961394 0.22841936 167 30
14.181462 3.0068333 0.22827347 401 30
14.147736 2.9090884 0.22757046 162 30
14.149629 2.8190992 0.22735824 342 30
14.12346 2.7238951 0.22677462 192 30
14.122214 2.6338844 0.22653586 330 30
14.107603 2.5416873 0.22612467 267 30
14.10126 2.4513099 0.22583286 300 30
14.097299 2.3616016 0.22558084 353 30
14.069075 2.2682154 0.22501048 225 30
14.065929 2.1792445 0.224785 423 30
14.041452 2.0873106 0.22428097 206 30
14.043106 1.9995643 0.22413506 364 30
14.026379 1.9094491 0.2237504 208 30
14.022957 1.8214175 0.22355144 343 30
14.012037 1.7326409 0.22325963 261 30
14.002542 1.6443002 0.22299434 339 30
13.989511 1.55581 0.22268927 374 30
13.975922 1.4675416 0.2223842 323 30
13.971727 1.3804815 0.22221176 418 30
13.955044 1.2924221 0.22188015 278 30
13.932825 1.2041889 0.22148223 417 30
13.925001 1.1174767 0.22128327 303 30
13.922621 1.0313489 0.2211639 368 30
12.826322 0.87107033 0.20650706 245 30
12.817452 0.79149067 0.20632136 240 30
12.853017 0.71454906 0.20673254 457 30
12.888119 0.63720071 0.20714372 705 30
12.880797 0.55763334 0.20699783 292 30
12.883977 0.47858775 0.20699783 288 30
12.88867 0.39958605 0.20702435 296 30
12.894877 0.32059443 0.20707741 305 30
12.896602 0.24146691 0.20707741 300 30
12.906839 0.1624433 0.20719679 294 30
12.909593 0.083258197 0.20722331 290 30
12.91186 0.0040454273 0.20724985 306 30
12.916641 -0.075209595 0.20731616 295 30
12.918936 -0.15449916 0.20735596 255 30
12.922744 -0.23385596 0.20742227 278 30
12.915068 -0.3129985 0.2073427 270 30
12.924898 -0.39260262 0.20750186 260 30
13.079127 -0.47763464 0.20958433 224 30
13.092933 -0.55860275 0.20980981 241 30
13.085264 -0.6387338 0.20975676 272 30
13.086091 -0.71928602 0.20982309 229 30
13.093408 -0.80029958 0.20998225 233 30
13.096231 -0.88116139 0.21008836 232 30
13.102545 -0.96238112 0.21024753 207 30
13.109351 -1.0437908 0.21041997 204 30
13.111666 -1.1249782 0.21053934 193 30
13.113478 -1.2062333 0.21065871 214 30
12.99139 -1.2754347 0.20913334 132 30
12.954479 -1.3521134 0.20874868 320 30
12.951901 -1.4322346 0.20882827 352 30
12.960747 -1.5137676 0.20906703 303 30
13.335284 -1.6405246 0.21420024 108 30
13.339842 -1.7242405 0.2143992 119 30
13.341892 -1.8078055 0.21457164 151 30
13.329558 -1.8894955 0.21455836 85 30
13.326615 -1.9725665 0.21467775 89 30
13.32612 -2.0561299 0.21483691 124 30
13.334972 -2.1413472 0.21512872 137 30
13.353143 -2.2283967 0.21555318 139 30
13.353012 -2.3126774 0.21573888 119 30
13.336602 -2.394213 0.21571235 120 30
13.142741 -2.44274 0.21329828 144 30
12.991017 -2.497097 0.21145457 278 30
12.091791 -2.4012511 0.1995036 391 30
12.065075 -2.4729898 0.19934443 362 30
12.062392 -2.5496619 0.19951686 396 30
16.452803 -3.5834208 0.25933802 125 30
16.002182 -3.5882502 0.25351506 136 30
15.704132 -3.6227553 0.24976133 100 30
15.276873 -3.6230488 0.24424346 188 30
14.932793 -3.638361 0.23985304 167 30
14.576502 -3.6464353 0.23529018 135 30
14.259427 -3.6602225 0.23125789 131 30
13.912767 -3.6623671 0.2268144 167 30
13.270257 -3.580426 0.21829885 88 30
13.042756 -3.6050367 0.21547359 205 30
13.032898 -3.6885381 0.21564603 264 30
13.029229 -3.7740014 0.21591131 268 30
5.1396952 -1.5227485 0.10707926 122 30
5.0718818 -1.5365672 0.10627015 89 30
4.993588 -1.5463573 0.10531513 95 30
4.9392004 -1.5627879 0.10469172 96 30
4.9523525 -1.6004461 0.10501006 83 30
4.9319944 -1.6273558 0.10486415 164 30
4.9475012 -1.6662059 0.10522228 437 30
4.8482966 -1.6659806 0.10397546 238 30
4.7775922 -1.674526 0.10312656 217 30
4.6881371 -1.6755353 0.10201237 181 30
4.6129441 -1.6806465 0.10109714 221 30
4.5472412 -1.6883802 0.10031456 328 30
4.5255733 -1.7120034 0.10015539 479 30
4.5009885 -1.7343456 0.09995643 390 30
4.5256319 -1.7758125 0.10046047 555 30
4.5146503 -1.8035479 0.10046047 487 30
4.5257287 -1.8402563 0.1007788 583 30
4.5198956 -1.8702854 0.10085839 604 30
4.5203147 -1.9030284 0.10103083 584 30
4.5545101 -1.9504135 0.10169403 225 30
4.5112886 -1.9647455 0.10124305 470 30
4.5448604 -2.0126367 0.10190625 273 30
4.5515718 -2.0491071 0.1021848 243 30
4.5543699 -2.0840707 0.10241029 506 30
4.5460296 -2.114085 0.10247661 316 30
4.529356 -2.1402302 0.10242356 30 30
4.5224485 -2.171011 0.10251641 31 30
4.5243206 -2.2061708 0.1027419 24 30
4.5133862 -2.2352214 0.10278168 31 30
4.5174518 -2.2718594 0.10304697 24 30
4.512332 -2.3040831 0.10317961 28 30
4.5123124 -2.3390908 0.10339183 28 30
4.512033 -2.3741848 0.10360406 35 30
4.5220757 -2.4150164 0.10397546 19 30
4.5203581 -2.4498653 0.10417442 42 30
4.533277 -2.4929762 0.10459887 33 30
4.5423436 -2.5343883 0.10497026 27 30
4.5441103 -2.5720639 0.10523555 27 30
4.5603261 -2.6183214 0.10572632 19 30
4.5467668 -2.6477635 0.10576611 21 30
4.5795078 -2.7045989 0.10652217 11 30
4.5551066 -2.7280231 0.10640279 17 30
4.5724669 -2.776684 0.10693336 10 30
4.5536408 -2.8036394 0.10690682 15 30
4.5702801 -2.8527079 0.10743739 10 30
4.5510001 -2.8796275 0.10741086 16 30
4.5584946 -2.9236941 0.10780878 12 30
4.5647802 -2.9674156 0.10819344 9 30
4.5640202 -3.0069225 0.10847199 8 30
4.5587893 -3.0437546 0.10868422 12 30
4.5541053 -3.0811961 0.1089097 15 30
4.553257 -3.1215212 0.10920152 10 30
4.5529051 -3.1625223 0.10950659 14 30
4.5563097 -3.2065136 0.10987799 19 30
4.555274 -3.2477624 0.11018306 18 30
4.5547137 -3.2897043 0.1105014 16 30
4.5634923 -3.3388467 0.11097891 15 30
4.5694289 -3.3864338 0.11141662 19 30
4.5861473 -3.4426234 0.11204004 9 30
4.5848355 -3.4858294 0.11237164 14 30
4.5926723 -3.5364697 0.11286242 14 30
4.6000595 -3.5873365 0.11335319 16 30
4.6101327 -3.6409054 0.11389701 14 30
4.6126928 -3.6891108 0.11432146 8 30
4.6132798 -3.7362251 0.11471939 17 30
4.6111422 -3.7815826 0.11507752 22 30
4.6286206 -3.8436639 0.11578052 8 30
4.6164284 -3.8816457 0.11597948 9 30
4.6153636 -3.9293456 0.11637741 12 30
4.6169157 -3.9797897 0.11682838 9 30
4.6104889 -4.0238242 0.11714672 18 30
4.6216769 -4.0838213 0.1177834 10 30
4.6114354 -4.1254368 0.11804868 9 30
4.6001158 -4.166409 0.1183007 9 30
4.5965729 -4.2148309 0.11869862 12 30
4.5926085 -4.2633657 0.11909655 5 30
4.5991492 -4.3222818 0.11969343 12 30
4.5920997 -4.369031 0.12005156 9 30
4.6127343 -4.4429097 0.12092699 20 30
4.614737 -4.499752 0.12147082 11 30
4.6176376 -4.5581899 0.12204118 22 30
4.6150427 -4.6118836 0.12251869 21 30
4.6161795 -4.6699834 0.12307578 19 30
4.6104894 -4.7218304 0.1235135 16 30
4.6071119 -4.7766614 0.12400427 19 30
4.6170282 -4.8461075 0.12476032 17 30
4.6221533 -4.9114842 0.1254368 20 30
4.6300516 -4.9807673 0.12617958 26 30
4.6298342 -5.0422277 0.12677647 36 30
4.6397824 -5.1157236 0.12758557 22 30
4.6436648 -5.1835709 0.12828858 15 30
4.6415873 -5.245666 0.12888546 23 30
4.6441851 -5.3139529 0.12958845 24 30
4.6350117 -5.3695998 0.13006596 20 30
4.6383028 -5.4405518 0.13080876 35 30
4.6486244 -5.5209241 0.13171072 27 30
4.6479044 -5.589324 0.13240045 33 30
4.6547675 -5.6679673 0.13326262 36 30
4.6558003 -5.7406902 0.13401867 34 30
4.6567402 -5.8144178 0.13478799 26 30
4.6538477 -5.8844504 0.13549098 52 30
4.6625781 -5.9704266 0.13645928 33 30
4.6698165 -6.0559373 0.13741429 45 30
4.6755733 -6.140964 0.13835604 46 30
4.6846671 -6.2318826 0.13939063 46 30
4.6826892 -6.3094907 0.14019975 53 30
4.6805248 -6.388114 0.14102213 44 30
4.6834302 -6.475049 0.14197715 61 30
4.6906724 -6.5695815 0.14305153 68 30
4.6998086 -6.6685314 0.14419225 69 30
4.6776447 -6.7243323 0.14462997 63 30
4.7155252 -6.8683171 0.14648694 463 30
4.7159176 -6.9600353 0.14749502 293 30
4.7159162 -7.052846 0.14851634 546 30
4.7155023 -7.1467509 0.14955094 81 30
4.7675724 -7.3230376 0.15188543 21 30
4.8052249 -7.480876 0.15391484 18 30
4.8138223 -7.5963717 0.15526779 16 30
4.7814312 -7.6486588 0.15562591 25 30
4.8099785 -7.800416 0.15753594 9 30
4.7854056 -7.868228 0.15813284 22 30
4.7781811 -7.966043 0.15919396 22 30
4.7663717 -8.0580387 0.16016224 19 30
4.7651978 -8.1700535 0.16143559 29 30
4.7643218 -8.2849541 0.16274874 34 30
4.7681308 -8.4105873 0.16422106 47 30
4.7642345 -8.5252275 0.16552094 29 30
4.7547679 -8.6322517 0.16670145 39 30
4.7599068 -8.7684774 0.16831967 42 30
4.7611928 -8.9006786 0.16987157 46 30
4.7792144 -9.0677204 0.17194077 43 30
4.8165574 -9.2761354 0.17462012 64 30
4.775485 -9.3366728 0.17508437 34 30
4.8112202 -9.5506544 0.17783004 60 30
4.8174009 -9.7107763 0.1797666 62 30
4.823112 -9.8740253 0.18174295 70 30
4.8252654 -10.0341 0.18366624 77 30
4.829484 -10.202702 0.18570893 60 30
4.8449011 -10.399825 0.18816279 45 30
4.8589115 -10.599335 0.19064318 36 30
4.8521552 -10.758384 0.19252668 37 30
4.8537641 -10.940594 0.19474179 34 30
4.8921027 -11.212122 0.19824351 16 30
4.8799815 -11.374252 0.20015354 22 30
4.8668303 -11.538495 0.2020901 26 30
4.8912849 -11.798139 0.20539287 100 30
4.8810449 -11.980722 0.20758145 247 30
4.8011241 -11.994665 0.20735596 288 30
4.6740227 -11.888034 0.20541939 520 30
4.5927081 -11.895035 0.20511432 582 30
4.5171542 -11.916446 0.20502147 603 30
4.4481354 -11.955184 0.20518064 787 30
4.3760676 -11.98601 0.20523369 555 30
0 -0 0 132 30
4.9953828 -14.221874 0.23592685 48 30
4.9597874 -14.402581 0.23803584 53 30
4.9921842 -14.790864 0.24304968 36 30
4.999907 -15.119314 0.24721462 18 30
5.0299716 -15.529263 0.252507 23 30
5.0319157 -15.866744 0.25677803 17 30
5.0393882 -16.235382 0.26147354 14 30
5.0892982 -16.758736 0.26830456 43 30
5.0182543 -16.897003 0.26979014 434 30
4.9091849 -16.909231 0.2695381 248 30
4.7843285 -16.864965 0.26851678 10 30
5.1773076 -18.686329 0.29318804 16 30
5.0706453 -18.747665 0.29359922 152 30
4.9595981 -18.793896 0.29381144 82 30
5.162889 -20.062513 0.31077623 81 30
5.0800676 -20.254814 0.31297809 24 30
5.3127947 -21.747488 0.33294058 23 30
4.0275435 -16.936161 0.26689857 37 30
3.9181414 -16.937174 0.26658022 61 30
3.8112912 -16.948214 0.26640779 561 30
3.7046669 -16.959558 0.26624861 575 30
3.5963879 -16.962408 0.26598334 582 30
3.490227 -16.974361 0.26585069 541 30
3.3809295 -16.969959 0.26550582 433 30
3.2752256 -16.982531 0.26539972 498 30
3.1678448 -16.985598 0.26517424 512 30
3.0610819 -16.990938 0.26498854 559 30
0 -0 0 533 30
2.9106543 -17.375341 0.26967075 121 30
2.9514945 -18.307981 0.2819666 315 30
2.8436952 -18.355391 0.28236452 512 30
2.7268991 -18.344799 0.28199312 528 30
2.6076627 -18.314659 0.28136972 524 30
2.490787 -18.297619 0.28093198 467 30
2.3719008 -18.261988 0.28025553 577 30
2.2557542 -18.24345 0.27981782 543 30
2.1402743 -18.227154 0.27941987 514 30
2.0241957 -18.202179 0.27891585 535 30
1.9088172 -18.179451 0.27845159 497 30
1.794089 -18.158979 0.27802715 460 30
1.6798682 -18.139776 0.27762923 459 30
1.5654345 -18.113878 0.27715173 505 30
1.4513018 -18.086266 0.27666095 521 30
1.3380102 -18.063917 0.27624977 558 30
1.2251153 -18.041859 0.27585185 557 30
1.1128495 -18.024086 0.27552024 556 30
1.0009035 -18.006615 0.27520189 547 30
0.88931251 -17.990444 0.27491009 505 30
0.77756876 -17.964594 0.27449891 491 30
0.66617572 -17.938051 0.2740877 549 30
0.55544728 -17.920813 0.27380916 544 30
0.44480658 -17.896894 0.27345103 625 30
0.33425608 -17.860298 0.27293372 586 30
0.22449785 -17.849014 0.27276129 599 30
0.1148265 -17.827059 0.27245623 560 30
0.0054338891 -17.807428 0.27219093 553 30
-0.10372521 -17.789129 0.27195218 559 30
-0 -0 0 550 30
-0.32129252 -17.746527 0.27142161 542 30
-0.43008009 -17.740223 0.27136856 542 30
-0.53728294 -17.683279 0.27065229 652 30
-0.64530063 -17.66666 0.27047986 706 30
-0.75287873 -17.643387 0.27022785 739 30
-0.86053699 -17.626451 0.27006868 751 30
-0.96735686 -17.596876 0.26975036 754 30
-1.0747007 -17.580629 0.26961771 733 30
-1.1818817 -17.563728 0.26948506 713 30
-1.2884561 -17.54019 0.26927283 697 30
-1.3945479 -17.513016 0.26902083 651 30
-1.5007824 -17.490181 0.26883513 608 30
-1.6071557 -17.470686 0.26870248 643 30
-1.7140304 -17.457512 0.26866269 619 30
-1.8205962 -17.441692 0.26859638 639 30
-1.926263 -17.418266 0.26843721 570 30
-2.032059 -17.397182 0.26831782 585 30
-2.1380351 -17.378431 0.26823825 583 30
-2.2442422 -17.362011 0.26819843 615 30
-2.3461657 -17.314224 0.26774746 382 30
-2.3950906 -16.895578 0.26233572 613 30
-2.5001791 -16.890455 0.26246834 720 30
-2.6051424 -16.88369 0.26258773 658 30
-2.7136054 -16.897993 0.26299891 677 30
-2.8220122 -16.909626 0.26338357 729 30
-2.9274213 -16.901844 0.26351622 713 30
-2.279175 -12.695905 0.20707741 18 30
-2.3566673 -12.679715 0.20705087 52 30
-2.4389546 -12.688582 0.20736922 91 30
-2.5159853 -12.669456 0.20731616 57 30
-2.5496991 -12.43926 0.20441133 264 30
-2.5825455 -12.21794 0.20162585 390 30
-0 -0 0 937 30
-2.6915863 -12.003852 0.19915873 919 30
-2.7732823 -12.022186 0.19963624 1087 30
-2.8486121 -12.011754 0.19972908 1018 30
-2.9298365 -12.025136 0.20015354 1069 30
-3.0093906 -12.030213 0.20047188 1042 30
-3.0893657 -12.035734 0.20080349 917 30
-3.165194 -12.024287 0.2009096 44 30
-3.4316821 -12.719024 0.21072504 22 30
-7.0519266 -25.511972 0.38708469 203 30
-7.2227654 -25.519215 0.3877877 275 30
-7.3908978 -25.514753 0.38834479 270 30
-7.5623722 -25.519735 0.38904777 267 30
-7.7379551 -25.536011 0.38992321 274 30
-7.9098802 -25.537718 0.39061296 270 30
-8.0887537 -25.559248 0.3915945 269 30
-8.2614231 -25.558609 0.39228421 217 30
-8.4419098 -25.579601 0.39329231 296 30
-8.6105146 -25.562382 0.39378306 263 30
-8.7935266 -25.585663 0.39485747 213 30
-8.9761543 -25.604826 0.39589205 185 30
-2.5897224 -7.2454052 0.1380377 311 30
-2.6255715 -7.2058916 0.1377061 1594 30
-2.6697366 -7.1896458 0.1377061 1786 30
-2.7194631 -7.1880922 0.13791832 1128 30
-2.7743051 -7.1992612 0.13831624 929 30
-0 -0 0 943 30
-0 -0 0 1619 30
-2.8487132 -7.0052614 0.13628684 1760 30
-2.8962317 -6.9987373 0.136446 1700 30
-2.9495978 -7.0057163 0.13680413 1717 30
-3.0011899 -7.0077071 0.13709594 1763 30
-3.0201724 -6.9341574 0.1363001 1392 30
-3.0460598 -6.8780117 0.13575627 1748 30
-3.1194067 -6.9284844 0.13676435 1240 30
-3.2043061 -7.0019526 0.13811728 1385 30
-3.2585952 -7.0066385 0.13847542 1514 30
-3.3036621 -6.9910326 0.13854174 430 30
-5.749835 -11.976062 0.21219736 30 30
-5.7907743 -11.87405 0.21121581 32 30
-5.8120394 -11.734358 0.20967717 20 30
-5.7999077 -11.531433 0.20719679 41 30
-5.8500886 -11.455556 0.20659991 32 30
-5.9101429 -11.399916 0.2063081 26 30
-5.9497108 -11.305922 0.20544593 67 30
-6.0180283 -11.267438 0.20541939 86 30
-6.0837154 -11.224147 0.20532654 268 30
-6.1004267 -11.091985 0.20389402 59 30
-6.1259789 -10.978379 0.20274004 51 30
-6.0976601 -10.771775 0.20016681 189 30
-6.1636395 -10.734158 0.20016681 232 30
-0 -0 0 40 30
-6.1723418 -10.450227 0.19697015 46 30
-6.1705785 -10.30236 0.19527234 169 30
-6.1687932 -10.157475 0.19361433 51 30
-6.1612697 -10.006192 0.1918502 57 30
-6.1727762 -9.8884687 0.19060338 49 30
-6.2028561 -9.8022461 0.18984732 36 30
-5.8633695 -9.1411924 0.18003188 75 30
-5.8828306 -9.0488768 0.17914319 56 30
-5.9030318 -8.9591732 0.17829429 80 30
-5.9056964 -8.8446188 0.17704746 60 30
-5.9111018 -8.7361679 0.17589349 64 30
-5.9142699 -8.6263371 0.17471297 79 30
-5.9334292 -8.5414352 0.17393039 89 30
-5.9627061 -8.4721603 0.17339982 134 30
-6.0290914 -8.4557676 0.17373143 174 30
-6.0673943 -8.399972 0.17342636 89 30
-6.0432401 -8.2592964 0.17172855 35 30
-6.276598 -8.4686756 0.17580064 124 30
-6.108119 -8.1365366 0.1709327 49 30
-6.0992217 -8.021699 0.16964608 20 30
-6.1403956 -7.9738245 0.16947365 12 30
-6.0440774 -7.7499232 0.16634332 55 30
-6.1472964 -7.7833114 0.16753709 21 30
-6.1849446 -7.7329521 0.16732486 30 30
-6.2329063 -7.6956334 0.16733813 32 30
-6.3383474 -7.7283716 0.16855842 406 30
-6.4086471 -7.7170262 0.16903593 116 30
-6.4906292 -7.7188835 0.1697522 34 30
-6.5819497 -7.7306824 0.17065415 41 30
-6.6769223 -7.7454357 0.17162244 23 30
-6.7795544 -7.7675986 0.17273661 17 30
-6.8462901 -7.7475824 0.17312127 41 30
-6.9363704 -7.7531199 0.17397018 21 30
-7.0066357 -7.73561 0.17442116 22 30
-7.0816774 -7.7226872 0.17496499 12 30
-7.1595445 -7.7120647 0.17556188 23 30
-7.2430253 -7.706605 0.17626487 30 30
-7.3025827 -7.6750565 0.17650363 20 30
-7.4667749 -7.7518067 0.17874527 169 30
-0 -0 0 270 30
-0 -0 0 269 30
-7.7693558 -7.7743068 0.18176948 389 30
-7.8467813 -7.7560101 0.18232657 230 30
-7.9865189 -7.7978258 0.18403764 424 30
-8.0867567 -7.799345 0.18500592 290 30
-8.1800709 -7.7930288 0.18584156 307 30
-8.3551702 -7.8626056 0.18816279 22 30
-9.2806683 -8.6267281 0.20405319 29 30
-9.3813028 -8.6135769 0.20491536 87 30
-9.5028629 -8.6183205 0.20614892 101 30
-9.6345139 -8.6305685 0.20755492 71 30
-9.7457018 -8.6229696 0.20858952 82 30
-9.8458624 -8.6044607 0.20942515 92 30
-9.9401064 -8.5798187 0.21015468 54 30
-10.845591 -9.2458286 0.22502376 221 30
-6.593338 -5.5515013 0.150307 269 30
-11.04819 -9.1868372 0.22657566 284 30
-11.022439 -9.0516109 0.22516966 117 30
-2.9191515 -2.3677258 0.085830152 154 30
-2.9640639 -2.3741455 0.086347453 292 30
-2.9401443 -2.3255227 0.085697509 127 30
-2.9575105 -2.3099003 0.085750565 275 30
-2.9502478 -2.2752249 0.08539243 169 30
-2.9482408 -2.244966 0.085127153 132 30
-2.9467735 -2.2154186 0.084875137 131 30
-2.946661 -2.187166 0.084649645 136 30
-2.9471202 -2.1595895 0.084437415 136 30
-2.9700382 -2.1484973 0.084596589 347 30
-2.9506133 -2.1069932 0.084066026 134 30
-2.9585819 -2.085393 0.083986439 132 30
-2.9631133 -2.0614908 0.083853796 129 30
-2.9649899 -2.0359137 0.08368136 118 30
-2.9674923 -2.0109522 0.083522193 120 30
-2.9772818 -1.991039 0.0834824 135 30
-2.995285 -1.9765878 0.083575249 121 30
-3.0542846 -1.9887207 0.084318042 65 30
-3.0706363 -1.9726443 0.084384359 67 30
-3.1113997 -1.9719626 0.084835343 75 30
-3.1726189 -1.9835742 0.08560466 393 30
-3.1991992 -1.9729912 0.085830152 138 30
-3.2368751 -1.9689108 0.086228073 209 30
-3.3157809 -1.9891281 0.087262675 72 30
-3.3537428 -1.9840163 0.087660596 73 30
-3.3995399 -1.9830465 0.088177897 77 30
-3.5945444 -2.0673187 0.090976626 42 30
-3.6802306 -2.0866446 0.092090808 31 30
-3.7706511 -2.107434 0.093271315 20 30
-3.8115385 -2.0996945 0.093695767 8 30
-3.8041379 -2.0652966 0.093390696 26 30
-3.8590608 -2.0645533 0.09402737 8 30
-3.8955398 -2.0534227 0.094385505 24 30
-3.92049 -2.0359318 0.094571203 14 30
-10.661352 -5.4529653 0.19482137 237 30
-9.6890717 -4.8809428 0.17988598 203 30
-9.700923 -4.8125134 0.1796207 178 30
-9.7158937 -4.7458777 0.17940848 148 30
-10.586502 -5.0908856 0.19179715 139 30
-10.606694 -5.020699 0.19163798 358 30
-10.568416 -4.9234343 0.19062991 554 30
-9.8203478 -4.501842 0.17927583 121 30
-9.8332014 -4.4349236 0.1790636 95 30
-9.8309803 -4.3615298 0.17863914 94 30
-9.7494116 -4.2539434 0.17707399 60 30
-9.7394915 -4.178668 0.17655669 57 30
-9.5972681 -4.0481086 0.17414261 202 30
-9.5859022 -3.9742112 0.17362532 188 30
-9.583252 -3.9043784 0.17324066 201 30
-9.577322 -3.8336136 0.1728162 199 30
-9.5867062 -3.7692885 0.17261724 241 30
-9.6040564 -3.7082338 0.17253765 126 30
-9.6331739 -3.6517155 0.1726305 216 30
-9.5860491 -3.5667384 0.17164896 292 30
-9.5917864 -3.502023 0.17142348 289 30
-9.5989733 -3.438046 0.1712245 285 30
-9.5972462 -3.3711309 0.17090617 299 30
-9.5893869 -3.3024135 0.17050825 343 30
-9.58389 -3.2348788 0.17015012 105 30
-9.7706451 -3.2312627 0.17248461 31 30
-10.172696 -3.2951035 0.17781678 211 30
-10.282317 -3.2610345 0.1790636 425 30
-8.5975065 -2.6688156 0.15538716 978 30
-8.6051092 -2.6133974 0.15526779 1105 30
-8.6056461 -2.5559938 0.15505555 1082 30
-8.6134853 -2.5009122 0.15494944 1117 30
-8.6190481 -2.4452851 0.15481681 1114 30
-8.6223269 -2.3891499 0.15465763 1046 30
-8.6271715 -2.3335891 0.154525 1149 30
