# .PCD v0.7 - Point Cloud Data file format
VERSION 0.7
FIELDS x y z intensity ring
SIZE 4 4 4 4 1
TYPE F F F F U
COUNT 1 1 1 1 1
WIDTH 283
HEIGHT 1
VIEWPOINT 0 0 0 1 0 0 0
POINTS 283
DATA ascii
4.6182609 -3.0847514 -1.4663794 5 53
4.6215038 -3.60797 -0.96962404 11 45
4.6178355 -3.6509247 -0.97369254 22 45
4.6173234 -3.3373783 -1.0116725 19 46
4.6165948 -3.380172 -1.0162069 17 46
4.6163034 -3.4236679 -1.0209227 23 46
4.6187963 -3.4696498 -1.026364 32 46
4.6201153 -3.5151949 -1.031624 32 46
4.6184931 -3.6043005 -1.0414183 30 46
4.6186643 -3.6502559 -1.0466783 23 46
4.6238728 -3.2142115 -0.99952018 8 46
4.6217046 -3.2975595 -1.008045 14 46
4.6193414 -2.8463149 -1.7656006 9 58
4.6630616 -2.3113825 -0.92080235 8 46
5.3979559 0.067221336 -1.2243091 17 50
5.6131573 0.068823621 -1.3429201 15 51
5.5348272 0.033882622 -1.3235439 40 51
5.5664148 0.069307111 -1.4014853 16 52
5.5444703 0.035011884 -1.3957188 6 52
5.5362577 0.034855232 -1.461666 9 53
5.1469998 -0.12740286 -0.84672093 30 45
5.1411958 -0.15883081 -0.8458733 20 45
5.1312609 -0.19004732 -0.84434766 38 45
5.1388597 -0.22190922 -0.8458733 150 45
5.1521664 -0.25416154 -0.84841615 12 45
5.1249251 -0.28435612 -0.84400856 17 45
5.1270189 -0.31603834 -0.84468669 14 45
5.1171169 -0.34695962 -0.8433305 308 45
5.112926 -0.37820619 -0.84299147 348 45
5.1114912 -0.40964988 -0.84316099 346 45
5.0548773 -0.43635634 -0.83383727 165 45
5.1498275 -0.12636937 -0.911008 84 46
5.1440401 -0.15781459 -0.91010112 348 46
5.132165 -0.18897599 -0.90810597 372 46
5.1377864 -0.22075884 -0.90937561 385 46
5.131424 -0.25203794 -0.90846872 389 46
5.1052332 -0.28216043 -0.9039343 266 46
5.1220555 -0.31462723 -0.90738046 376 46
5.0984426 -0.34458908 -0.90339017 280 46
5.1195259 -0.126729 -0.96822244 18 47
5.1206136 -0.15819959 -0.9686085 14 47
5.115624 -0.18947174 -0.96783638 223 47
5.1114244 -0.22073072 -0.96725726 391 47
5.113894 -0.25228217 -0.96802938 286 47
5.111393 -0.12631324 -1.0286707 392 48
5.1075864 -0.157583 -1.0280571 380 48
5.047832 -0.18674374 -1.0157874 97 48
5.2404914 -0.12878346 -0.47442245 500 39
5.2346287 -0.16078442 -0.47393626 508 39
5.2335439 -0.19290048 -0.47393626 432 39
5.2367887 -0.12850985 -0.53947383 428 40
5.2021222 -0.1596009 -0.53574878 268 40
5.1762128 -0.19060124 -0.53300977 20 40
5.1848764 -0.22278576 -0.53410536 177 40
5.2181592 -0.25630465 -0.53794003 108 40
5.2164264 -0.12819743 -0.60165292 458 41
5.217526 -0.16026291 -0.60189629 149 41
5.1956143 -0.19151092 -0.59934068 17 41
5.2032661 -0.22376882 -0.60043597 58 41
5.1988211 -0.25554571 -0.60007089 376 41
5.1991377 -0.28754947 -0.60031426 277 41
5.1985059 -0.12756756 -0.66291809 378 42
5.1679087 -0.15854865 -0.6589089 60 42
5.1658483 -0.19021882 -0.65877527 86 42
5.192307 -0.22310558 -0.66251719 370 42
5.1878705 -0.25481471 -0.66211629 352 42
5.181262 -0.28636825 -0.66144806 350 42
5.1546783 -0.31663361 -0.65810704 248 42
5.1852679 -0.35046399 -0.66251719 81 42
5.1785479 -0.12637338 -0.7255004 267 43
5.2033849 -0.15892546 -0.72929406 13 43
5.2023115 -0.19084983 -0.72929406 16 43
5.1555762 -0.22082986 -0.72258222 232 43
5.1808033 -0.25376049 -0.72652179 76 43
5.1742101 -0.28527331 -0.72579223 17 43
5.192111 -0.31822228 -0.72871047 9 43
5.1357722 -0.34642491 -0.72068536 55 43
5.138483 -0.37829295 -0.72141492 271 43
5.1798835 -0.12710918 -0.78937244 234 44
5.1395259 -0.15767576 -0.7830599 36 44
5.1651053 -0.19019142 -0.78732085 375 44
5.1589084 -0.221668 -0.78653181 384 44
5.1515336 -0.2530272 -0.78558493 352 44
5.1380525 -0.28397682 -0.78369117 274 44
5.1371989 -0.31555858 -0.78384894 336 44
5.1341805 -0.34700724 -0.78369117 389 44
5.1250615 -0.37799451 -0.78258646 349 44
5.1187081 -0.40911919 -0.78195518 337 44
5.1377459 -0.44238457 -0.78542709 61 44
5.2113299 0.25496569 -0.85858744 273 45
5.2196884 0.22328113 -0.85977411 391 45
5.2189908 0.19117692 -0.85943502 377 45
5.2102146 0.15884767 -0.85773981 396 45
5.214047 0.12694803 -0.85824841 276 45
5.1851668 0.094407998 -0.85316277 457 45
5.1797361 0.062517941 -0.85214561 452 45
5.174109 0.030698093 -0.85112846 408 45
5.1791277 -0.0010501144 -0.8519761 69 45
5.1750817 -0.032804523 -0.85129803 59 45
5.161972 -0.064400665 -0.84909421 435 45
5.165421 -0.096145198 -0.84977233 368 45
5.2065578 0.22381477 -0.92207199 86 46
5.2088156 0.19189985 -0.92225337 156 46
5.2030144 0.15972485 -0.92098373 18 46
5.1940651 0.12755604 -0.91916996 18 46
5.1967168 0.095719524 -0.91953272 41 46
5.1834393 0.063663222 -0.91699344 384 46
5.1866827 0.031874944 -0.91753757 54 46
5.1661286 5.0810504e-05 -0.91372865 18 46
5.168982 -0.031666256 -0.91427279 181 46
5.1509905 -0.063163556 -0.911008 397 46
5.1534557 -0.094822749 -0.91155213 368 46
5.1648107 0.15745327 -0.9772951 283 47
5.161756 0.12566322 -0.97652298 224 47
5.1663542 0.094061241 -0.9772951 408 47
5.1629095 0.062311072 -0.97652298 386 47
5.1602511 0.030612757 -0.97594386 115 47
5.1397367 -0.0010509738 -0.97189009 22 47
5.1229534 -0.032485802 -0.9686085 196 47
5.1305065 -0.064015195 -0.9701528 380 47
5.1231503 -0.095367916 -0.96880156 27 47
5.1574273 0.12576111 -1.0382819 249 48
5.1551657 0.094060011 -1.0376685 384 48
5.1507516 0.062367853 -1.036646 277 48
5.1363549 0.030675691 -1.0335785 24 48
5.1217632 -0.00083744427 -1.030511 108 48
5.1324291 -0.032332629 -1.0327605 364 48
5.1252823 -0.063738286 -1.031329 378 48
5.1189227 -0.095075712 -1.0301021 385 48
5.118154 0.095845364 -1.0951918 79 49
5.1303601 0.064589314 -1.0977892 180 49
5.1404228 0.03317403 -1.0999535 21 49
5.1395531 0.0016318328 -1.099737 23 49
5.1131067 -0.029756539 -1.0938932 356 49
5.1128283 -0.061129414 -1.0938932 408 49
5.1074762 -0.092412792 -1.092811 223 49
5.1071486 0.032280773 -1.1561338 352 50
5.1111455 0.00094371446 -1.1570458 261 50
5.3351493 0.26120782 -0.41946051 535 38
5.3276925 0.22808415 -0.41869333 608 38
5.3319788 0.19549905 -0.41894907 59 38
5.3231187 0.16247572 -0.41809663 36 38
5.2911453 0.1290116 -0.41528362 336 38
5.2808795 0.096344203 -0.41434592 399 38
5.2873487 0.064011447 -0.41485739 33 38
5.2816639 0.031532433 -0.41434592 35 38
5.2717943 -0.00087344914 -0.41349351 22 38
5.2637191 -0.033169735 -0.41281155 187 38
5.2664051 -0.065504082 -0.41306728 28 38
5.2659044 -0.097816899 -0.41306728 18 38
5.3133025 0.26090431 -0.48200682 466 39
5.3108258 0.22812589 -0.48161787 407 39
5.2991962 0.1950562 -0.4803538 39 39
5.3132253 0.1629367 -0.48161787 279 39
5.2842765 0.12959369 -0.47870082 427 39
5.2809916 0.097093478 -0.47831187 422 39
5.2924352 0.064824589 -0.47938144 299 39
5.2768092 0.032248762 -0.47782567 411 39
5.2749176 -0.00013012896 -0.47763121 409 39
5.2698412 -0.032466855 -0.47714505 434 39
5.2486439 -0.064548999 -0.47510308 257 39
5.2521291 -0.096825354 -0.47549203 252 39
5.2945991 0.260149 -0.54637617 526 40
5.2663035 0.2263786 -0.54308939 177 40
5.2745466 0.19431657 -0.54385626 20 40
5.2816005 0.16213144 -0.54451364 101 40
5.2715654 0.1294535 -0.5433085 464 40
5.258347 0.096850105 -0.54177463 28 40
5.2508912 0.064486608 -0.54089814 31 40
5.2392607 0.032194123 -0.53958344 34 40
5.2483053 4.5432069e-05 -0.54056948 251 40
5.2233577 -0.032003466 -0.53783047 30 40
5.2121301 -0.06391789 -0.53662527 29 40
5.2295284 -0.096228212 -0.53859735 61 40
5.2840924 0.25946358 -0.61053675 419 41
5.2836018 0.2269505 -0.61029333 70 41
5.2501788 0.19324115 -0.60603398 128 41
5.2651548 0.16145201 -0.60773772 425 41
5.2600927 0.12899527 -0.60700756 396 41
5.2548308 0.096606724 -0.60627735 401 41
5.2563171 0.064374246 -0.60639906 337 41
5.2526431 0.032095734 -0.60591227 418 41
5.2487712 -0.0001352628 -0.60542548 388 41
5.2327905 -0.032246787 -0.60347837 311 41
5.191802 -0.063862577 -0.59848881 46 41
5.2260466 -0.096350297 -0.60274816 408 41
5.2742715 0.29160243 -0.67401028 479 42
5.2630935 0.2586033 -0.67227292 311 42
5.2517099 0.22575235 -0.67053562 24 42
5.2470541 0.19330575 -0.66973376 32 42
5.24616 0.16104612 -0.6694665 382 42
5.2331791 0.12851368 -0.66759551 46 42
5.2140522 0.096037537 -0.66492271 24 42
5.2224708 0.064139679 -0.66599184 35 42
5.2168198 0.032057896 -0.66518998 192 42
5.2476406 4.5475586e-05 -0.66933286 89 42
5.2059193 -0.031895321 -0.66371995 23 42
5.2066169 -0.063849866 -0.66385359 27 42
5.1991906 -0.09566772 -0.66291809 390 42
5.2410026 0.25825244 -0.73542231 214 43
5.2405119 0.22600369 -0.73513049 55 43
5.2457547 0.19399139 -0.73571414 410 43
5.2419019 0.16164683 -0.73498458 406 43
5.2358723 0.12930755 -0.73396319 383 43
5.2237086 0.096936919 -0.73206639 292 43
5.215302 0.06477046 -0.73075318 397 43
5.2165904 0.032775186 -0.7308991 374 43
5.215704 0.00076580548 -0.73075318 358 43
5.1898894 -0.031088881 -0.72695953 26 43
5.2044392 -0.063109457 -0.72914815 248 43
5.1871386 -0.094738781 -0.7266677 442 43
5.2415733 0.28979704 -0.80026156 318 44
5.2185955 0.2564202 -0.79631621 24 44
5.2171111 0.22426765 -0.79584277 18 44
5.2371383 0.19294119 -0.79884124 223 44
5.2165093 0.1601381 -0.79536933 123 44
5.2144322 0.12805468 -0.79489589 23 44
5.2032723 0.095839784 -0.79300213 17 44
5.2402959 0.064357266 -0.79884124 101 44
5.1892447 0.031890497 -0.79063493 250 44
5.1784806 5.0002091e-05 -0.788899 29 44
5.1665339 -0.031651076 -0.78700525 25 44
5.1929021 -0.063680656 -0.7912662 266 44
5.184515 -0.095396586 -0.79000372 395 44
5.2472758 -0.1296816 -0.41153291 153 38
5.2463813 -0.16187584 -0.41153291 258 38
5.3404284 0.064493544 -0.21960071 576 35
5.3347306 0.03168717 -0.21931285 533 35
5.3218398 -0.0010470009 -0.21868913 377 35
5.3337388 0.16279909 -0.28643483 580 36
5.3276525 0.12989902 -0.28601116 669 36
5.323359 0.097116053 -0.28570852 618 36
5.3058891 0.064234532 -0.28461906 200 36
5.3091779 0.031694654 -0.28480065 29 36
5.3062778 -0.00088172458 -0.28461906 30 36
5.3181505 -0.033516787 -0.28534538 103 36
5.3038712 -0.065972872 -0.28449801 440 36
5.341414 0.26135913 -0.35257381 378 37
5.3449097 0.22866561 -0.35271925 577 37
5.3372421 0.19553497 -0.35206479 369 37
5.3144164 0.16204782 -0.35031962 31 37
5.3123193 0.12936263 -0.35010147 441 37
5.312016 0.096746035 -0.35002875 496 37
5.3085203 0.064101256 -0.34973788 434 37
5.2898645 0.031410892 -0.34835628 268 37
5.30791 -0.0010473047 -0.34966516 431 37
5.2958355 -0.033542834 -0.34879258 430 37
5.2865548 -0.065926887 -0.34813812 461 37
5.2820621 -0.098289989 -0.34784728 502 37
3.0184343 3.0935938 -0.11947005 65 34
3.0196011 3.0937133 -0.22500104 60 36
3.0190279 3.0931261 -0.33225691 53 38
5.3204904 0.35876358 -0.41869333 256 38
5.3365145 0.32696292 -0.41988674 493 38
5.3364305 0.29410303 -0.41971624 546 38
5.3444662 0.42710504 -0.48609069 543 39
5.3420234 0.3939369 -0.48560452 506 39
5.3165364 0.35926652 -0.48288193 56 39
5.2888398 0.32480133 -0.47996485 25 39
5.3036513 0.29306018 -0.48122892 42 39
5.3606973 0.49482706 -0.55546975 70 40
5.3269906 0.45877212 -0.55141598 365 40
5.3237605 0.42560288 -0.5507586 413 40
5.3173499 0.39227137 -0.54977256 405 40
5.3196568 0.35963735 -0.54977256 404 40
5.3128343 0.32644179 -0.54878652 59 40
5.2978654 0.29290515 -0.546924 456 40
5.3201485 0.42515635 -0.61625648 503 41
5.29989 0.39082065 -0.61345744 118 41
5.2883244 0.35735387 -0.6117537 25 41
5.2815013 0.32434905 -0.61065841 27 41
5.2814097 0.29182631 -0.61041504 394 41
5.2897544 0.3902376 -0.67695034 227 42
5.2920489 0.35777295 -0.67695034 60 42
5.2852421 0.32474846 -0.67574757 329 42
5.2590499 0.35628852 -0.73892415 124 43
5.2660742 0.32431805 -0.73965371 434 43
5.2738914 0.29232976 -0.74052918 408 43
9.0630903 -2.509089 -1.8108234 71 47
9.0739574 -2.5721409 -1.8162284 81 47
9.0346432 1.5674449 -1.6521161 66 46
9.3646297 2.1623616 -1.6143143 54 45
9.3980246 1.9886024 -1.6134667 41 45
