# .PCD v0.7 - Point Cloud Data file format
VERSION 0.7
FIELDS x y z intensity ring
SIZE 4 4 4 4 1
TYPE F F F F U
COUNT 1 1 1 1 1
WIDTH 261
HEIGHT 1
VIEWPOINT 0 0 0 1 0 0 0
POINTS 261
DATA ascii
4.6163688 -3.7413893 -0.17802131 10 34
4.6202073 -3.6514757 -1.0470411 21 46
4.6215153 -3.6988068 -1.0526638 17 46
4.6203785 -2.2532527 -1.0999535 12 49
5.3261003 0.26169449 -0.81351787 73 44
3.0034473 3.0782363 -0.75411654 22 46
3.0187435 3.0933049 -1.0247688 13 51
3.0191321 3.0943091 -0.11950617 66 34
5.598073 1.0087416 -1.2213762 6 49
5.6037498 0.93798059 -1.2906603 14 50
5.5776777 0.8984713 -1.283136 31 50
5.6372814 0.942523 -1.3680372 11 51
5.5164223 0.88753021 -1.3364613 38 51
5.6070008 0.93845713 -1.5019913 11 53
5.328907 0.39312309 -0.81525385 383 44
5.3381152 0.36088389 -0.81635851 403 44
5.348114 0.32860693 -0.81762105 494 44
5.363833 0.29654747 -0.81983042 443 44
5.2184238 0.67510611 -0.86621588 215 45
5.2322493 0.64428037 -0.8679111 261 45
5.2449136 0.61319566 -0.8694368 276 45
5.2485771 0.58100194 -0.8694368 85 45
5.2559643 0.5491969 -0.87011492 58 45
5.275908 0.51857907 -0.87299675 401 45
5.2789907 0.48619696 -0.87299675 385 45
5.2789292 0.4535428 -0.8724882 22 45
5.2845597 0.421379 -0.87299675 27 45
5.3076859 0.39046857 -0.87655669 219 45
5.3217812 0.35869175 -0.878591 503 45
5.3238816 0.32603118 -0.878591 351 45
5.2110682 0.67525548 -0.93005264 13 46
5.2209692 0.6439901 -0.9311409 251 46
5.2326365 0.61285734 -0.93259192 72 46
5.2402081 0.58117229 -0.93331742 13 46
5.3023601 0.55514783 -0.94420004 76 46
5.2733698 0.5194239 -0.9382146 338 46
5.2833128 0.48768961 -0.93948424 334 46
5.298943 0.45635867 -0.94184214 375 46
5.3065448 0.42422786 -0.94274902 300 46
5.1965137 0.67226666 -0.99157977 258 47
5.1976194 0.64000839 -0.99100065 243 47
5.2297096 0.61141479 -0.99659866 164 47
5.2011809 0.57574475 -0.99022847 9 47
5.2368193 0.54719216 -0.99659866 214 47
5.2644897 0.51745421 -1.0014246 340 47
5.2538872 0.48387933 -0.99872208 224 47
5.1997871 0.67287457 -1.0558686 185 48
5.2154765 0.64239168 -1.0583225 340 48
5.2183475 0.61026442 -1.0581181 362 48
5.2171292 0.57769543 -1.0570955 310 48
5.1848354 0.67350537 -1.119433 277 49
5.1772437 0.6402387 -1.1168358 93 49
5.2944069 0.68511158 -0.41920477 132 38
5.2905998 0.65163898 -0.41852283 19 38
5.2944984 0.61916417 -0.41852283 13 38
5.2833433 0.58502233 -0.4172442 82 38
5.3274632 0.55683708 -0.42073917 232 38
5.2795658 0.68396395 -0.48239574 360 39
5.2767491 0.65070206 -0.48171511 257 39
5.3023891 0.62086344 -0.48385429 419 39
5.3100553 0.5887565 -0.48424321 412 39
5.3165374 0.55647498 -0.48453492 453 39
5.3168807 0.52354962 -0.48424321 461 39
5.2688632 0.68274027 -0.54769093 15 40
5.2759128 0.65076309 -0.54801959 19 40
5.2857299 0.61907178 -0.54867697 23 40
5.2795496 0.58553255 -0.54758137 200 40
5.3057804 0.55550575 -0.55010128 26 40
5.2883158 0.520895 -0.54780048 10 40
5.338922 0.49281865 -0.5530594 132 40
5.3329325 0.45928344 -0.55207336 130 40
5.2722082 0.68300909 -0.61370081 303 41
5.2743297 0.6504032 -0.61345744 285 41
5.2821641 0.61849087 -0.61394423 336 41
5.2967114 0.58727401 -0.61528289 403 41
5.3021894 0.55497003 -0.61552626 298 41
5.2995682 0.52184105 -0.6147961 81 41
5.3165073 0.49059358 -0.61649984 515 41
5.3223839 0.45821893 -0.61686492 518 41
5.3290529 0.42586991 -0.61735171 447 41
5.2827563 0.68453944 -0.68002409 13 42
5.2848897 0.65186971 -0.67975682 21 42
5.2759938 0.6179322 -0.67801946 123 42
5.2846112 0.58609354 -0.67868769 61 42
5.2841654 0.55324423 -0.6781531 18 42
5.2864742 0.52071375 -0.67801946 24 42
5.3191752 0.49099731 -0.68202865 351 42
5.3230748 0.45843521 -0.68216234 355 42
5.3060298 0.42418674 -0.67948949 39 42
5.3164396 0.39220428 -0.68055862 195 42
5.3088584 0.35890809 -0.67922223 149 42
5.2194567 0.67708695 -0.73775691 196 43
5.2441311 0.64759898 -0.740821 255 43
5.2686391 0.61783361 -0.7438851 298 43
5.2831464 0.5866977 -0.74549013 306 43
5.2797599 0.55354625 -0.74446875 25 43
5.3017621 0.52298915 -0.74724108 310 43
5.2960057 0.48962671 -0.74592787 443 43
5.2989101 0.45712182 -0.74592787 269 43
5.3203516 0.42610443 -0.74870014 20 43
5.3356919 0.39440221 -0.750597 34 43
5.3419595 0.36192393 -0.75118065 514 43
5.3500042 0.32950565 -0.75205612 391 43
5.2266173 0.67726916 -0.80357563 20 44
5.2483153 0.6473611 -0.80641627 47 44
5.2531695 0.61526066 -0.80657411 204 44
5.2499757 0.58225483 -0.80546939 22 44
5.2593422 0.55064714 -0.80641627 15 44
5.2744145 0.51952672 -0.80831003 207 44
5.2902856 0.48833275 -0.81036162 344 44
5.2823601 0.45493174 -0.80862564 159 44
5.2742248 0.42164642 -0.80688971 49 44
5.1422024 0.95633596 -0.86079121 79 45
5.1537933 0.92581278 -0.86180836 321 45
5.1545219 0.89332974 -0.86096072 297 45
5.1618505 0.86201048 -0.86129975 300 45
5.1709342 0.83094805 -0.86197788 60 45
5.1866488 0.80086082 -0.86384261 254 45
5.1914654 0.76902109 -0.86384261 252 45
5.2068195 0.73867744 -0.86570734 259 45
5.2122302 0.70684773 -0.86587685 219 45
5.1511064 0.89384919 -0.9251554 306 46
5.1594038 0.86271209 -0.92569959 37 46
5.1645999 0.83103836 -0.92569959 13 46
5.1725178 0.79978389 -0.92624372 23 46
5.1841369 0.76904052 -0.92751336 153 46
5.1897321 0.73735505 -0.92769474 20 46
5.2000055 0.70629126 -0.928783 13 46
5.2030873 0.86890632 -0.99852902 130 47
5.1521344 0.8279227 -0.98733294 251 47
5.1716628 0.79854339 -0.99022847 267 47
5.1842294 0.76794755 -0.99177277 277 47
5.1849585 0.73557115 -0.99100065 232 47
5.1884017 0.7036109 -0.99080759 90 47
5.1594577 0.79684633 -1.0511652 312 48
5.2039504 0.77105278 -1.0595496 25 48
5.1853237 0.73580855 -1.0546416 22 48
5.174221 0.70187408 -1.0513697 16 48
5.1599722 0.76710182 -1.1168358 140 49
5.1529837 0.73377216 -1.1142385 77 49
5.1544871 0.7017445 -1.1135892 206 49
5.1828113 1.0631293 -0.41511312 293 38
5.1843505 1.0303375 -0.41468692 176 38
5.1935101 0.9990719 -0.41494262 337 38
5.2044406 0.96809703 -0.41536885 300 38
5.2181277 0.93755394 -0.41605079 302 38
5.2345815 0.90738958 -0.41698846 86 38
5.2272749 0.87312073 -0.41588032 260 38
5.2423711 0.84261078 -0.41673273 327 38
5.2474427 0.81042832 -0.41673273 305 38
5.2838559 0.78288609 -0.41946051 18 38
5.2816548 0.74947083 -0.4188638 14 38
5.2782555 0.71597826 -0.41818187 295 38
5.1372027 1.0874164 -0.47529757 267 39
5.1847239 1.0642891 -0.47938144 24 39
5.1960368 1.033428 -0.47986764 19 39
5.1934848 0.9998309 -0.47899252 32 39
5.182889 0.96484524 -0.47733951 207 39
5.2180967 0.93831623 -0.48025656 23 39
5.2276783 0.90696228 -0.48064551 17 39
5.218421 0.87240392 -0.47918698 99 39
5.2384143 0.84274238 -0.48064551 324 39
5.2434869 0.81058419 -0.48064551 256 39
5.2365484 0.77664077 -0.47947869 21 39
5.2697897 0.74856067 -0.48229852 320 39
5.27527 0.71634585 -0.48239574 338 39
5.1490855 1.0901152 -0.5422129 324 40
5.1556773 1.0585005 -0.5422129 274 40
5.1679244 1.0280091 -0.54287022 323 40
5.177063 0.99684346 -0.54319894 326 40
5.1830821 0.96505886 -0.54319894 299 40
5.1810799 0.93183088 -0.54232246 181 40
5.2082458 0.90375996 -0.54473275 93 40
5.2127128 0.87162191 -0.5446232 346 40
5.2258134 0.84088355 -0.54549968 318 40
5.2249808 0.80789191 -0.54484236 56 40
5.2514706 0.779024 -0.54725266 17 40
5.2463107 0.74538946 -0.54615706 102 40
5.2271471 0.70997572 -0.5435276 259 40
5.1408181 1.0881824 -0.60615569 16 41
5.1435089 1.0558193 -0.6056689 9 41
5.1450233 1.0232702 -0.6050604 17 41
5.1580276 0.99299669 -0.60591227 209 41
5.1513386 0.95896465 -0.60433024 47 41
5.1444263 0.92505211 -0.60274816 14 41
5.1597848 0.89516795 -0.60396516 32 41
5.2141275 0.87168521 -0.61004996 281 41
5.2223177 0.8401491 -0.61041504 277 41
5.1999097 0.80383784 -0.60700756 55 41
5.2233982 0.77468753 -0.60931975 137 41
5.2477069 0.74541885 -0.6117537 316 41
5.2570992 0.7138744 -0.61236221 332 41
5.1173658 1.0834023 -0.66706097 187 42
5.1355667 1.0543731 -0.66866463 314 42
5.1458278 1.0236151 -0.66919923 340 42
5.1559043 0.99277091 -0.66973376 370 42
5.1609244 0.96093488 -0.66960013 290 42
5.1676989 0.9294253 -0.66973376 25 42
5.1850219 0.89973176 -0.67133749 302 42
5.1923995 0.86822689 -0.67160475 343 42
5.1907802 0.83524901 -0.67066926 188 42
5.2232308 0.80762142 -0.67441118 17 42
5.2408319 0.77744663 -0.67614853 24 42
5.2288232 0.74290615 -0.67387664 277 42
5.2588158 0.71427476 -0.6773513 40 42
5.1347408 1.0221517 -0.73367137 324 43
5.1428585 0.99100113 -0.73396319 217 43
5.0972991 0.94981009 -0.72622997 20 43
5.1127672 0.92027044 -0.72768909 17 43
5.1719246 0.89820391 -0.73571414 231 43
5.1929493 0.86906886 -0.73804873 329 43
5.2059975 0.8384493 -0.73921597 230 43
5.2022457 0.80512643 -0.73790282 45 43
5.2198086 0.77508265 -0.73979962 292 43
5.2185898 0.74220282 -0.73892415 244 43
5.2308879 0.71123624 -0.74009144 301 43
5.1335549 0.9884693 -0.79678965 253 44
5.1269031 0.9546029 -0.79473811 47 44
5.1472421 0.92574769 -0.79710531 83 44
5.1790948 0.89870381 -0.80136627 335 44
5.1776938 0.86576909 -0.80026156 241 44
5.1487861 0.82849491 -0.79473811 13 44
5.1664591 0.79884762 -0.79678965 11 44
5.1947064 0.77060765 -0.80057716 79 44
5.20227 0.7391355 -0.8010506 115 44
5.2135568 0.70813084 -0.80215532 17 44
5.5847325 0.93280041 -1.1433929 28 48
5.2950683 0.68519711 -0.28661641 414 36
5.317996 0.6550113 -0.2877664 323 36
5.3016257 0.68588859 -0.35242838 392 37
5.3146434 0.65444452 -0.35308284 377 37
5.324502 0.62251836 -0.35351911 323 37
5.3072066 0.75403696 -0.15699922 215 34
5.2633014 0.84581214 -0.21912093 246 35
5.2792506 0.81518024 -0.21964869 387 35
5.2960095 0.78453106 -0.22022443 351 35
5.2878675 0.75019383 -0.21960071 22 35
5.3062277 0.71961623 -0.22027241 265 35
5.2108588 0.93624842 -0.28389275 101 36
5.2469945 0.90954036 -0.28576905 282 36
5.2475538 0.87650645 -0.28546643 331 36
5.2508621 0.84397489 -0.28534538 339 36
5.2628469 0.81280625 -0.28576905 402 36
5.2726722 0.78122985 -0.28607169 198 36
5.2684722 0.74760121 -0.28552696 13 36
5.2818623 0.71646726 -0.28607169 68 36
5.188869 0.99800491 -0.34792 374 37
5.2017589 0.96742582 -0.34842899 405 37
5.2193761 0.9376089 -0.34930161 85 37
5.2800603 0.91511548 -0.35337368 19 37
5.2767224 0.88121998 -0.35271925 27 37
5.2465816 0.84312147 -0.35010147 280 37
5.2654552 0.81304699 -0.35111949 375 37
5.2693582 0.78057712 -0.35104677 90 37
5.277998 0.74879146 -0.35133764 60 37
5.295341 0.71813738 -0.35228294 397 37
6.0392919 -1.7100551 -1.8160259 114 55
6.2667928 1.4882324 -0.67204249 158 40
9.0192041 -2.5566275 -1.8050324 74 47
9.4104147 2.1122029 -1.6200781 45 45
9.7922907 2.7096052 -1.5850675 47 44
