# .PCD v0.7 - Point Cloud Data file format
VERSION 0.7
FIELDS x y z intensity ring
SIZE 4 4 4 4 1
TYPE F F F F U
COUNT 1 1 1 1 1
WIDTH 223
HEIGHT 1
VIEWPOINT 0 0 0 1 0 0 0
POINTS 223
DATA ascii
4.8159132 -0.98863333 -0.86765879 68 46
4.7558804 -1.0067552 -0.85750169 181 46
4.737123 -1.0331925 -0.85514373 228 46
4.7729125 -1.0717229 -0.86312437 60 46
4.8155975 -0.92827719 -0.92556155 197 47
4.7867146 -0.95321405 -0.92092866 195 47
4.7807755 -0.98256683 -0.92092866 176 47
4.7843256 -1.0121901 -0.68274868 178 43
4.8204026 -0.95876908 -0.74676281 10 44
4.8144288 -0.98832846 -0.74676281 23 44
4.7734962 -1.0104858 -0.74108154 185 44
4.7575583 -1.0376513 -0.73950338 196 44
4.7603173 -0.97836721 -0.79705113 212 45
4.746511 -1.0059248 -0.79569495 210 45
4.744101 -1.03587 -0.79637301 195 45
4.7222705 -1.0615052 -0.7936607 195 45
4.9719572 -0.83239114 -0.82824308 14 45
4.9521909 -0.86035579 -0.82570028 11 45
4.9402132 -0.82595372 -0.88470829 196 46
4.8711028 -0.84515023 -0.87273735 29 46
4.8822794 -0.87798309 -0.87582076 195 46
4.8671327 -0.90612298 -0.87400699 179 46
4.8325109 -0.93039018 -0.86856568 10 46
4.825747 -0.95983249 -0.8683843 17 46
4.9791889 -0.8336001 -0.95393777 6 47
4.9101748 -0.85306627 -0.9411974 49 47
4.8527002 -0.87380117 -0.9307735 225 47
4.8404946 -0.90230328 -0.92942226 212 47
4.9655757 -0.83108425 -1.012311 14 48
4.8706918 -0.8459518 -0.99329281 92 48
4.8471055 -0.87252545 -0.98940736 185 48
4.8349247 -0.90099454 -0.9879759 172 48
4.8989983 -0.8175655 -1.0614272 185 49
4.8804212 -0.84528047 -1.0583972 121 49
5.0388961 -0.81093115 -0.46090671 83 39
5.0043755 -0.83691579 -0.45798963 12 39
4.9785528 -0.86403716 -0.4559477 154 39
4.9516068 -0.8906973 -0.45380852 214 39
4.9597468 -0.92361075 -0.45516983 122 39
5.0442777 -0.81157595 -0.52523094 19 40
5.0019493 -0.83628035 -0.52106762 114 40
4.9771371 -0.86355603 -0.51887643 263 40
4.951201 -0.89038289 -0.51657563 236 40
4.9280553 -0.9174701 -0.51460356 137 40
4.9135489 -0.94599885 -0.51361752 103 40
4.98206 -0.83318907 -0.58120799 43 41
4.9553385 -0.86001378 -0.57853067 133 41
4.9069834 -0.88268107 -0.57317603 10 41
4.8936682 -0.91132128 -0.57220244 9 41
4.8977313 -0.94320583 -0.57341939 80 41
4.86654 -0.96821028 -0.57025534 197 41
4.9666233 -0.83037138 -0.64073384 250 42
4.9536233 -0.85947442 -0.63966471 235 42
4.9209461 -0.88493967 -0.63592279 164 42
4.8930154 -0.91094375 -0.63284904 216 42
4.8746829 -0.93851292 -0.63111174 210 42
4.851337 -0.96492445 -0.62870622 168 42
4.832705 -0.99208176 -0.62696892 155 42
4.9619403 -0.8289417 -0.70346797 79 43
4.9538364 -0.85886568 -0.70303023 13 43
4.933867 -0.8866244 -0.70084155 13 43
4.8855371 -0.90892971 -0.69442153 57 43
4.8614092 -0.93534267 -0.6916492 191 43
4.8856597 -0.97112602 -0.69617242 6 43
4.8418117 -0.99334043 -0.6904819 34 43
4.9527292 -0.82804734 -0.76380664 222 44
4.9319887 -0.85571897 -0.76128167 173 44
4.9120669 -0.88334221 -0.75891447 132 44
4.8881097 -0.91003007 -0.755916 203 44
4.8707981 -0.9377647 -0.75402224 146 44
4.9031701 -0.88287675 -0.81807178 53 45
4.8492165 -0.90392691 -0.8095957 232 45
4.8513207 -0.93515462 -0.81095189 128 45
4.8619237 -0.96817237 -0.81383377 31 45
5.1866364 -0.5762428 -0.85875696 233 45
5.1624475 -0.60564971 -0.85519701 229 45
5.1459184 -0.63574642 -0.85299325 197 45
5.1018491 -0.66211796 -0.84604287 12 45
5.057651 -0.68797272 -0.83909243 150 45
5.0582132 -0.71968597 -0.83994007 197 45
5.0459032 -0.74955237 -0.83858389 14 45
5.0217299 -0.77748805 -0.83519346 11 45
4.9750252 -0.80155504 -0.82790405 37 45
5.1493182 -0.57099849 -0.91644931 60 46
5.1457176 -0.60258335 -0.91644931 223 46
5.0892191 -0.62764156 -0.90665495 11 46
5.0852718 -0.65885663 -0.90665495 20 46
5.0616446 -0.68739861 -0.90302742 258 46
5.0485687 -0.71719784 -0.90139496 254 46
5.0255904 -0.74541891 -0.8979488 126 46
4.9587235 -0.76662046 -0.88634068 227 46
4.9510136 -0.79656333 -0.88579655 218 46
5.1115475 -0.59968972 -0.97324133 87 47
5.0717406 -0.62659907 -0.96609902 26 47
5.0541773 -0.65594208 -0.96339655 27 47
5.0218616 -0.68311274 -0.95779848 171 47
4.9942613 -0.71060169 -0.95316565 10 47
4.9898067 -0.74123251 -0.95316565 7 47
4.9657712 -0.76883739 -0.94930494 37 47
4.9609604 -0.79929233 -0.94930494 111 47
5.0948005 -0.62923032 -1.0329651 56 48
5.0452199 -0.65455687 -1.0233537 215 48
5.0401387 -0.68536943 -1.0231493 242 48
5.0154872 -0.713386 -1.0188549 227 48
4.9848733 -0.74026275 -1.0133334 239 48
4.9608903 -0.76783937 -1.0092435 242 48
4.9435225 -0.79623985 -1.006585 235 48
5.044868 -0.65205866 -1.0880493 93 49
5.0069103 -0.6784209 -1.0804739 21 49
5.0113535 -0.71036118 -1.0824219 19 49
5.0069003 -0.74109685 -1.0824219 23 49
4.9414692 -0.76243979 -1.0687863 171 49
4.9212742 -0.79027265 -1.0653232 181 49
4.9846945 -0.67605919 -1.138121 114 50
4.9669566 -0.70471615 -1.1349288 133 50
4.952908 -0.73375189 -1.1326487 239 50
4.9261808 -0.76070923 -1.1274045 209 50
5.1936631 -0.67309356 -0.47393626 282 39
5.1716828 -0.70254111 -0.47218603 279 39
5.1327863 -0.72936779 -0.46878278 136 39
5.0789881 -0.75355613 -0.46392101 194 39
5.0732851 -0.78455418 -0.46382377 237 39
5.216733 -0.64337742 -0.54144597 12 40
5.1229858 -0.66374576 -0.5314759 61 40
5.1759424 -0.70292974 -0.53783047 8 40
5.1538181 -0.73215771 -0.53585833 13 40
5.107934 -0.75763893 -0.53125679 100 40
5.0638971 -0.78288865 -0.52687436 255 40
5.2229848 -0.61181682 -0.60664248 174 41
5.192534 -0.64057761 -0.60335666 257 41
5.1766934 -0.67089814 -0.60189629 252 41
5.1252685 -0.6962465 -0.59605491 181 41
5.0815907 -0.72210467 -0.59118706 76 41
5.0574274 -0.75036222 -0.5887531 207 41
5.0438995 -0.78001666 -0.58765787 151 41
4.974339 -0.80055672 -0.5796259 14 41
5.2077913 -0.57748693 -0.66826373 31 42
5.1903701 -0.60781568 -0.66639274 11 42
5.1658878 -0.63710284 -0.66358632 29 42
5.1422253 -0.66623998 -0.66091353 42 42
5.1193824 -0.69524419 -0.65837437 11 42
5.1022649 -0.72483009 -0.65663701 64 42
5.0585093 -0.75030416 -0.65129143 313 42
5.0538106 -0.7813285 -0.65129143 114 42
4.9872799 -0.80240107 -0.6428721 58 42
5.2125249 -0.57727695 -0.73498458 212 43
5.1794062 -0.60580826 -0.73060727 221 43
5.1490798 -0.63431716 -0.7266677 240 43
5.1333175 -0.66437829 -0.72491676 203 43
5.086009 -0.69002104 -0.71849674 25 43
5.073843 -0.72010493 -0.71732944 221 43
5.0546494 -0.74905193 -0.71514076 171 43
5.017693 -0.77507621 -0.71032572 13 43
4.9981909 -0.80349761 -0.70813709 15 43
5.2210493 -0.54654956 -0.80026156 79 44
5.1675439 -0.57302088 -0.79221308 11 44
5.1707959 -0.60552198 -0.79331779 16 44
5.1513023 -0.63530296 -0.79079276 148 44
5.1296802 -0.66461366 -0.78795213 13 44
5.0941944 -0.69182163 -0.78290206 49 44
5.0566139 -0.71834135 -0.77753645 232 44
5.0462503 -0.74848491 -0.77658957 240 44
5.0269246 -0.77716982 -0.77422237 63 44
4.9674659 -0.79921168 -0.76538479 257 44
5.0830541 -0.81872505 -0.27505597 258 36
5.0808883 -0.85039318 -0.27523753 75 36
5.0562034 -0.81461495 -0.33606729 225 37
5.0432401 -0.84430826 -0.33548555 257 37
4.9878483 -0.86654222 -0.33177704 81 37
5.0856872 -0.81914937 -0.40317911 159 38
5.0294662 -0.84178263 -0.39874646 7 38
4.9977016 -0.86802149 -0.39644489 166 38
4.9922814 -0.89867043 -0.39644489 120 38
5.1316876 -0.76227534 -0.21226005 243 35
5.1259265 -0.79359585 -0.21221209 264 35
5.2146611 -0.67655307 -0.28171381 184 36
5.2114005 -0.70867151 -0.28177434 313 36
5.1881781 -0.7379626 -0.28062436 84 36
5.1539326 -0.76538181 -0.27880856 11 36
5.1491394 -0.79699135 -0.27880856 11 36
5.18959 -0.6734848 -0.34421146 145 37
5.1833835 -0.70504647 -0.34406605 263 37
5.1690855 -0.73543519 -0.34333888 266 37
5.1289592 -0.76187068 -0.3407211 127 37
5.0768771 -0.78601325 -0.33723074 247 37
5.1727109 -0.63885862 -0.40837893 8 38
5.1558485 -0.66891831 -0.40727076 17 38
5.1891632 -0.70564586 -0.41051 71 38
5.1176591 -0.72792661 -0.40471348 15 38
5.0943708 -0.75653207 -0.40309384 17 38
5.0945563 -0.78853869 -0.40352008 200 38
5.2647142 -1.0145867 -1.0806127 39 48
5.2716246 -1.0151196 -0.48677135 23 39
5.3563843 -0.52846217 -0.42295548 53 38
5.4032054 -0.4653976 -0.49211931 155 39
5.3546586 -0.49434346 -0.48764646 364 39
5.3297338 -0.52504784 -0.48550728 113 39
5.2709794 -0.55194831 -0.4800621 33 39
5.2734284 -0.58493704 -0.48064551 290 39
5.2430501 -0.61416268 -0.47802016 289 39
5.2293048 -0.64510554 -0.4770478 149 39
5.4040227 -0.43194503 -0.55963308 291 40
5.3913674 -0.46424189 -0.55853742 321 40
5.3804994 -0.4965826 -0.55766094 335 40
5.2833781 -0.52032566 -0.54725266 37 40
5.2632804 -0.55097353 -0.54539013 54 40
5.2548609 -0.58270997 -0.54484236 264 40
5.2353911 -0.61309129 -0.54308939 24 40
5.3638988 -0.46202052 -0.6219762 307 41
5.3224158 -0.49137384 -0.61723 179 41
5.2955933 -0.52169204 -0.61430931 12 41
5.2774849 -0.55262804 -0.61248386 277 41
5.256237 -0.58303392 -0.61029333 310 41
5.321156 -0.49110132 -0.68229598 129 42
5.2440734 -0.5164519 -0.67227292 21 42
5.2575617 -0.55037451 -0.67454481 291 42
5.2773061 -0.51896733 -0.74359328 272 43
5.2484398 -0.54866982 -0.73979962 243 43
5.2559085 -0.61659318 -0.34850171 243 37
5.2342086 -0.64663404 -0.34719282 252 37
5.3153863 -0.55736715 -0.41971624 289 38
5.2880998 -0.5873298 -0.4176704 271 38
5.2715321 -0.61825621 -0.41656226 219 38
