# .PCD v0.7 - Point Cloud Data file format
VERSION 0.7
FIELDS x y z intensity ring
SIZE 4 4 4 4 1
TYPE F F F F U
COUNT 1 1 1 1 1
WIDTH 246
HEIGHT 1
VIEWPOINT 0 0 0 1 0 0 0
POINTS 246
DATA ascii
5.2031636 0.7707566 -0.86587685 305 45
5.2048678 0.73840016 -0.86536831 264 45
5.2122302 0.70684773 -0.86587685 218 45
5.2213559 0.67548609 -0.86672449 246 45
5.1967831 0.77091557 -0.92987126 158 46
5.1761007 0.73541939 -0.9251554 21 46
5.1834393 0.70404243 -0.92569959 6 46
5.1944885 0.67310828 -0.92696923 21 46
5.2121854 0.64290726 -0.92950851 243 46
5.176465 0.76679564 -0.99022847 264 47
5.1810727 0.73501903 -0.99022847 259 47
5.1971521 0.70479953 -0.99254495 85 47
5.2033253 0.67314935 -0.99293101 254 47
5.2093053 0.64144993 -0.99331707 243 47
5.1992307 0.57552838 -0.98984241 14 47
5.2056761 0.73869509 -1.058936 23 48
5.2033205 0.70581925 -1.0575045 25 48
5.2075534 0.67387897 -1.0575045 173 48
5.1999321 0.64047825 -1.0550506 354 48
5.2105699 0.60935539 -1.0564821 328 48
5.2132378 0.57726479 -1.0562776 303 48
5.158041 0.76681423 -1.116403 147 49
5.1839123 0.73818338 -1.1211646 66 49
5.1728668 0.70425093 -1.1177015 228 49
5.1732178 0.67199361 -1.1168358 247 49
5.1859636 0.64131904 -1.1187837 114 49
5.1392956 0.95579475 -0.86028266 81 45
5.1537933 0.92581278 -0.86180836 320 45
5.1603479 0.89434081 -0.86197788 318 45
5.1705985 0.86347342 -0.86282545 299 45
5.1923404 0.83439279 -0.86570734 64 45
5.1788573 0.79965597 -0.86248642 233 45
5.1685472 0.89687431 -0.92842025 284 46
5.1574636 0.86238784 -0.92533684 23 46
5.1616874 0.83056986 -0.9251554 22 46
5.1647425 0.79858232 -0.92479265 14 46
5.1798611 0.86502236 -0.99389619 128 47
5.1560097 0.82854629 -0.98810512 272 47
5.1668143 0.79779369 -0.9892633 246 47
5.1555882 0.79624897 -1.0503472 304 48
5.1328015 1.1856028 -0.47695056 345 39
5.1409502 1.1543045 -0.4770478 391 39
5.1479363 1.1227385 -0.4770478 409 39
5.1440182 1.0888606 -0.4759782 224 39
5.17205 1.0616846 -0.47811738 19 39
5.1804194 1.0303183 -0.47831187 12 39
5.1856666 0.99832398 -0.47821462 24 39
5.1760402 0.96356869 -0.47665885 211 39
5.2210355 0.93884528 -0.48054829 10 39
5.1368642 1.1867213 -0.54319894 96 40
5.1265917 1.1512609 -0.5412268 276 40
5.137444 1.12063 -0.54166508 297 40
5.1510305 1.0905268 -0.54243201 305 40
5.156651 1.0587003 -0.54232246 248 40
5.1659746 1.0276213 -0.54265112 306 40
5.1702309 0.9955284 -0.54243201 341 40
5.1752644 0.96360385 -0.54232246 297 40
5.1742315 0.93059975 -0.54155552 179 40
5.2127128 0.87162191 -0.5446232 332 40
5.2189441 0.83977872 -0.54473275 359 40
5.1146498 1.1154711 -0.60372174 283 41
5.127224 1.0853018 -0.60445195 15 41
5.1357312 1.0542209 -0.60469532 13 41
5.1401563 1.0223011 -0.60445195 22 41
5.1580276 0.99299669 -0.60591227 210 41
5.1318231 0.95532721 -0.60189629 73 41
5.1493106 0.92593151 -0.60335666 11 41
5.1685863 0.89669687 -0.6050604 33 41
5.2092328 0.87086582 -0.60944146 332 41
5.2213378 0.83999127 -0.61029333 312 41
5.2205081 0.8070268 -0.60956317 45 41
5.1222138 1.0844282 -0.6677292 180 42
5.1316833 1.0535762 -0.6681301 301 42
5.1419396 1.022842 -0.66866463 351 42
5.1451993 0.99071056 -0.66826373 329 42
5.1599503 0.96075356 -0.6694665 286 42
5.1394124 0.92434007 -0.66585821 25 42
5.1567044 0.89482021 -0.66746187 258 42
5.2080393 0.87084079 -0.67374301 342 42
5.1672974 0.83147216 -0.66746187 177 42
5.1879721 0.80217236 -0.66960013 13 42
5.1405621 1.0233119 -0.73454684 331 43
5.1205168 0.98669076 -0.73060727 209 43
5.1556501 0.96069658 -0.73498458 15 43
5.1643686 0.92957044 -0.73542231 19 43
5.1699753 0.89786494 -0.73542231 267 43
5.1929493 0.86906886 -0.73804873 319 43
5.1933007 0.83640158 -0.73731917 202 43
5.2061563 0.80573249 -0.73848641 49 43
5.1403427 0.98977572 -0.79789436 256 44
5.1492314 0.95875859 -0.7983678 40 44
5.175427 0.93081462 -0.80168188 93 44
5.1722841 0.89752251 -0.80026156 349 44
5.1699023 0.86446679 -0.79899907 231 44
5.1858335 0.83445346 -0.800735 17 44
5.1918321 0.80276889 -0.80089283 11 44
5.2138062 0.93677777 -0.28407434 142 36
5.1947455 0.99913645 -0.34835628 390 37
5.2027392 0.96760839 -0.34850171 412 37
5.2213392 0.93796206 -0.34944701 99 37
5.2152042 0.90386045 -0.34857443 21 37
5.2216358 0.87200809 -0.34864715 27 37
5.167417 1.0930554 -0.41434592 281 38
5.1808591 1.062729 -0.41494262 291 38
5.1960773 1.0326672 -0.41570982 186 38
5.2032943 1.0009533 -0.41579506 325 38
5.2093382 0.96900773 -0.41579506 292 38
5.2220507 0.93825841 -0.41639176 298 38
5.2228007 0.90534836 -0.41596556 89 38
5.3116174 0.39075866 -0.87723482 228 45
5.3276806 0.35909069 -0.87960809 543 45
5.3396206 0.32699844 -0.88130331 384 45
5.2727599 0.38898516 -0.93603808 38 46
5.3075447 0.39154872 -0.67935586 187 42
5.3157797 0.35937551 -0.68015772 119 42
5.3189197 0.39315876 -0.74811649 49 43
5.3538036 0.36272898 -0.75293154 494 43
5.3598781 0.33011597 -0.75351518 368 43
5.3338308 0.39348599 -0.8160429 392 44
5.3351593 0.36068428 -0.81588507 408 44
5.3431859 0.3283045 -0.81683195 419 44
5.3500295 0.29578534 -0.81762105 461 44
5.3616066 0.26343647 -0.81919914 65 44
5.2332273 0.64440101 -0.86808062 271 45
5.2449136 0.61319566 -0.8694368 299 45
5.2378025 0.5798068 -0.86757207 85 45
5.250083 0.54858106 -0.86909777 55 45
5.2592349 0.51693654 -0.87011492 373 45
5.2672148 0.48510975 -0.8709625 349 45
5.2573276 0.45168212 -0.86875874 31 45
5.2609825 0.41949379 -0.86892825 28 45
5.2541251 0.61537248 -0.93658221 71 46
5.2275014 0.57976401 -0.93095952 19 46
5.2710614 0.55187327 -0.93839598 86 46
5.2694554 0.51903862 -0.93748909 325 46
5.2774372 0.48714769 -0.93839598 339 46
5.2950239 0.45602143 -0.94111663 324 46
5.2987022 0.42360148 -0.94129801 331 46
5.2287354 0.61130065 -0.99640566 139 47
5.2602396 0.54964459 -1.0012316 157 47
5.2527719 0.51629984 -0.99910814 367 47
5.2441168 0.48297733 -0.99679172 210 47
5.2329998 0.77535474 -1.0656844 19 48
5.2542686 0.77927285 -0.48122892 20 39
5.2678194 0.74828029 -0.48210403 312 39
5.27527 0.71634585 -0.48239574 369 39
5.274631 0.6833235 -0.48190957 343 39
5.2895899 0.65228838 -0.48297918 269 39
5.3023891 0.62086344 -0.48385429 384 39
5.3140121 0.58919609 -0.48463216 447 39
5.3244562 0.55730557 -0.48531282 483 39
5.3218327 0.52403837 -0.48472941 486 39
5.2455711 0.77814931 -0.54659534 15 40
5.2581201 0.74706644 -0.54747182 107 40
5.2704844 0.71585882 -0.54834831 280 40
5.2797065 0.68414456 -0.54889607 20 40
5.2847915 0.65185761 -0.54900563 17 40
5.2906661 0.61964953 -0.54922479 21 40
5.2993083 0.58772242 -0.54977256 220 40
5.2949061 0.55436802 -0.54889607 30 40
5.2883158 0.520895 -0.54780048 10 40
5.3270445 0.49172318 -0.5517447 120 40
5.3329325 0.45928344 -0.55207336 160 40
5.2312527 0.77585417 -0.61029333 134 41
5.253603 0.74625772 -0.61248386 357 41
5.254149 0.71347308 -0.61199707 307 41
5.2633491 0.68185943 -0.61260557 282 41
5.266449 0.64942962 -0.61248386 273 41
5.2880793 0.61918473 -0.61467439 363 41
5.2937517 0.58694524 -0.61491781 393 41
5.2863951 0.55331337 -0.61357915 252 41
5.3005562 0.52193856 -0.61491781 92 41
5.3155189 0.49050218 -0.61637813 409 41
5.3243618 0.45838964 -0.61710835 472 41
5.3340001 0.42626634 -0.61796021 503 41
5.2607799 0.71454138 -0.67761856 36 42
5.2483573 0.68008465 -0.67534667 19 42
5.2583327 0.64859599 -0.67614853 22 42
5.2799311 0.61839306 -0.67855406 152 42
5.2668815 0.5841285 -0.67628217 71 42
5.2812085 0.55293489 -0.6777522 23 42
5.2933784 0.52139324 -0.67895496 31 42
5.3260827 0.49163446 -0.68296415 349 42
5.3161635 0.45784047 -0.68122685 359 42
5.3060298 0.42418674 -0.67948949 37 42
5.2256799 0.7759558 -0.74067509 291 43
5.2293634 0.74373752 -0.74052918 307 43
5.2436309 0.71297181 -0.7419883 275 43
5.2568946 0.64917803 -0.74271786 287 43
5.266674 0.61760271 -0.74359328 317 43
5.2762637 0.58593184 -0.74446875 337 43
5.2620497 0.55168557 -0.74184239 24 43
5.2899485 0.5218212 -0.74549013 282 43
5.2960057 0.48962671 -0.74592787 473 43
5.3107376 0.45814475 -0.74767882 241 43
5.3055601 0.42491648 -0.74651152 30 43
5.2243204 0.70959198 -0.80389124 18 44
5.2364101 0.67853743 -0.80515379 20 44
5.2581158 0.64856923 -0.80799443 62 44
5.2531695 0.61526066 -0.80657411 199 44
5.2607718 0.58345133 -0.80720532 18 44
5.2681808 0.55157191 -0.80783659 14 44
5.2970171 0.5217514 -0.81193978 215 44
5.3040519 0.48960245 -0.81257099 328 44
5.2902308 0.45560902 -0.80988818 189 44
5.3067079 0.42424086 -0.81209755 35 44
5.2296395 0.90730298 -0.48084 10 39
5.2321634 0.87470448 -0.48054829 118 39
5.2354665 0.84226745 -0.4803538 330 39
5.2434869 0.81058419 -0.48064551 229 39
5.2268534 0.90698743 -0.54681444 72 40
5.2367687 0.80971366 -0.54615706 47 40
5.3091855 0.75431794 -0.15707146 252 34
5.2782249 0.78189254 -0.21936081 324 35
5.3056679 0.75272316 -0.22046432 33 35
5.2844529 0.71665841 -0.21921688 206 35
5.2697101 0.78079122 -0.2858901 190 36
5.3218389 0.75516999 -0.28879535 15 36
5.2581234 0.71324891 -0.28461906 67 36
5.3039775 0.68634933 -0.28716114 412 36
5.3378096 0.65745026 -0.28897694 298 36
5.2486405 0.77750343 -0.34951973 108 37
5.2671366 0.74724805 -0.35053778 52 37
5.2973175 0.71840584 -0.35242838 419 37
5.3026147 0.6860168 -0.35250109 381 37
5.3096938 0.65383399 -0.35271925 389 37
5.3066716 0.62042975 -0.35221022 319 37
5.2247195 0.7741285 -0.41434592 14 38
5.2352901 0.74289513 -0.41485739 16 38
5.2822046 0.71651369 -0.41852283 287 38
5.2785969 0.68306684 -0.4178409 132 38
5.2510438 0.64676988 -0.41511312 12 38
5.2687683 0.61615711 -0.41630653 16 38
5.310082 0.5879811 -0.41954577 89 38
5.3274632 0.55683708 -0.42073917 251 38
5.2554121 0.84454256 -0.21873711 208 35
5.276289 0.8147223 -0.21950476 442 35
5.2410932 0.9085179 -0.2854059 326 36
5.251492 0.87716395 -0.28570852 305 36
5.2587461 0.84524155 -0.28582957 340 36
5.2618608 0.81265402 -0.28570852 389 36
5.2593822 0.84518147 -0.35104677 297 37
5.2644696 0.81289458 -0.35104677 376 37
5.2361197 0.87459743 -0.41664749 263 38
5.2345014 0.84134644 -0.41605079 371 38
5.2494121 0.81073236 -0.41690323 276 38
