# .PCD v0.7 - Point Cloud Data file format
VERSION 0.7
FIELDS x y z intensity ring
SIZE 4 4 4 4 1
TYPE F F F F U
COUNT 1 1 1 1 1
WIDTH 334
HEIGHT 1
VIEWPOINT 0 0 0 1 0 0 0
POINTS 334
DATA ascii
4.6933322 -0.4907634 -1.2398771 123 53
4.6787214 -0.51827967 -1.2367349 124 53
4.678329 -0.54731369 -1.2375205 130 53
4.7093668 -0.58024931 -1.2469472 155 53
4.7698474 -0.61741972 -1.2644912 105 53
4.754149 -0.46733114 -1.314712 48 54
4.725358 -0.49379152 -1.3073424 116 54
4.7031155 -0.52065784 -1.3018833 111 54
4.6816778 -0.54738164 -1.2966973 134 54
4.6820502 -0.57656825 -1.2977891 120 54
4.7060924 -0.60886782 -1.3057047 85 54
4.7634773 -0.49808061 -1.3760372 128 55
4.73841 -0.52487653 -1.3695126 102 55
4.6836677 -0.54793692 -1.3541938 129 55
4.6840243 -0.57713318 -1.3553286 137 55
4.683248 -0.60623151 -1.3561796 119 55
4.7145991 -0.63971788 -1.3666757 104 55
4.6939449 -0.54798931 -1.4173126 121 56
4.6885977 -0.57654709 -1.4167229 130 56
4.7001338 -0.60726517 -1.4214408 126 56
4.7228322 -0.63968641 -1.4296974 124 56
4.7878814 -0.67844504 -1.4512231 85 56
4.7304153 -0.55256003 -1.4869419 44 57
4.6881876 -0.57681721 -1.4744153 106 57
4.6807823 -0.60508513 -1.4731932 151 57
4.6911354 -0.63570899 -1.4777761 169 57
4.7126017 -0.66808355 -1.4860253 126 57
4.7875381 -0.7086798 -1.5116898 89 57
4.7183781 -0.58187807 -1.5418866 94 58
4.7071915 -0.60984272 -1.5393587 75 58
4.6958399 -0.63769203 -1.5368309 102 58
4.6993532 -0.66756123 -1.5393587 116 58
4.7233233 -0.70056158 -1.5488381 82 58
4.7489395 -0.73417115 -1.5589496 80 58
4.7109494 -0.63922352 -1.6009192 74 59
4.6863499 -0.66520011 -1.593735 104 59
4.6962051 -0.69601762 -1.5986333 91 59
4.9474907 -0.67101038 -1.2528095 161 52
4.8902979 -0.66351426 -1.298532 188 53
4.8956904 -0.69486201 -1.3011506 63 53
4.8452611 -0.65713733 -1.3466475 121 54
4.8706646 -0.69104654 -1.355109 179 54
4.9024949 -0.72627944 -1.3654811 50 54
4.8681912 -0.69096565 -1.4137667 125 55
4.8989582 -0.72601628 -1.424263 125 55
4.8450685 -0.71690613 -1.47039 113 56
4.9043846 -0.66629106 -1.1792995 65 51
4.7956557 -0.50198668 -0.13753028 23 34
4.7408361 -0.5256716 -0.13565202 83 34
4.7315664 -0.55405313 -0.1354353 65 34
4.7076387 -0.46472698 -0.19028607 13 35
4.7295341 -0.49620324 -0.19148552 25 35
4.7164726 -0.52411306 -0.19100575 9 35
4.711184 -0.55281061 -0.19090979 25 35
4.7037377 -0.58121848 -0.19071788 14 35
4.7824421 -0.41260237 -0.25393242 32 36
4.7768383 -0.44166318 -0.25375086 75 36
4.7472186 -0.46831694 -0.25211665 151 36
4.715467 -0.49441561 -0.25036138 27 36
4.7024236 -0.5222373 -0.24975614 21 36
4.6882257 -0.54980123 -0.24909036 18 36
4.687736 -0.57892454 -0.24927193 28 36
4.6831055 -0.60754853 -0.2492114 24 36
4.7927537 -0.44343194 -0.31359804 108 37
4.7581806 -0.46970382 -0.31127113 161 37
4.6907334 -0.49214202 -0.3065446 20 37
4.6876254 -0.52091455 -0.3065446 19 37
4.6853313 -0.54978347 -0.30661732 20 37
4.6789002 -0.57815558 -0.30639917 33 37
4.6792212 -0.60736644 -0.30669001 17 37
4.6734295 -0.63579774 -0.3065446 32 37
4.6684532 -0.66432118 -0.30647188 20 37
4.6613154 -0.45983544 -0.36320013 53 38
4.6504788 -0.48759624 -0.36251816 82 38
4.6206627 -0.51315027 -0.36021662 83 38
4.672843 -0.54799592 -0.36499023 40 38
4.672359 -0.57702422 -0.36524594 11 38
4.6707067 -0.60593897 -0.36541644 11 38
4.6599898 -0.63364613 -0.36481974 29 38
4.6806746 -0.66573697 -0.36695081 39 38
4.6222606 -0.42688838 -0.41578943 46 39
4.615592 -0.45485258 -0.41540051 49 39
4.6087546 -0.48275101 -0.41501155 41 39
4.5977921 -0.51014465 -0.41423368 62 39
4.5985293 -0.53880888 -0.4146226 85 39
4.6030393 -0.56798786 -0.41540051 111 39
4.6044025 -0.5968594 -0.41588667 93 39
4.6065712 -0.62590271 -0.41647008 83 39
4.6016588 -0.65401655 -0.41637287 95 39
5.2012138 0.77046734 -0.86553782 294 45
5.2019405 0.73798424 -0.86485976 259 45
5.208324 0.70631713 -0.86519879 224 45
5.1773276 0.76803088 -0.92624372 156 46
5.2179675 0.7413646 -0.93295467 19 46
5.1687007 0.76564372 -0.98868424 262 47
5.1752439 0.73419082 -0.9890703 261 47
5.200069 0.70519578 -0.99312401 102 47
5.1819177 0.67037511 -0.98868424 240 47
5.1820383 0.63808632 -0.98791206 231 47
5.2180157 0.61004496 -0.99428225 158 47
5.2116971 0.77219999 -1.0611855 26 48
5.1979227 0.73759544 -1.0573001 20 48
5.1800408 0.70266312 -1.0525967 21 48
5.1959043 0.67237234 -1.0550506 187 48
5.2028465 0.64083701 -1.0556641 303 48
5.2095976 0.60924178 -1.0562776 324 48
5.1744571 0.7692585 -1.1200824 165 49
5.1645823 0.73542637 -1.1168358 75 49
5.1738338 0.70438284 -1.117918 207 49
5.180963 0.67300147 -1.1185673 255 49
5.1995282 0.64299959 -1.1218139 115 49
5.1664243 0.9608463 -0.86502928 64 45
5.156703 0.92633617 -0.86231691 342 45
5.1622901 0.89467782 -0.86231691 303 45
5.1647663 0.8624981 -0.86180836 266 45
5.1991515 0.83548886 -0.86689401 70 45
5.1983366 0.80266809 -0.86587685 236 45
5.1452923 0.8928408 -0.92406714 280 46
5.1623135 0.86319846 -0.92624372 31 46
5.1840186 0.83416152 -0.92932713 13 46
5.1900115 0.80248749 -0.92950851 19 46
5.1798611 0.86502236 -0.99389619 126 47
5.1589155 0.82901394 -0.98868424 288 47
5.1639051 0.79734385 -0.98868424 267 47
5.1604252 0.7969957 -1.0513697 305 48
5.1182561 1.1822397 -0.47549203 360 39
5.1399794 1.1540862 -0.47695056 366 39
5.1421022 1.1214647 -0.47646439 421 39
5.152781 1.0907176 -0.47685334 240 39
5.1778994 1.0628866 -0.47870082 19 39
5.1843238 1.0310956 -0.47870082 14 39
5.1876211 0.99870074 -0.47840911 27 39
5.1838675 0.96502763 -0.47743675 215 39
5.1955681 0.93426001 -0.47802016 23 39
5.2070861 0.90338504 -0.47860357 16 39
5.2095866 0.87092501 -0.47831187 97 39
5.1136203 1.1813533 -0.54056948 101 40
5.1188331 1.1495191 -0.54035032 258 40
5.1287036 1.1187241 -0.54067904 301 40
5.1413059 1.0884688 -0.54133642 298 40
5.1527562 1.057901 -0.54188418 262 40
5.1640248 1.0272336 -0.54243201 339 40
5.1633983 0.99421334 -0.54166508 326 40
5.1762419 0.96378571 -0.54243201 315 40
5.1683617 0.92954451 -0.54089814 193 40
5.198452 0.90206128 -0.54363716 91 40
5.2146735 0.87194961 -0.54484236 367 40
5.2238507 0.84056789 -0.54528058 322 40
5.2200694 0.80713284 -0.54429454 53 40
5.1185284 1.116318 -0.60420853 300 41
5.1233397 1.0844787 -0.60396516 16 41
5.1376758 1.0546205 -0.60493869 17 41
5.1557312 1.0254024 -0.60639906 10 41
5.1551037 0.99243313 -0.60554719 199 41
5.1767082 0.96369326 -0.60749435 52 41
5.1981535 0.93472552 -0.60944146 23 41
5.2008576 0.90230304 -0.60907638 32 41
5.206296 0.8703742 -0.60907638 335 41
5.2234511 0.80748236 -0.60992825 49 41
5.1076703 1.0813503 -0.66572458 191 42
5.1326542 1.0537754 -0.66826373 320 42
5.1467996 1.0238085 -0.66933286 381 42
5.1597967 0.9935202 -0.67026836 357 42
5.1648216 0.96166021 -0.67013472 324 42
5.1969604 0.93468589 -0.67374301 19 42
5.1713514 0.89736068 -0.6694665 274 42
5.1963096 0.86888039 -0.67213929 382 42
5.1790385 0.83336055 -0.66906559 176 42
5.2036428 0.80459416 -0.67173839 16 42
5.144443 1.0240853 -0.73513049 334 43
5.1554866 0.99343741 -0.73586005 190 43
5.1751003 0.96432537 -0.73790282 8 43
5.1848145 0.93325531 -0.73848641 16 43
5.1738739 0.89854294 -0.73600596 221 43
5.1802654 0.86694324 -0.73615187 344 43
5.1815805 0.83451134 -0.73556823 185 43
5.1875811 0.80285352 -0.73571414 41 43
5.1364636 0.98902917 -0.79726309 247 44
5.1443772 0.95785517 -0.79757875 54 44
5.1501579 0.92627186 -0.79757875 82 44
5.1713114 0.89735377 -0.80010372 344 44
5.1718502 0.86479235 -0.79931468 257 44
5.1663351 0.83131737 -0.79757875 17 44
5.1830492 0.80141151 -0.79947251 13 44
5.2216659 0.93818933 -0.28455853 116 36
5.2074771 1.0015881 -0.34930161 360 37
5.2135248 0.96961677 -0.34930161 377 37
5.2164311 0.93707925 -0.34908345 85 37
5.1683917 1.0932615 -0.41443118 284 38
5.1691465 1.0603274 -0.41391972 265 38
5.1804414 1.0295608 -0.41434592 194 38
5.1876397 0.99794304 -0.41443118 278 38
5.1995425 0.96718633 -0.41494262 288 38
5.2132244 0.93667328 -0.41562459 315 38
5.195312 0.90058541 -0.41357875 75 38
5.3175144 0.39119378 -0.87825191 234 45
5.3129315 0.35809335 -0.8770653 527 45
5.3268328 0.32621253 -0.87909955 399 45
5.3431253 0.39417097 -0.68416691 184 42
5.336544 0.36077777 -0.68296415 148 42
5.3021479 0.39191532 -0.74563605 38 43
5.3419595 0.36192393 -0.75118065 529 43
5.3509917 0.32956669 -0.75220203 399 43
5.3239827 0.39276022 -0.81446475 374 44
5.3440266 0.36128309 -0.81730539 473 44
5.3530421 0.32890937 -0.8184101 465 44
5.3539734 0.29600307 -0.81825227 457 44
5.3734422 0.26401713 -0.8210929 83 44
5.2252655 0.67599273 -0.86740255 262 45
5.2371397 0.64488369 -0.86875874 272 45
5.2439346 0.61308098 -0.86926728 284 45
5.2319255 0.57915491 -0.86655492 97 45
5.2638054 0.55001795 -0.87147105 42 45
5.2719851 0.51819259 -0.87231869 369 45
5.2789907 0.48619696 -0.87299675 373 45
5.2750015 0.45320448 -0.87181014 20 45
5.2727709 0.42043641 -0.8709625 26 45
5.2409334 0.71184725 -0.93640083 28 46
5.2452025 0.67967606 -0.93640083 28 46
5.2307296 0.64519328 -0.93295467 248 46
5.2531481 0.61525816 -0.93640083 50 46
5.2900572 0.5866971 -0.94256765 12 46
5.263237 0.55105466 -0.93694496 83 46
5.2772846 0.51980925 -0.93894011 349 46
5.2862506 0.48796058 -0.94002837 318 46
5.2852259 0.45517832 -0.93930286 403 46
5.2977223 0.42352319 -0.94111663 325 46
5.2372637 0.57974702 -0.99737084 15 47
5.238771 0.54739654 -0.99698472 163 47
5.2508192 0.5161075 -0.99872208 356 47
5.2626805 0.48469114 -1.0004594 232 47
5.2278314 0.57887971 -1.059345 324 48
5.2483616 0.77839547 -0.48064551 27 39
5.2806287 0.7501027 -0.4833681 281 39
5.2811871 0.71715069 -0.48297918 338 39
5.2854881 0.68473244 -0.48297918 380 39
5.2727981 0.65021396 -0.48132616 235 39
5.3004122 0.62063152 -0.4836598 363 39
5.3110447 0.58886641 -0.48434046 391 39
5.3165374 0.55647498 -0.48453492 467 39
5.3248043 0.52433163 -0.48502111 534 39
5.2318063 0.77610838 -0.54506147 15 40
5.2478309 0.71278358 -0.5458284 258 40
5.2767491 0.68376154 -0.54856741 18 40
5.2897239 0.65246564 -0.54955345 20 40
5.3044877 0.62126732 -0.5507586 22 40
5.2963448 0.58739394 -0.5494439 185 40
5.3206091 0.5570572 -0.5517447 14 40
5.3288732 0.52488685 -0.55229247 19 40
5.3448606 0.49336642 -0.55371678 110 40
5.2883682 0.45544872 -0.5471431 182 40
5.2341981 0.77629167 -0.61065841 162 41
5.2477069 0.74541885 -0.6117537 334 41
5.2551322 0.71360683 -0.61211878 282 41
5.2653179 0.68211496 -0.61284894 318 41
5.2753148 0.65052485 -0.61357915 288 41
5.2841358 0.61872214 -0.6141876 356 41
5.2878327 0.58628762 -0.6141876 390 41
5.2972536 0.5544523 -0.61491781 278 41
5.287715 0.52067131 -0.61333573 96 41
5.3224373 0.49114209 -0.61723 488 41
5.333262 0.45915782 -0.61820358 568 41
5.335979 0.42642489 -0.61820358 442 41
5.2366729 0.74402082 -0.67494577 282 42
5.2352476 0.71107537 -0.67414391 31 42
5.2513056 0.68046647 -0.67574757 27 42
5.2642345 0.64932346 -0.67695034 7 42
5.2710724 0.61735618 -0.6773513 139 42
5.2580161 0.58314598 -0.67507941 57 42
5.2950077 0.55437863 -0.67962313 12 42
5.3022547 0.52226692 -0.68015772 24 42
5.3063459 0.48981407 -0.68029135 373 42
5.3171506 0.45792544 -0.68136048 350 42
5.3050423 0.42410785 -0.67935586 30 42
5.2274046 0.74345851 -0.74023736 260 43
5.2406902 0.71257126 -0.74155056 266 43
5.2390776 0.67963666 -0.74067509 205 43
5.2627854 0.64990681 -0.74359328 319 43
5.2725692 0.61829537 -0.74446875 314 43
5.2723308 0.58549422 -0.7438851 305 43
5.2807436 0.5536496 -0.74461466 25 43
5.2840414 0.52123719 -0.74461466 267 43
5.2969909 0.48971799 -0.74607378 449 43
5.2998958 0.45720705 -0.74607378 270 43
5.2986569 0.42436212 -0.74549013 31 43
5.2442446 0.67955202 -0.80641627 7 44
5.2257743 0.64458245 -0.80278659 47 44
5.246304 0.61445707 -0.80546939 183 44
5.2735305 0.58486545 -0.80925691 21 44
5.2799664 0.55280495 -0.80973035 16 44
5.2950516 0.52155793 -0.81162411 180 44
5.2893023 0.48824206 -0.81020379 348 44
5.303021 0.45670956 -0.81193978 141 44
5.2801304 0.42211813 -0.80783659 21 44
5.384377 0.8681801 -1.1694306 4 49
5.2452927 0.84385043 -0.48132616 343 39
5.2336512 0.80906153 -0.47967315 200 39
5.2242775 0.84046489 -0.61065841 306 41
5.2884078 0.75136739 -0.15631293 264 34
5.290081 0.78365153 -0.21993656 330 35
5.250289 0.74485415 -0.21777754 20 35
5.3032584 0.71921289 -0.22012848 220 35
5.2845211 0.78298455 -0.286798 175 36
5.2566128 0.74591923 -0.28480065 20 36
5.2937317 0.71807641 -0.286798 70 36
5.3029876 0.6862213 -0.28710061 471 36
5.298182 0.65257233 -0.28655589 296 36
5.2723179 0.78101617 -0.35126492 103 37
5.2414632 0.74360007 -0.34864715 48 37
5.2864466 0.71692914 -0.35162851 402 37
5.2966805 0.68524772 -0.35206479 417 37
5.3067245 0.65346766 -0.35250109 410 37
5.315587 0.62147403 -0.35286468 301 37
5.2651296 0.78011286 -0.4178409 21 38
5.2678442 0.7475121 -0.4176704 27 38
5.2752934 0.71557671 -0.41792613 312 38
5.2855139 0.68396139 -0.4184376 141 38
5.2836776 0.65078688 -0.41792613 18 38
5.2885609 0.61847025 -0.4180114 24 38
5.314043 0.58841944 -0.41988674 77 38
5.3036799 0.55435294 -0.41869333 229 38
5.2771077 0.84803385 -0.21979262 222 35
5.2831988 0.81579083 -0.2198406 430 35
5.238143 0.90800667 -0.28522432 319 36
5.2524767 0.87732828 -0.28576905 329 36
5.2538185 0.84444988 -0.28552696 346 36
5.2628469 0.81280625 -0.28576905 354 36
5.260407 0.9117049 -0.35191938 20 37
5.2649183 0.879246 -0.35184667 25 37
5.2613521 0.84549838 -0.35119221 268 37
5.2615123 0.81243736 -0.35082862 388 37
5.2243266 0.87262851 -0.41562459 257 38
5.2443385 0.84292686 -0.41690323 339 38
5.2484274 0.81058031 -0.41681799 283 38
