# .PCD v0.7 - Point Cloud Data file format
VERSION 0.7
FIELDS x y z intensity ring
SIZE 4 4 4 4 1
TYPE F F F F U
COUNT 1 1 1 1 1
WIDTH 1281
HEIGHT 1
VIEWPOINT 0 0 0 1 0 0 0
POINTS 1281
DATA ascii
2.9527249 -16.986406 0.48423368 593 29
2.9006534 -17.315752 0.49245048 129 29
2.9446082 -18.264866 0.5169968 192 29
2.8407495 -18.335936 0.51840097 450 29
2.7242186 -18.326323 0.51769888 432 29
2.6060801 -18.303106 0.51665878 482 29
2.4890037 -18.284084 0.51574868 502 29
2.3714859 -18.258369 0.51468259 543 29
2.2556052 -18.241821 0.5138765 587 29
2.1390839 -18.216597 0.51286238 546 29
2.0226254 -18.187651 0.51177031 478 29
1.9074385 -18.165916 0.51088625 483 29
1.7927914 -18.145445 0.51005417 562 29
1.6785597 -18.125246 0.50924808 517 29
1.5642987 -18.100348 0.50833797 528 29
1.4499266 -18.06875 0.50727189 557 29
1.3367404 -18.046402 0.50646579 502 29
1.2246966 -18.035315 0.50597173 575 29
1.1125308 -18.018543 0.50534767 497 29
1.0005616 -18.000076 0.50469762 478 29
0.88871253 -17.977921 0.50396955 531 29
0.77721637 -17.95607 0.50326753 607 29
0.66568744 -17.924538 0.50233144 601 29
0.55494714 -17.904305 0.50170738 535 29
0.4445799 -17.887386 0.50118732 606 29
0.33429098 -17.861792 0.50045925 585 29
0.22439612 -17.840517 0.49986118 533 29
0.11482048 -17.825563 0.49944514 532 29
0.0054345615 -17.80394 0.49887308 525 29
-0.10369896 -17.784645 0.49837902 517 29
-0.21252412 -17.758684 0.49772897 583 29
-0.3213411 -17.749048 0.49752095 574 29
-0.42966127 -17.722759 0.49689689 596 29
-0.53724682 -17.681818 0.4959088 616 29
-0.64449191 -17.644224 0.49502471 666 29
-0.75218952 -17.626953 0.49468669 617 29
-0.85960209 -17.607029 0.49429664 630 29
-0.96679848 -17.586451 0.49390662 643 29
-1.0741403 -17.571207 0.49367258 620 29
-1.1807952 -17.547329 0.49323055 662 29
-1.287856 -17.531778 0.49302253 620 29
-1.3942153 -17.508598 0.49263248 618 29
-1.5010221 -17.492743 0.49245048 617 29
-1.6074122 -17.473248 0.49219045 603 29
-1.713522 -17.452112 0.49190441 649 29
-1.8197441 -17.433315 0.49169639 644 29
-1.92591 -17.414865 0.49151438 67 29
-1.3767887 -11.783792 0.34436637 69 29
-2.1356902 -17.359163 0.49070829 306 29
-2.243957 -17.359612 0.49107233 700 29
-2.3457355 -17.310844 0.49016225 457 29
-2.3938477 -16.886358 0.47939724 594 29
-2.4993176 -16.884209 0.47973526 651 29
-2.6057653 -16.887327 0.48022932 630 29
-2.7117114 -16.885826 0.48061934 619 29
-2.8188887 -16.890562 0.4811914 681 29
-2.9240091 -16.881813 0.48142543 660 29
-2.2811375 -12.704427 0.37151295 29 29
-2.3685434 -12.741299 0.37286508 89 29
-2.4464893 -12.725544 0.37283909 111 29
-2.5190752 -12.682838 0.37211102 31 29
-2.543469 -12.406645 0.36519435 153 29
-2.5854449 -12.229424 0.36090395 413 29
-0 -0 0 815 29
-2.6922469 -12.004612 0.35578147 895 29
-2.7696743 -12.004427 0.35622349 946 29
-2.8511209 -12.020278 0.35710758 1085 29
-2.928371 -12.017126 0.35749763 1106 29
-3.0066597 -12.017358 0.35799167 1082 29
-3.0845647 -12.015144 0.35843372 1068 29
-3.163064 -12.014359 0.35892776 115 29
-3.4275584 -12.702191 0.37798756 36 29
-7.0507545 -25.510576 0.7242105 202 29
-7.1995311 -25.439899 0.72348243 49 29
-7.3871918 -25.504709 0.72644675 265 29
-7.5605841 -25.516411 0.7280069 232 29
-7.7367158 -25.534597 0.72977507 232 29
-7.9095111 -25.539165 0.73120517 234 29
-8.0859699 -25.553059 0.73292136 254 29
-8.2585926 -25.552425 0.73427349 244 29
-8.4327641 -25.554434 0.73572963 224 29
-8.6095047 -25.561895 0.73736781 226 29
-8.7853537 -25.564365 0.73890191 223 29
-8.975112 -25.604319 0.74150217 150 29
-2.584173 -7.2272606 0.23541601 287 29
-2.6202571 -7.1887259 0.23479195 1536 29
-2.6622293 -7.1668901 0.23463593 1722 29
-2.7142894 -7.1719251 0.23523399 1181 29
-2.7758565 -7.2008429 0.23650812 898 29
-2.7915065 -7.1110892 0.23447992 857 29
-2.7994854 -7.0047073 0.23198368 1412 29
-2.8431659 -6.9892502 0.23203568 1480 29
-2.8894374 -6.9799867 0.2322697 1459 29
-2.9485021 -7.0008225 0.23336181 1647 29
-2.9957316 -6.9927077 0.23364784 1742 29
-3.0186241 -6.9283686 0.23234771 1257 29
-3.0477216 -6.8795528 0.23148963 1628 29
-3.1095741 -6.9044771 0.23273775 1235 29
-3.2105298 -7.0134382 0.23640411 1674 29
-3.2556107 -6.9981389 0.23653412 1498 29
-3.2997704 -6.9807429 0.23661213 556 29
-5.747438 -11.97016 0.38115987 31 29
-5.7830977 -11.857396 0.37892365 32 29
-5.8158169 -11.741064 0.37658343 35 29
-5.8122954 -11.555119 0.37221503 34 29
-5.8403544 -11.435548 0.3697708 42 29
-5.9122519 -11.403047 0.36987481 23 29
-5.9555755 -11.316129 0.36839268 58 29
-6.0154796 -11.261737 0.36787263 41 29
-6.0663676 -11.191217 0.36688453 187 29
-6.1209521 -11.128382 0.36613044 40 29
-6.1462579 -11.013792 0.36384222 31 29
-6.0930815 -10.762728 0.35747162 96 29
-6.1679649 -10.740744 0.35793966 195 29
-6.1447134 -10.549791 0.35333723 33 29
-6.1605291 -10.429256 0.35084099 35 29
-6.1689363 -10.298635 0.34803271 104 29
-6.1235685 -10.082007 0.3425982 17 29
-6.1549177 -9.9948711 0.34109005 30 29
-6.1663742 -9.877202 0.33864585 33 29
-6.2012072 -9.7986307 0.33739772 29 29
-5.8661704 -9.1444397 0.3183639 69 29
-5.8856659 -9.0521183 0.31662172 54 29
-5.9042501 -8.9599037 0.31487957 55 29
-5.9152651 -8.8578272 0.31282538 46 29
-5.9224505 -8.7518148 0.31064117 54 29
-5.9229069 -8.6378059 0.30819693 57 29
-5.9421496 -8.5528603 0.3066628 58 29
-5.9461908 -8.447567 0.30447859 106 29
-6.0048761 -8.4206905 0.30479062 136 29
-6.0464811 -8.3699093 0.30434856 46 29
-6.0817871 -8.3108683 0.3036465 33 29
-6.125525 -8.2637568 0.30333447 51 29
-6.1713142 -8.2196198 0.30312645 48 29
-6.1556864 -8.0948572 0.30029219 53 29
-6.1631575 -8.0022821 0.298498 57 29
-6.0627632 -7.7727556 0.29217941 26 29
-6.1245914 -7.7534533 0.29277748 30 29
-6.1782942 -7.7235346 0.2930375 33 29
-6.2375221 -7.7002401 0.29353154 25 29
-6.3391671 -7.7282991 0.29576775 13 29
-6.3960471 -7.7007933 0.29615778 18 29
-6.5165176 -7.7486296 0.29912207 18 29
-6.5775476 -7.724484 0.29966813 47 29
-6.6476641 -7.7104816 0.30057821 53 29
-6.7296867 -7.7094655 0.30195633 31 29
-7.5546131 -8.548254 0.33250925 57 29
-7.6209188 -8.5173845 0.33305529 86 29
-7.6884713 -8.487505 0.33365336 82 29
-7.771482 -8.4740639 0.33484948 95 29
-7.8546162 -8.4599218 0.33604559 84 29
-7.9241767 -8.4305077 0.33672166 83 29
-8.0873804 -8.4990568 0.34093404 162 29
-8.0693369 -8.3765516 0.3383078 25 29
-7.5336699 -7.7249379 0.31643972 5 29
-0 -0 0 8 29
-8.2772694 -8.2817583 0.34033599 28 29
-8.670599 -8.5695543 0.35286918 84 29
-8.7759447 -8.567874 0.35479337 72 29
-8.8801546 -8.5638323 0.35666555 72 29
-9.0005665 -8.5740042 0.35910979 52 29
-8.3432407 -7.8506217 0.33375737 19 29
-9.2756968 -8.6214972 0.36516836 25 29
-9.3748102 -8.6070166 0.36680651 50 29
-9.4940863 -8.6097765 0.36914673 68 29
-9.6055565 -8.6040573 0.37120092 69 29
-9.7262955 -8.6052408 0.37356716 58 29
-9.833106 -8.5927658 0.37543935 71 29
-9.9098606 -8.5531731 0.37627143 49 29
-10.849136 -9.2484474 0.40659031 164 29
-6.6051764 -5.5604243 0.26035237 300 29
-11.040978 -9.1804523 0.40926856 201 29
-11.02294 -9.0516243 0.40677232 160 29
-2.9463391 -2.388201 0.13442239 129 29
-2.9414313 -2.354454 0.13377233 379 29
-2.9252441 -2.3121762 0.13275823 161 29
-2.9504063 -2.302798 0.13312227 308 29
-2.9415236 -2.2669477 0.13236819 180 29
-2.9394712 -2.2367442 0.13184816 150 29
-2.9347622 -2.2048495 0.1312501 132 29
-2.9345894 -2.176672 0.13080806 126 29
-2.9374075 -2.1509438 0.13047002 135 29
-2.9651294 -2.1434257 0.13093807 302 29
-2.9505649 -2.1054404 0.13005398 126 29
-2.9560742 -2.0821133 0.12981996 140 29
-2.9573057 -2.0559435 0.12945592 117 29
-2.9616239 -2.0321007 0.1291959 145 29
-2.9698992 -2.0110862 0.12906589 170 29
-2.9796901 -1.9911584 0.12898788 143 29
-3.0043671 -1.9810966 0.12937792 107 29
-3.0457873 -1.9817157 0.130288 79 29
-3.0763931 -1.9748763 0.13086006 83 29
-3.1129396 -1.9714816 0.13161413 108 29
-3.1631212 -1.976191 0.13278423 349 29
-3.1990118 -1.9714377 0.1335123 142 29
-3.221297 -1.9580058 0.13382433 257 29
-3.3369775 -2.0004272 0.13697064 57 29
-3.3638158 -1.9885669 0.13741268 76 29
-3.4122207 -1.9890444 0.13850479 69 29
-3.6132729 -2.0767169 0.14417332 36 29
-3.6798632 -2.0850766 0.14578548 35 29
-3.7894485 -2.1165938 0.14867175 11 29
-3.8216274 -2.103914 0.1492438 4 29
-0 -0 0 3 29
-3.8903489 -2.0799649 0.15051793 7 29
-3.9242618 -2.0672426 0.15114199 4 29
-10.646529 -5.5274901 0.34779871 277 29
-10.633076 -5.4379315 0.34642059 647 29
-10.627853 -5.3532448 0.34530246 683 29
-10.619308 -5.2674947 0.34410635 678 29
-10.606518 -5.1802964 0.34280622 598 29
-10.598465 -5.0960546 0.34166211 670 29
-10.586165 -5.0103955 0.34041399 691 29
-10.572309 -4.9246583 0.33913988 719 29
-10.569613 -4.8446965 0.33820379 721 29
-10.538999 -4.7526226 0.33648762 601 29
-10.543291 -4.6769204 0.33578557 686 29
-10.53056 -4.5941477 0.33461544 681 29
-10.532827 -4.5184093 0.33388737 779 29
-10.500485 -4.4284396 0.33219722 539 29
-10.483135 -4.3455477 0.3309491 239 29
-10.476274 -4.2675624 0.33001301 699 29
-10.474422 -4.1920547 0.32923293 747 29
-10.473897 -4.1174626 0.32850486 754 29
-10.441147 -4.0307913 0.3268927 869 29
-10.435771 -3.9553092 0.32606062 859 29
-10.430799 -3.880394 0.32525456 798 29
-10.294781 -3.7580268 0.32083413 816 29
-10.277179 -3.6802921 0.31971604 924 29
-10.272216 -3.6075542 0.31896195 873 29
-10.268638 -3.5356674 0.31825989 777 29
-10.240888 -3.4559669 0.31690776 334 29
-10.219192 -3.3789382 0.31573766 79 29
-10.258752 -3.3223326 0.31625772 712 29
-10.283709 -3.2608349 0.31638771 845 29
-8.5984135 -2.6682949 0.26994729 925 29
-8.5974073 -2.610256 0.26947924 1025 29
-8.6008034 -2.5537536 0.26914123 1046 29
-8.6028719 -2.4970291 0.26877719 1056 29
-8.5997591 -2.4390109 0.26828313 1001 29
-8.6058922 -2.383795 0.26804912 964 29
-8.6174622 -2.3301623 0.2679711 995 29
-8.6228981 -2.2749465 0.26773709 950 29
-8.6541204 -2.22648 0.26820514 716 29
-6.457871 -1.6189532 0.20894548 332 29
-9.0235853 -2.2038813 0.27738401 276 29
-10.216611 -2.4290884 0.308925 963 29
-6.5771518 -1.52077 0.21136372 280 29
-10.15885 -2.2840064 0.30661079 175 29
-10.187323 -2.2248306 0.30700082 810 29
-10.189047 -2.1597917 0.30668879 889 29
-10.134545 -2.0833356 0.30489463 179 29
-10.098118 -2.0113428 0.3035945 298 29
-10.101436 -1.9476396 0.30336046 1028 29
-10.106317 -1.8843383 0.30317846 1041 29
-10.119657 -1.8226463 0.30323046 994 29
-10.131634 -1.7606902 0.30325645 1119 29
-10.122529 -1.695186 0.3027364 1101 29
-10.114975 -1.6301783 0.30226836 1057 29
-10.106018 -1.5651742 0.30177432 1055 29
-10.097633 -1.5004885 0.30130628 1076 29
-10.079928 -1.434696 0.30060422 984 29
-10.067741 -1.3699868 0.30005816 998 29
-10.062079 -1.306383 0.29969412 972 29
-10.057009 -1.243023 0.2993561 1012 29
-10.051539 -1.1797745 0.29901806 951 29
-10.055609 -1.1177456 0.29894006 954 29
-10.009585 -1.0504884 0.29756191 173 29
-10.021811 -0.98964107 0.29771793 705 29
-10.012764 -0.92674607 0.29732791 1089 29
-10.004319 -0.86408556 0.29696387 1105 29
-9.9974747 -0.8017236 0.29665184 1144 29
-8.967577 0.21721327 0.1549627 133 30
-8.9430885 0.27153426 0.15465763 663 30
-8.9662352 0.32731593 0.15498924 552 30
-6.6533661 0.28367344 0.12430934 254 30
-8.9555511 0.43702808 0.15490966 709 30
-8.9327326 0.49087194 0.15464437 557 30
-8.9105892 0.54451329 0.15439235 614 30
-9.7929983 0.65881109 0.16617088 277 30
-9.7199631 0.71383142 0.16525567 997 30
-8.9478979 0.71232611 0.15504229 1396 30
-8.9363852 0.76661742 0.15494944 1454 30
-8.9275303 0.82106918 0.15489639 1649 30
-8.9501877 0.87856835 0.15526779 2466 30
-8.9446287 0.93346912 0.15526779 2381 30
-8.9158745 0.98580635 0.1549627 1075 30
-8.911644 1.0407267 0.15498924 969 30
-9.7119331 1.1946701 0.16577296 1070 30
-8.7940769 1.1365463 0.15359651 268 30
-8.8077459 1.1933043 0.15387505 133 30
-8.8428288 1.2533609 0.15444541 1027 30
-8.8191452 1.3052529 0.15423319 802 30
-8.8060293 1.358579 0.15416686 417 30
-8.7758083 1.4090978 0.15387505 457 30
-9.6398439 1.6086063 0.16561379 761 30
-9.6504822 1.6713091 0.16589233 1353 30
-8.7582264 1.5721601 0.15400769 821 30
-8.736618 1.623677 0.15384853 690 30
-8.7598763 1.6836717 0.1542995 1021 30
-8.7621307 1.7399219 0.15447193 1233 30
-8.7463913 1.7926486 0.15440561 1044 30
-8.6990309 1.8386295 0.15391484 777 30
-8.6905165 1.8926095 0.15395464 647 30
-9.5539236 2.1421661 0.16585255 667 30
-8.6344843 1.991695 0.15351692 477 30
-8.6522617 2.0517914 0.1539281 316 30
-8.6550531 2.1086297 0.15414034 595 30
-8.6371012 2.1604829 0.15407401 456 30
-8.6265879 2.2141845 0.1541138 309 30
-8.5964012 2.2627468 0.15388831 488 30
-8.6190405 2.3253496 0.15439235 131 30
-8.5785875 2.3709981 0.15403423 295 30
-8.5792723 2.4279478 0.15424645 215 30
-8.5978279 2.4902813 0.1547107 195 30
-8.5660877 2.5381598 0.1544852 572 30
-8.6527452 2.6217012 0.15590446 245 30
-8.6651506 2.6836197 0.15630238 188 30
-8.6151552 2.7261779 0.15583815 390 30
-8.6477404 2.794981 0.15652788 270 30
-9.4356318 3.1137402 0.16777584 1198 30
-9.4210873 3.1731734 0.16784216 1273 30
-9.4175148 3.2364457 0.16806765 1259 30
-9.4154072 3.3004551 0.16831967 1319 30
-9.4053364 3.3618672 0.16846557 1340 30
-9.3911076 3.4219105 0.16855842 1299 30
-9.3793077 3.4829502 0.16869107 1262 30
-9.3764639 3.5475123 0.16895635 1202 30
-9.3657169 3.6092935 0.16911551 1188 30
-9.2959242 3.6480615 0.16843905 503 30
-9.1340857 3.6493783 0.16644943 1049 30
-9.1180048 3.7079923 0.16654228 1096 30
-9.1070929 3.7688406 0.16671471 1026 30
-9.0939331 3.8289182 0.16686063 991 30
-9.0831356 3.8901572 0.16704631 1045 30
-9.0755959 3.9530048 0.16728507 1031 30
-9.0657978 4.0150967 0.16749729 1097 30
-9.0564909 4.0776267 0.16772279 1108 30
-9.0531216 4.1431069 0.16804112 1187 30
-9.0338755 4.20153 0.16813397 1054 30
-9.0251026 4.2649994 0.168386 1167 30
-9.0176916 4.3293848 0.16866453 1051 30
-9.00354 4.3907714 0.16885023 1097 30
-8.9961414 4.455698 0.16914205 1062 30
-8.9856043 4.5193501 0.16939406 975 30
-8.9772959 4.5844054 0.16968587 1000 30
-8.9729652 4.6518292 0.170044 960 30
-8.9601803 4.7151809 0.17028277 1052 30
-8.9443102 4.7771378 0.17048173 1007 30
-8.7451687 4.7399626 0.16792175 227 30
-8.9104214 4.9005132 0.17086639 587 30
-8.9081259 4.9706864 0.17129083 832 30
-8.1578445 4.6178651 0.16032141 73 30
-8.9097557 5.1159782 0.17225911 397 30
-9.098527 5.2988796 0.17564146 866 30
-9.0167694 5.3256207 0.17488541 711 30
-9.0765648 5.4363379 0.17631793 797 30
-0 0 0 6 30
-2.9759429 1.8321075 0.082328424 21 30
-2.9926355 1.8678071 0.082766138 58 30
-2.9853432 1.888808 0.082832463 49 30
-2.9779058 1.9097896 0.082898781 49 30
-2.9736762 1.9329311 0.083018154 64 30
-2.9692745 1.9560924 0.083137535 54 30
-2.9647002 1.9792722 0.083256915 51 30
-2.9616091 2.0035901 0.08340282 45 30
-2.9591558 2.0285101 0.083561987 36 30
-2.9540441 2.0517633 0.08368136 48 30
-2.9487581 2.0750301 0.083800741 44 30
-2.9424837 2.0977285 0.083906852 55 30
-2.9376624 2.121599 0.084039494 80 30
-2.8721378 2.101203 0.083177328 25 30
-2.838305 2.1033056 0.082832463 26 30
-2.8045554 2.1050727 0.082487591 26 30
-2.7677078 2.1040847 0.08208967 32 30
-2.7286024 2.100894 0.081651956 26 30
-2.6896415 2.0973034 0.081214242 37 30
-2.6461201 2.0895958 0.08069694 43 30
-2.6051383 2.0833077 0.080219433 43 30
-2.5635574 2.0759668 0.079728656 29 30
-2.5283506 2.0732682 0.079343997 28 30
-2.48789 2.0657442 0.078866489 45 30
-2.4491484 2.0590897 0.078415513 32 30
-2.4159122 2.056576 0.078057379 44 30
-2.3812854 2.0524271 0.07767272 34 30
-2.3520744 2.0525339 0.077380911 31 30
-2.3162088 2.0464008 0.07696972 39 30
-2.2864697 2.0452394 0.076664649 37 30
-2.1160281 1.9162458 0.073839389 5 30
-0 0 0 4 30
-2.123863 1.9713228 0.074409746 31 30
-2.0986125 1.9719907 0.074170992 39 30
-2.0828512 1.981384 0.074104674 39 30
-2.0764155 1.9996766 0.074210785 30 30
-2.0719812 2.0200589 0.07435669 44 30
-2.0680861 2.0411642 0.074515864 38 30
-2.0647171 2.0630043 0.074688293 35 30
-2.0597517 2.083457 0.074834198 56 30
-2.0581055 2.1075039 0.075046428 40 30
-2.054853 2.1301689 0.075232126 47 30
-2.0527787 2.154321 0.075444348 42 30
-2.0518556 2.1799836 0.075683102 40 30
-2.0534172 2.2086453 0.075974911 40 30
-2.0513227 2.2337248 0.076200403 41 30
-2.049669 2.2596018 0.076439157 40 30
-2.0431044 2.2803288 0.076585062 28 30
-2.0436506 2.3092976 0.076876871 32 30
-2.0399699 2.3338406 0.077089101 52 30
-0 0 0 39 30
-0 0 0 54 30
-0 0 0 35 30
-0 0 0 53 30
-2.0238955 2.4640939 0.078269608 28 30
-2.0118871 2.4803491 0.078335926 42 30
-2.0085056 2.5074763 0.078587942 7 30
-2.8638783 3.6209269 0.097210757 54 30
-2.8532994 3.653405 0.097462773 117 30
-2.8473136 3.692224 0.097820908 105 30
-2.849438 3.7422447 0.098364733 128 30
-2.845047 3.7844362 0.098775923 128 30
-2.8283272 3.8106546 0.098921828 107 30
-2.7936642 3.8126116 0.098669812 150 30
-2.7883832 3.8547981 0.099081002 43 30
-2.7623541 3.8685796 0.099027939 92 30
-2.7287731 3.8715613 0.098802455 76 30
-2.694689 3.8734562 0.098563701 109 30
-2.6629484 3.8783767 0.098378003 52 30
-0 0 0 4 30
-0 0 0 16 30
-0 0 0 4 30
-2.1180077 3.2528896 0.087461635 45 30
-1.9526509 3.0395072 0.08389359 13 30
-2.0511706 3.2364047 0.086798429 149 30
-2.023854 3.2370589 0.086612731 112 30
-1.9913588 3.2289889 0.08629439 140 30
-1.96995 3.2385838 0.086254604 127 30
-1.9587843 3.265188 0.086480089 133 30
-1.9488933 3.2943583 0.086745374 299 30
-1.9074857 3.2699766 0.086188279 144 30
-1.8828998 3.2738178 0.086068906 150 30
-1.8608041 3.2818301 0.08601585 138 30
-1.7957587 3.2128808 0.08479555 65 30
-1.7779406 3.2273424 0.084848605 43 30
-1.7285302 3.1837053 0.084026232 9 30
-1.7179233 3.211004 0.084278248 21 30
-1.7177684 3.2586372 0.084835343 6 30
-1.7627071 3.3942435 0.08670558 149 30
-1.7359284 3.3934224 0.086533144 157 30
-1.7042783 3.3825774 0.086214811 170 30
-1.6706053 3.3669939 0.085830152 166 30
-1.6468426 3.370892 0.085737303 169 30
-1.623095 3.3746252 0.085644454 162 30
-1.5938027 3.3664451 0.085379168 165 30
-1.5659388 3.3607523 0.085153677 155 30
-1.5444548 3.3684795 0.085127153 186 30
-1.5258125 3.3824503 0.08519347 170 30
-0 0 0 76 30
-0 0 0 155 30
-0 0 0 199 30
-0 0 0 103 30
-0 0 0 119 30
-0 0 0 131 30
-0 0 0 119 30
-0 0 0 41 30
-1.0371649 2.6854148 0.07415773 85 30
-0 0 0 32 30
-0 0 0 15 30
-0.99098843 2.7134435 0.074290372 14 30
-0.98342282 2.74489 0.074648499 7 30
-0.96788734 2.7546461 0.074701555 5 30
-0 0 0 4 30
-0 0 0 5 30
-0 0 0 4 30
-0 0 0 5 30
-0 0 0 7 30
-0.94290352 3.0366979 0.078150228 14 30
-0.97480524 3.2089047 0.080458187 32 30
-0.94001073 3.1640232 0.079755187 24 30
-0.91667622 3.1562877 0.079569489 16 30
-0.89592803 3.157043 0.079503164 19 30
-0.86746317 3.1297181 0.079052188 11 30
-0.85633564 3.1649041 0.079463378 32 30
-0.83307326 3.1555965 0.07926441 18 30
-0.80771488 3.137408 0.078946076 15 30
-0.78747594 3.1384254 0.078893021 17 30
-0.77413607 3.1674819 0.079224624 23 30
-0.75260437 3.1634173 0.079105243 33 30
-0.73588395 3.1796658 0.07926441 30 30
-0.72184396 3.2085102 0.079596013 44 30
-0.69744927 3.1913877 0.079304203 32 30
-0.67329198 3.174087 0.079012394 31 30
-0.66125393 3.2143974 0.079503164 39 30
-0.64112765 3.216433 0.07947664 39 30
-0.62270522 3.2271791 0.079569489 41 30
-0.60509151 3.2427349 0.079728656 61 30
-0.58146048 3.2257211 0.079450108 78 30
-0.56559509 3.2518864 0.079755187 83 30
-0.54447496 3.2483923 0.079662338 82 30
-0.50352859 3.1213655 0.077911474 39 30
-0.50258136 3.2419837 0.079489902 90 30
-0.48150349 3.2370939 0.07938379 175 30
-0.4606455 3.233058 0.079290941 142 30
-0.44066432 3.2348328 0.079277679 149 30
-0.421065 3.239459 0.079304203 162 30
-0.40118012 3.2419815 0.079304203 160 30
-0.38069719 3.2394166 0.079237886 203 30
-0.36015037 3.235729 0.079158299 167 30
-0.34008074 3.235889 0.079131775 182 30
-0.32002273 3.2359245 0.079105243 172 30
-0.29923961 3.2278707 0.0789726 167 30
-0.27873954 3.2216763 0.078866489 199 30
-0.259846 3.2342899 0.079012394 96 30
-0.18742116 2.52583 0.069568343 65 30
-0.17103906 2.5139635 0.069395915 77 30
-0.15524086 2.5089774 0.069316328 89 30
-0.1395103 2.5038927 0.06923674 135 30
-0.12399603 2.5017054 0.069196954 115 30
-0.10864352 2.502419 0.069196954 104 30
-0.093175665 2.500041 0.069157161 112 30
-0.077741079 2.4975674 0.069117367 123 30
-0.062365185 2.4959981 0.069090836 122 30
-0.047048856 2.4963338 0.069090836 139 30
-0.031718198 2.4955757 0.069077574 132 30
-0.016405039 2.4957232 0.069077574 157 30
-0.0010909759 2.494777 0.069064312 130 30
0.014193302 2.4907372 0.069011256 142 30
0.029451936 2.4886036 0.068984725 126 30
0.044666801 2.4853768 0.068944931 158 30
0.059867434 2.4830565 0.068918407 159 30
0.075102054 2.4826427 0.068918407 140 30
0.090260811 2.4801364 0.068891875 146 30
0.10543429 2.4785371 0.068878613 142 30
0.12049399 2.4748473 0.06883882 168 30
0.13556728 2.4720645 0.068812288 156 30
0.150672 2.4701881 0.068799026 165 30
0 0 0 145 30
0 0 0 119 30
0 0 0 103 30
0 0 0 129 30
0 0 0 71 30
0.23748389 2.4221683 0.068255201 92 30
0.2463194 2.3629842 0.067485884 1533 30
0.26081374 2.3614283 0.067485884 5153 30
0.27669063 2.3717015 0.067645051 1787 30
0 0 0 542 30
0 0 0 385 30
0 0 0 389 30
0 0 0 411 30
0.35106912 2.3739674 0.067804217 382 30
0.36471391 2.3658395 0.067724638 252 30
0.37922356 2.3635571 0.067724638 232 30
0.39470664 2.3671033 0.067804217 206 30
0.40768746 2.3557696 0.067684844 235 30
0.42460847 2.3670022 0.067870542 218 30
0.43930686 2.3653355 0.067883804 196 30
0.45362324 2.3616133 0.067870542 157 30
0.46752089 2.3558433 0.067830749 129 30
0.48216811 2.3539097 0.067844011 119 30
0.4959819 2.3479722 0.067804217 181 30
0.51101786 2.3478158 0.067844011 135 30
0.52519536 2.3436601 0.067830749 174 30
0.53979069 2.341368 0.067844011 179 30
0.55414695 2.3380117 0.067844011 187 30
0.56800878 2.3326244 0.067817487 149 30
0.58134007 2.3252153 0.067764424 169 30
0.59932584 2.336132 0.067963392 79 30
0.623577 2.3701224 0.068480693 49 30
0.63810807 2.3662515 0.068480693 38 30
0.65847623 2.3834946 0.068772502 25 30
0.68915588 2.4361739 0.069555081 9 30
0.69407493 2.3973243 0.069077574 14 30
0.91588825 3.0919125 0.078747116 181 30
0.93513262 3.0871916 0.078760378 204 30
0.95494521 3.0842609 0.078800172 212 30
0.97596383 3.0850165 0.078893021 199 30
0.99764276 3.087533 0.079012394 193 30
1.0193892 3.0898993 0.079131775 186 30
1.0396061 3.0873766 0.07918483 223 30
1.0604804 3.0866134 0.07926441 218 30
1.0817152 3.0866535 0.079357259 196 30
0 0 0 218 30
0 0 0 195 30
0 0 0 195 30
0 0 0 210 30
0 0 0 200 30
0 0 0 218 30
1.2254968 3.0680013 0.079794981 223 30
1.2473123 3.0678339 0.079901092 214 30
0 0 0 197 30
0 0 0 206 30
0 0 0 218 30
0 0 0 202 30
0 0 0 243 30
0 0 0 224 30
1.3966155 3.0523612 0.080497973 681 30
1.4039321 3.0192552 0.080139846 78 30
0 0 0 49 30
0 0 0 55 30
0 0 0 95 30
0 0 0 54 30
0 0 0 50 30
0 0 0 48 30
0 0 0 57 30
1.3589925 2.5830569 0.074688293 109 30
1.3748162 2.5746696 0.074688293 106 30
1.3977358 2.5793715 0.074887253 62 30
1.4130543 2.5698705 0.074873991 56 30
1.4307451 2.5646443 0.074927047 44 30
1.4494103 2.561038 0.075006634 99 30
1.4700766 2.5607677 0.075139277 159 30
0 0 0 113 30
1.5176637 2.5700846 0.075563729 119 30
0 0 0 107 30
0 0 0 94 30
0 0 0 78 30
0 0 0 120 30
0 0 0 91 30
0 0 0 178 30
0 0 0 200 30
1.6479957 2.5017049 0.075709634 203 30
0 0 0 225 30
0 0 0 272 30
0 0 0 232 30
0 0 0 279 30
0 0 0 333 30
1.7610199 2.4702885 0.076213665 162 30
1.7773153 2.4610577 0.076240197 132 30
1.7959255 2.4549477 0.076319784 124 30
0 0 0 155 30
0 0 0 138 30
0 0 0 221 30
0 0 0 167 30
0 0 0 71 30
1.9563431 2.4774175 0.077845156 44 30
2.2631876 2.8300219 0.084039494 254 30
2.2861741 2.8230748 0.084158868 153 30
2.266674 2.764153 0.08338955 51 30
2.2772036 2.7425008 0.083256915 110 30
2.2991369 2.7345986 0.083363026 40 30
2.3184657 2.7234852 0.083416082 40 30
2.5225155 2.9265611 0.087222882 118 30
2.5516031 2.9238343 0.087448373 128 30
2.5807519 2.9208603 0.087673858 157 30
2.6119599 2.9198737 0.087939143 133 30
2.6425812 2.9178727 0.088191159 143 30
2.6665177 2.9082355 0.08831054 170 30
2.6917958 2.8998799 0.088456444 164 30
2.7198107 2.8942378 0.088655405 141 30
2.7388966 2.8789437 0.088681936 206 30
2.8425295 2.9513807 0.090326682 10 30
3.0078871 3.0849314 0.09312541 53 30
3.0330815 3.0728214 0.093244791 60 30
3.0603611 3.06264 0.093403958 67 30
3.0933189 3.057862 0.093669243 70 30
3.1256173 3.0520961 0.093921259 91 30
3.1579609 3.0460484 0.094173275 88 30
3.1917953 3.0410976 0.094451822 90 30
3.2395234 3.0488651 0.094982386 96 30
3.2794094 3.048672 0.095367044 76 30
3.3186777 3.0474274 0.095738441 86 30
3.3565719 3.0444715 0.096083306 71 30
3.395299 3.0418317 0.09644144 74 30
3.4303746 3.0355179 0.09673325 69 30
3.4624887 3.0262556 0.096972004 96 30
3.4961312 3.0180199 0.097237289 67 30
3.5313246 3.010782 0.097529098 84 30
3.5596759 2.9974294 0.097701535 78 30
3.5833826 2.9800062 0.097794376 79 30
3.569917 2.931946 0.097250551 5 30
3.58551 2.9080968 0.097210757 5 30
3.6009448 2.8841667 0.097170964 5 30
3.616221 2.8601568 0.09713117 5 30
3.6313381 2.8360682 0.097091384 21 30
3.6534226 2.8173964 0.097170964 7 30
3.6801882 2.8021946 0.097330138 154 30
3.7124996 2.7909758 0.097582154 140 30
3.750432 2.7836366 0.097927019 138 30
3.7868001 2.7747543 0.09824536 144 30
3.8337324 2.7731478 0.09873613 134 30
3.8840418 2.7733932 0.099279962 106 30
3.9255064 2.7667885 0.099677883 148 30
3.9727814 2.7637756 0.10016865 147 30
4.0135713 2.7557585 0.10055332 163 30
4.0626893 2.7529531 0.10107061 132 30
4.1177416 2.7535377 0.10168076 166 30
4.16711 2.7496951 0.10219806 126 30
4.2065296 2.7388034 0.1025562 113 30
4.2527018 2.7318537 0.10302044 129 30
4.3048582 2.7281861 0.10357753 171 30
4.3596725 2.7255707 0.10417442 130 30
4.4171686 2.7239585 0.10481109 133 30
4.4799333 2.72486 0.10552736 137 30
4.5334411 2.7194352 0.10609771 122 30
4.5758615 2.7068381 0.10649564 133 30
4.6105227 2.6892889 0.10677418 158 30
4.6824145 2.692848 0.10762309 420 30
4.6370883 2.6290565 0.10668133 165 30
4.6609888 2.604944 0.10680071 215 30
4.6768847 2.5762956 0.10680071 207 30
4.68118 2.5413492 0.10662828 227 30
4.6790509 2.5031462 0.106363 234 30
4.6739764 2.4636667 0.10605792 201 30
4.6774688 2.4289515 0.10588549 237 30
4.6816015 2.3947418 0.10572632 210 30
4.68817 2.3619225 0.10560694 258 30
4.6971998 2.330446 0.10552736 185 30
4.7482481 2.3195727 0.10607119 214 30
4.7903266 2.303827 0.10648237 298 30
4.7835855 2.2645521 0.1061773 223 30
4.7856073 2.2296691 0.10600486 164 30
4.8010163 2.2010963 0.1060314 236 30
4.8044047 2.1670747 0.10588549 214 30
4.8048153 2.1318781 0.10569979 231 30
4.7866449 2.0887613 0.10524881 164 30
4.8214254 2.0688131 0.10556715 291 30
4.8192878 2.0329733 0.10535493 289 30
4.8113499 1.9949403 0.10506311 310 30
4.8142395 1.9616084 0.10493048 274 30
4.8066907 1.9242294 0.10465193 346 30
4.8035178 1.8888464 0.1044397 315 30
4.8047562 1.8553755 0.10429379 370 30
4.8160501 1.8258592 0.10429379 341 30
4.8252883 1.7955768 0.10426727 333 30
4.8024011 1.7535913 0.10378976 140 30
4.8111877 1.723417 0.10376323 290 30
4.8169546 1.692207 0.10369691 166 30
4.818738 1.6596889 0.10357753 301 30
4.8221993 1.6278523 0.10348468 339 30
4.8254514 1.5960357 0.10339183 308 30
4.803762 1.5562302 0.10295412 220 30
4.7932043 1.5203784 0.10267557 182 30
4.8129478 1.4941995 0.10282148 89 30
4.8449879 1.4716125 0.10313982 109 30
4.9047289 1.4569432 0.10384282 83 30
5.0134439 1.4558127 0.10522228 84 30
14.12819 4.0080128 0.23078038 265 30
14.111081 3.9097691 0.23021002 318 30
14.10778 3.8158021 0.22983862 312 30
14.182168 3.7426879 0.23054163 155 30
14.229075 3.6618268 0.23087323 343 30
14.247396 3.5734768 0.23082018 339 30
14.198146 3.468668 0.22985189 141 30
14.221107 3.381947 0.22987843 290 30
14.204572 3.2860615 0.22937438 164 30
14.180568 3.1889708 0.2287775 398 30
19.192711 4.1924276 0.29657039 157 30
14.159943 3.0022712 0.22798166 395 30
14.15655 2.9109008 0.22768985 161 30
14.148648 2.8189039 0.22734497 355 30
14.135242 2.726167 0.22693379 196 30
14.122214 2.6338844 0.22653586 290 30
14.112524 2.5425737 0.226191 250 30
14.09929 2.4509673 0.22580634 245 30
14.07363 2.3576374 0.22526251 352 30
14.055255 2.2659876 0.22482479 209 30
14.076799 2.1809282 0.22493091 353 30
14.058267 2.0898094 0.22450645 193 30
14.062905 2.0023828 0.22440034 350 30
14.036286 1.9107976 0.22388305 180 30
14.028907 1.82219 0.22363102 332 30
13.99616 1.730678 0.22304741 246 30
13.999563 1.6439505 0.22295456 313 30
13.996468 1.5565834 0.22278212 306 30
13.996805 1.4697338 0.22266275 291 30
13.964762 1.3797935 0.22211891 391 30
13.944092 1.2914081 0.22173426 270 30
13.940795 1.2048776 0.22158834 406 30
13.930982 1.1179565 0.22136286 315 30
13.925612 1.0315704 0.22120368 370 30
12.812355 0.87012219 0.20632136 251 30
12.811464 0.79112113 0.20624177 261 30
12.869989 0.71549213 0.20695803 522 30
12.879131 0.6367566 0.20702435 708 30
12.888789 0.55797905 0.20710394 286 30
12.890971 0.47884735 0.20709068 297 30
12.894666 0.39977178 0.20710394 301 30
12.898875 0.3206937 0.20713046 308 30
12.899601 0.24152298 0.2071172 302 30
12.89884 0.16234286 0.20709068 312 30
12.907593 0.083245359 0.20719679 314 30
12.907861 0.004044293 0.20719679 269 30
12.909642 -0.075168632 0.20722331 270 30
12.907938 -0.1543673 0.20721005 285 30
12.911747 -0.23365663 0.20727637 278 30
12.913069 -0.31294999 0.20731616 272 30
12.916903 -0.39235952 0.20739575 249 30
13.07513 -0.47748858 0.20953128 240 30
13.097928 -0.55881602 0.20987613 223 30
13.100245 -0.63946551 0.20995572 250 30
13.104062 -0.72027433 0.21006183 215 30
13.104386 -0.80097097 0.21012816 230 30
13.102218 -0.88156432 0.21016794 201 30
13.109526 -0.96289402 0.21034038 228 30
13.114335 -1.0441878 0.21048629 191 30
13.111666 -1.1249782 0.21053934 185 30
13.110491 -1.2059584 0.21061893 186 30
12.981439 -1.2744576 0.20900071 100 30
12.942545 -1.3508674 0.20858952 339 30
12.944945 -1.4314651 0.20873542 314 30
12.947836 -1.5122592 0.2088946 313 30
13.344215 -1.6416236 0.21431962 117 30
13.345792 -1.7250098 0.21447879 133 30
13.337929 -1.8072684 0.21451858 145 30
13.343418 -1.8914605 0.21474406 81 30
13.338486 -1.9743237 0.21483691 95 30
13.342919 -2.0587225 0.21506241 131 30
13.34682 -2.14325 0.21528789 123 30
13.356102 -2.2288904 0.21559297 150 30
13.353997 -2.3128479 0.21575214 123 30
13.331681 -2.3933294 0.21564603 144 30
13.132911 -2.4409127 0.21316564 133 30
12.995927 -2.4980407 0.21152088 277 30
12.086887 -2.4002769 0.19943728 388 30
12.068994 -2.473793 0.19939749 408 30
12.071197 -2.5515232 0.19963624 425 30
16.434238 -3.5793772 0.25908601 128 30
15.994376 -3.5864997 0.25340897 167 30
15.674902 -3.6160116 0.24936341 100 30
15.293412 -3.6269717 0.24446894 171 30
14.93085 -3.6378875 0.2398265 153 30
14.559042 -3.642067 0.23505142 142 30
14.25749 -3.6597252 0.23123136 141 30
13.89923 -3.6588032 0.22662871 201 30
13.29053 -3.5858965 0.2185774 97 30
13.03601 -3.6031718 0.21538074 158 30
13.019428 -3.6847255 0.21546033 264 30
13.017704 -3.7706628 0.21575214 265 30
5.1483235 -1.5253055 0.10719863 103 30
5.0670972 -1.5351173 0.10620382 106 30
4.993588 -1.5463573 0.10531513 105 30
4.9287138 -1.5594691 0.10454582 93 30
4.994216 -1.6139784 0.10559368 44 30
4.9414897 -1.6304897 0.10499679 132 30
4.9389729 -1.6633331 0.1051029 432 30
4.8341122 -1.6611053 0.10377649 218 30
4.7804232 -1.6755184 0.10316635 191 30
4.7041435 -1.6812575 0.10223786 193 30
4.6063681 -1.67825 0.1010043 223 30
4.5594268 -1.6929058 0.10048699 278 30
4.5255733 -1.7120034 0.10015539 478 30
4.5047202 -1.7357839 0.10000949 398 30
4.5219088 -1.7743512 0.10040741 527 30
4.5100079 -1.8016927 0.10039414 449 30
4.5294337 -1.8417631 0.10083186 594 30
4.5226669 -1.8714325 0.10089818 614 30
4.519393 -1.9026403 0.10101756 564 30
4.5407228 -1.9445081 0.10149506 227 30
4.5461235 -1.97992 0.10174709 430 30
4.5320611 -2.0069673 0.10172056 294 30
4.5543075 -2.0503385 0.1022246 222 30
4.5598249 -2.0865674 0.10248987 460 30
4.5460296 -2.114085 0.10247661 316 30
4.5302601 -2.1406574 0.10243682 31 30
4.528758 -2.1740406 0.10260925 16 30
4.5270166 -2.2074857 0.10278168 36 30
4.5259309 -2.2414351 0.10296738 31 30
4.5326376 -2.2794979 0.10327246 27 30
4.5310326 -2.3136337 0.10345816 31 30
4.5345049 -2.3505969 0.10372344 24 30
4.5350389 -2.3862925 0.10394893 32 30
4.535305 -2.4220829 0.10417442 32 30
4.5379395 -2.4593956 0.1044397 29 30
4.5394101 -2.4963496 0.10469172 30 30
4.5397243 -2.5329266 0.10493048 29 30
4.5441103 -2.5720639 0.10523555 23 30
4.5438509 -2.6088607 0.1054743 20 30
4.5467668 -2.6477635 0.10576611 16 30
4.5467925 -2.6852744 0.10601813 17 30
4.5465283 -2.7228849 0.10627015 18 30
4.5553746 -2.7663026 0.10666807 11 30
4.5570464 -2.8057365 0.10695988 10 30
4.5499234 -2.8399994 0.10711905 17 30
4.5484653 -2.8780231 0.10737107 17 30
4.5492368 -2.9177554 0.10766288 16 30
4.5547204 -2.9608753 0.10803428 17 30
4.5590105 -3.0036213 0.10839241 17 30
4.5579576 -3.0431993 0.10867095 14 30
4.5590744 -3.0845582 0.10898929 19 30
4.5623283 -3.1277413 0.10934743 14 30
4.5602961 -3.1676567 0.10962597 14 30
4.557127 -3.2070889 0.10989125 16 30
4.5512033 -3.2448597 0.11011674 18 30
4.54985 -3.2861912 0.11042181 18 30
4.5505815 -3.3293991 0.11076668 20 30
4.5573792 -3.3775024 0.11121766 22 30
4.5621581 -3.4246132 0.11164211 14 30
4.568121 -3.4731195 0.11209309 13 30
4.5776205 -3.5248778 0.11261039 17 30
4.5874443 -3.5774972 0.11314096 7 30
4.5952239 -3.6291296 0.11364499 8 30
4.5994182 -3.678493 0.11409598 11 30
4.6039557 -3.7286727 0.11456022 14 30
4.6088228 -3.7796803 0.11503772 14 30
4.6116977 -3.8296092 0.11548871 14 30
4.6148977 -3.8803585 0.11595295 11 30
4.6031828 -3.9189737 0.11616518 9 30
4.596468 -3.9621613 0.11647025 6 30
4.5893965 -4.0054135 0.11677533 5 30
4.5954528 -4.0606461 0.11731915 20 30
4.5875897 -4.1041017 0.11762423 7 30
4.5845532 -4.1523118 0.11802215 8 30
4.595099 -4.2134795 0.1186721 21 30
4.5955396 -4.2660871 0.1191496 22 30
4.5991492 -4.3222818 0.11969343 16 30
4.598619 -4.3752341 0.12017094 15 30
4.599772 -4.4304233 0.12068824 24 30
4.608294 -4.4934688 0.12135144 18 30
4.6119452 -4.5525699 0.12193507 20 30
4.6150427 -4.6118836 0.12251869 19 30
4.6288319 -4.6827846 0.12331454 19 30
4.6293492 -4.741148 0.12387162 15 30
4.6314063 -4.8018522 0.12446851 27 30
4.6315117 -4.8613114 0.12503886 19 30
4.6296906 -4.9194946 0.1255827 15 30
4.6375399 -4.9888234 0.12632549 23 30
4.6257768 -5.0378084 0.12669688 26 30
4.6276917 -5.1023912 0.12734683 15 30
4.6416636 -5.1813364 0.12824878 21 30
4.6435752 -5.2479129 0.12892525 34 30
4.6487908 -5.3192239 0.1296813 18 30
4.6585317 -5.3968501 0.13054347 27 30
4.6616554 -5.4679461 0.13128626 25 30
4.6595726 -5.5339274 0.13193621 27 30
4.6574936 -5.6008568 0.13259941 26 30
4.6541328 -5.6671944 0.13324936 36 30
4.6520219 -5.7360301 0.13393909 21 30
4.6554904 -5.8128572 0.13476147 36 30
4.6513672 -5.8813128 0.13543794 41 30
4.6471934 -5.9507241 0.13612767 56 30
4.6618791 -6.0456433 0.13724186 44 30
4.6888986 -6.1584673 0.13864785 62 30
4.6726513 -6.2158966 0.13912536 54 30
4.6755385 -6.2998552 0.14004058 47 30
4.688798 -6.3994064 0.14120783 63 30
4.679914 -6.4701877 0.14189756 60 30
4.6883483 -6.5663266 0.14299847 67 30
4.7032647 -6.6734357 0.14427184 68 30
4.6662254 -6.7079148 0.14436468 40 30
4.7076025 -6.8567758 0.14630124 461 30
4.7181611 -6.9633465 0.14754806 302 30
4.7186952 -7.0570021 0.14858267 536 30
4.7182555 -7.1509242 0.14961727 95 30
4.7981215 -7.3699656 0.15262823 31 30
4.7987409 -7.4707804 0.15375568 20 30
4.7806401 -7.5440049 0.15444541 20 30
4.7665911 -7.624918 0.15525451 24 30
4.7533021 -7.7084937 0.15610342 29 30
4.7682605 -7.840035 0.15769511 16 30
4.7591519 -7.9343152 0.15870319 17 30
4.7709527 -8.0657845 0.16028161 26 30
4.7672124 -8.1735086 0.16148865 10 30
4.7693062 -8.293623 0.16288139 28 30
4.7725687 -8.418416 0.16434044 34 30
4.7764287 -8.5470495 0.16585255 32 30
4.7890177 -8.694437 0.1676432 37 30
4.7670617 -8.7816591 0.16851863 44 30
4.7781706 -8.9324198 0.17034908 31 30
4.7596345 -9.0305681 0.17138368 31 30
4.7870693 -9.2193403 0.17377122 61 30
4.8069005 -9.3980999 0.1759996 53 30
4.7959261 -9.5202913 0.17737906 66 30
4.8067369 -9.6892786 0.17944826 71 30
4.8244286 -9.8767204 0.18178275 89 30
4.8300319 -10.044012 0.18381216 74 30
4.8350449 -10.214451 0.18588136 49 30
4.8444791 -10.398919 0.18814953 51 30
4.8768272 -10.638421 0.19121353 35 30
4.8644872 -10.785728 0.1929246 32 30
4.8728209 -10.983552 0.19536519 25 30
4.8761086 -11.175463 0.19771294 24 30
4.844502 -11.29155 0.19895977 28 30
4.8644986 -11.532967 0.20201051 22 30
4.8836265 -11.779665 0.20512758 84 30
4.876895 -11.970536 0.20743553 209 30
4.7832899 -11.950106 0.20671928 330 30
4.6769495 -11.895478 0.2055255 509 30
4.5970297 -11.906228 0.20527349 619 30
4.5221157 -11.929536 0.20520717 563 30
4.4484839 -11.956121 0.20519391 771 30
4.3770962 -11.988828 0.20527349 496 30
0 -0 0 134 30
0 -0 0 48 30
4.9802971 -14.462143 0.23887148 48 30
4.9851499 -14.77002 0.24275787 36 30
5.004302 -15.132606 0.24740031 25 30
4.9970059 -15.427478 0.25108773 25 30
5.0319157 -15.866744 0.25677803 12 30
5.0669532 -16.324194 0.26270711 21 30
5.0892982 -16.758736 0.26830456 52 30
5.0148382 -16.885502 0.26963097 452 30
4.9091849 -16.909231 0.2695381 245 30
4.7867842 -16.873623 0.26863617 18 30
5.1997323 -18.767273 0.29430223 18 30
5.0633359 -18.72064 0.29322782 170 30
4.9601083 -18.79583 0.29383796 84 30
5.1598992 -20.050894 0.31061709 63 30
5.0849323 -20.274212 0.31324336 16 30
5.3208618 -21.780514 0.33339155 17 30
4.0266185 -16.93227 0.26684549 17 30
3.9212961 -16.950813 0.26676592 64 30
3.8099751 -16.942362 0.26632822 599 30
3.7046669 -16.959558 0.26624861 600 30
3.5986688 -16.973167 0.26612926 634 30
3.4894216 -16.970444 0.26579764 565 30
3.3815155 -16.972902 0.26554561 495 30
3.273711 -16.974676 0.2652936 509 30
3.1671116 -16.981665 0.26512116 531 30
3.0598409 -16.984049 0.26489568 544 30
0 -0 0 527 30
2.9141231 -17.396051 0.26994932 151 30
2.951972 -18.310942 0.28200638 288 30
2.8421645 -18.345509 0.28223187 516 30
2.7252822 -18.33392 0.28184721 510 30
2.6068172 -18.30872 0.28129011 504 30
2.4891689 -18.28573 0.28077284 491 30
2.3707418 -18.253063 0.28013614 488 30
2.254282 -18.231541 0.27965865 541 30
2.1394582 -18.220203 0.27932703 566 30
2.023422 -18.195223 0.27882299 546 30
1.9086084 -18.177464 0.27842507 547 30
1.7934992 -18.153009 0.27794757 517 30
1.6794074 -18.134798 0.27756292 475 30
1.5654345 -18.113878 0.27715173 559 30
1.4515418 -18.089254 0.27670074 524 30
1.337641 -18.058931 0.27618343 529 30
1.2243026 -18.029886 0.27569267 509 30
1.1125416 -18.019096 0.27545393 542 30
1.0004042 -17.997629 0.27508253 499 30
0.88872039 -17.97846 0.27475092 505 30
0.77743912 -17.961597 0.27445909 506 30
0.66632408 -17.942049 0.27414078 577 30
0.55541635 -17.919813 0.2737959 534 30
0.44426048 -17.874905 0.27315924 641 30
0.33434951 -17.865295 0.27300006 634 30
0.2245104 -17.850014 0.27277458 624 30
0.11485859 -17.832058 0.27252254 565 30
0.005435307 -17.812429 0.27225727 571 30
-0.10374277 -17.79213 0.27199197 545 30
-0 -0 0 544 30
-0.32134688 -17.749527 0.27146143 536 30
-0.42974052 -17.726229 0.27118286 559 30
-0.53764766 -17.695272 0.27081147 638 30
-0.64544672 -17.670656 0.27053294 751 30
-0.75326258 -17.652378 0.27034724 720 30
-0.86048818 -17.625452 0.27005541 680 30
-0.96812558 -17.610855 0.26993605 716 30
-1.0747007 -17.580629 0.26961771 744 30
-1.1816131 -17.559738 0.26943201 688 30
-1.2884561 -17.54019 0.26927283 694 30
-1.3951037 -17.519993 0.26911366 688 30
-1.501552 -17.499147 0.26895449 678 30
-1.6079803 -17.479649 0.26882187 655 30
-1.7147144 -17.464478 0.26875553 668 30
-1.8196617 -17.432743 0.26847699 634 30
-1.9263729 -17.419262 0.26845047 600 30
-2.0322909 -17.399168 0.26834434 619 30
-2.1374245 -17.373468 0.26817191 644 30
-2.2442422 -17.362011 0.26819843 656 30
-2.3450913 -17.306297 0.26764137 396 30
-2.3949502 -16.894588 0.26232246 636 30
-2.4998863 -16.888477 0.26244181 679 30
-2.6066675 -16.893572 0.26272038 663 30
-2.7132881 -16.896017 0.26297238 669 30
-2.8205307 -16.900749 0.26326418 718 30
-2.9257147 -16.891993 0.26338357 655 30
-2.2827091 -12.715589 0.2073427 35 30
-2.361784 -12.707241 0.20742227 29 30
-2.4421637 -12.705276 0.20759471 102 30
-2.5251405 -12.71555 0.20793958 61 30
-2.550703 -12.444158 0.20447764 224 30
-2.5808911 -12.210114 0.20151974 423 30
-0 -0 0 949 30
-2.6924615 -12.007754 0.19921179 882 30
-2.7739565 -12.025109 0.19967604 1058 30
-2.8509197 -12.021483 0.19986174 1079 30
-2.931967 -12.03388 0.20027292 1130 30
-3.0108466 -12.036034 0.20055147 1027 30
-3.0876253 -12.028955 0.20071064 999 30
-3.167485 -12.03299 0.20102897 59 30
-3.4249091 -12.693924 0.21038017 34 30
-7.0505943 -25.507153 0.38701838 218 30
-7.2194977 -25.507669 0.38762853 274 30
-7.3911762 -25.515715 0.38835806 283 30
-7.56635 -25.533155 0.38923347 233 30
-7.7362151 -25.530268 0.38984361 259 30
-7.914022 -25.55109 0.39079866 314 30
-8.0908661 -25.56592 0.39168733 258 30
-8.2669592 -25.575735 0.39252299 216 30
-8.441596 -25.578651 0.39327905 269 30
-8.6127491 -25.569016 0.39387593 291 30
-8.8065271 -25.623487 0.39538804 190 30
-8.9721851 -25.593504 0.39573288 192 30
-2.5846736 -7.2312818 0.13783874 325 30
-2.6252291 -7.2049522 0.13769284 1555 30
-2.6659074 -7.1793346 0.13756019 1775 30
-2.7198169 -7.1890278 0.13793159 1112 30
-2.7707093 -7.1899309 0.13818361 929 30
-0 -0 0 914 30
-0 -0 0 1619 30
-2.8487132 -7.0052614 0.13628684 1719 30
-2.8954668 -6.9968896 0.13641948 1695 30
-2.9464936 -6.9983439 0.13669802 1641 30
-2.9964657 -6.9966774 0.13693678 1669 30
-3.0169775 -6.9268236 0.13619399 1380 30
-3.0488944 -6.8844113 0.13584912 1760 30
-3.1206384 -6.9312196 0.13680413 1243 30
-3.2084675 -7.0110445 0.13824992 1450 30
-3.2552216 -6.9993854 0.13836931 1471 30
-3.3023803 -6.9883204 0.13850194 409 30
-5.7385821 -11.952625 0.21185249 28 30
-5.7684202 -11.828216 0.21053934 24 30
-5.7987242 -11.707478 0.20927925 44 30
-5.8241711 -11.57967 0.20791306 29 30
-5.8810143 -11.516109 0.20750186 18 30
-5.900938 -11.382162 0.20604281 37 30
-5.9580932 -11.321849 0.20568468 69 30
-6.0222683 -11.275376 0.20553878 83 30
-6.072279 -11.203049 0.20500821 260 30
-6.1081367 -11.106003 0.20410624 51 30
-6.1332879 -10.991477 0.202939 48 30
-6.0986452 -10.773516 0.20019333 204 30
-6.1666269 -10.739361 0.20024639 241 30
-0 -0 0 58 30
-6.1672564 -10.441618 0.19683751 56 30
-6.177258 -10.313511 0.19544478 167 30
-6.1501064 -10.126708 0.19313683 54 30
-6.1712317 -10.022369 0.19210222 42 30
-6.1759534 -9.8935575 0.19068296 57 30
-6.2044601 -9.804781 0.18988712 34 30
-5.8547311 -9.1277256 0.17981966 77 30
-5.8866463 -9.0547447 0.17923604 75 30
-5.9035821 -8.9600086 0.17830755 61 30
-5.9095831 -8.8504391 0.17714031 74 30
-5.9099813 -8.7345114 0.17586695 69 30
-5.9165316 -8.6296358 0.17476603 69 30
-5.9351406 -8.5438986 0.17397018 89 30
-5.9644322 -8.4746132 0.17343962 154 30
-6.0285106 -8.4549541 0.17371817 170 30
-6.054513 -8.3821402 0.17313455 106 30
-6.0928402 -8.3270798 0.17284273 39 30
-6.2724299 -8.4630518 0.17570779 155 30
-6.1303315 -8.1661234 0.17142348 58 30
-6.1119313 -8.038413 0.16992463 25 30
-6.1098905 -7.9342141 0.16881044 15 30
-6.0600662 -7.7704229 0.16668819 44 30
-6.1510153 -7.7880192 0.16761667 19 30
-6.1961875 -7.7470074 0.16756362 26 30
-6.2467523 -7.7127275 0.16762994 27 30
-6.3535662 -7.7469263 0.16887677 441 30
-6.4239793 -7.7354875 0.16935427 118 30
-6.4977083 -7.7273016 0.16989809 52 30
-6.5767636 -7.7245917 0.17054804 46 30
-6.670393 -7.7378621 0.17148979 25 30
-6.781527 -7.7698588 0.17277642 16 30
-6.8449659 -7.7460837 0.17309475 31 30
-6.9230356 -7.7382164 0.17370491 28 30
-7.0059643 -7.734869 0.1744079 23 30
-7.068161 -7.7079482 0.17469971 13 30
-7.1207657 -7.6702962 0.17480582 7 30
-7.266994 -7.7321057 0.17672911 39 30
-7.3080974 -7.6808515 0.17660974 21 30
-7.4750996 -7.7604485 0.17890443 157 30
-0 -0 0 268 30
-0 -0 0 272 30
-7.7587533 -7.7636981 0.18157052 405 30
-7.8553152 -7.7644448 0.18248574 259 30
-7.9951048 -7.8062081 0.18419681 445 30
-8.0982723 -7.810451 0.18521816 314 30
-8.1858635 -7.7985463 0.18594767 315 30
-8.3427906 -7.8509564 0.18793729 30 30
-9.2814007 -8.627409 0.20406646 29 30
-9.4004536 -8.6311588 0.20526023 66 30
-9.5021219 -8.6176491 0.20613566 83 30
-9.6203632 -8.6178923 0.2073029 82 30
-9.7389622 -8.6170073 0.20847014 64 30
-9.8571568 -8.6143303 0.20962413 75 30
-9.9310226 -8.5719786 0.20999551 48 30
-10.8532 -9.2523155 0.2251564 208 30
-6.5925732 -5.5508571 0.15029374 305 30
-11.036657 -9.177248 0.2263767 295 30
-11.019347 -9.0490723 0.22511661 128 30
-2.9300244 -2.376543 0.08601585 130 30
-2.9570394 -2.3685205 0.086228073 303 30
-2.934654 -2.3211811 0.08560466 162 30
-2.9512055 -2.3049769 0.085644454 240 30
-2.9454966 -2.2715614 0.085312851 144 30
-2.9490364 -2.2455716 0.085140415 139 30
-2.9451749 -2.2142169 0.084848605 140 30
-2.9434493 -2.1847825 0.084596589 131 30
-2.9414737 -2.155453 0.084344566 167 30
-2.9603157 -2.1414657 0.084437415 288 30
-2.9603789 -2.1139653 0.084225193 133 30
-2.9667554 -2.0911529 0.084119081 149 30
-2.9713218 -2.0672002 0.083986439 145 30
-2.9707603 -2.039875 0.083774209 121 30
-2.9774263 -2.0176826 0.08368136 131 30
-2.9872568 -1.9977081 0.083641574 128 30
-3.0044661 -1.9826449 0.083721153 121 30
-3.0442286 -1.9821745 0.084158868 91 30
-3.0815735 -1.979669 0.084556796 73 30
-3.1113997 -1.9719626 0.084835343 84 30
-3.1573567 -1.9740342 0.085365906 352 30
-3.2196264 -1.9855862 0.086148486 158 30
-3.2326035 -1.966313 0.086161755 192 30
-3.3132083 -1.9875852 0.087222882 77 30
-3.351161 -1.9824892 0.087620802 67 30
-3.4029949 -1.9850615 0.088230953 96 30
-3.5746074 -2.0558548 0.090671554 36 30
-3.6793609 -2.0861516 0.092077546 38 30
-3.72788 -2.083534 0.092621379 35 30
-3.8071592 -2.0972826 0.09362945 8 30
-3.8138046 -2.0705438 0.0935366 29 30
-3.8290827 -2.0485187 0.093576394 7 30
-3.8398108 -2.0240529 0.093549863 12 30
-3.8654695 -2.0073655 0.093748823 14 30
-10.650669 -5.4475021 0.1946622 220 30
-9.7113972 -4.8921885 0.18021758 196 30
-9.6794252 -4.8018494 0.17930235 131 30
-9.7024174 -4.739295 0.1792095 131 30
-10.618943 -5.1064849 0.19227466 139 30
-10.606694 -5.020699 0.19163798 359 30
-10.591075 -4.9339895 0.19096151 555 30
-9.7948961 -4.4901757 0.17890443 135 30
-9.8140602 -4.426291 0.17878506 116 30
-9.8218403 -4.3574753 0.17850651 102 30
-9.8126488 -4.2815332 0.17798921 82 30
-9.7946272 -4.2023211 0.17735253 75 30
-9.6009531 -4.0496631 0.17419568 200 30
-9.605299 -3.9822524 0.17390387 202 30
-9.5952902 -3.9092824 0.17341308 206 30
-9.5884619 -3.8380723 0.17297538 217 30
-9.5932198 -3.7718494 0.17271009 247 30
-9.6376371 -3.7211986 0.17301516 125 30
-9.6266289 -3.6492348 0.17253765 225 30
-9.6019812 -3.5726655 0.17187445 341 30
-9.605876 -3.5071664 0.17162244 290 30
-9.6017971 -3.4390576 0.17126431 296 30
-9.5812082 -3.3654981 0.17068069 314 30
-9.5752058 -3.2975302 0.17030929 335 30
-9.625576 -3.2489474 0.17073373 94 30
-9.6975441 -3.2070906 0.17146327 40 30
-10.110864 -3.2750776 0.17695461 177 30
-10.27088 -3.2574074 0.17890443 445 30
-8.5965509 -2.6685193 0.1553739 908 30
-8.6031952 -2.6128163 0.15524125 1162 30
-8.6046877 -2.5557091 0.15504229 1093 30
-8.6106043 -2.5000758 0.15490966 1080 30
-8.6132765 -2.4436479 0.15473722 1188 30
-8.6146183 -2.3870144 0.15455152 1060 30
-8.6213808 -2.3320227 0.15444541 1074 30
-8.6316595 -2.2780585 0.15439235 1096 30
-8.6464434 -2.225302 0.15440561 677 30
-6.4941998 -1.6290652 0.12478685 211 30
-6.5157294 -1.5920342 0.12494602 148 30
-6.5331578 -1.553875 0.12505214 369 30
-6.5523109 -1.5160124 0.12518477 443 30
-9.4003525 -2.1141133 0.16378334 44 30
-9.3897018 -2.0512733 0.16346501 231 30
-9.3933077 -1.9917542 0.16334563 359 30
-9.3994761 -1.9328723 0.16326605 330 30
-9.3856621 -1.8700826 0.16292118 371 30
-9.3596506 -1.8052635 0.16241714 409 30
-9.3400793 -1.7421174 0.16200595 427 30
-9.3496094 -1.6845977 0.16199268 199 30
-9.2809582 -1.6134998 0.16093156 324 30
-9.2837801 -1.5553663 0.16083871 346 30
-9.2892008 -1.4977363 0.16078566 347 30
-9.2922869 -1.4397923 0.16070607 359 30
-9.2455597 -1.3745168 0.15996328 269 30
-9.270648 -1.3201571 0.16018876 343 30
-9.2964077 -1.2656759 0.16042753 104 30
-9.3734102 -1.2176241 0.16135602 143 30
-9.2328434 -1.1418074 0.15937966 358 30
-9.2446413 -1.0857173 0.15944597 364 30
-9.248148 -1.0286413 0.15940619 434 30
-9.234396 -0.96978849 0.1591409 455 30
-9.2033558 -0.90947229 0.15865013 371 30
-9.1988058 -0.85206258 0.15851749 439 30
-9.3333673 -0.80679315 0.16024183 81 30
-9.1936188 -0.73791558 0.15831853 430 30
-9.1830158 -0.68038309 0.15811957 521 30
