# .PCD v0.7 - Point Cloud Data file format
VERSION 0.7
FIELDS x y z intensity ring
SIZE 4 4 4 4 1
TYPE F F F F U
COUNT 1 1 1 1 1
WIDTH 1333
HEIGHT 1
VIEWPOINT 0 0 0 1 0 0 0
POINTS 1333
DATA ascii
-5.4300914 -2.3672333 1.0672722 5 17
-5.4273124 -2.3264925 1.0640055 13 17
-5.4233313 -2.2854927 1.0605669 12 17
-5.4254222 -2.2472694 1.0583318 16 17
-5.4254236 -2.2083638 1.0557529 14 17
-5.421494 -2.1680791 1.0524863 19 17
-5.4273605 -2.1318898 1.0511109 9 17
-5.4339061 -2.096065 1.0499073 7 17
-5.440217 -2.0602403 1.0487038 19 17
-5.4518323 -2.0264776 1.0485319 21 17
-5.4669404 -1.9940008 1.0490477 29 17
-5.4781446 -1.9600867 1.0488758 25 17
-5.52353 -1.9381855 1.0550652 68 17
-5.5446329 -1.9074637 1.0567845 49 17
-8.5599575 -2.8868439 1.6100523 344 17
-8.5588036 -2.8280828 1.6066138 816 17
-8.5366325 -2.7627687 1.5993928 956 17
-8.1759243 -2.5906644 1.5302773 264 17
-7.8040318 -2.4201756 1.4594425 356 17
-7.9639006 -2.4163122 1.4859195 329 17
-8.0588484 -2.3912315 1.5005335 446 17
-8.0922909 -2.3472295 1.5039721 341 17
-8.1226521 -2.3021007 1.5068948 404 17
-8.2885246 -2.294286 1.5344036 416 17
-8.4222679 -2.2757797 1.5560666 907 17
-6.2785969 -1.6549604 1.1666472 350 17
-8.5478287 -2.1975312 1.5737753 530 17
-8.5955505 -2.1536651 1.5799648 1034 17
-8.6019049 -2.0992475 1.5787612 1019 17
-8.6031227 -2.043694 1.5766981 736 17
-8.6001434 -1.9873171 1.5739472 327 17
-8.6102533 -1.9340781 1.5736034 961 17
-8.6161842 -1.8799495 1.5725718 952 17
-8.6227388 -1.826025 1.5717121 962 17
-8.6415005 -1.7746689 1.5730876 787 17
-8.7362814 -1.738349 1.5880454 999 17
-8.728404 -1.6811689 1.5847788 558 17
-8.6610804 -1.6131405 1.5710244 536 17
-6.414742 -1.1537682 1.1709454 15 17
-6.4314065 -1.1160724 1.1726648 19 17
-6.3808098 -1.0669928 1.1625209 87 17
-6.4105783 -1.0315812 1.1666472 53 17
-6.4674096 -1.0000643 1.1755875 29 17
-6.4734244 -0.9603622 1.1755875 20 17
-8.7438145 -1.2428136 1.5748069 215 17
-8.7600613 -1.1903341 1.5763543 378 17
-8.7652464 -1.1363074 1.5760103 348 17
-8.7642317 -1.0815372 1.5746349 480 17
-8.7707033 -1.0277406 1.5746349 792 17
-8.7043915 -0.96585596 1.5619122 171 17
-8.6356945 -0.90461862 1.5488455 1093 17
-8.724412 -0.85983771 1.5634595 190 17
-8.766799 -0.80973738 1.5699929 268 17
-8.766695 -0.75550652 1.5691332 292 17
-8.7525082 -0.7002058 1.5658666 183 17
-8.9113493 0.2189559 1.47738 76 18
-8.9009581 0.27335769 1.4759411 105 18
-8.8892488 0.32760382 1.4743423 128 18
-8.8525534 0.38065529 1.4687464 117 18
-8.675539 0.42638168 1.4404474 253 18
-8.8698854 0.49051571 1.4724237 695 18
-8.8637524 0.54474926 1.4719441 294 18
-8.6819792 0.58706403 1.4430056 969 18
-8.9026699 0.65689623 1.4794585 97 18
-8.9781752 0.71788609 1.4924089 74 18
-8.9962215 0.77491105 1.4960861 95 18
-8.976553 0.8287344 1.4936879 81 18
-8.9369154 0.88040912 1.4880921 71 18
-8.902874 0.93224591 1.4834555 44 18
-8.8910999 0.98620218 1.4824963 49 18
-8.8799791 1.0401639 1.4816968 40 18
-8.882247 1.095719 1.4831358 54 18
-8.8841667 1.151341 1.4845747 69 18
-8.840744 1.2009137 1.478659 491 18
-8.7071352 1.2372172 1.4580344 774 18
-8.715003 1.2929384 1.4605925 456 18
-8.9176216 1.3789817 1.4951268 121 18
-8.9041195 1.4328889 1.4943274 143 18
-8.9165792 1.4910793 1.4978448 207 18
-8.9169874 1.5474507 1.4994437 164 18
-8.9267559 1.6056309 1.5026413 143 18
-8.9215879 1.661278 1.5034406 146 18
-8.9054108 1.7148683 1.5024813 149 18
-8.9247341 1.7754506 1.5074377 134 18
-8.9330111 1.83415 1.5106354 126 18
-6.6270399 1.4030107 1.1307576 27 18
-6.6115551 1.4421741 1.1296384 34 18
-6.5900607 1.4799021 1.12756 32 18
-6.569315 1.5176431 1.1256415 33 18
-6.5493145 1.5554135 1.1238828 27 18
-6.5530734 1.5988466 1.126121 61 18
-6.5115409 1.631108 1.120845 35 18
-6.541564 1.6813545 1.12756 87 18
-8.7857027 2.3158576 1.5051993 244 18
-8.7951517 2.3761594 1.5091964 626 18
-8.7908716 2.4329777 1.5109551 716 18
-8.8071184 2.4957545 1.5162312 765 18
-8.8598995 2.5695469 1.5277426 896 18
-8.7909698 2.6081364 1.5187893 1105 18
-8.8343124 2.6800842 1.5288618 895 18
-8.8403292 2.7412577 1.532699 1048 18
-8.8412218 2.8011148 1.5357367 1179 18
-8.8379564 2.8598702 1.5381349 1109 18
-8.8455486 2.9224072 1.5424517 1202 18
-8.8414812 2.9813592 1.5448499 1223 18
-8.8323555 3.0387652 1.5464487 1265 18
-8.8023672 3.0889795 1.5445302 829 18
-8.6624241 3.0996914 1.5237455 531 18
-8.4995022 3.1003461 1.498964 653 18
-8.3961201 3.121136 1.4844148 573 18
-8.3131151 3.1484678 1.4733831 571 18
-8.2365398 3.1773865 1.4634703 370 18
-8.1847315 3.2152312 1.4578745 355 18
-8.1061907 3.2419288 1.4476421 373 18
-8.0760899 3.2875121 1.4458834 430 18
-8.0630617 3.3400266 1.4471625 351 18
-8.9183941 3.7586608 1.6011281 294 18
-8.9214745 3.8245926 1.6057646 1012 18
-8.9086971 3.8839962 1.6076832 1005 18
-8.8801851 3.9365854 1.6068838 671 18
-6.1452098 2.7692804 1.1253216 103 18
-5.9916906 2.7444427 1.1010197 274 18
-5.95505 2.7719896 1.0975024 278 18
-5.9245443 2.802145 1.0951041 277 18
-5.9366002 2.8525548 1.1003802 103 18
-5.7947936 2.8283029 1.0779969 252 18
-5.7587576 2.854598 1.0746393 199 18
-5.7331986 2.8858845 1.0732003 193 18
-5.7540574 2.9407771 1.0802351 540 18
-5.6885905 2.9514756 1.0716016 399 18
-5.4214587 2.8552134 1.0260354 311 18
-5.401226 2.8870289 1.0255558 571 18
-5.4111753 2.935179 1.030672 751 18
-5.4068999 2.9759426 1.0332301 790 18
-5.4031892 3.0172455 1.035948 785 18
-5.4601541 3.093164 1.0500176 414 18
-5.6079645 3.2225242 1.0811944 279 18
-5.621346 3.2762609 1.0874299 184 18
-5.6130342 3.317724 1.0896682 143 18
-5.6137381 3.3647909 1.0936652 123 18
-5.6107006 3.4099402 1.0970227 166 18
-5.5871506 3.442749 1.0965431 309 18
-5.5692701 3.4790585 1.0971826 314 18
-5.564497 3.5237288 1.1003802 298 18
-5.5618773 3.570071 1.1040574 290 18
-5.5597248 3.6170516 1.1078947 228 18
-5.5431948 3.6549013 1.1090138 210 18
-8.8783035 5.9326653 1.7630877 286 18
-8.869524 6.0058489 1.7685237 735 18
-8.847971 6.0707698 1.7715614 767 18
-8.8462172 6.1497393 1.7785962 567 18
-8.8301058 6.2192512 1.782913 623 18
-8.8279381 6.2991176 1.7901076 673 18
-8.813921 6.3710938 1.795064 649 18
-8.8144846 6.4542155 1.803058 432 18
-8.7961226 6.5240574 1.8073748 427 18
-8.7882843 6.6022172 1.8139299 685 18
-8.768033 6.6715589 1.8180869 695 18
-8.7879181 6.7722344 1.8305576 271 18
-8.7423077 6.8229914 1.8297582 440 18
-8.6863384 6.8654866 1.8268803 680 18
-8.6794996 6.947032 1.8342348 356 18
-8.6160049 6.9833746 1.829918 520 18
-8.6088562 7.0655451 1.8374325 263 18
-8.5820417 7.1321158 1.8409499 661 18
-8.5358524 7.1827335 1.8404702 499 18
-8.4127264 7.1677499 1.8236827 425 18
-8.3319635 7.1876383 1.8158485 458 18
-8.3122377 7.260057 1.8211246 613 18
-8.2017231 7.2527223 1.8068951 389 18
-8.1063223 7.2574763 1.7958634 426 18
-7.9921575 7.2440972 1.7806747 478 18
-7.8748288 7.2262554 1.7646866 450 18
-7.7609153 7.2099366 1.7493379 433 18
-7.647501 7.1924944 1.7339894 378 18
-7.5574718 7.1957173 1.7237569 377 18
-7.4243407 7.1563172 1.7037718 492 18
-7.3322501 7.1548557 1.6928999 479 18
-7.2369475 7.1490664 1.6812285 436 18
-7.1112833 7.1116643 1.6625224 530 18
-7.0217309 7.1088109 1.6519703 496 18
-6.9324832 7.1051283 1.6414181 443 18
-6.8188868 7.0750313 1.6251103 509 18
-6.6031489 6.9358492 1.5846603 568 18
-6.5002832 6.9122314 1.5704309 247 18
-4.1205606 4.4357176 1.0142043 25 18
-4.1106172 4.4798293 1.0183612 14 18
-4.1089044 4.5334945 1.0245966 6 18
-4.069159 4.5453815 1.0217186 5 18
-4.1183467 4.6575298 1.0405847 4 18
-4.0818992 4.6737895 1.038666 7 18
-4.0679731 4.71594 1.0423434 10 18
-0 0 0 5 18
-0 0 0 4 18
-3.9073 4.7019463 1.0237972 9 18
-3.8495715 4.6907296 1.0164425 10 18
-2.826957 3.4879317 0.76079255 31 18
-2.7672625 3.4574265 0.75087994 103 18
-2.7576246 3.4890566 0.75391769 109 18
-2.7495241 3.5230329 0.75743508 120 18
-2.7429175 3.5593863 0.76143211 149 18
-2.7377605 3.5981472 0.76590878 182 18
-2.7328236 3.6377676 0.7705453 178 18
-2.7322066 3.6838052 0.77646095 221 18
-2.7258787 3.7228024 0.78093761 230 18
-2.7266915 3.7722609 0.78749269 221 18
-2.7235591 3.8170466 0.79308856 213 18
-2.721684 3.8643563 0.79916406 247 18
-2.7148232 3.9053009 0.8039605 224 18
-2.7086785 3.9479337 0.80907667 239 18
-2.7010052 3.9890025 0.81387311 254 18
-2.696768 4.0358706 0.81978869 246 18
-2.6839068 4.0704727 0.82330608 296 18
-2.693867 4.1406503 0.83369839 207 18
-2.6673434 4.1554403 0.83337861 133 18
-2.6639743 4.2067575 0.84009361 92 18
-2.647002 4.237257 0.84281158 75 18
-2.0627789 3.3474276 0.67045969 161 18
-2.0427132 3.3608651 0.67061955 178 18
-1.9966812 3.3309991 0.66262549 25 18
-0 0 0 4 18
-0 0 0 6 18
-1.8829033 3.2764592 0.6456781 102 18
-1.8564394 3.2767847 0.64359963 130 18
-1.8290801 3.2751856 0.64120144 118 18
-1.8003829 3.2707798 0.63832355 49 18
-0 0 0 6 18
-0 0 0 6 18
-0 0 0 51 18
-0 0 0 80 18
-0 0 0 53 18
-0 0 0 50 18
-0 0 0 62 18
-0 0 0 75 18
-0 0 0 90 18
-0 0 0 14 18
-0 0 0 10 18
-0 0 0 11 18
-0 0 0 9 18
-0 0 0 6 18
-0 0 0 10 18
-1.1541965 2.6920362 0.5080204 7 18
-0 0 0 4 18
-0 0 0 5 18
-0 0 0 26 18
-0 0 0 59 18
-0 0 0 51 18
-0 0 0 56 18
-0 0 0 42 18
-0 0 0 57 18
-0 0 0 61 18
-0 0 0 66 18
-0 0 0 69 18
-0 0 0 81 18
-0 0 0 80 18
-0 0 0 44 18
-0 0 0 55 18
-0 0 0 32 18
-0.82115132 2.6476636 0.48259929 176 18
-0 0 0 67 18
-0 0 0 48 18
-0 0 0 52 18
-0.75996286 2.6812646 0.48499751 37 18
-0.7521829 2.7172732 0.49027359 22 18
-0.74090075 2.7418504 0.49363109 20 18
-0.71928418 2.7282083 0.49059334 28 18
-0.7047416 2.7411749 0.49203229 24 18
-0.65865421 2.6286242 0.47252679 54 18
-0 0 0 49 18
-0 0 0 59 18
-0.60615999 2.6229899 0.46964893 50 18
-0.59135151 2.6324387 0.4706082 200 18
-0.5732953 2.6273375 0.46916926 71 18
-0.55777663 2.6337028 0.46964893 48 18
-0.54160601 2.6370757 0.46964893 51 18
-0.52541506 2.6403494 0.46964893 50 18
-0.50883114 2.6415849 0.46932915 56 18
-0.49225184 2.6427164 0.4690094 70 18
-0.47462985 2.6379144 0.46773034 64 18
-0.45742279 2.6349413 0.46677107 65 18
-0.44010741 2.630883 0.4656519 70 18
-0.42254555 2.6247625 0.46421295 66 18
-0.40507546 2.6185257 0.46277404 63 18
-0.38813218 2.6151032 0.46181473 53 18
-0.37082985 2.6086395 0.46037582 59 18
-0.35388705 2.6040187 0.45925665 54 18
-0.34373435 2.6511731 0.46661118 19 18
-0.33265379 2.6953604 0.47348607 11 18
-0.32012564 2.7316663 0.4790819 8 18
-0.30444583 2.7433903 0.4806807 12 18
-0.30373368 2.8993459 0.50578207 14 18
-0.27955624 2.8363173 0.4952299 6 18
-0.25743324 2.786865 0.4869161 7 18
-0 0 0 5 18
-0.21213311 2.6510699 0.46437284 9 18
-0 0 0 4 18
-0.17639185 2.6061988 0.45669854 20 18
-0.15858318 2.5776734 0.45190209 12 18
-0.14347136 2.5914114 0.45398057 19 18
-0.12785828 2.5981586 0.45493984 94 18
-0.11182924 2.5969217 0.45462009 81 18
-0.095711373 2.5926266 0.45382068 104 18
-0.080043234 2.6010585 0.45509973 45 18
-0.063719518 2.5866981 0.45270151 83 18
-0.047719903 2.5801315 0.45158234 95 18
-0.031887617 2.5803757 0.45158234 81 18
-0.016012181 2.5736129 0.45046318 106 18
-0.00022087466 2.56774 0.4495039 106 18
0.015479391 2.558809 0.44806495 93 18
0.031204013 2.5606399 0.44838473 81 18
0.046714637 2.5495436 0.44662604 98 18
0.062284593 2.5462484 0.44614637 124 18
0.07787656 2.5448318 0.44598651 124 18
0.093817472 2.553184 0.44742543 95 18
0.11156183 2.6008854 0.45525962 64 18
0 0 0 15 18
0 0 0 37 18
0 0 0 61 18
0 0 0 82 18
0 0 0 51 18
0.20839842 2.6097765 0.45765781 31 18
0.2233907 2.5966468 0.45573926 29 18
0.23950079 2.5971932 0.45605901 59 18
0.25523871 2.5937099 0.45573926 65 18
0.27125147 2.5930767 0.45589915 81 18
0.28704831 2.5903826 0.45573926 54 18
0.3037414 2.5954354 0.45685843 94 18
0.31941918 2.5915635 0.45653865 81 18
0.33582234 2.5934706 0.45717818 76 18
0.35226092 2.5952737 0.4578177 71 18
0.37012336 2.6067457 0.46005604 122 18
0.38393748 2.5897791 0.45765781 321 18
0.40238604 2.6039586 0.46037582 144 18
0.41788542 2.5985167 0.45989618 104 18
0.43333319 2.592983 0.45941651 88 18
0.42880729 2.4725916 0.4400709 26 18
0.44169849 2.457284 0.43799245 34 18
0.45622554 2.451616 0.43751279 25 18
0 0 0 26 18
0 0 0 26 18
0 0 0 35 18
0 0 0 46 18
0 0 0 43 18
0.54312474 2.4196787 0.43527445 70 18
0.55729461 2.4134152 0.43479481 81 18
0.57277703 2.4128313 0.43527445 94 18
0.58874124 2.4140666 0.43607387 85 18
0.60402244 2.4123237 0.43639362 105 18
0.61930442 2.4104841 0.4367134 114 18
0.63508981 2.4104569 0.43735293 94 18
0.65012562 2.4074676 0.43751279 114 18
0.66672873 2.4100926 0.43863195 80 18
0.68150425 2.4059563 0.43863195 86 18
0.69680411 2.4036255 0.43895173 49 18
0.71434742 2.4087684 0.44055054 21 18
0.72854072 2.4024506 0.44023079 23 18
0.74326813 2.3979352 0.44023079 21 18
0.75916034 2.3970935 0.44087031 17 18
0.77476621 2.3952076 0.44134995 20 18
0.79688132 2.4129038 0.44518709 16 18
0.82081974 2.4350948 0.44982365 15 18
0 0 0 5 18
0 0 0 5 18
1.0730559 2.9995258 0.54958951 6 18
1.1513219 3.1570265 0.57788849 127 18
1.1723913 3.1545289 0.57868791 153 18
1.1941727 3.1537378 0.57980704 160 18
1.2149225 3.1500349 0.5804466 166 18
1.2353109 3.1452775 0.58092624 183 18
0 0 0 188 18
1.276793 3.1371956 0.5822053 173 18
1.296774 3.1311262 0.58252501 168 18
1.3171121 3.1258392 0.58300465 196 18
1.33899 3.1240497 0.58412385 187 18
1.3608954 3.1221089 0.58524299 163 18
0 0 0 185 18
0 0 0 183 18
0 0 0 176 18
1.4496047 3.1146178 0.59003943 189 18
1.4716432 3.1119108 0.59115863 195 18
1.491565 3.1046019 0.59147841 162 18
1.5118855 3.0980527 0.59195805 213 18
0 0 0 178 18
0 0 0 195 18
0 0 0 180 18
0 0 0 201 18
1.6333486 3.1017478 0.60139102 188 18
1.657469 3.1012433 0.60314971 161 18
1.679291 3.096221 0.60410899 184 18
1.7006377 3.0901825 0.60490841 197 18
0 0 0 180 18
0 0 0 159 18
0 0 0 183 18
0 0 0 201 18
1.8207499 3.0807493 0.61322224 179 18
1.8467243 3.0813725 0.61546057 190 18
1.8686728 3.0750444 0.61641985 167 18
1.891649 3.0702436 0.61769891 168 18
1.910452 3.0585787 0.61769891 163 18
0 0 0 202 18
1.9627734 3.0581639 0.62217557 168 18
1.9911915 3.0609562 0.62505341 175 18
2.0197175 3.0635145 0.6279313 182 18
2.0439615 3.0592713 0.62953013 196 18
2.0671225 3.0532112 0.63080913 177 18
2.0986633 3.0591908 0.63448644 179 18
2.1258471 3.0584135 0.63688463 186 18
2.1485524 3.0509613 0.63800383 206 18
2.1695259 3.0409346 0.63864332 166 18
2.2026017 3.0475652 0.64264035 155 18
2.2305911 3.046736 0.64519846 158 18
2.2563007 3.042506 0.64711702 154 18
2.2784843 3.0333395 0.6480763 176 18
2.3006403 3.0240152 0.64903563 156 18
2.3281906 3.02157 0.65143383 170 18
2.3539753 3.0165656 0.65335238 167 18
2.3810101 3.012907 0.65559071 177 18
2.4068546 3.0074887 0.65750933 176 18
2.4352083 3.0049336 0.66006744 163 18
2.4667523 3.0059583 0.66342491 161 18
2.4952455 3.0029128 0.66598302 168 18
2.5320563 3.0094488 0.67061955 144 18
2.564559 3.010386 0.67413694 146 18
2.583627 2.9953408 0.67429686 168 18
2.6181922 2.998018 0.67829388 266 18
2.6378465 2.9833755 0.6786136 128 18
2.672564 2.9855196 0.68261063 151 18
2.7047548 2.9844239 0.68596816 130 18
2.7376997 2.983772 0.68948555 135 18
2.770066 2.9821045 0.69284308 148 18
2.7971039 2.9743993 0.69492149 150 18
2.8255126 2.9679039 0.69731975 161 18
2.8607974 2.9682784 0.70131677 171 18
2.8989503 2.9711568 0.7059533 160 18
2.9323893 2.9687624 0.70947069 185 18
2.9666052 2.9667668 0.71314794 160 18
2.9952879 2.9589133 0.71554619 156 18
3.0246923 2.9515085 0.7181043 185 18
3.0633583 2.9527586 0.72274083 200 18
3.090713 2.9427547 0.7248193 206 18
3.1245322 2.938612 0.72833669 204 18
3.1649258 2.9402108 0.733293 199 18
3.207638 2.9434257 0.73872894 207 18
3.2329528 2.9303172 0.74032778 174 18
3.2339551 2.8952825 0.73665053 138 18
3.2272546 2.8538079 0.73137444 72 18
3.2655237 2.8521323 0.73585111 36 18
3.2956703 2.8430021 0.73856908 27 18
3.3280816 2.8355291 0.74176669 32 18
3.3741212 2.8392041 0.74784219 74 18
3.383127 2.8115079 0.7460835 126 18
3.4232075 2.8094821 0.75087994 84 18
3.4902327 2.8288214 0.76127219 42 18
3.5090656 2.8085861 0.76159197 57 18
3.5502424 2.805975 0.76654828 76 18
0 0 0 0 18
0 0 0 0 18
0 0 0 0 18
0 0 0 0 18
0 0 0 0 18
0 0 0 0 18
0 0 0 0 18
0 0 0 0 18
0 0 0 0 18
0 0 0 0 18
0 0 0 0 18
0 0 0 0 18
0 0 0 0 18
0 0 0 0 18
0 0 0 0 18
0 0 0 0 18
4.4461212 2.8155279 0.88597953 368 18
4.4909425 2.8054507 0.89125562 353 18
4.5408487 2.7980356 0.89749098 353 18
4.5984244 2.7947266 0.90516526 247 18
4.6535888 2.7892933 0.91235995 254 18
4.7037592 2.7802737 0.91859531 288 18
4.7574043 2.7727308 0.92547017 356 18
4.8111329 2.7646337 0.93234509 469 18
4.8426075 2.7433314 0.93506306 591 18
4.8300447 2.6972046 0.92962712 428 18
4.8352604 2.6613302 0.92754865 431 18
4.8332767 2.6217287 0.92419112 401 18
4.8449192 2.5896966 0.9233917 415 18
4.8432493 2.5507214 0.92019409 332 18
4.8491702 2.5159557 0.91843539 372 18
4.8495731 2.4785185 0.91571742 377 18
4.8488178 2.4407275 0.91283959 404 18
4.8610492 2.4096148 0.91235995 250 18
4.9449401 2.4135101 0.92483068 430 18
4.9552073 2.3809857 0.92403126 464 18
4.9670463 2.3492703 0.92355162 437 18
4.9509387 2.3045874 0.91811568 226 18
4.967679 2.2753987 0.91859531 441 18
4.9716468 2.2404141 0.91683662 432 18
4.9708605 2.2034671 0.91427851 357 18
4.9815726 2.1717417 0.91379887 362 18
4.9811945 2.1353016 0.91140062 457 18
4.9750991 2.0966482 0.90804315 573 18
4.9769263 2.0615497 0.90612453 571 18
4.9757671 2.0253916 0.90372634 627 18
4.970686 1.9878596 0.90068859 564 18
4.9644132 1.9501055 0.89749098 662 18
4.9735222 1.9185421 0.89701134 693 18
4.976892 1.8848432 0.89557242 668 18
4.9874382 1.8539262 0.8954125 568 18
4.9848089 1.8182161 0.89301431 683 18
4.9698467 1.7782857 0.88853765 463 18
4.983459 1.7487383 0.88901728 732 18
4.9875612 1.7158799 0.88789809 757 18
4.9970603 1.6849293 0.88773823 696 18
4.9838715 1.6464965 0.8837412 396 18
4.9591293 1.6046433 0.87782562 46 18
4.9688816 1.5741845 0.87782562 59 18
4.978447 1.5436664 0.87782562 60 18
4.9906592 1.5139496 0.87830526 76 18
4.9866052 1.4793694 0.87606692 94 18
4.9851594 1.4457207 0.87430823 94 18
4.9996352 1.4167194 0.87526751 74 18
5.0006227 1.3839098 0.87398845 59 18
5.000443 1.3508842 0.87254953 68 18
4.9914556 1.3156492 0.86967164 73 18
4.991786 1.2830321 0.86839259 63 18
4.9938192 1.2509401 0.86743331 57 18
5.0004416 1.2200412 0.86727345 56 18
5.004952 1.188652 0.86679381 51 18
5.0063806 1.1565871 0.86583447 47 18
5.0076041 1.1245494 0.8648752 39 18
5.0086231 1.0925404 0.86391592 55 18
5.0075064 1.0601524 0.86263686 59 18
5.0042472 1.0274224 0.86103809 42 18
4.9988389 0.99438733 0.85911947 46 18
4.995153 0.96183062 0.8575207 52 18
4.9961081 0.9302597 0.85672128 43 18
4.9988074 0.89906263 0.85624164 47 18
5.0003395 0.86769885 0.85560209 42 18
5.0007014 0.83618736 0.85480273 57 18
5.0018396 0.80486089 0.85416317 46 18
5.003757 0.77370268 0.85368353 44 18
5.0064573 0.74269611 0.85336375 57 18
5.009943 0.7118243 0.85320389 40 18
5.01226 0.68080491 0.85288411 42 18
5.0163431 0.65003741 0.85288411 46 18
5.020237 0.61924547 0.85288411 44 18
5.0259032 0.58865976 0.85320389 54 18
5.0294204 0.55781031 0.85320389 66 18
5.0327482 0.52693987 0.85320389 54 18
5.0309749 0.49556613 0.85240448 70 18
5.0181937 0.46323672 0.84984636 87 18
5.0130734 0.43175989 0.84856731 96 18
5.0097241 0.40052056 0.84760803 114 18
5.0081496 0.36948374 0.84696853 95 18
5.0113072 0.33881387 0.84712839 116 18
5.0241299 0.30872381 0.84888709 155 18
5.0328293 0.27827147 0.85000628 212 18
5.0176806 0.24656305 0.84728831 284 18
5.0181131 0.21572818 0.84712839 293 18
5.0223017 0.18504237 0.84760803 236 18
5.0174222 0.15404132 0.84664875 189 18
5.0301151 0.12354203 0.84856731 143 18
5.0396614 0.092838444 0.85000628 147 18
5.0401359 0.061913915 0.85000628 98 18
5.0325241 0.030939119 0.84872723 106 18
5.0375547 5.9225647e-05 0.84952664 103 18
5.040422 -0.030868996 0.85000628 78 18
5.045073 -0.061856754 0.85080564 72 18
5.051507 -0.092939213 0.85192484 62 18
5.0567627 -0.12407867 0.85288411 67 18
5.0598531 -0.15522543 0.85352367 77 18
5.0568323 -0.18619639 0.85320389 74 18
5.0477047 -0.21688141 0.85192484 71 18
5.0433211 -0.24770395 0.8514452 71 18
5.0456491 -0.27886274 0.8520847 76 18
5.0448279 -0.3098776 0.85224462 55 18
5.0428319 -0.34082624 0.85224462 71 18
5.045568 -0.37212548 0.85304403 68 18
5.0510616 -0.40370727 0.85432303 63 18
5.0534067 -0.4351162 0.85512245 62 18
5.0575223 -0.46675065 0.85624164 60 18
5.0575104 -0.49806473 0.85672128 67 18
5.054359 -0.52908766 0.85672128 60 18
1.1069374 -0.12243906 0.2139989 100 18
1.1091065 -0.12957346 0.21447854 98 18
1.1043718 -0.13589276 0.21383901 130 18
1.1044961 -0.14279342 0.2139989 126 18
1.1035992 -0.14956778 0.2139989 125 18
1.1026607 -0.15633653 0.2139989 132 18
1.0997277 -0.16280957 0.21367913 137 18
1.1006591 -0.1698561 0.2139989 127 18
1.0352732 -0.16625245 0.20344675 22 18
1.0371544 -0.1730902 0.20392638 6 18
5.1015086 -0.88514489 0.87222975 16 18
5.0979242 -0.91678005 0.87254953 55 18
5.0960851 -0.94876611 0.87318903 51 18
5.1008301 -0.98207092 0.87494773 54 18
5.1063261 -1.0156623 0.87686628 64 18
1.1712563 -0.24014051 0.22726904 69 18
1.1398234 -0.24098286 0.22231272 168 18
1.1373589 -0.24776171 0.22215284 174 18
1.1358173 -0.25473577 0.22215284 152 18
1.1351947 -0.26192245 0.22231272 139 18
1.1326057 -0.26865479 0.22215284 169 18
1.1309359 -0.27559927 0.22215284 168 18
1.1340113 -0.28373298 0.22295225 125 18
1.1102599 -0.28503266 0.21927498 12 18
5.1661592 -1.3616022 0.89892989 8 18
5.1043415 -1.3788555 0.88997656 69 18
5.1309853 -1.4198929 0.89589214 32 18
1.1285731 -0.31946173 0.22359177 119 18
1.1209034 -0.32473052 0.22263248 152 18
1.1160507 -0.3307597 0.22215284 181 18
1.1215571 -0.33989432 0.22343189 252 18
1.1147362 -0.34530768 0.22263248 206 18
1.1097734 -0.35124651 0.22215284 191 18
1.1104149 -0.35896119 0.22263248 164 18
1.1100659 -0.36638722 0.22295225 160 18
1.1171507 -0.37634611 0.22455105 121 18
1.1148205 -0.38319373 0.22455105 129 18
1.116174 -0.39133456 0.22519058 116 18
4.7291589 -1.6920561 0.84712839 126 18
4.7075591 -1.7169821 0.84520984 268 18
4.720067 -1.7544347 0.84920686 539 18
4.7082901 -1.7830138 0.84904695 657 18
4.7313366 -1.8250169 0.85496259 778 18
4.7273998 -1.8569012 0.85624164 859 18
4.7342477 -1.893205 0.85943925 728 18
4.7371702 -1.9281737 0.86199737 772 18
4.7389297 -1.9628714 0.86439556 734 18
4.7340736 -1.9949793 0.86567461 793 18
4.7326307 -2.0286572 0.86759317 96 18
4.7345719 -2.0639706 0.87015128 53 18
4.7290378 -2.0961833 0.87143034 48 18
4.7250862 -2.1292167 0.87302917 48 18
4.7271895 -2.1651585 0.87574714 65 18
4.7290287 -2.201206 0.87846512 80 18
4.7350645 -2.2394679 0.88198251 87 18
4.7408085 -2.2778862 0.88549989 93 18
4.7365003 -2.3116958 0.88725859 67 18
4.7354927 -2.3472919 0.88965678 73 18
4.7298183 -2.380743 0.89125562 42 18
4.7344584 -2.4196041 0.89477301 44 18
4.7370467 -2.4577019 0.89797062 41 18
4.7445855 -2.4986827 0.9021275 49 18
4.7509279 -2.5393827 0.90612453 45 18
4.7517428 -2.5774298 0.90916228 41 18
4.7557282 -2.6174862 0.91283959 35 18
4.7576766 -2.6567256 0.91619706 26 18
4.7584629 -2.6956005 0.91939467 27 18
4.7563834 -2.733109 0.9221127 36 18
4.7634029 -2.7761614 0.92658937 19 18
4.7692227 -2.8189001 0.93090612 17 18
4.7721562 -2.8602915 0.93474329 14 18
4.7595773 -2.8925953 0.93570256 26 18
4.7652693 -2.9362462 0.94017923 23 18
4.7680926 -2.9785061 0.94417626 27 18
4.7622361 -3.0156291 0.94657451 17 18
4.7693944 -3.0613246 0.95153081 21 18
4.7662416 -3.1007602 0.95456856 37 18
4.7669039 -3.1429894 0.95840573 39 18
4.7655854 -3.1842458 0.96192312 40 18
4.7721128 -3.2311389 0.96703929 35 18
4.7758017 -3.276556 0.97167587 32 18
4.7783012 -3.3215759 0.97615254 30 18
4.7820415 -3.3678861 0.98094898 16 18
4.7741427 -3.4063392 0.98350704 23 18
4.7691522 -3.447135 0.98670471 21 18
4.7726002 -3.4944124 0.99166101 24 18
4.7756472 -3.5418615 0.99661732 24 18
4.7846041 -3.5942225 1.0028527 19 18
4.7923117 -3.6462281 1.0089282 21 18
4.7948685 -3.6948471 1.0140444 14 18
4.7977867 -3.7442415 1.0193205 24 18
4.7987294 -3.7925856 1.0242767 29 18
4.7977171 -3.839848 1.0289133 29 18
4.7993722 -3.8897264 1.0341893 44 18
4.7960167 -3.9360113 1.0385062 34 18
4.7945504 -3.9842935 1.0433027 36 18
4.7979584 -4.0371547 1.0492182 41 18
4.7948861 -4.0850844 1.0538548 31 18
4.7973852 -4.1382871 1.0597703 37 18
4.804615 -4.1962185 1.0668051 42 18
4.8083553 -4.2517776 1.0732003 53 18
4.8101225 -4.3062229 1.0792758 38 18
4.8238354 -4.3721194 1.0880693 29 18
4.8223729 -4.4249964 1.0936652 28 18
4.8291206 -4.4860816 1.1011796 53 18
4.8302655 -4.5426807 1.1075748 31 18
4.8344712 -4.6028652 1.1147695 54 18
4.8366976 -4.6619015 1.1216444 76 18
4.8327284 -4.7156215 1.1272403 53 18
4.83741 -4.7784863 1.1349145 46 18
4.8380113 -4.8380947 1.1417894 41 18
4.8401427 -4.8999958 1.1491439 46 18
4.8416958 -4.9621043 1.1564986 40 18
4.8502026 -5.0322337 1.1656117 55 18
4.8539462 -5.0983629 1.1737657 29 18
4.8489447 -5.1560969 1.180001 51 18
4.8481188 -5.2190228 1.1873555 54 18
4.8487043 -5.2843137 1.1951897 53 18
4.8480067 -5.3490758 1.2028641 56 18
4.8592052 -5.4280014 1.2135761 34 18
4.8630772 -5.4998689 1.2226893 34 18
4.8623533 -5.5675249 1.2308433 43 18
4.8809671 -5.6585507 1.2439535 28 18
4.8903236 -5.7402434 1.2549853 13 18
4.8905983 -5.8124423 1.2639387 45 18
4.8832302 -5.8765078 1.2711333 47 18
4.8940444 -5.963593 1.2831244 56 18
4.8902988 -6.0341578 1.2915981 33 18
4.8963561 -6.1180015 1.3027898 34 18
4.9003425 -6.2005963 1.3136617 30 18
4.8931746 -6.2702379 1.3218156 28 18
4.8618388 -6.3095274 1.3237342 20 18
4.8828001 -6.4178042 1.3397224 37 18
4.9073558 -6.532887 1.3569895 128 18
4.8771739 -6.5763545 1.3597075 117 18
4.9428563 -6.7511206 1.3888059 421 18
4.9475956 -6.8453279 1.4015963 403 18
4.9043541 -6.87395 1.4012766 334 18
4.8438969 -6.8780856 1.3961604 231 18
4.9869561 -7.1743574 1.4487613 35 18
4.7362328 -6.903635 1.3896053 101 18
4.6223955 -6.8271174 1.3689806 215 18
4.7816701 -7.156589 1.427657 54 18
4.9669504 -7.5335889 1.4951268 51 18
4.9432383 -7.5986776 1.5018419 50 18
4.9605007 -7.7285576 1.5210276 23 18
4.9652638 -7.8414173 1.5368558 36 18
4.9405885 -7.9094119 1.5440505 57 18
4.9660077 -8.0597601 1.5669135 39 18
4.9584951 -8.159255 1.5800238 43 18
4.9874973 -8.3216152 1.6049652 26 18
4.988575 -8.440443 1.6215929 18 18
4.9749608 -8.5365667 1.6339037 19 18
4.9593701 -8.6311255 1.6458948 36 18
4.9452372 -8.7301073 1.6586853 21 18
4.9185257 -8.8085527 1.6676387 24 18
4.2413998 -7.706502 1.4583542 22 18
4.1879158 -7.7211008 1.4562757 55 18
4.1255722 -7.7187929 1.4511595 43 18
3.9797089 -7.557044 1.416945 283 18
3.9087188 -7.5340033 1.4083114 674 18
3.8574765 -7.5481758 1.4065527 648 18
3.7933383 -7.5364323 1.4001575 526 18
3.7386956 -7.5427608 1.3971196 437 18
3.7040324 -7.5895119 1.4014364 331 18
3.6659436 -7.6298923 1.4046341 321 18
3.6414242 -7.6995387 1.4131078 282 18
3.6016095 -7.7378469 1.4159857 338 18
3.553652 -7.7589025 1.4158258 285 18
3.5440946 -7.8651619 1.4308546 369 18
3.5621629 -8.0365705 1.4573948 277 18
3.7928257 -8.7007647 1.5709106 523 18
3.7339232 -8.7111712 1.5686722 580 18
3.6781025 -8.7284594 1.5677129 631 18
3.6240988 -8.7499514 1.567553 649 18
3.5692255 -8.7692814 1.5670733 499 18
3.5318427 -8.832263 1.574268 351 18
4.5947733 -11.698426 2.0692601 518 18
4.5104742 -11.694163 2.0636644 675 18
0 -0 0 777 18
4.3487477 -11.700518 2.0553505 775 18
4.267065 -11.700087 2.050714 695 18
4.1898746 -11.711177 2.0481558 625 18
4.1087871 -11.710584 2.0436792 771 18
4.0330024 -11.724373 2.0417607 727 18
3.9537344 -11.727384 2.0380833 726 18
3.8742721 -11.728927 2.0342462 729 18
3.7952437 -11.730876 2.0305688 654 18
3.71753 -11.736062 2.0275311 676 18
3.6407723 -11.743566 2.0249732 728 18
3.5629168 -11.746791 2.0217755 792 18
3.4851592 -11.749503 2.0185778 818 18
3.4094265 -11.758342 2.0164995 779 18
3.3318334 -11.760045 2.0133018 820 18
3.2546113 -11.762191 2.0102642 766 18
3.1785178 -11.767644 2.0078659 761 18
3.1027319 -11.773562 2.0056274 714 18
3.0272386 -11.779949 2.0035491 786 18
2.950345 -11.780108 2.0005114 793 18
2.8742657 -11.782645 1.9979532 798 18
2.7982662 -11.784693 1.9953951 710 18
2.7232385 -11.790099 1.9934765 773 18
2.6482499 -11.795029 1.991558 679 18
2.5720417 -11.793695 1.9886801 394 18
1.6980346 -8.0215998 1.361626 9 18
1.8801808 -9.1593685 1.5480475 6 18
1.8164365 -9.1329737 1.5418122 9 18
1.757938 -9.1313457 1.5397336 14 18
1.5127649 -8.1258764 1.3723381 11 18
1.4588598 -8.1126604 1.3686608 17 18
1.3980886 -8.058239 1.3582685 10 18
1.3362504 -7.9926696 1.3461176 16 18
1.2920425 -8.0309315 1.3510739 11 18
1.8259112 -11.812154 1.9694943 266 18
1.0836508 -7.3060241 1.2298839 323 18
1.0276986 -7.2343493 1.2170935 403 18
0.97173786 -7.1554184 1.2031838 394 18
0.92337739 -7.1269827 1.197588 389 18
0.87673116 -7.1090012 1.1937509 413 18
0.83183229 -7.1034617 1.1919922 443 18
0.79181904 -7.1408095 1.1972682 372 18
0.76699179 -7.3271623 1.2268462 993 18
0.72153527 -7.3268185 1.2260468 1017 18
0.67701846 -7.3360229 1.2268462 1114 18
0.6320774 -7.3410225 1.2270061 1091 18
0.58670747 -7.3408265 1.2263665 1084 18
0.54194415 -7.3482261 1.2270061 1145 18
0.49677956 -7.3504281 1.2268462 1098 18
0.45124558 -7.3464408 1.2257271 1117 18
0.40594247 -7.345129 1.2250875 1135 18
0.36101109 -7.3504395 1.2255672 1182 18
0.31531033 -7.3387089 1.2233288 1535 18
0.27002105 -7.3336 1.2222097 1498 18
0.22498763 -7.3341322 1.2220498 1389 18
0.1798612 -7.3304405 1.2212504 1011 18
0.1353136 -7.3550935 1.2250875 852 18
0.090181053 -7.3557854 1.2250875 652 18
0.072585933 -11.892995 1.9599015 612 18
-0.00039031624 -11.906049 1.9619799 775 18
-0.073444456 -11.905823 1.9619799 787 18
-0.14653236 -11.908109 1.9624596 828 18
-0.21957815 -11.905998 1.9622997 916 18
-0.29282218 -11.912322 1.9635787 879 18
-0.36633411 -11.924114 1.9658171 936 18
-0.44011098 -11.938412 1.9685351 1024 18
-0.51352525 -11.939432 1.9691746 980 18
-0.58740503 -11.948874 1.971253 1041 18
-0.66049272 -11.941102 1.9706135 619 18
-0.73374951 -11.936824 1.9706135 540 18
-0.80791163 -11.945886 1.9728519 927 18
-0.88163108 -11.94661 1.9738111 913 18
-0.95633447 -11.958688 1.976689 817 18
-1.0289308 -11.943743 1.97525 671 18
-1.1032864 -11.949 1.9771687 551 18
-1.1777451 -11.953794 1.9790872 381 18
-1.25107 -11.946342 1.9790872 241 18
-1.321735 -11.914895 1.97525 100 18
-0.86863834 -7.4162002 1.2429942 52 18
-0.91521508 -7.419548 1.2444332 45 18
-0.96148479 -7.4196663 1.2453924 45 18
-1.0077903 -7.4194961 1.2463517 45 18
-1.0531577 -7.4121952 1.2461919 51 18
-1.1003571 -7.4173107 1.2481104 21 18
-1.1458482 -7.4104195 1.2481104 98 18
-1.1922374 -7.4090967 1.2490697 89 18
-1.2389791 -7.409431 1.2503488 87 18
-1.2850945 -7.4055796 1.2509882 80 18
-1.3320832 -7.4062986 1.2524272 92 18
-1.3791291 -7.4067197 1.2538662 74 18
-1.4297775 -7.4252591 1.2583429 124 18
-1.4760816 -7.4202189 1.2589823 159 18
-1.5227749 -7.4168239 1.2599416 186 18
-1.5692776 -7.4121695 1.260741 171 18
-1.6227248 -7.4390502 1.2668165 177 18
-2.7024724 -12.032747 2.0310485 269 18
-2.7804759 -12.034212 2.0340862 507 18
-1.9955122 -8.4019442 1.4322935 252 18
-2.0020928 -8.2054157 1.4015963 112 18
-1.9756292 -7.8865647 1.3504344 41 18
-1.975317 -7.6849966 1.3187779 51 18
-2.0262089 -7.6870494 1.3211762 80 18
-2.058145 -7.6182475 1.3117431 47 18
-3.3441482 -12.082581 2.0641439 291 18
-3.418761 -12.063733 2.0644639 516 18
-3.4935431 -12.045373 2.0649433 392 18
-3.5657017 -12.018032 2.0639842 290 18
-3.6582923 -12.058272 2.0745363 449 18
-3.7056029 -11.9498 2.0599871 277 18
-2.3440008 -7.398633 1.2906388 571 18
-2.3671656 -7.3155513 1.2789675 950 18
-2.4055045 -7.2812061 1.27561 931 18
-2.4655931 -7.3121424 1.2834442 716 18
-2.517158 -7.3164778 1.2868017 739 18
-2.5407548 -7.2403522 1.2764094 809 18
-0 -0 0 660 18
-0 -0 0 1085 18
-2.5851882 -6.954567 1.23532 1611 18
-2.6306093 -6.9459586 1.236599 1580 18
-2.6788645 -6.9444222 1.2391571 1650 18
-2.7264779 -6.9407172 1.2413954 1633 18
-2.7701137 -6.9266067 1.2418751 1546 18
-2.7835295 -6.8381662 1.2294043 1369 18
-0 -0 0 1350 18
-2.9189949 -6.9262938 1.2509882 1420 18
-2.9754424 -6.9409142 1.256744 1425 18
-3.023104 -6.9342899 1.2588224 1346 18
-3.0723965 -6.9309511 1.2615404 203 18
-5.0577722 -11.222736 2.0273714 148 18
-5.1207824 -11.178927 2.0251329 235 18
-5.1938615 -11.15714 2.0268917 118 18
-3.3939483 -7.1755953 1.3192575 76 18
-3.4558713 -7.1920037 1.3259726 53 18
-3.5103285 -7.1919537 1.3298097 66 18
-3.5666685 -7.1950431 1.3342863 62 18
-3.6205146 -7.1924205 1.3378037 76 18
-3.6704192 -7.1814966 1.3398823 98 18
-3.7485154 -7.2245545 1.3518733 207 18
-3.8268168 -7.2660484 1.3637046 226 18
-3.9104211 -7.3155565 1.3771346 360 18
-3.9646492 -7.3087783 1.3803321 583 18
-4.0113244 -7.2877731 1.3809717 852 18
-4.060298 -7.2707796 1.3824106 860 18
-4.1062942 -7.2483058 1.3828902 709 18
-4.1388865 -7.2024331 1.3790531 410 18
-3.4114766 -5.8533149 1.1309175 176 18
-3.4272342 -5.7982821 1.1245222 143 18
-3.4500585 -5.7559772 1.1205252 99 18
-3.4822352 -5.7296386 1.119566 113 18
-3.5142188 -5.7031217 1.1186067 131 18
-3.5554228 -5.6914978 1.1205252 115 18
-3.6013699 -5.687088 1.1238828 128 18
-3.6521957 -5.6898041 1.1286792 114 18
-4.0326686 -6.1984825 1.2313229 508 18
-4.0738864 -6.1785665 1.2322822 724 18
-4.094718 -6.1280103 1.2273259 612 18
-4.1206183 -6.0856056 1.2239684 799 18
-4.1662588 -6.0724168 1.2263665 808 18
-4.2056942 -6.0499806 1.2270061 769 18
-4.229094 -6.0046926 1.223169 360 18
-3.9355829 -5.5157986 1.1310774 465 18
-3.9254012 -5.430747 1.1189264 839 18
-3.9119925 -5.3428445 1.106136 273 18
-3.937645 -5.3092265 1.1042174 616 18
-3.957696 -5.2683921 1.1008599 823 18
-3.9457123 -5.1858773 1.0890286 955 18
-3.9497392 -5.1256027 1.0816741 804 18
-3.9841518 -5.1051621 1.0824735 391 18
-4.0019345 -5.0635824 1.0789561 584 18
-4.0212083 -5.0242891 1.0759184 647 18
-4.0656362 -5.0163918 1.0794358 552 18
-4.0850663 -4.9776168 1.0765579 429 18
-4.1066985 -4.9418292 1.0743196 382 18
-4.1280451 -4.9059639 1.0720812 512 18
-4.1580696 -4.8805423 1.0720812 524 18
-4.1956758 -4.8639059 1.0739998 515 18
-4.2267399 -4.8395572 1.0743196 445 18
-4.2465463 -4.8024397 1.0719213 385 18
-6.4159546 -7.1664419 1.5915352 258 18
-6.5075397 -7.1795983 1.6030467 575 18
-6.5734959 -7.1635346 1.6083227 664 18
-6.6609998 -7.1700726 1.618715 775 18
-6.7752066 -7.2038474 1.6353426 580 18
-6.8594432 -7.2043185 1.6447756 604 18
-6.9336629 -7.1933646 1.6518104 672 18
-7.0093842 -7.1831832 1.6591649 174 18
-7.1289473 -7.2165828 1.676592 608 18
-7.2247496 -7.2243538 1.6884232 393 18
-7.3012481 -7.2117963 1.6957778 133 18
-5.3160954 -5.1870584 1.236599 65 18
-5.313705 -5.1214619 1.2289246 125 18
-5.2949815 -5.0411177 1.217733 418 18
-5.3186221 -5.001771 1.2161342 497 18
-5.3152184 -4.9374681 1.2086197 794 18
-5.333776 -4.894084 1.2060617 832 18
-5.3146968 -4.8168516 1.1953496 401 18
-5.3426814 -4.7828341 1.1950299 18 18
-5.3312531 -4.7140002 1.1862364 162 18
-2.7056377 -2.3632123 0.61546057 39 18
-2.6954193 -2.3252904 0.61018449 124 18
-2.7051275 -2.3048673 0.60922521 183 18
-2.7207296 -2.2894964 0.60954493 222 18
-2.7180231 -2.2588806 0.60602754 118 18
-2.731832 -2.2421606 0.60602754 279 18
-2.7263649 -2.2098188 0.60203052 127 18
-2.727541 -2.1831803 0.59947246 120 18
-2.7230718 -2.1523266 0.59579515 102 18
-2.7183273 -2.1216106 0.59211791 125 18
-2.7226927 -2.098264 0.59035921 131 18
-2.7410157 -2.0857022 0.59147841 323 18
-2.7261364 -2.048095 0.58588254 105 18
-2.7354803 -2.0289772 0.58524299 129 18
-2.7311518 -1.9999092 0.58188552 121 18
-2.7345707 -1.9767531 0.58012682 126 18
-2.7386124 -1.954204 0.57852799 126 18
-2.7505517 -1.9373634 0.57852799 114 18
-2.7713037 -1.9266471 0.58028668 108 18
-2.8140059 -1.9308257 0.58636218 85 18
-2.8527753 -1.931785 0.59163827 89 18
-2.8850951 -1.9279536 0.59563529 80 18
-2.941375 -1.9395541 0.60426885 344 18
-2.9689426 -1.9316965 0.6073066 100 18
-3.0056624 -1.9294381 0.61210304 349 18
-3.0549755 -1.9347222 0.61929768 99 18
-3.0952556 -1.9337205 0.62473369 79 18
-3.1373181 -1.9333322 0.63048941 90 18
-3.1659937 -1.924298 0.63368702 76 18
-3.2090704 -1.9236107 0.6396026 15 18
-5.3513265 -3.1629722 1.0404247 20 18
-5.3680744 -3.1285865 1.0399451 22 18
-5.3786111 -3.0906723 1.0383463 18 18
-5.3880258 -3.0522599 1.0365876 16 18
-5.3954477 -3.0128863 1.0345092 22 18
-5.3991308 -2.971633 1.0317912 21 18
-5.3981724 -2.9280953 1.0282738 15 18
-5.4029784 -2.8879385 1.0258756 12 18
-5.4057479 -2.8469133 1.0231576 13 18
-5.4125996 -2.8082359 1.021239 18 18
-5.4165435 -2.7682345 1.0188408 20 18
-5.4237275 -2.7300656 1.0170821 14 18
-5.4288788 -2.6910362 1.0150037 10 18
-5.4293199 -2.6498821 1.0121257 9 18
-5.4205632 -2.6045496 1.0076491 24 18
-5.41681 -2.5619566 1.0041317 9 18
-5.4154234 -2.5207577 1.001094 7 18
-5.4200187 -2.4825497 0.99917543 15 18
-5.4189491 -2.4419475 0.99629754 13 18
-5.4230008 -2.4038517 0.99437898 12 18
-5.4267898 -2.3657985 0.99246043 26 18
-5.4294086 -2.3274004 0.99038196 16 18
-5.4308515 -2.2886765 0.98814362 20 18
-5.436584 -2.2519109 0.98670471 16 18
-5.4493852 -2.2181382 0.98654479 7 18
-5.4500604 -2.179529 0.98430645 13 18
-0 -0 0 5 18
-5.4929743 -2.1188779 0.98718435 4 18
-5.4864855 -2.0777934 0.98382682 11 18
-5.5722303 -2.0712559 0.99645746 71 18
-5.4958043 -2.00456 0.98110884 11 18
-5.507071 -1.970468 0.98094898 16 18
-5.5162635 -1.9356599 0.98046929 15 18
-5.5756435 -1.9181505 0.98862326 83 18
-8.5591269 -2.885709 1.4965658 390 18
-8.5485525 -2.8238492 1.4917693 947 18
-8.5234537 -2.7576709 1.4845747 916 18
-8.4084654 -2.6635919 1.4621913 1019 18
-8.4105072 -2.607564 1.4597931 989 18
-8.3932858 -2.545882 1.4541973 741 18
-8.3992853 -2.4915268 1.4525985 740 18
-8.4020891 -2.4363697 1.45052 917 18
-8.4121323 -2.3834243 1.4497206 966 18
-8.4237432 -2.3309739 1.4492409 1022 18
-8.4283581 -2.276669 1.4476421 913 18
-6.2476487 -1.6466556 1.0800753 409 18
-8.567523 -2.2018113 1.4663483 666 18
-8.6019382 -2.1544759 1.4698657 1236 18
-8.6102009 -2.1004853 1.4690663 1184 18
-8.6123619 -2.0451064 1.4673076 953 18
-8.5958939 -1.9855596 1.4625111 372 18
-8.617547 -1.9349411 1.4641099 1111 18
-8.6176834 -1.8795047 1.4621913 1069 18
-8.6271219 -1.8261833 1.4618716 1080 18
-8.6420326 -1.7740078 1.4625111 751 18
-8.7427959 -1.738852 1.47738 1001 18
-8.7629948 -1.6870402 1.4789789 64 18
-6.3799996 -1.1878264 1.0847118 80 18
-6.3657937 -1.1448145 1.0811944 68 18
-6.358109 -1.1032027 1.0787963 64 18
-6.3598905 -1.0633556 1.0779969 55 18
-6.3653207 -1.0241553 1.077837 88 18
-6.3802648 -0.98643607 1.0792758 72 18
-6.4008446 -0.9494406 1.0816741 70 18
-6.4241414 -0.912646 1.0845519 81 18
-8.7664557 -1.1904355 1.4665082 57 18
-8.7853422 -1.1381446 1.4684267 60 18
-8.7862825 -1.0834926 1.4674674 276 18
-8.7584496 -1.025544 1.4618716 847 18
-8.7233696 -0.96721685 1.4551566 139 18
-8.6093636 -0.90114146 1.4356511 1179 18
-8.8249626 -0.86899054 1.4698657 290 18
-8.835043 -0.81527853 1.470665 242 18
-8.8182421 -0.75919056 1.4671476 170 18
-8.8374949 -0.70624745 1.4695458 315 18
-8.8396921 -0.65186316 1.4692261 221 18
-8.844511 -0.59767807 1.469386 232 18
-8.8598347 -0.54412353 1.4713045 278 18
-8.8649778 -0.48985922 1.4716244 274 18
-8.8530273 -0.43472993 1.4692261 234 18
-8.8515835 -0.38023132 1.4685866 242 18
-8.8576956 -0.32605693 1.4692261 351 18
-8.714489 -0.2672593 1.4457235 1062 18
-8.6449118 -0.21204358 1.4342121 393 18
-8.8651581 -0.1630148 1.4697057 141 18
-8.8719139 -0.10868844 1.470665 238 18
-8.8615551 -0.054183435 1.4689063 300 18
-8.8627081 0.00019113004 1.4690663 197 18
-8.8733978 0.054639015 1.470825 142 18
-8.8669739 0.10901107 1.4698657 127 18
-6.4076009 0.11799348 1.0716016 76 18
-8.8293085 -0.65186298 1.3601185 331 19
-8.8538628 -0.59907985 1.3632298 263 19
-8.8544102 -0.54455978 1.3627853 242 19
-8.8635101 -0.49054855 1.3636743 246 19
-8.866353 -0.43615383 1.3636743 218 19
-8.8579941 -0.38127348 1.3620446 234 19
-8.8542366 -0.32669508 1.3611556 261 19
-8.6830883 -0.26701754 1.3352286 1024 19
-8.6390848 -0.21260872 1.3284135 378 19
-6.3244734 -0.11650877 0.9814353 223 19
-8.8467321 -0.10914256 1.3592296 170 19
-8.8324013 -0.05476404 1.3570073 259 19
-8.8543282 -0.00057268667 1.3602667 243 19
-8.8413086 0.053680096 1.3583407 159 19
-8.8576241 0.10813135 1.3608593 119 19
-6.4194012 0.11808538 0.99565816 100 19
-8.8655167 0.21706064 1.3623409 101 19
-8.8996038 0.27253947 1.3676745 207 19
-8.8651505 0.32594645 1.3627853 99 19
-8.8985538 0.38185757 1.3681189 171 19
-8.6658897 0.4251895 1.3335989 389 19
-8.8576488 0.48906964 1.3627853 564 19
-8.8505325 0.54316813 1.3621927 384 19
-8.6812639 0.58629078 1.3373027 1028 19
-8.7978315 0.64839917 1.3553776 140 19
-8.9474773 0.71463257 1.3784897 62 19
-8.9596748 0.77095896 1.3810084 60 19
-8.9459124 0.82510364 1.3796749 83 19
-8.9259176 0.87852806 1.3774526 71 19
-8.9046211 0.93163544 1.3750821 75 19
-8.8938227 0.98571157 1.3743414 79 19
-0 0 0 53 19
-0 0 0 56 19
-8.8908453 1.1514078 1.37686 64 19
-8.8542137 1.2019523 1.3724154 678 19
-8.7154646 1.2376437 1.3525627 815 19
-8.7057495 1.2908076 1.3522663 615 19
-8.9195309 1.3784595 1.3858974 192 19
-8.9216461 1.4348887 1.3875271 190 19
-8.925355 1.4917216 1.3894532 190 19
-8.9189568 1.5469651 1.3898976 156 19
-8.9180574 1.6032355 1.3912311 174 19
-8.9109688 1.6584679 1.3916755 183 19
-8.8947983 1.7119926 1.3907865 168 19
-8.8579359 1.7613337 1.3867863 206 19
-8.8237114 1.8108832 1.3832307 201 19
-6.5512433 1.3867565 1.0369933 91 19
-6.5300493 1.4241908 1.0350673 100 19
-6.496098 1.4586027 1.0312153 116 19
-6.4706445 1.4946536 1.0286967 102 19
-6.4546156 1.5327303 1.0276595 83 19
-6.4489331 1.5732431 1.0282521 87 19
-6.4583459 1.6175857 1.0312153 88 19
-6.463625 1.6611187 1.0335858 109 19
-8.9484396 2.3578639 1.4201212 90 19
-8.9634027 2.4207158 1.424714 147 19
-8.9588661 2.4785681 1.4263437 144 19
-8.9625196 2.5388803 1.4293067 145 19
-8.9391737 2.5916235 1.4281216 740 19
-8.7950993 2.6084783 1.4081206 1096 19
-8.8148937 2.6732969 1.4137505 1088 19
-8.8389444 2.7399197 1.4201212 1256 19
-8.83988 2.7997742 1.4229361 1222 19
-8.840414 2.8597431 1.4257511 1104 19
-8.8424215 2.9204438 1.4288623 1047 19
-8.8402681 2.9800134 1.431381 986 19
-8.8433266 3.0415955 1.4347885 1055 19
-8.8515615 3.1052907 1.439085 1085 19
-8.8556213 3.1678691 1.4427888 1152 19
-8.8555298 3.229259 1.4459001 1217 19
-8.8522358 3.2897339 1.4485669 1149 19
-8.8513069 3.3513398 1.4516782 1109 19
-8.862874 3.4180384 1.4568635 946 19
-8.8564634 3.4781377 1.459234 957 19
-8.8652601 3.5445268 1.4641231 860 19
-8.9001408 3.6219618 1.4733087 833 19
-8.9471951 3.7052531 1.4845685 1042 19
-8.9215565 3.7589307 1.4841239 1009 19
-8.9092331 3.8182752 1.4859018 883 19
-8.8883572 3.8740544 1.4863462 331 19
-8.8752689 3.9333265 1.4881241 96 19
-6.321631 2.8485096 1.0725504 84 19
-6.3121266 2.8909495 1.0738838 107 19
-6.3077192 2.935883 1.0761061 113 19
-6.2547164 2.9580474 1.0703281 363 19
-6.244472 3.0002232 1.0716615 454 19
-6.2188349 3.0350134 1.0704763 442 19
-6.1965504 3.071358 1.0698836 457 19
-6.1749377 3.1079881 1.0694392 464 19
-6.1557512 3.1458182 1.0694392 491 19
-6.1293097 3.1798878 1.0682539 462 19
-6.1044321 3.2146728 1.0673651 463 19
-6.088954 3.2543983 1.0681058 410 19
-6.078434 3.2968833 1.0697354 414 19
-6.0693545 3.3403149 1.0716615 362 19
-6.0513353 3.3789389 1.0721059 330 19
-6.0244646 3.4125946 1.0710689 304 19
-6.0068421 3.4514658 1.0716615 309 19
-5.9778605 3.483778 1.0703281 245 19
-6.0091629 3.5515807 1.0795137 89 19
-5.9830155 3.585844 1.0787729 162 19
-5.9380798 3.6086242 1.0747727 153 19
-8.9245119 5.498075 1.6041292 456 19
-8.9157743 5.5684447 1.6085739 614 19
-8.9040012 5.6373272 1.6125741 701 19
-8.8967123 5.7094789 1.6174631 411 19
-6.8236327 4.4387441 1.2532991 9 19
-6.754981 4.4533186 1.2458913 37 19
-6.6954551 4.4732609 1.2401133 69 19
-6.7022805 4.5375404 1.2463357 25 19
-6.6857309 4.58641 1.24841 12 19
-8.8437757 6.146502 1.6472422 298 19
-8.8317728 6.2188683 1.6519831 503 19
-8.8192139 6.2913175 1.6567241 623 19
-8.8004856 6.3597922 1.660428 642 19
-8.8043919 6.4452119 1.6684283 471 19
-8.7988405 6.5244389 1.674799 300 19
-8.789484 6.6014643 1.680577 568 19
-8.757472 6.6618567 1.6822067 574 19
-8.7689238 6.7558999 1.6921331 275 19
-8.7218475 6.8053198 1.6910959 462 19
-8.6822548 6.8605475 1.6915405 652 19
-8.6747465 6.941493 1.6982074 354 19
-8.6074009 6.9746685 1.6934664 579 19
-8.6072607 7.0624766 1.7017632 189 19
-8.5812616 7.1296911 1.7051708 584 19
-8.5252438 7.1720252 1.7028003 419 19
-8.4291239 7.1799564 1.6925776 387 19
-8.327239 7.1818137 1.6811696 493 19
-8.29568 7.2438302 1.6836883 602 19
-8.2043934 7.2533326 1.6743546 351 19
-8.1022501 7.2520967 1.6627985 396 19
-7.9923716 7.2425785 1.6496127 377 19
-7.8836455 7.2326555 1.6365751 399 19
-7.7615752 7.2088871 1.6207225 433 19
-7.6473022 7.1906695 1.6063515 318 19
-7.5256672 7.1638236 1.5903509 439 19
-7.4253058 7.1556578 1.5786467 409 19
-7.3338261 7.1548185 1.5687202 403 19
-7.2257485 7.1364508 1.5552382 480 19
-7.1216722 7.1205244 1.5424969 437 19
-7.0319686 7.117661 1.5327187 434 19
-6.9225359 7.0934429 1.518644 474 19
-6.8280835 7.0831032 1.5076805 447 19
-6.5819187 6.9121785 1.4636786 507 19
-6.5007558 6.9113774 1.4552338 474 19
-6.405714 6.8946295 1.4436778 527 19
-6.3251686 6.8922768 1.435233 497 19
-6.2468872 6.8913946 1.4272326 442 19
-6.1550012 6.874342 1.416121 321 19
-6.0380068 6.8275347 1.3992313 213 19
-5.96802 6.8324304 1.3928608 142 19
-5.8956175 6.8337312 1.3858974 122 19
-5.8362551 6.8494549 1.3818973 110 19
-4.1439748 4.9247913 0.99802864 18 19
-5.7094035 6.869606 1.3719709 360 19
-5.6847157 6.9259109 1.3761193 778 19
-5.6047421 6.9145699 1.3672299 551 19
-2.7429857 3.4277384 0.69149667 86 19
-2.75073 3.4809661 0.69845998 145 19
-2.7445343 3.517267 0.70216382 110 19
-2.7373924 3.5528388 0.70571953 120 19
-2.7293177 3.5876677 0.70912707 112 19
-2.7280478 3.6320179 0.71431249 101 19
-2.7239785 3.6733096 0.71890527 110 19
-2.7206733 3.7162828 0.7237944 139 19
-2.7181015 3.7609556 0.72897983 123 19
-2.7173815 3.8089554 0.73475784 155 19
-2.7150347 3.8554699 0.74023956 170 19
-2.7060075 3.8931665 0.74409157 180 19
-2.7022159 3.9390507 0.74942517 198 19
-2.6951892 3.9809399 0.75401795 217 19
-2.6954439 4.0344005 0.76068491 224 19
-2.7169249 4.1210346 0.77327806 154 19
-2.7029164 4.1550341 0.7763893 179 19
-2.7051582 4.2148132 0.78409332 127 19
-2.6919479 4.2513824 0.78764904 101 19
-2.67839 4.2879477 0.79120475 132 19
-2.0552187 3.3361647 0.6208269 107 19
-2.0352235 3.3495576 0.62097508 122 19
-2.0131068 3.3594379 0.62053061 28 19
-0 0 0 6 19
-0 0 0 4 19
-1.8779807 3.269031 0.59860373 97 19
-1.8525231 3.2710283 0.59697402 145 19
-1.8266295 3.2719734 0.59519619 154 19
-1.7993631 3.2701252 0.59297383 96 19
-0 0 0 5 19
-0 0 0 8 19
-0 0 0 9 19
-0 0 0 13 19
-0 0 0 7 19
-0 0 0 11 19
-0 0 0 6 19
-0 0 0 4 19
-0 0 0 6 19
-0 0 0 10 19
-0 0 0 11 19
-0 0 0 32 19
-0 0 0 10 19
-0 0 0 4 19
-0 0 0 11 19
-0 0 0 6 19
-0 0 0 4 19
-0 0 0 6 19
-0 0 0 16 19
-0 0 0 45 19
-1.0473403 2.667938 0.46319041 39 19
-1.0288138 2.6687784 0.46230146 42 19
-1.0064617 2.6593194 0.45978284 33 19
-0.98598838 2.6543217 0.45800498 43 19
-0.96290201 2.6417413 0.45504189 56 19
-0.9433409 2.6382887 0.45356035 50 19
-0 0 0 47 19
-0 0 0 44 19
-0.88576633 2.6289678 0.44941202 45 19
-0.86868739 2.6315362 0.44896755 38 19
-0.84886861 2.6255264 0.44718969 46 19
-0.83334041 2.632571 0.44748601 32 19
-0.81658542 2.6357458 0.44718969 215 19
-0.7960884 2.6265116 0.44496739 43 19
-0.78023893 2.6322949 0.44511554 51 19
-0.7626946 2.6322839 0.44437477 54 19
-0.75003624 2.6492832 0.44630077 45 19
-0.74564451 2.6967244 0.45296773 15 19
-0.72598642 2.6897924 0.45118988 14 19
-0.70795506 2.6884589 0.45030093 16 19
-0.6884892 2.6812589 0.44852307 11 19
-0.66456926 2.6556952 0.4439303 21 19
-0.64708871 2.6549191 0.44318953 19 19
-0.61317658 2.5847535 0.43178162 5 19
-0.59841925 2.5932851 0.43252239 13 19
-0.57620656 2.5689261 0.4282259 8 19
-0 0 0 5 19
-0.54607362 2.582576 0.429263 9 19
-0.52504098 2.5606914 0.42541096 8 19
-0.51047778 2.5696843 0.4262999 7 19
-0.49863151 2.5931611 0.42941114 5 19
-0.47999263 2.5815885 0.42718881 5 19
-0.4606384 2.5650187 0.42422572 4 19
-0 0 0 5 19
-0.42831057 2.5656013 0.42348495 8 19
-0.41083002 2.557441 0.42185524 6 19
-0 0 0 3 19
-0.37825292 2.5544641 0.42067 7 19
-0.36382559 2.5655489 0.42200342 6 19
-0.3494097 2.5775323 0.42348495 4 19
-0.33473316 2.5884545 0.42481834 11 19
-0 0 0 6 19
-0.30490249 2.6090651 0.42733696 10 19
-0.29139942 2.6334939 0.43074453 35 19
-0.27028316 2.588021 0.4236331 106 19
-0.25391263 2.5847099 0.42289233 101 19
-0.23759292 2.5812955 0.42215157 82 19
