# .PCD v0.7 - Point Cloud Data file format
VERSION 0.7
FIELDS x y z intensity ring
SIZE 4 4 4 4 1
TYPE F F F F U
COUNT 1 1 1 1 1
WIDTH 470
HEIGHT 1
VIEWPOINT 0 0 0 1 0 0 0
POINTS 470
DATA ascii
3.4299738 0.14811485 -1.2293139 25 61
3.4439378 0.12755653 -1.2341754 54 61
3.4530914 0.10668601 -1.2373009 83 61
3.4527435 0.08547271 -1.2369536 66 61
3.4382014 0.064001098 -1.2313974 18 61
3.7351878 -0.22868043 -0.83646238 65 50
3.7882237 -0.23325476 -0.75341892 137 48
3.7857444 -0.25642821 -0.75321442 70 48
3.789957 -0.28008574 -0.75444138 115 48
3.7569232 -0.22992843 -0.79477364 96 49
3.7466745 -0.25238833 -0.7928257 74 49
3.7065949 0.16009326 -0.82893801 119 50
3.7075076 0.137347 -0.82893801 68 50
3.7170393 0.11486534 -0.83099014 48 50
3.6972334 0.091551833 -0.82620186 110 50
3.6957786 0.068828255 -0.82574588 129 50
3.7029464 0.046234466 -0.82734191 117 50
3.7070551 0.023537066 -0.82825398 101 50
3.6896038 0.00078864838 -0.82414979 11 50
3.6815469 -0.044393789 -0.82232571 28 50
3.7289066 -0.06785547 -0.83349824 118 50
3.7245266 -0.090639181 -0.83258617 71 50
3.7024899 -0.112836 -0.82756996 6 50
3.6988087 -0.13544473 -0.82688594 8 50
3.6949897 -0.15801254 -0.82620186 10 50
3.7345762 -0.20565017 -0.83600634 80 50
3.6808879 0.15775394 -0.867607 36 51
3.6905193 0.13548884 -0.86975992 7 51
3.7116618 0.11347116 -0.87478334 7 51
3.7132587 0.090718709 -0.87502253 6 51
3.7011251 0.067698061 -0.87191278 11 51
3.6995289 0.044962894 -0.87143439 41 51
3.7026482 0.022280611 -0.87215203 7 51
3.6871796 -0.00044188055 -0.86832464 5 51
3.6832237 -0.023042914 -0.8673678 9 51
3.6904302 -0.068381451 -0.86928147 91 51
3.6977065 -0.091213323 -0.8711952 152 51
3.6951361 -0.11384112 -0.87071675 127 51
3.6710804 -0.13565876 -0.86497569 20 51
3.7030826 -0.18235919 -0.87334806 90 51
3.6805649 -0.20390259 -0.86808544 31 51
3.6418512 0.15730363 -0.9038102 109 52
3.6572587 0.13549075 -0.90757096 34 52
3.6657619 0.11328608 -0.90957671 6 52
3.6721947 0.090934433 -0.91108102 23 52
3.6659083 0.068275087 -0.90932596 103 52
3.6643224 0.045756239 -0.90882456 115 52
3.6567898 0.023223154 -0.90681881 140 52
3.6558952 0.00078497134 -0.90656805 133 52
3.6577673 -0.021658864 -0.9070695 97 52
3.6682136 -0.044231609 -0.90982741 113 52
3.6852951 -0.067057349 -0.91434032 116 52
3.6867499 -0.089715935 -0.91484177 115 52
3.6812921 -0.11218777 -0.91358817 120 52
3.6815016 -0.13480917 -0.91383892 129 52
3.6873755 -0.15768613 -0.91559392 104 52
3.6679673 -0.17940797 -0.91083026 30 52
3.6143892 0.15551214 -0.94110364 92 53
3.6133463 0.13325997 -0.94057989 138 53
3.6044495 0.11078677 -0.9379614 89 53
3.6600556 0.090038635 -0.95288694 14 53
3.632556 0.067053713 -0.94529325 101 53
3.632899 0.044763502 -0.94529325 106 53
3.631175 0.022459053 -0.94476956 134 53
3.6389654 0.00018102076 -0.94686437 93 53
3.6282821 -0.022086052 -0.94398397 6 53
3.6271131 -0.04433687 -0.94372213 4 53
3.6248429 -0.066556774 -0.94319844 8 53
3.6127884 -0.088517211 -0.9400562 38 53
3.661375 -0.11217478 -0.95341069 113 53
3.6606178 -0.13463844 -0.95341069 105 53
3.6423666 -0.15635756 -0.94869733 13 53
3.6077213 0.15583307 -0.98389435 104 54
3.5980346 0.13330291 -0.98089188 51 54
3.5920537 0.11101598 -0.9789812 9 54
3.6080551 0.089352891 -0.98334843 8 54
3.6133447 0.067301661 -0.9847132 9 54
3.6040702 0.045010224 -0.98198366 9 54
3.6110125 0.022937272 -0.98389435 53 54
3.6110852 0.0007800833 -0.98389435 56 54
3.6196802 -0.021429315 -0.98635089 6 54
3.6050513 -0.043463342 -0.98225665 5 54
3.6172209 -0.065811537 -0.98580498 6 54
3.6225195 -0.08814618 -0.98744273 66 54
3.6219103 -0.11037188 -0.98744273 66 54
3.5874796 0.15434563 -1.0214365 75 55
3.5864427 0.13225906 -1.0208691 107 55
3.5891035 0.11031011 -1.0214365 54 55
3.6414783 0.089575693 -1.0367552 3 55
3.6496294 0.067374364 -1.0390246 10 55
3.5818963 0.044118654 -1.0188833 69 55
3.5849764 0.02215844 -1.0197344 84 55
3.5869627 0.00016173383 -1.0203017 95 55
3.588814 -0.021858515 -1.0208691 110 55
3.5943654 -0.043947123 -1.0225712 117 55
3.594028 -0.066000909 -1.0225712 98 55
3.6127281 -0.088515751 -1.0282447 55 55
3.5500441 0.15396592 -1.0555018 125 56
3.5499671 0.13214491 -1.055207 107 56
3.5478458 0.11027149 -1.0543224 118 56
3.5503662 0.088547684 -1.0549121 81 56
3.5365121 0.066493496 -1.0504889 16 56
3.5454526 0.044900585 -1.0531429 26 56
3.5571275 0.023218859 -1.0566814 106 56
3.5610251 0.0013933809 -1.0578609 103 56
3.5666997 -0.020490238 -1.0596302 105 56
3.5751061 -0.042477805 -1.062284 89 56
3.591975 -0.064725153 -1.0675917 33 56
3.5480936 0.15325592 -1.0983089 33 57
3.5299368 0.13077103 -1.0921984 79 57
3.5278177 0.1090201 -1.0912818 72 57
3.5398428 0.087658405 -1.0949481 10 57
3.5368435 0.044163678 -1.0937259 9 57
3.5399044 0.022480266 -1.0946425 6 57
3.5428321 0.00076095643 -1.0955591 25 57
3.5427701 -0.020977467 -1.0955591 93 57
3.5534921 0.1528779 -1.1431196 5 58
3.499372 0.12904936 -1.1247927 59 58
3.5114779 0.10792368 -1.1285845 94 58
3.5101769 0.086329177 -1.1279525 67 58
3.526767 0.065085337 -1.1333241 22 58
3.5216076 0.021767028 -1.1314282 47 58
3.5169311 0.00015875025 -1.1298484 60 58
3.4834156 0.14983451 -1.1630048 65 59
3.4861586 0.12852813 -1.1636579 71 59
3.4925499 0.10731111 -1.1656172 94 59
3.4940875 0.08590275 -1.1659437 86 59
3.4936037 0.064444065 -1.1656172 86 59
3.4977138 0.043054301 -1.1669235 79 59
3.5073638 0.021653423 -1.170189 62 59
3.4662669 0.17044877 -1.2000849 90 60
3.4691288 0.14925767 -1.2007588 82 60
3.4709203 0.12800328 -1.2010958 71 60
3.4763458 0.1068478 -1.2027804 93 60
3.4825833 0.085653603 -1.204802 91 60
3.4821019 0.064265989 -1.204465 87 60
3.4909039 0.043002434 -1.2074975 25 60
3.781919 0.16268022 -0.65907478 6 46
3.7818632 0.1394356 -0.65889341 16 46
3.7965713 0.070034735 -0.66125131 78 46
3.7636216 0.16067061 -0.70183307 72 47
3.7723808 0.13786353 -0.70337737 109 47
3.7780595 0.11486464 -0.70434254 90 47
3.7865403 0.091873549 -0.70588684 114 47
3.7880137 0.068656124 -0.7060799 110 47
3.7942505 0.045484394 -0.70723808 78 47
3.7641058 -0.0010809853 -0.70125401 46 47
3.7826707 -0.024291066 -0.70492166 114 47
3.7804883 -0.047476601 -0.7045356 115 47
3.7781637 -0.070636272 -0.70414954 87 47
3.8015306 -0.11774674 -0.70897543 9 47
3.7988193 -0.1643464 -0.70878237 24 47
3.7928393 -0.1874118 -0.7078172 38 47
3.7312856 0.15985775 -0.74074018 11 48
3.736109 0.13710319 -0.74155813 7 48
3.7368798 0.11417627 -0.74155813 5 48
3.7580602 0.091744602 -0.74585259 39 48
3.7507229 0.068541586 -0.74421662 48 48
3.7823942 0.045903165 -0.7507605 8 48
3.780647 0.022682425 -0.75035149 10 48
3.7846305 -0.00051655545 -0.75116944 7 48
3.7874925 -0.023757325 -0.75178295 7 48
3.7637846 -0.046702564 -0.74687505 102 48
3.7653844 -0.06983234 -0.74728405 127 48
3.7727137 -0.093129046 -0.74892002 22 48
3.7789199 -0.11648806 -0.75035149 5 48
3.7849815 -0.13992673 -0.75178295 7 48
3.7791619 -0.16293699 -0.7507605 118 48
3.783957 -0.18641201 -0.75198746 144 48
3.7886062 -0.20995201 -0.75321442 125 48
3.707773 0.16020587 -0.78308594 8 49
3.714339 0.11484613 -0.78416812 12 49
3.7188776 0.09215118 -0.78503388 99 49
3.7183969 0.069312334 -0.78481746 110 49
3.7197285 0.046507888 -0.78503388 111 49
3.7209201 0.023689711 -0.78525031 75 49
3.7493079 0.00087357149 -0.79152709 26 49
3.736551 -0.022060813 -0.78871334 101 49
3.7412264 -0.045044683 -0.78979558 128 49
3.7457604 -0.068086758 -0.79087776 98 49
3.7472241 -0.091115884 -0.79131061 125 49
3.7631841 -0.11460677 -0.79499012 78 49
3.7526534 -0.13734105 -0.7928257 21 49
3.75174 -0.16036431 -0.7928257 89 49
3.754586 -0.18357103 -0.79369146 103 49
3.759238 -0.20692541 -0.79499012 104 49
3.8413579 -0.2370802 -0.62312204 97 45
3.8290148 -0.25991496 -0.62125731 81 45
3.8106925 -0.23397574 -0.66506022 6 46
3.889641 -0.26279724 -0.67993319 40 46
3.8457835 -0.28354511 -0.67213392 142 46
3.8380895 -0.30666652 -0.67104566 137 46
3.8390749 -0.33046412 -0.67158979 114 46
3.8546014 -0.35564211 -0.67485464 27 46
3.8235517 -0.23598662 -0.71438044 8 47
3.8210526 -0.25937691 -0.71418738 5 47
3.8193891 -0.28281757 -0.71418738 14 47
3.8214943 -0.30656022 -0.7149595 92 47
3.8195412 -0.3300027 -0.7149595 22 47
3.9072003 0.1675249 -0.44137913 131 41
3.9190655 0.14395164 -0.44271779 151 41
3.9238434 0.12002455 -0.44320458 158 41
3.9304595 0.096093364 -0.44393477 155 41
3.9250209 0.071863919 -0.44320458 131 41
3.921418 0.047729593 -0.44271779 101 41
3.8912866 0.16737345 -0.48691389 156 42
3.8971922 0.14367586 -0.48758209 176 42
3.8960192 0.11969977 -0.48731482 189 42
3.9184766 0.096325628 -0.49025491 18 42
3.888644 0.04785765 -0.48611206 44 42
3.9304869 0.024249148 -0.49172494 164 42
3.9285796 0.00013180792 -0.49145767 151 42
3.9215693 -0.023930486 -0.49052218 143 42
3.8577828 0.16606313 -0.53100193 7 43
3.8883877 0.14349249 -0.53537923 37 43
3.8783178 0.11929325 -0.5337742 27 43
3.8868887 0.095691256 -0.53494149 6 43
3.8844354 0.071784221 -0.53450376 5 43
3.8830452 0.024097944 -0.53421193 104 43
3.8811414 0.00027083958 -0.53392011 142 43
3.8870056 -0.023577621 -0.53479558 143 43
3.8937125 -0.047509808 -0.53581697 117 43
3.8923585 -0.071382441 -0.53567106 134 43
3.9056933 -0.095598929 -0.53771377 123 43
3.8921783 -0.11917228 -0.53581697 26 43
3.8448048 0.16537879 -0.57632434 113 44
3.8506811 0.14196581 -0.57711345 151 44
3.8504927 0.11830558 -0.57695562 123 44
3.8501589 0.094653003 -0.57679778 129 44
3.8635023 0.071262538 -0.57884938 129 44
3.8648541 0.047567245 -0.57900721 130 44
3.858161 0.02381009 -0.5779025 154 44
3.8572471 0.00013647662 -0.57774466 161 44
3.8591502 -0.023543397 -0.57806033 156 44
3.8658447 -0.047307529 -0.57916498 115 44
3.9029992 -0.071720161 -0.58516192 5 44
3.8975499 -0.095545672 -0.58437282 12 44
3.8732021 -0.11873027 -0.5805853 91 44
3.8812819 -0.14282125 -0.58200562 133 44
3.874413 -0.16637887 -0.58105874 118 44
3.8664153 -0.18980907 -0.57995409 83 44
3.8107021 0.16269507 -0.61718881 15 45
3.8313258 0.1400359 -0.62057924 76 45
3.8222623 0.11622216 -0.61888403 114 45
3.8278296 0.09288805 -0.61973161 74 45
3.8332543 0.069489986 -0.62057924 10 45
3.8612013 0.046307504 -0.62532586 8 45
3.8604271 0.022608679 -0.62515628 4 45
3.8506379 -0.0010790975 -0.62346107 14 45
3.8426747 -0.024657942 -0.62210494 39 45
3.8572328 -0.048416775 -0.62464774 6 45
3.8450389 -0.071865976 -0.62261349 3 45
3.8359869 -0.11880343 -0.62125731 10 45
3.8607922 -0.14328094 -0.62566489 95 45
3.8657479 -0.1672214 -0.62668198 134 45
3.8597274 -0.19069634 -0.62583441 106 45
3.8555326 -0.21421248 -0.62532586 138 45
3.8082044 0.11701055 -0.66360921 120 46
3.8078675 0.093617573 -0.66342783 121 46
3.8097129 0.046894137 -0.66360921 10 46
3.8158293 0.023553114 -0.66469747 23 46
3.8208191 0.00013886082 -0.66560435 133 46
3.8236983 -0.023323542 -0.66614848 153 46
3.8313498 -0.046881933 -0.6675995 165 46
3.8300068 -0.070371605 -0.66741812 158 46
3.8196716 -0.093628779 -0.66560435 107 46
3.824923 -0.11724546 -0.66669261 144 46
3.8300281 -0.1409301 -0.66778088 135 46
3.8290913 -0.16442807 -0.66778088 171 46
3.8280103 -0.18791983 -0.66778088 187 46
3.8267851 -0.21140452 -0.66778088 80 46
3.8199685 0.022359543 -0.71225703 13 47
3.8125029 -0.14150341 -0.71129185 6 47
3.8151307 -0.21197996 -0.71245009 4 47
3.9415531 0.1695305 -0.39693522 130 40
3.9385459 0.1451963 -0.39649698 171 40
3.6540024 0.4970687 -0.82369375 56 50
3.6453967 0.47313616 -0.82095766 114 50
3.644366 0.45028237 -0.82004559 112 50
3.670269 0.43063313 -0.82551783 11 50
3.6728423 0.40810466 -0.82551783 9 50
3.6597836 0.38393709 -0.82186967 8 50
3.6659462 0.36185601 -0.82278174 66 50
3.6680975 0.33935538 -0.82278174 109 50
3.6672006 0.31659105 -0.82209766 113 50
3.6632509 0.29361743 -0.82072961 113 50
3.677264 0.24936511 -0.82323772 41 50
3.6806684 0.22691676 -0.82369375 109 50
3.6858802 0.20454372 -0.82460582 106 50
3.6977632 0.18245043 -0.82711393 86 50
3.5733831 0.52959979 -0.84990537 13 51
3.638088 0.51641679 -0.86521488 108 51
3.631567 0.49277556 -0.86282277 119 51
3.6258562 0.4693588 -0.86066985 126 51
3.625777 0.44674498 -0.85995221 102 51
3.6313429 0.42482862 -0.86066985 117 51
3.6367764 0.40286076 -0.86138749 105 51
3.6420767 0.38084218 -0.86210513 70 51
3.651109 0.35915518 -0.8637796 91 51
3.6522772 0.33665621 -0.86354041 108 51
3.651372 0.31398943 -0.86282277 114 51
3.6493583 0.29126889 -0.86186594 141 51
3.6714118 0.27037537 -0.86688936 36 51
3.6235955 0.24449344 -0.8546896 8 51
3.6259966 0.2223146 -0.85492879 7 51
3.6747968 0.2026971 -0.86665016 79 51
3.6682131 0.17976248 -0.86473644 133 51
3.6109328 0.5590902 -0.90606666 42 52
3.6123803 0.53663915 -0.9055652 51 52
3.5734346 0.50846797 -0.89453363 13 52
3.5908759 0.48848805 -0.89829439 6 52
3.6120458 0.46881112 -0.90305805 62 52
3.6206191 0.44735083 -0.90456235 127 52
3.6290646 0.42580298 -0.90606666 74 52
3.6210253 0.40235254 -0.90330875 5 52
3.6189466 0.35722175 -0.90155369 7 52
3.6143773 0.31203637 -0.89929724 28 52
3.6335933 0.29124346 -0.9038102 10 52
3.6489673 0.22496569 -0.90656805 5 52
3.6512454 0.20262535 -0.90681881 24 52
3.6466186 0.17993228 -0.90531451 96 52
3.566642 0.55162019 -0.93874693 20 53
3.5779202 0.50849098 -0.9400562 5 53
3.5733225 0.48548576 -0.9379614 10 53
3.5695348 0.46268055 -0.93612844 8 53
3.5627284 0.43958464 -0.93350989 71 53
3.5739853 0.41872942 -0.93586659 90 53
3.5793648 0.39711216 -0.93665212 35 53
3.5922921 0.3762514 -0.93953252 11 53
3.6166229 0.35638636 -0.94555509 10 53
3.6081707 0.33320883 -0.94267476 55 53
3.6034167 0.31048113 -0.94084173 89 53
3.6033299 0.2882106 -0.94031805 109 53
3.604068 0.2660242 -0.9400562 108 53
3.6114099 0.24429774 -0.94162732 67 53
3.6138041 0.22219349 -0.94188917 42 53
3.6083541 0.19964004 -0.9400562 119 53
3.6143308 0.1777344 -0.94136548 116 53
3.5527585 0.5724324 -0.98034596 67 54
3.5609574 0.55135781 -0.98171073 97 54
3.5585639 0.52865022 -0.98007303 120 54
3.5617406 0.5068053 -0.98007303 71 54
3.5638299 0.48481178 -0.97980005 35 54
3.5552893 0.46145073 -0.97652465 98 54
3.556144 0.43939146 -0.97597873 124 54
3.5606842 0.41778713 -0.97652465 101 54
3.5660491 0.39624974 -0.9773435 101 54
3.5684133 0.3743614 -0.9773435 104 54
3.5562825 0.35104299 -0.9732492 29 54
3.5813601 0.33134001 -0.97980005 82 54
3.5804503 0.30911103 -0.9789812 104 54
3.5822797 0.28713599 -0.9789812 100 54
3.5868523 0.26536274 -0.97980005 123 54
3.5730557 0.24230944 -0.97543281 24 54
3.5639129 0.21973094 -0.97243035 4 54
3.5603912 0.19759303 -0.97106558 3 54
3.5884409 0.17706782 -0.97870827 29 54
3.5177639 0.521963 -1.0112239 42 55
3.5408363 0.5032084 -1.0171813 102 55
3.535306 0.48030815 -1.0146281 92 55
3.5362847 0.45835972 -1.0140607 108 55
3.538079 0.43653512 -1.013777 97 55
3.5406909 0.41481766 -1.013777 94 55
3.5517468 0.39403903 -1.0163302 61 55
3.591291 0.3761462 -1.0273937 8 55
3.5985613 0.31006119 -1.0276774 5 55
3.5831909 0.28659326 -1.0225712 25 55
3.5906198 0.2650272 -1.0242733 8 55
3.5893383 0.17649731 -1.0222875 8 55
3.5540664 0.46192011 -1.0649378 28 56
3.5198493 0.43553185 -1.0534377 117 56
3.5177104 0.41336918 -1.0519633 97 56
3.5154321 0.39124918 -1.0504889 110 56
3.5462761 0.37266439 -1.0593352 48 56
3.5399377 0.35005248 -1.0566814 9 56
3.5391645 0.32806095 -1.0557967 5 56
3.5772865 0.30946445 -1.0670019 50 56
3.5429239 0.28460526 -1.0557967 113 56
3.5474622 0.26307261 -1.0566814 86 56
3.5347095 0.24033011 -1.0522583 100 56
3.5332565 0.21846043 -1.0513736 93 56
3.571739 0.19884411 -1.0628737 49 56
3.55285 0.1759343 -1.0566814 110 56
3.5154839 0.39062229 -1.0937259 66 57
3.5092919 0.3681474 -1.0909762 78 57
3.5029569 0.34576324 -1.0882264 89 57
3.5050125 0.32426301 -1.0882264 94 57
3.5107305 0.3030794 -1.0894486 84 57
3.5172696 0.2819142 -1.0909762 104 57
3.5160847 0.26011562 -1.0900596 90 57
3.5119145 0.23814802 -1.0882264 97 57
3.527565 0.21747844 -1.0928094 46 57
3.4916384 0.32243702 -1.1263726 56 58
3.4916606 0.30084398 -1.1257406 76 58
3.4934409 0.27941388 -1.1257406 104 58
3.4960356 0.25804302 -1.1260567 104 58
3.5392039 0.23939964 -1.1399597 25 58
3.563334 0.2190738 -1.1475433 10 58
3.5608218 0.19699626 -1.1462793 9 58
3.5610158 0.17509726 -1.1459633 6 58
3.4790654 0.25675684 -1.1636579 58 59
3.4749174 0.23502029 -1.1616986 72 59
3.4744074 0.21357757 -1.1610454 85 59
3.4850895 0.19278018 -1.1643111 39 59
3.5135834 0.17274754 -1.1737812 6 59
3.4604552 0.19145463 -1.1984003 70 60
3.7844915 0.32481667 -0.61447644 77 45
3.7903428 0.30190358 -0.61515456 87 45
3.8019526 0.27936599 -0.61684978 127 45
3.8016286 0.25589943 -0.61651069 105 45
3.7789187 0.3723321 -0.66125131 82 46
3.7468581 0.34597686 -0.65490311 49 46
3.801317 0.2571007 -0.66360921 5 46
3.7939889 0.23322925 -0.66197681 41 46
3.7943666 0.20989117 -0.66179544 11 46
3.7364142 0.4132728 -0.70028883 14 47
3.7437589 0.39084974 -0.70125401 91 47
3.7421808 0.36748633 -0.70048183 115 47
3.7404571 0.34415701 -0.69970971 95 47
3.7679152 0.32338887 -0.70472866 38 47
3.7551575 0.29909021 -0.70183307 12 47
3.7716 0.2771264 -0.70472866 22 47
3.7653978 0.2534495 -0.70318437 100 47
3.7649233 0.2302203 -0.70279825 100 47
3.7633259 0.2069523 -0.70221919 101 47
3.761585 0.18371257 -0.70164007 101 47
3.6958041 0.43232423 -0.73787725 76 48
3.6886578 0.40856245 -0.73583227 134 48
3.7066724 0.3875486 -0.73910421 116 48
3.7177482 0.365659 -0.74094468 108 48
3.7267451 0.34346855 -0.74237615 112 48
3.7336588 0.32101396 -0.74339861 100 48
3.7092123 0.29599899 -0.73787725 57 48
3.6826479 0.27115262 -0.73194683 11 48
3.7076821 0.25013003 -0.73685473 69 48
3.7374814 0.22910933 -0.74278516 115 48
3.7427263 0.20638745 -0.74360311 133 48
3.7302344 0.18274948 -0.74074018 47 48
3.6948445 0.45658129 -0.78568321 76 49
3.6655796 0.43013659 -0.77854067 16 49
3.6448629 0.40504161 -0.77334613 4 49
3.674819 0.36278483 -0.77897358 19 49
3.7119718 0.34347913 -0.7867654 80 49
3.68483 0.3181676 -0.78027219 20 49
3.6972194 0.27357629 -0.78222018 4 49
3.7158892 0.22915149 -0.78568321 15 49
3.7113764 0.2060204 -0.78438455 102 49
3.724272 0.18382518 -0.78698182 40 49
3.6504183 0.27005863 -0.81730944 29 50
3.5586524 0.59518731 -0.93848509 15 53
3.5670016 0.57410896 -0.93979436 110 53
3.9127789 0.21589948 -0.44235271 43 41
3.9011421 0.1912514 -0.44077066 149 41
3.8964491 0.2395173 -0.48811665 103 42
3.9037826 0.21593244 -0.48891851 83 42
3.8832576 0.19090684 -0.48597842 147 42
3.85482 0.28461429 -0.53158551 34 43
3.8485975 0.26041949 -0.53041828 100 43
3.8303747 0.23557943 -0.52750003 11 43
3.8487866 0.18933964 -0.52983463 7 43
3.8636737 0.30898467 -0.58074313 80 44
3.8359528 0.28309444 -0.57600874 127 44
3.8307211 0.2590864 -0.57490402 124 44
3.8273106 0.23527423 -0.57411498 123 44
3.8247383 0.2115681 -0.57348371 55 44
3.8545666 0.18949923 -0.57806033 22 44
3.8119802 0.23311234 -0.61803639 119 45
3.8290832 0.21058877 -0.62074876 91 45
3.8234129 0.18675134 -0.61956209 11 45
3.8115997 0.30482548 -0.66614848 4 46
