# .PCD v0.7 - Point Cloud Data file format
VERSION 0.7
FIELDS x y z intensity ring
SIZE 4 4 4 4 1
TYPE F F F F U
COUNT 1 1 1 1 1
WIDTH 274
HEIGHT 1
VIEWPOINT 0 0 0 1 0 0 0
POINTS 274
DATA ascii
4.6214943 -2.324193 -1.5553138 3 56
5.6432991 0.070259064 -1.2817678 17 50
5.6243324 0.20709561 -1.3465081 5 51
5.5947104 0.068593614 -1.338375 9 51
5.497931 0.033648983 -1.3144538 59 51
5.6128778 0.0698824 -1.4135197 12 52
5.5957718 0.06958089 -1.4779009 14 53
5.5999537 0.035269693 -1.4789482 6 53
5.1371474 -0.1271612 -0.84502572 20 45
5.1343007 -0.15861934 -0.84468669 22 45
5.1322455 -0.19008358 -0.84451717 35 45
5.1418138 -0.22203611 -0.8463819 122 45
5.1472449 -0.25391987 -0.84756851 20 45
5.1544461 -0.28598735 -0.84909421 20 45
5.1545615 -0.31772989 -0.84943324 35 45
5.1181002 -0.34702608 -0.84350002 333 45
5.112926 -0.37820619 -0.84299147 367 45
5.105597 -0.40917885 -0.84214383 347 45
5.0784431 -0.43838513 -0.83790582 198 45
5.1734223 -0.12695014 -0.91536105 79 46
5.1401086 -0.15769367 -0.90937561 338 46
5.1331477 -0.18901224 -0.90828735 382 46
5.1259961 -0.22025135 -0.90719908 377 46
5.1216016 -0.25155479 -0.90665495 376 46
5.1258531 -0.28330165 -0.90774322 283 46
5.0945716 -0.31293693 -0.90230191 380 46
5.1033487 -0.34492102 -0.90429705 287 46
5.1067743 -0.12641625 -0.96571296 11 47
5.117671 -0.15810937 -0.96802938 24 47
5.0950332 -0.18871377 -0.96378261 187 47
5.1084838 -0.22060439 -0.96667814 332 47
5.1060538 -0.25189719 -0.96648508 294 47
5.1045432 -0.12614344 -1.0272391 417 48
5.0929108 -0.15712908 -1.0249897 388 48
5.1182618 -0.18935476 -1.030511 89 48
5.232532 -0.12858963 -0.47364455 502 39
5.2316442 -0.16069342 -0.47364455 456 39
5.2245922 -0.19257253 -0.47306114 470 39
5.2348018 -0.12846094 -0.53925472 435 40
5.2229862 -0.16024256 -0.53804958 339 40
5.197072 -0.1913709 -0.53531057 23 40
5.2057304 -0.22368339 -0.53640616 172 40
5.2181592 -0.25630465 -0.53794003 119 40
5.2094803 -0.12802827 -0.60080105 442 41
5.1907392 -0.15944611 -0.59861052 136 41
5.1856952 -0.19114752 -0.59812373 18 41
5.1913662 -0.22325972 -0.5989756 45 41
5.1918817 -0.25520617 -0.59921902 349 41
5.179316 -0.28645766 -0.59788036 273 41
5.1955338 -0.12749439 -0.66251719 375 42
5.1887102 -0.1591884 -0.66171533 60 42
5.1925879 -0.19120544 -0.66238356 79 42
5.1863661 -0.22284988 -0.66171533 390 42
5.1789622 -0.25437647 -0.66091353 356 42
5.1713667 -0.2858206 -0.66011167 324 42
5.1526999 -0.31651193 -0.65783978 256 42
5.1140761 -0.34564692 -0.65289509 92 42
5.1656904 -0.12606253 -0.72360361 261 43
5.1885519 -0.15847576 -0.72710544 20 43
5.1756182 -0.18987657 -0.72535449 13 43
5.1644716 -0.22120887 -0.72389543 209 43
5.1590648 -0.2527006 -0.72331178 87 43
5.1475391 -0.28380889 -0.72185266 25 43
5.1842117 -0.31773987 -0.72754318 8 43
5.1525521 -0.34755296 -0.72316587 68 43
5.1434164 -0.37865499 -0.72214448 278 43
5.1670504 -0.12679331 -0.78732085 240 44
5.1701231 -0.15861677 -0.78795213 42 44
5.1581979 -0.18993653 -0.78621614 348 44
5.1579218 -0.22162554 -0.78637397 377 44
5.150547 -0.25297868 -0.78542709 347 44
5.1597433 -0.28517732 -0.78716302 269 44
5.1500115 -0.31634662 -0.78590053 327 44
5.1381216 -0.34727389 -0.78432238 353 44
5.1319547 -0.37850344 -0.78369117 378 44
5.1285515 -0.40990666 -0.78353333 345 44
5.0767488 -0.43712783 -0.77564269 77 44
5.2192044 0.25535271 -0.85994363 260 45
5.2246118 0.22349282 -0.86062169 411 45
5.22293 0.1913221 -0.86011314 387 45
5.2210503 0.15918046 -0.85960454 382 45
5.2051802 0.12673017 -0.85672271 308 45
5.204874 0.094771236 -0.8565532 357 45
5.1945176 0.062699676 -0.85468847 472 45
5.189877 0.030795189 -0.85384083 437 45
5.1909537 -0.0010498563 -0.85401034 68 45
5.1800094 -0.032834649 -0.85214561 44 45
5.1678848 -0.0644731 -0.85011137 384 45
5.1644359 -0.096127078 -0.84960282 385 45
5.1996799 0.22351964 -0.92080235 93 46
5.2137294 0.19208051 -0.92316025 170 46
5.1872869 0.15924321 -0.9180817 21 46
5.17342 0.12705058 -0.91536105 17 46
5.1937671 0.095665418 -0.91898859 48 46
5.1844225 0.063675225 -0.91717482 361 46
5.1679978 0.03176152 -0.91409141 48 46
5.135643 5.2805797e-05 -0.90810597 21 46
5.1807828 -0.03173944 -0.91644931 186 46
5.1559072 -0.063224219 -0.91191489 459 46
5.154439 -0.094840914 -0.91173351 389 46
5.1618686 0.15736291 -0.97671598 283 47
5.1696033 0.12585603 -0.97806722 222 47
5.1536007 0.093826182 -0.97478563 369 47
5.1481929 0.062130142 -0.97362745 384 47
5.1062865 0.030280454 -0.96532691 106 47
5.1014705 -0.0010518086 -0.96436173 18 47
5.1484642 -0.032641776 -0.97362745 219 47
5.1393366 -0.06412337 -0.97189009 339 47
5.1133399 -0.095187522 -0.9668712 33 47
5.1456842 0.12547566 -1.035828 233 48
5.148315 0.093935534 -1.036237 363 48
5.1380277 0.062214747 -1.0339875 266 48
5.1422276 0.030710317 -1.0348055 27 48
5.1335096 -0.00084026321 -1.0329651 108 48
5.1275349 -0.032301422 -1.031738 380 48
5.1233249 -0.063713789 -1.03092 391 48
5.1208801 -0.095112219 -1.030511 377 48
5.1425571 0.096307933 -1.1006029 94 49
5.1235266 0.064501725 -1.096274 160 49
5.1199212 0.033037048 -1.0954083 18 49
5.113193 0.0016174556 -1.0938932 25 49
5.1160359 -0.029772913 -1.0945425 329 49
5.1098995 -0.06109507 -1.0932438 377 49
5.06355 -0.091628082 -1.0830712 248 49
5.1207795 0.0323659 -1.159326 330 50
5.1033559 0.0009428648 -1.1552218 275 50
5.3261924 0.26076996 -0.41869333 569 38
5.3157468 0.22757363 -0.4176704 582 38
5.3140564 0.19484323 -0.4174147 58 38
5.3360658 0.16286993 -0.41920477 28 38
5.3190351 0.12968956 -0.4176704 343 38
5.2928338 0.09656141 -0.41536885 434 38
5.3212228 0.064419031 -0.41775566 24 38
5.3085651 0.031691045 -0.41664749 36 38
5.2957072 -0.00087918778 -0.41553932 38 38
5.2674017 -0.065516546 -0.41315255 30 38
5.3142962 0.26095337 -0.48210403 519 39
5.2998881 0.22765365 -0.48054829 387 39
5.2723422 0.19406185 -0.47772846 34 39
5.3132253 0.1629367 -0.48161787 287 39
5.2882562 0.12969217 -0.47908974 466 39
5.2829819 0.097130507 -0.47850633 437 39
5.29144 0.064812183 -0.47928423 291 39
5.2768092 0.032248762 -0.47782567 424 39
5.2729268 -0.00013051979 -0.47743675 429 39
5.2748175 -0.032496411 -0.47763121 427 39
5.25561 -0.064633131 -0.47578374 259 39
5.2551146 -0.096879728 -0.47578374 275 39
5.2836781 0.25961322 -0.54517102 473 40
5.2663035 0.2263786 -0.54308939 180 40
5.2517004 0.19347659 -0.54133642 23 40
5.2925291 0.16246612 -0.54571885 111 40
5.2646098 0.12928319 -0.54254156 506 40
5.2454276 0.096613102 -0.54035032 31 40
5.2469158 0.064438075 -0.54045993 25 40
5.2452245 0.032230325 -0.54024076 28 40
5.2363777 4.6212739e-05 -0.53925472 232 40
5.2442307 -0.032132909 -0.54013121 28 40
5.2409534 -0.064273514 -0.53980255 35 40
5.2553673 -0.096705601 -0.54144597 47 40
5.2880578 0.25965917 -0.61102355 466 41
5.2836018 0.2269505 -0.61029333 84 41
5.2729921 0.19408591 -0.60883301 131 41
5.2780523 0.16185035 -0.60931975 390 41
5.2819228 0.12953545 -0.60968488 380 41
5.2667398 0.096828304 -0.60773772 355 41
5.2444077 0.064225741 -0.60493869 331 41
5.2437105 0.032039165 -0.60481703 424 41
5.2378526 -0.00013740659 -0.60408682 383 41
5.2248502 -0.032199625 -0.60250479 322 41
5.2106595 -0.064090297 -0.60080105 59 41
5.2131453 -0.096115321 -0.60116613 421 41
5.2432966 0.25763205 -0.66960013 271 42
5.2368579 0.22511503 -0.668531 19 42
5.2292275 0.19265033 -0.66732824 28 42
5.2481413 0.1611068 -0.66973376 363 42
5.2272348 0.12836814 -0.6667937 52 42
5.2348599 0.096419245 -0.6677292 24 42
5.2323804 0.064260639 -0.66732824 26 42
5.2118649 0.032027815 -0.66452181 167 42
5.2238555 4.7032292e-05 -0.66612548 89 42
5.2148385 -0.031950634 -0.66492271 30 42
5.2115712 -0.063910998 -0.66452181 23 42
5.1962185 -0.095612802 -0.66251719 398 42
5.2548361 0.25893718 -0.73746508 225 43
5.2415004 0.22604655 -0.7352764 50 43
5.2437773 0.19391783 -0.73542231 405 43
5.2448683 0.16173896 -0.73542231 437 43
5.2467513 0.12957866 -0.73556823 415 43
5.2256866 0.096974075 -0.73235822 321 43
5.225194 0.064895533 -0.73221231 385 43
5.2205477 0.032800935 -0.73148274 407 43
5.2117467 0.00076433783 -0.73016953 398 43
5.1968141 -0.031128805 -0.72798091 19 43
5.1539884 -0.062509015 -0.72170675 256 43
5.1821928 -0.094649568 -0.72593814 411 43
5.2195821 0.25646856 -0.79647404 22 44
5.215138 0.22418298 -0.79552716 23 44
5.2262836 0.19254209 -0.79710531 218 44
5.2145352 0.16007766 -0.79505372 126 44
5.2055478 0.12783717 -0.79347557 15 44
5.2032723 0.095839784 -0.79300213 15 44
5.215611 0.064055942 -0.79489589 92 44
5.1912193 0.031902488 -0.7909506 256 44
5.2110672 4.7869311e-05 -0.79410684 25 44
5.2080069 -0.031908266 -0.7936334 20 44
5.1692047 -0.063388281 -0.78747869 266 44
5.1795788 -0.095305376 -0.78921461 400 44
5.2353234 -0.12938531 -0.41051 141 38
5.2463813 -0.16187584 -0.41153291 251 38
5.3344359 0.064419866 -0.21931285 532 35
5.3327332 0.031674869 -0.21921688 525 35
5.3218398 -0.0010470009 -0.21868913 401 35
5.3287506 0.1626472 -0.28613222 540 36
5.3206673 0.12972923 -0.28558746 646 36
5.321363 0.097079784 -0.28558746 616 36
5.2969065 0.064126447 -0.28407434 203 36
5.3251481 0.031788819 -0.28576905 26 36
5.324245 -0.00088603637 -0.28570852 31 36
5.3061724 -0.033440419 -0.28461906 111 36
5.2938905 -0.065847985 -0.28389275 389 36
5.3424101 0.26140809 -0.35264653 386 37
5.3329525 0.22815146 -0.35184667 538 37
5.3352489 0.19546151 -0.35191938 364 37
5.3383412 0.16278259 -0.35206479 41 37
5.3093281 0.12928914 -0.34988332 444 37
5.3060327 0.096635759 -0.34959245 473 37
5.302537 0.064027689 -0.34930161 471 37
5.3028297 0.031490732 -0.34930161 284 37
5.2959418 -0.0010475658 -0.34879258 452 37
5.2898517 -0.033506248 -0.34835628 495 37
5.2895465 -0.065963537 -0.34835628 471 37
5.2830591 -0.098308325 -0.34792 502 37
5.2517629 -0.033093501 -0.41178864 192 38
5.2449841 -0.09742675 -0.41127717 19 38
3.0480287 3.0862913 -1.1364454 51 53
3.7077098 2.6795998 -1.0869638 61 51
3.6920807 2.6697228 -1.1397358 47 52
3.6849525 2.66412 -1.1932673 54 53
5.3443489 0.36037061 -0.42073917 268 38
5.3355198 0.32690206 -0.41980147 573 38
5.333446 0.29393876 -0.41946051 547 38
5.3385139 0.42662802 -0.48550728 534 39
5.3311052 0.39312938 -0.48453492 494 39
5.3205085 0.35953578 -0.48327088 52 39
5.2749324 0.32394418 -0.47860357 26 39
5.3275013 0.29438329 -0.48356259 65 39
5.357728 0.49455318 -0.55514103 57 40
5.3269906 0.45877212 -0.55141598 384 40
5.3227696 0.42552373 -0.55064905 397 40
5.3203239 0.39249054 -0.55010128 413 40
5.3087478 0.35890064 -0.54856741 425 40
5.3138266 0.32650268 -0.54889607 71 40
5.2879405 0.29235715 -0.5458284 419 40
5.3082757 0.42420495 -0.6147961 473 41
5.2890015 0.39001533 -0.61211878 114 41
5.2863436 0.35721958 -0.61151028 24 41
5.2765479 0.32404375 -0.61004996 15 41
5.2923112 0.29243109 -0.6117537 381 41
5.2897544 0.3902376 -0.67695034 240 42
5.2673297 0.35610357 -0.67360932 72 42
5.2941446 0.32529479 -0.67695034 392 42
5.2782297 0.29182097 -0.67454481 473 42
5.2738552 0.35729486 -0.74111283 132 43
5.2729859 0.32474527 -0.74067509 480 43
5.2778425 0.29254964 -0.74111283 448 43
5.2534046 0.2904503 -0.80215532 319 44
9.0003233 -2.5512781 -1.8011717 71 47
8.6244946 -2.1621194 -1.8180254 50 48
9.7622023 1.0816532 -1.650592 91 45
9.7804174 1.0229647 -1.6526262 95 45
9.7717981 0.96148467 -1.6500834 77 45
9.410121 1.8708169 -1.6114324 60 45
9.8018074 2.7122383 -1.5866456 42 44
