# .PCD v0.7 - Point Cloud Data file format
VERSION 0.7
FIELDS x y z intensity ring
SIZE 4 4 4 4 1
TYPE F F F F U
COUNT 1 1 1 1 1
WIDTH 1399
HEIGHT 1
VIEWPOINT 0 0 0 1 0 0 0
POINTS 1399
DATA ascii
3.7681375 2.5853417 -0.57792294 29 42
3.9275444 2.6593983 -0.60130996 44 42
4.1118937 2.7475581 -0.62857258 122 42
4.1551523 2.7397311 -0.63284904 169 42
4.1976376 2.7309358 -0.63699192 178 42
4.2460089 2.7254686 -0.64207023 216 42
4.2978191 2.7216303 -0.64768314 222 42
4.3463788 2.715158 -0.65276146 222 42
4.4093633 2.7170286 -0.66011167 185 42
4.4598284 2.7105076 -0.66545731 170 42
4.5086784 2.7024503 -0.67053562 187 42
4.5627155 2.6969199 -0.6764158 200 42
4.6211338 2.6933222 -0.68296415 163 42
4.6822567 2.6905892 -0.68991345 411 42
4.6745329 2.648133 -0.68617153 309 42
4.6803098 2.6136034 -0.68456787 308 42
4.6945219 2.5838807 -0.68430054 303 42
4.562191 2.4747078 -0.6615817 161 42
4.6778045 2.500386 -0.67695034 284 42
4.6728902 2.4610164 -0.67387664 195 42
4.6817446 2.4291034 -0.67294115 253 42
4.6912661 2.3976252 -0.67213929 301 42
4.6881847 2.3598847 -0.6694665 246 42
4.7008004 2.330194 -0.66919923 247 42
4.7426195 2.3147798 -0.67334205 210 42
4.7969317 2.3049479 -0.67935586 324 42
4.8038173 2.2720819 -0.67828673 304 42
4.8104801 2.239218 -0.6772176 293 42
4.8169208 2.2063584 -0.67614853 302 42
4.817718 2.1710613 -0.67427754 298 42
4.8191705 2.1362393 -0.67254025 297 42
4.8285537 2.1050453 -0.67200565 288 42
4.8286266 2.0699127 -0.67013472 280 42
4.8284502 2.0348587 -0.66826373 305 42
4.8243642 1.9983681 -0.66585821 257 42
4.826438 1.9646195 -0.66438818 309 42
4.8273592 1.930553 -0.66278446 292 42
4.8206654 1.893651 -0.66011167 283 42
4.834043 1.8647496 -0.66037893 358 42
4.830565 1.8294384 -0.65824074 330 42
4.8296227 1.7952763 -0.65650338 332 42
4.8172708 1.7571203 -0.65316236 262 42
4.8242292 1.7261938 -0.65262783 276 42
4.8281841 1.6942638 -0.65169233 266 42
4.8300548 1.6617057 -0.65048957 303 42
4.8260732 1.6272892 -0.64848495 303 42
4.8378491 1.5982679 -0.64875227 383 42
4.8362498 1.5648931 -0.64714855 222 42
4.7881298 1.5169356 -0.63899654 32 42
4.8049202 1.4898751 -0.64006561 31 42
4.8443193 1.4695684 -0.64434212 104 42
4.9321055 1.4632055 -0.65543425 79 42
5.0019078 1.4505764 -0.66398722 83 42
11.579436 3.2806699 -1.584635 22 42
11.67385 3.2301702 -1.5950589 52 42
11.730763 3.1685574 -1.6002709 84 42
11.760526 3.0992968 -1.601741 84 42
11.806197 3.033983 -1.6054828 101 42
11.826513 2.9619658 -1.6057502 95 42
11.846391 2.8898137 -1.6060175 105 42
11.842687 2.8120348 -1.6030773 117 42
11.824956 2.7312884 -1.5982662 155 42
11.836658 2.6575952 -1.5975981 162 42
11.84209 2.5825942 -1.5961281 171 42
11.826688 2.5033178 -1.5918516 184 42
11.805906 2.4233317 -1.5869069 171 42
11.777785 2.3423424 -1.5810267 155 42
11.774419 2.2666595 -1.5786211 176 42
11.764722 2.1900184 -1.5754138 145 42
11.744775 2.1118281 -1.57087 122 42
11.752629 2.038877 -1.5702019 122 42
11.761986 1.9662358 -1.569801 109 42
11.773829 1.8940285 -1.569801 121 42
11.793064 1.8229609 -1.57087 124 42
11.796185 1.7494029 -1.569801 144 42
11.833189 1.6807519 -1.5734092 121 42
11.840333 1.6077132 -1.5730083 128 42
11.848009 1.5347775 -1.572741 103 42
11.860154 1.4624144 -1.5731419 91 42
11.841344 1.3863884 -1.5694 95 42
11.908728 1.3202553 -1.5774184 66 42
11.901819 1.245613 -1.5754138 76 42
11.921074 1.1737263 -1.5770175 77 42
11.921143 1.0999207 -1.576082 73 42
11.936554 1.0275179 -1.5772848 55 42
11.928803 0.9531526 -1.5754138 69 42
5.2897544 0.3902376 -0.67695034 240 42
5.2673297 0.35610357 -0.67360932 72 42
5.2941446 0.32529479 -0.67695034 392 42
5.2782297 0.29182097 -0.67454481 473 42
5.2432966 0.25763205 -0.66960013 271 42
5.2368579 0.22511503 -0.668531 19 42
5.2292275 0.19265033 -0.66732824 28 42
5.2481413 0.1611068 -0.66973376 363 42
5.2272348 0.12836814 -0.6667937 52 42
5.2348599 0.096419245 -0.6677292 24 42
5.2323804 0.064260639 -0.66732824 26 42
5.2118649 0.032027815 -0.66452181 167 42
5.2238555 4.7032292e-05 -0.66612548 89 42
5.2148385 -0.031950634 -0.66492271 30 42
5.2115712 -0.063910998 -0.66452181 23 42
5.1962185 -0.095612802 -0.66251719 398 42
5.1955338 -0.12749439 -0.66251719 375 42
5.1887102 -0.1591884 -0.66171533 60 42
5.1925879 -0.19120544 -0.66238356 79 42
5.1863661 -0.22284988 -0.66171533 390 42
5.1789622 -0.25437647 -0.66091353 356 42
5.1713667 -0.2858206 -0.66011167 324 42
5.1526999 -0.31651193 -0.65783978 256 42
5.1140761 -0.34564692 -0.65289509 92 42
11.996634 -0.88532442 -1.5838331 117 42
11.996904 -0.95939189 -1.584635 109 42
12.015476 -1.0351127 -1.587976 103 42
11.998043 -1.1078162 -1.5865059 123 42
11.969322 -1.1792755 -1.5835658 111 42
11.99143 -1.2557933 -1.5875751 106 42
12.006154 -1.3318615 -1.5906488 98 42
12.003661 -1.4061968 -1.5914507 102 42
11.997758 -1.4801877 -1.5918516 103 42
12.021865 -1.5581086 -1.5963954 107 42
12.036629 -1.6351799 -1.5997363 106 42
12.053842 -1.7129095 -1.6034783 145 42
12.044085 -1.7869836 -1.6036119 147 42
12.046604 -1.8629719 -1.6054828 134 42
12.053537 -1.9398459 -1.608022 109 42
12.058024 -2.0165479 -1.6102939 125 42
12.086433 -2.0976152 -1.6159068 121 42
12.05968 -2.1692801 -1.6140358 112 42
12.040298 -2.2421472 -1.613234 123 42
12.095407 -2.3292909 -1.6227225 77 42
12.080886 -2.4034631 -1.6227225 95 42
12.062028 -2.4767473 -1.6221879 106 42
12.039818 -2.5492747 -1.6212524 80 42
11.996838 -2.6171863 -1.6175104 70 42
12.029867 -2.7018254 -1.6243261 87 42
12.036237 -2.7809434 -1.6275336 82 42
12.091261 -2.8719227 -1.6375566 114 42
12.11096 -2.9552226 -1.6427685 121 42
12.107018 -3.0330915 -1.6447731 94 42
12.093939 -3.1088023 -1.6455749 102 42
12.095718 -3.1885087 -1.648515 96 42
12.115151 -3.2732661 -1.6539943 86 42
12.127314 -3.3565304 -1.6585381 92 42
12.116978 -3.4338517 -1.6600081 86 42
12.137559 -3.5202832 -1.6658883 84 42
5.1506548 -1.5279466 -0.68617153 172 42
5.0596256 -1.5347757 -0.67467844 155 42
4.9885869 -1.546711 -0.66599184 161 42
4.931766 -1.5623233 -0.6593098 68 42
4.9390588 -1.5980474 -0.66171533 54 42
4.9479799 -1.6345414 -0.66438818 185 42
4.9434919 -1.6667711 -0.66518998 348 42
4.8319645 -1.6622474 -0.65075684 213 42
4.7618275 -1.6708598 -0.64220387 213 42
4.6637764 -1.6686571 -0.62964171 194 42
4.597589 -1.6768632 -0.62162328 205 42
4.5379815 -1.6867381 -0.61454034 265 42
4.5293999 -1.715253 -0.61480761 321 42
4.537282 -1.7501471 -0.61748046 370 42
4.5439835 -1.7848399 -0.62001961 351 42
4.549509 -1.8193125 -0.62242514 364 42
4.5538645 -1.8535461 -0.62469703 342 42
4.5424056 -1.8814533 -0.62469703 309 42
4.537168 -1.911984 -0.62563246 333 42
4.5408354 -1.9464263 -0.62790436 317 42
4.5560598 -1.9861346 -0.6319136 362 42
4.5582829 -2.0204794 -0.6340518 405 42
4.5512209 -2.0508537 -0.63485366 414 42
4.5304422 -2.075026 -0.6336509 170 42
1.0209117 -0.47486416 -0.11352301 196 42
1.0323125 -0.48789987 -0.11566126 24 42
4.5450745 -2.1838212 -0.64166933 24 42
4.5378232 -2.2147114 -0.64260483 20 42
4.5472341 -2.2539585 -0.64607942 45 42
4.5483665 -2.2893929 -0.64835131 36 42
4.5474701 -2.3240242 -0.65035594 49 42
4.54456 -2.3578172 -0.65209323 42 42
4.5387754 -2.3902762 -0.65342969 49 42
4.5441251 -2.4288268 -0.65650338 24 42
4.5500426 -2.4680052 -0.65971076 14 42
4.5556502 -2.5073473 -0.66291809 19 42
4.5600801 -2.5463674 -0.66599184 18 42
4.5642014 -2.5855358 -0.66906559 17 42
4.5680137 -2.6248503 -0.67213929 17 42
4.5620961 -2.6588187 -0.67374301 10 42
4.562758 -2.6968474 -0.6764158 14 42
4.5622749 -2.7344747 -0.67895496 13 42
4.5606537 -2.7716823 -0.68136048 21 42
4.5638099 -2.8120923 -0.68456787 12 42
4.5691619 -2.8542204 -0.68817616 13 42
4.5666332 -2.891747 -0.69058168 18 42
4.5671511 -2.9314914 -0.69352174 18 42
4.5681834 -2.9718909 -0.69659549 14 42
4.5664091 -3.0107763 -0.69926828 12 42
4.5659766 -3.0508525 -0.70220834 18 42
4.566865 -3.0921478 -0.70541573 23 42
4.5715036 -3.1363721 -0.70929128 23 42
4.5700746 -3.1768091 -0.7122314 27 42
4.5715613 -3.2196288 -0.71570605 30 42
4.5694675 -3.2602832 -0.71864611 27 42
4.5670462 -3.3010325 -0.72158617 29 42
4.5674939 -3.3442166 -0.72506082 16 42
4.5771351 -3.3946147 -0.7301392 11 42
4.5807819 -3.4410894 -0.73428202 20 42
4.5785093 -3.4835348 -0.7374894 18 42
4.5672531 -3.5194271 -0.7392267 9 42
4.5815091 -3.575434 -0.74537414 13 42
4.5859189 -3.624373 -0.74991792 12 42
4.5976362 -3.6796927 -0.7557981 24 42
4.5988379 -3.7271793 -0.75994092 20 42
4.6080551 -3.7817347 -0.76555383 15 42
4.6000075 -3.8226068 -0.76822662 29 42
4.6007299 -3.8711793 -0.77250314 18 42
4.6010289 -3.919904 -0.77677959 24 42
4.6054044 -3.9726613 -0.78185797 26 42
4.6130366 -4.0288787 -0.78760451 22 42
4.6171818 -4.0827127 -0.79281646 33 42
4.6208386 -4.1367478 -0.79802841 30 42
4.5997748 -4.1690164 -0.79883027 63 42
4.6186476 -4.2380362 -0.80698234 28 42
4.6157894 -4.2878809 -0.81125879 21 42
4.6153808 -4.3405657 -0.81606984 28 42
4.6195221 -4.39819 -0.82181638 22 42
4.6081452 -4.4415832 -0.8247565 15 42
4.5964093 -4.4850025 -0.82769656 13 42
4.6343689 -4.5778952 -0.84012508 24 42
4.6384249 -4.6384821 -0.84627253 17 42
4.6342506 -4.691534 -0.85094994 29 42
4.6448245 -4.7603145 -0.85856748 16 42
4.636847 -4.8108459 -0.8627103 27 42
4.6393566 -4.8729429 -0.86899137 34 42
4.6792951 -4.9756813 -0.88275635 70 42
4.6641889 -5.0209999 -0.88583004 53 42
4.666122 -5.0853066 -0.89237845 41 42
4.6587887 -5.1402783 -0.8971895 30 42
4.664175 -5.2101188 -0.90467334 27 42
4.668222 -5.2794747 -0.91202354 24 42
4.6637697 -5.3401175 -0.91777009 19 42
4.668457 -5.4121599 -0.92552125 34 42
4.6692209 -5.4806871 -0.93260413 31 42
4.6725087 -5.5532179 -0.9403553 32 42
4.6592474 -5.6069374 -0.94476545 50 42
4.6637325 -5.6829195 -0.95305115 63 42
4.6761942 -5.7699461 -0.96320778 53 42
4.6735206 -5.83954 -0.97029072 40 42
4.6799984 -5.9217577 -0.97951192 38 42
4.6953964 -6.0167742 -0.99087131 22 42
4.7309723 -6.1396761 -1.0069082 14 42
4.7256126 -6.2111812 -1.0141248 20 42
4.7136002 -6.2749257 -1.0200049 26 42
4.7003922 -6.3379593 -1.0257515 42 42
4.7304931 -6.4610395 -1.041521 99 42
4.7215257 -6.5325146 -1.0486039 90 42
4.7158871 -6.6097689 -1.0566223 54 42
4.6906476 -6.6604581 -1.0602306 52 42
4.7345324 -6.8111801 -1.0802766 197 42
4.7520747 -6.9267292 -1.0944425 372 42
4.7455964 -7.0090995 -1.1031291 433 42
4.7641597 -7.1303792 -1.1180968 277 42
4.7694106 -7.2339439 -1.1301244 40 42
4.7638416 -7.322886 -1.1397465 91 42
4.7418361 -7.3878422 -1.1454931 47 42
4.7441292 -7.492156 -1.1575208 39 42
4.7584434 -7.6177874 -1.1728894 11 42
4.7771101 -7.7531543 -1.189728 19 42
4.7814269 -7.8678594 -1.2032257 31 42
4.7850227 -7.9837565 -1.216857 47 42
4.7762823 -8.0812206 -1.2275482 58 42
4.7859836 -8.2122698 -1.2434514 36 42
4.7962294 -8.3471756 -1.2598891 24 42
4.8074398 -8.486824 -1.2769951 18 42
4.7992387 -8.5949039 -1.2891563 41 42
4.7989693 -8.719696 -1.3038568 66 42
4.7883701 -8.8282537 -1.3160181 37 42
4.8130527 -9.0051813 -1.3386033 20 42
4.8145013 -9.1424017 -1.355041 18 42
4.8450208 -9.3389149 -1.3804327 51 42
4.8110762 -9.4143572 -1.3873819 59 42
4.8178205 -9.5720606 -1.4067599 19 42
4.8461328 -9.777257 -1.4332206 20 42
4.8642817 -9.967124 -1.4572759 28 42
4.8330731 -10.059314 -1.4666306 43 42
4.8729382 -10.303798 -1.4987043 22 42
4.8326221 -10.38292 -1.5060545 16 42
4.8641415 -10.620517 -1.5369254 33 42
4.8636122 -10.793828 -1.5581743 46 42
4.8446736 -10.93038 -1.5739437 11 42
4.9042287 -11.250615 -1.6167086 49 42
4.8866363 -11.400733 -1.6343491 79 42
4.8954749 -11.617723 -1.6617454 42 42
4.8908353 -11.808691 -1.6852661 62 42
4.9105573 -12.065207 -1.7182752 94 42
5.0097275 -12.528524 -1.7812198 11 42
4.9646397 -12.640203 -1.7929802 27 42
4.9936128 -12.946897 -1.8329386 20 42
4.9586453 -13.094999 -1.8499109 23 42
4.9634752 -13.35463 -1.88292 22 42
4.9649625 -13.613873 -1.9157956 6 42
0 -0 -0 351 42
0 -0 -0 1363 42
5.0394111 -14.650411 -2.0509059 14 42
5.0339484 -14.931797 -2.0865879 18 42
4.9928956 -15.115792 -2.1083713 29 42
4.9040179 -15.158401 -2.1101084 37 42
4.8246803 -15.231666 -2.116256 32 42
4.739346 -15.287487 -2.119998 40 42
4.6460295 -15.318176 -2.1202652 26 42
4.5536423 -15.352097 -2.121067 39 42
4.458806 -15.377844 -2.1207998 46 42
4.363555 -15.402053 -2.1203988 48 42
4.2697606 -15.431403 -2.1207998 41 42
4.18223 -15.4841 -2.1245415 42 42
4.0876474 -15.511387 -2.124809 39 42
4.0015197 -15.571691 -2.1297536 47 42
3.904454 -15.590182 -2.1289518 42 42
3.8152962 -15.640804 -2.1326938 53 42
3.7236037 -15.68224 -2.1352329 58 42
3.6339993 -15.733762 -2.1392422 38 42
3.5389099 -15.762532 -2.1401775 43 42
3.4463489 -15.803315 -2.1428504 32 42
3.3497272 -15.826103 -2.1431177 34 42
3.2579362 -15.87257 -2.1467259 48 42
3.167634 -15.928226 -2.1516707 43 42
3.0702152 -15.949308 -2.151938 46 42
2.9702995 -15.957129 -2.1504679 43 42
2.8781192 -16.007242 -2.1548779 51 42
0 -0 -0 82 42
2.6920879 -16.104891 -2.1635647 29 42
2.5910163 -16.107409 -2.1616936 33 42
2.4972808 -16.156303 -2.1662374 39 42
2.399554 -16.181126 -2.1675737 43 42
2.3035674 -16.219093 -2.1707811 41 42
2.2060051 -16.247652 -2.1727858 46 42
2.1083064 -16.276608 -2.1749239 48 42
2.0097289 -16.300056 -2.176394 31 42
1.9089847 -16.306175 -2.1755922 43 42
1.805075 -16.283106 -2.1709149 34 42
1.7118328 -16.357943 -2.1796014 15 42
1.6096828 -16.350386 -2.1771958 41 42
1.5152447 -16.424099 -2.1858826 39 42
1.4151195 -16.440987 -2.1869516 32 42
1.3130293 -16.434542 -2.184947 41 42
1.2138394 -16.465021 -2.1880207 41 42
1.1150595 -16.505777 -2.1925645 37 42
1.0137002 -16.51132 -2.192431 30 42
0.9130798 -16.530092 -2.1941681 45 42
0.81090742 -16.520536 -2.1921637 25 42
0.71003395 -16.537083 -2.1937673 27 42
0.61048079 -16.593616 -2.2008502 17 42
0.5073787 -16.555447 -2.1952374 40 42
0.4061507 -16.573109 -2.197242 41 42
0.30436146 -16.570335 -2.1965737 33 42
0.20262159 -16.566936 -2.1959054 32 42
0.10062808 -16.512371 -2.1884217 39 42
-0.00069143018 -16.506731 -2.1876199 34 42
-0.10225137 -16.551012 -2.1936336 31 42
-0.2032299 -16.503498 -2.1873527 34 42
-0.30514866 -16.537611 -2.1921637 48 42
-0.40644512 -16.528492 -2.1912282 31 42
-0.50840276 -16.543518 -2.1936336 46 42
-0.60990226 -16.540087 -2.1936336 46 42
-0.71129364 -16.534052 -2.1933663 47 42
-0.81268257 -16.528387 -2.1932328 46 42
-0.91424787 -16.526058 -2.1936336 34 42
-1.0169102 -16.540909 -2.19644 41 42
-1.1196554 -16.553144 -2.1989791 46 42
-1.222151 -16.558811 -2.2007165 41 42
-1.3247584 -16.563843 -2.2024539 51 42
-1.4278139 -16.572189 -2.2047257 43 42
-1.5305659 -16.574957 -2.2063296 40 42
-1.6331139 -16.574131 -2.2075322 58 42
-1.7344702 -16.560841 -2.2071314 30 42
-1.8390042 -16.576481 -2.2107396 44 42
-1.9422957 -16.578665 -2.2126105 55 42
-2.0451977 -16.576271 -2.2139471 46 42
-2.1477611 -16.57029 -2.2148824 40 42
-2.2501945 -16.562691 -2.2156842 49 42
-2.355963 -16.578009 -2.2196934 32 42
-2.4573483 -16.561279 -2.2194262 43 42
-2.5627074 -16.570374 -2.2227671 51 42
-2.6682706 -16.578798 -2.2261083 37 42
-2.7743604 -16.588505 -2.2297165 40 42
-2.8811779 -16.600462 -2.2337258 37 42
-2.9896505 -16.619535 -2.2388041 36 42
-3.1030018 -16.662258 -2.2472234 34 42
-3.2061183 -16.64777 -2.2478917 39 42
-3.3232923 -16.703598 -2.2583156 27 42
-2.535161 -12.346464 -1.6613445 203 42
-2.5447576 -12.018488 -1.6183124 535 42
-2.6133835 -11.979409 -1.6151049 5622 42
-2.6946578 -11.997958 -1.619916 747 42
-2.7628701 -11.958024 -1.6167086 296 42
-2.7065496 -11.39511 -1.5410683 97 42
-2.745168 -11.25024 -1.5232941 281 42
-2.8119788 -11.224532 -1.5220914 387 42
-2.8852398 -11.224343 -1.5244969 462 42
-2.959615 -11.227511 -1.527437 434 42
-3.0362055 -11.237842 -1.5314462 418 42
-3.1119764 -11.243834 -1.5349208 465 42
-3.1895564 -11.255038 -1.5391973 51 42
-4.8084893 -16.578646 -2.2894537 16 42
-4.8934903 -16.492773 -2.281569 19 42
-5.0176153 -16.538305 -2.2922602 16 42
-5.1187048 -16.50626 -2.2921264 23 42
-5.2327609 -16.515163 -2.297873 18 42
-5.326674 -16.460117 -2.2946656 24 42
-5.4353447 -16.450647 -2.2980068 23 42
-5.5463157 -16.447037 -2.3022833 16 42
-5.6371326 -16.383646 -2.2981403 31 42
-5.7644668 -16.425428 -2.3090987 14 42
-2.5762761 -7.1998782 -0.99287593 651 42
-2.6193862 -7.1811419 -0.99247497 1240 42
-2.6633997 -7.1649342 -0.99247497 1183 42
-2.7220566 -7.1873817 -0.99808788 859 42
-2.7543344 -7.1400323 -0.99367774 633 42
-0 -0 -0 850 42
-0 -0 -0 1491 42
-2.8460553 -6.9917474 -0.97964555 1375 42
-2.8964887 -6.9924641 -0.98231834 1309 42
-2.943958 -6.9855185 -0.983922 1254 42
-2.9812977 -6.9545712 -0.98205107 1035 42
-2.9969792 -6.8743744 -0.97296351 1316 42
-3.0467348 -6.8730693 -0.97550267 1027 42
-3.151154 -6.9924812 -0.99594963 1173 42
-3.1964765 -6.9784203 -0.99675149 1248 42
-3.2484369 -6.9784412 -0.99969155 1030 42
-5.6969852 -12.044134 -1.7583673 37 42
-5.7162628 -11.89551 -1.741395 26 42
-5.7400188 -11.759576 -1.7262937 27 42
-5.7566013 -11.612259 -1.709455 33 42
-5.765801 -11.453678 -1.690879 25 42
-5.8003373 -11.348372 -1.6803215 7 42
-5.8730559 -11.318726 -1.6812569 49 42
-5.9423957 -11.282476 -1.6812569 40 42
-6.0054379 -11.23444 -1.6795195 34 42
-6.0586629 -11.168633 -1.6751094 29 42
-6.0659051 -11.020122 -1.6580034 12 42
-6.060441 -10.852044 -1.6378238 6 42
-6.1000443 -10.76723 -1.6304736 90 42
-6.1378484 -10.680621 -1.6228561 10 42
-0 -0 -0 7 42
-6.1060624 -10.329795 -1.579824 20 42
-6.1489482 -10.258134 -1.5744783 16 42
-6.1474309 -10.114354 -1.5577734 10 42
-6.156342 -9.9903879 -1.544142 9 42
-6.1592388 -9.8591318 -1.529308 8 42
-5.8765435 -9.27946 -1.4428427 19 42
-5.8295069 -9.0814371 -1.4169165 52 42
-5.8505287 -8.9923334 -1.4083635 48 42
-5.8575835 -8.883461 -1.3966031 57 42
-5.8569174 -8.7649546 -1.3832392 48 42
-5.8666887 -8.6640263 -1.3726815 54 42
-5.8866577 -8.5796537 -1.3647968 48 42
-5.9024191 -8.4904814 -1.3561101 75 42
-5.5526347 -7.8837147 -1.2620274 127 42
-5.5962982 -7.8430424 -1.2609583 125 42
-5.6512842 -7.8181944 -1.2625619 93 42
-5.7208133 -7.8129559 -1.2675066 81 42
-5.7881284 -7.8039732 -1.2719167 88 42
-5.8442378 -7.7794037 -1.2737877 92 42
-5.895462 -7.7481294 -1.2745895 68 42
-5.9906845 -7.7738218 -1.2851472 27 42
-6.0138803 -7.705668 -1.2798016 10 42
-6.1814995 -7.8210082 -1.305995 61 42
-6.2429967 -7.7999535 -1.3089352 68 42
-6.2994752 -7.7722783 -1.310806 70 42
-6.3564777 -7.7449698 -1.3128107 84 42
-6.4032469 -7.7050591 -1.312677 101 42
-6.4427462 -7.6565256 -1.3110734 75 42
-6.4883189 -7.6153407 -1.310806 83 42
-6.5375133 -7.5783873 -1.3113407 98 42
-6.5910621 -7.5463414 -1.3128107 95 42
-6.6477456 -7.5176353 -1.3149489 129 42
-6.6930866 -7.475966 -1.3148153 122 42
-6.7574687 -7.4553165 -1.3185573 209 42
-6.8493218 -7.4640942 -1.3277785 376 42
-6.9307423 -7.4604073 -1.3348614 414 42
-7.0252752 -7.4697161 -1.3444835 334 42
-7.103096 -7.4602013 -1.3507645 367 42
-7.179688 -7.4485846 -1.3567784 370 42
-7.2688622 -7.4490743 -1.3651977 167 42
-7.464179 -7.5559092 -1.3939303 61 42
-8.3079224 -8.3073854 -1.546013 28 42
-8.3594446 -8.2569485 -1.5461466 191 42
-8.3993101 -8.1951199 -1.544142 105 42
-7.5902753 -7.3154378 -1.3832392 14 42
-2.3707087 -2.2573435 -0.40312147 12 42
-0 -0 -0 5 42
-2.4178367 -2.2462914 -0.40672976 17 42
-2.4607842 -2.2582128 -0.41207534 68 42
-2.4775314 -2.2457333 -0.41260991 70 42
-2.5016022 -2.2397425 -0.41448087 34 42
-2.5212376 -2.2296023 -0.41554999 44 42
-2.596828 -2.2681944 -0.42664215 117 42
-2.5926855 -2.2366836 -0.42343476 72 42
-8.4289465 -7.1806889 -1.4548703 18 42
-8.7936277 -7.3987112 -1.5114001 326 42
-8.8998394 -7.3952827 -1.5220914 261 42
-2.9241302 -2.3999546 -0.47181255 46 42
-2.9103124 -2.3588815 -0.46686786 110 42
-2.9463971 -2.3583174 -0.47060978 240 42
-2.9227116 -2.3100865 -0.46406141 98 42
-2.9407377 -2.2951579 -0.46472961 309 42
-2.9437745 -2.2686026 -0.46285865 155 42
-2.9387093 -2.2360966 -0.45965129 130 42
-2.9349415 -2.2049289 -0.4567112 120 42
-2.9324946 -2.1750729 -0.45403838 146 42
-2.937789 -2.1511846 -0.45270199 112 42
-2.9412944 -2.126152 -0.45109832 308 42
-2.9550915 -2.1086402 -0.45123196 104 42
-2.9144952 -2.0528095 -0.44241169 36 42
-0 -0 -0 5 42
-0 -0 -0 23 42
-2.9640968 -2.007149 -0.44441628 112 42
-2.9755325 -1.9883734 -0.44428265 123 42
-2.9992607 -1.977715 -0.44615361 98 42
-3.0429075 -1.979809 -0.45123196 64 42
-3.0600023 -1.9643124 -0.45203379 81 42
-3.0954423 -1.9603437 -0.45577571 69 42
-3.145237 -1.9649383 -0.46178952 291 42
-0 -0 -0 84 42
-3.227551 -1.9617038 -0.47101071 175 42
-3.2862806 -1.9698819 -0.47836092 99 42
-3.3401115 -1.9743869 -0.4849093 78 42
-3.3692884 -1.9638345 -0.48758209 68 42
-3.410491 -1.9599098 -0.49212587 30 42
-10.70987 -6.0665874 -1.6215197 114 42
-9.7838192 -5.4630461 -1.4727781 18 42
-10.689739 -5.8831015 -1.6070865 220 42
-10.652459 -5.7777128 -1.5958607 358 42
-10.656244 -5.6954255 -1.5910497 499 42
-10.510351 -5.5348148 -1.5635198 33 42
-10.617129 -5.5080972 -1.574612 130 42
-10.600425 -5.4171443 -1.5669944 215 42
-10.59894 -5.3346238 -1.5617825 143 42
-10.560436 -5.2342834 -1.5510913 550 42
-10.559401 -5.153306 -1.5461466 618 42
-10.561343 -5.0742559 -1.5417365 537 42
-10.56809 -4.9979181 -1.5381281 481 42
-10.533867 -4.9028726 -1.528506 294 42
-10.542127 -4.8282423 -1.5252987 154 42
-10.517341 -4.7390404 -1.5172803 39 42
-1.5438521 -0.68464708 -0.18943068 13 42
-1.5135016 -0.66011411 -0.18435235 79 42
-1.5075037 -0.64652061 -0.18288231 110 42
-1.5077893 -0.63571936 -0.18234774 103 42
-1.5079991 -0.62493902 -0.1818132 99 42
-1.5053798 -0.6130594 -0.1808777 120 42
-1.4989909 -0.59976381 -0.17940767 134 42
-1.4961857 -0.58801895 -0.17847218 171 42
-1.4988408 -0.57847089 -0.17833854 107 42
-1.487533 -0.56364846 -0.1762003 48 42
-1.4742423 -0.54829633 -0.17379478 17 42
-0 -0 -0 3 42
-0 -0 -0 5 42
-1.5140097 -0.53156585 -0.17807126 7 42
-0 -0 -0 4 42
-0 -0 -0 4 42
-0 -0 -0 6 42
-0 -0 -0 5 42
-0 -0 -0 4 42
-0 -0 -0 4 42
-0 -0 -0 4 42
-0 -0 -0 3 42
-0 -0 -0 5 42
-0 -0 -0 4 42
-0 -0 -0 4 42
-0 -0 -0 3 42
-0 -0 -0 5 42
-0 -0 -0 4 42
-0 -0 -0 4 42
-0 -0 -0 3 42
-0 -0 -0 4 42
-0 -0 -0 4 42
-0 -0 -0 5 42
-0 -0 -0 5 42
-0 -0 -0 5 42
-0 -0 -0 9 42
-0 -0 -0 4 42
-0 -0 -0 7 42
-0 -0 -0 5 42
-0 -0 -0 3 42
-0 -0 -0 6 42
-0 -0 -0 4 42
-1.3894804 -0.22386992 -0.15147685 4 42
-1.398663 -0.21655092 -0.15254597 4 42
-0 -0 -0 4 42
-1.4041587 -0.19978885 -0.15294689 6 42
-1.4230345 -0.1935689 -0.15535241 6 42
-0 -0 -0 4 42
-0 -0 -0 5 42
-1.4844308 -0.17414014 -0.1632372 6 42
-0 -0 -0 5 42
-0 -0 -0 4 42
-0 -0 -0 4 42
-0 -0 -0 3 42
-0 -0 -0 4 42
-1.5323135 -0.12277719 -0.16898373 4 42
-0 -0 -0 3 42
-0 -0 -0 5 42
-0 -0 -0 5 42
-0 -0 -0 4 42
-0 -0 -0 5 42
-0 -0 -0 4 42
-0 -0 -0 4 42
-0 -0 -0 5 42
-0 -0 -0 4 42
-0 -0 -0 3 42
-0 -0 -0 5 42
-0 -0 -0 7 42
-0 0 -0 4 42
-0 0 -0 3 42
-0 0 -0 3 42
-0 0 -0 6 42
-0 -0 -0 7 43
-0 -0 -0 3 43
-1.4260229 -0.086969703 -0.17220831 3 43
-1.4028232 -0.076898851 -0.16870646 5 43
-0 -0 -0 4 43
-0 -0 -0 4 43
-0 -0 -0 4 43
-0 -0 -0 4 43
-0 -0 -0 4 43
-0 -0 -0 3 43
-0 -0 -0 4 43
-0 -0 -0 4 43
-0 -0 -0 3 43
-0 0 -0 5 43
-0 0 -0 4 43
-0 0 -0 4 43
-0 0 -0 3 43
-0 0 -0 4 43
-0 0 -0 4 43
-0 0 -0 3 43
-0 0 -0 4 43
-0 0 -0 3 43
-0 0 -0 4 43
-0 0 -0 4 43
-0 0 -0 3 43
-0 0 -0 4 43
-0 0 -0 3 43
-0 0 -0 6 43
-0 0 -0 5 43
-0 0 -0 7 43
-0 0 -0 3 43
-0 0 -0 4 43
-0 0 -0 4 43
-0 0 -0 3 43
-0 0 -0 4 43
-0 0 -0 4 43
-0 0 -0 6 43
-0 0 -0 3 43
-0 0 -0 4 43
-0 0 -0 5 43
-0 0 -0 5 43
-0 0 -0 4 43
-0 0 -0 3 43
-0 0 -0 4 43
-0 0 -0 4 43
-0 0 -0 4 43
-0 0 -0 5 43
-0 0 -0 3 43
-0 0 -0 7 43
-0 0 -0 3 43
-0 0 -0 4 43
-0 0 -0 4 43
-0 0 -0 4 43
-0 0 -0 4 43
-0 0 -0 3 43
-0 0 -0 4 43
-0 0 -0 2 43
-0 0 -0 5 43
-0 0 -0 3 43
-0 0 -0 3 43
-0 0 -0 4 43
-0 0 -0 4 43
-0 0 -0 3 43
-0 0 -0 4 43
-0 0 -0 4 43
-0 0 -0 4 43
-0 0 -0 4 43
-0 0 -0 4 43
-0 0 -0 3 43
-0 0 -0 4 43
-0 0 -0 3 43
-0 0 -0 5 43
-0 0 -0 3 43
-0 0 -0 5 43
-1.490742 0.59677714 -0.19832626 3 43
-1.5081302 0.61448348 -0.20168221 10 43
-1.5216999 0.6309123 -0.2044545 96 43
-1.5086821 0.63639891 -0.20299539 132 43
-1.5183902 0.65148562 -0.20518406 80 43
-1.5152712 0.66118503 -0.20532995 82 43
-1.5129948 0.67127126 -0.20562178 67 43
-1.558463 0.7028783 -0.21364686 10 43
-5.0850139 2.3281116 -0.78634506 43 43
-5.3935704 2.5094433 -0.83887279 42 43
-5.2170663 2.466414 -0.8126089 12 43
-5.2276988 2.5107944 -0.81684029 6 43
-7.6931114 3.7525463 -1.2239302 34 43
-7.6486645 3.7891428 -1.2204283 156 43
-7.6783004 3.8626711 -1.229183 219 43
-7.6738386 3.9196091 -1.232393 60 43
-7.6601839 3.9720845 -1.234144 36 43
-8.8876305 4.6777625 -1.4427958 14 43
-8.9032669 4.7559752 -1.4502372 840 43
-8.8730469 4.8100438 -1.4500912 401 43
-8.7272053 4.800519 -1.4305393 85 43
-8.7235031 4.8684382 -1.4349166 505 43
-8.6908846 4.9204111 -1.4344789 119 43
-8.1500492 4.6805611 -1.3476622 26 43
-8.2126522 4.7837491 -1.3632746 7 43
-7.8867044 4.6589828 -1.3124979 65 43
-8.4554806 5.0651202 -1.4152187 217 43
-8.3853445 5.0932865 -1.4085069 28 43
-2.9859312 1.8397216 -0.47876599 3 43
-2.9804611 1.861675 -0.47978735 39 43
-2.968982 1.8799278 -0.47978735 45 43
-2.9598894 1.8997118 -0.48022509 43 43
-2.9506657 1.9194552 -0.48066282 47 43
-2.9454415 1.9418781 -0.48183009 51 43
-2.9425216 1.9659569 -0.48343512 42 43
-2.9418747 1.9917359 -0.48547786 43 43
-2.9402058 2.0170214 -0.48737469 36 43
-2.9391496 2.0429254 -0.48941743 42 43
-2.9362676 2.0677533 -0.49116838 54 43
-2.9259415 2.0874538 -0.49160609 46 43
-2.917088 2.108264 -0.49233565 58 43
-2.87216 2.1027575 -0.48649925 15 43
-2.8456914 2.1103277 -0.48401877 21 43
-2.82003 2.1182466 -0.48168421 28 43
-2.7802031 2.1151528 -0.47672325 24 43
-2.7460084 2.115876 -0.47278365 20 43
-2.6924069 2.1010506 -0.46519631 18 43
-2.6460798 2.0911667 -0.45892218 31 43
-2.5907052 2.0733798 -0.4508971 26 43
-2.5425694 2.0605967 -0.44418523 31 43
-2.503104 2.0542026 -0.43907836 25 43
-2.4630527 2.0467706 -0.43382558 30 43
-2.423188 2.0389252 -0.42857283 25 43
-2.3880329 2.0345163 -0.4241955 24 43
-2.3522747 2.0291078 -0.41967228 27 43
-2.3248727 2.030493 -0.4167541 28 43
-2.2901292 2.0250685 -0.41237676 25 43
-2.2621765 2.0252309 -0.40931267 43 43
-2.2189102 2.0111811 -0.40318441 21 43
-0 0 -0 3 43
-2.1433084 1.9911457 -0.39297068 5 43
-2.1130276 1.9873222 -0.38932294 30 43
-2.0878923 1.987976 -0.38669655 25 43
-0 0 -0 26 43
-0 0 -0 31 43
-2.0600994 2.035105 -0.38859338 37 43
-0 0 -0 21 43
-2.0530534 2.0785251 -0.39238706 47 43
-2.0485551 2.099577 -0.39413798 32 43
-2.045249 2.1220758 -0.39618072 31 43
-0 0 -0 41 43
-0 0 -0 34 43
-0 0 -0 25 43
-0 0 -0 42 43
-0 0 -0 35 43
-2.027148 2.2644436 -0.40975037 37 43
-2.026983 2.292398 -0.4128145 27 43
-2.026551 2.3204346 -0.41587862 40 43
-0 0 -0 30 43
-0 0 -0 36 43
-0 0 -0 33 43
-0 0 -0 30 43
-0 0 -0 34 43
-2.0002179 2.4679832 -0.43003193 26 43
-2.2392235 2.7975645 -0.49000108 81 43
-2.2637479 2.8640149 -0.49992299 189 43
-2.8167057 3.6084146 -0.63664103 67 43
-2.6458931 3.4329119 -0.60074705 39 43
-2.6325705 3.4593146 -0.60264391 45 43
-2.7688327 3.6849539 -0.64131016 32 43
-2.820462 3.8019674 -0.65969485 57 43
-2.5707889 3.5103774 -0.60322756 9 43
-0 0 -0 7 43
-2.5229182 3.5352197 -0.60206026 11 43
-2.5422151 3.6088543 -0.61256582 30 43
-2.6075947 3.7502615 -0.6351819 139 43
-2.5755746 3.7531419 -0.63284731 116 43
-0 0 -0 19 43
-0 0 -0 28 43
-0 0 -0 20 43
-2.1285858 3.2713602 -0.53713012 104 43
-2.0967097 3.2660475 -0.53392011 122 43
-2.0607429 3.2537827 -0.5295428 118 43
-2.0302503 3.249589 -0.52662456 93 43
-1.9962522 3.2392499 -0.52268499 111 43
-1.9640002 3.2311523 -0.51918316 135 43
-1.9436284 3.2422941 -0.51903725 116 43
-1.9257122 3.2575648 -0.5196209 117 43
-0 0 -0 86 43
-0 0 -0 115 43
-0 0 -0 133 43
-0 0 -0 255 43
-0 0 -0 322 43
-0 0 -0 286 43
-0 0 -0 233 43
-0 0 -0 272 43
-0 0 -0 212 43
-0 0 -0 126 43
-1.3851391 2.7518566 -0.41587862 87 43
-0 0 -0 102 43
-0 0 -0 75 43
-1.2725061 2.648504 -0.39486754 82 43
-1.2511516 2.6455324 -0.39311659 91 43
-1.2273746 2.6370182 -0.3904902 69 43
-1.2074603 2.6364059 -0.38917702 72 43
-1.1896337 2.6401579 -0.38859338 96 43
-0 0 -0 72 43
-0 0 -0 74 43
-0 0 -0 70 43
-1.1129469 2.6412127 -0.38421607 85 43
-1.0948251 2.6434226 -0.38348651 68 43
-1.075225 2.641845 -0.38217333 109 43
-1.0593624 2.6493113 -0.38231924 91 43
-1.0430865 2.6557615 -0.38231924 96 43
-1.0242769 2.6556516 -0.38129786 73 43
-1.0125221 2.673912 -0.38319468 122 43
-1.0029968 2.6986179 -0.3861129 157 43
-0.94739568 2.5978544 -0.36933321 96 43
-0.92242968 2.5784724 -0.36539364 106 43
-0.90396786 2.5766168 -0.36422634 101 43
-0.88620794 2.5765026 -0.3633509 91 43
-0.86879998 2.5772052 -0.36262134 77 43
-0.85265952 2.5815482 -0.36247543 89 43
-0.83466905 2.5801435 -0.36145404 90 43
-0.81732631 2.5805013 -0.36072451 87 43
-0.79883724 2.5769646 -0.3594113 83 43
-0.78042251 2.5732982 -0.35809812 95 43
-0.76208293 2.5695033 -0.35678491 156 43
-0.74464703 2.5684307 -0.35590947 100 43
-0.72833329 2.571048 -0.35561764 105 43
-0.71254396 2.5754685 -0.35561764 328 43
-0.69491923 2.5731075 -0.35459626 89 43
-0.67886537 2.5763664 -0.35445035 87 43
-0.66230446 2.5776091 -0.35401264 78 43
-0.64551312 2.5777862 -0.35342899 79 43
-0.6287446 2.5778544 -0.35284534 98 43
-0.61177063 2.5768516 -0.35211578 77 43
-0.59505576 2.5767014 -0.35153216 78 43
-0.5781486 2.5754783 -0.3508026 100 43
-0.56212372 2.5780108 -0.35065669 95 43
-0.54691052 2.5843146 -0.35109442 87 43
-0.53861701 2.6244442 -0.356639 52 43
-0.52269697 2.62867 -0.35678491 159 43
-0.51105565 2.6551409 -0.36028677 247 43
-0.49602446 2.6650343 -0.36130816 63 43
-0.48317221 2.6875 -0.36422634 44 43
-0.46989331 2.7089329 -0.36699864 33 43
-0 0 -0 4 43
-0.43236211 2.6881249 -0.36305907 8 43
-0.41479927 2.6838839 -0.36203769 4 43
-0 0 -0 4 43
-0.38266975 2.6946485 -0.36291316 5 43
-0 0 -0 4 43
-0 0 -0 4 43
-0 0 -0 4 43
-0.30869016 2.6373978 -0.35313717 9 43
-0.29031342 2.6195776 -0.35021895 12 43
-0 0 -0 3 43
-0 0 -0 4 43
-0.22853535 2.4786863 -0.32862422 8 43
-0.2121287 2.4662433 -0.32658148 7 43
-0 0 -0 13 43
-0 0 -0 5 43
-0.16334288 2.4203789 -0.31928596 9 43
-0.14842761 2.4203482 -0.31914005 9 43
-0.13340892 2.4182501 -0.31870231 11 43
-0.11861721 2.4200113 -0.31884822 13 43
-0.10359469 2.4167399 -0.31826457 9 43
-0.088543221 2.4113984 -0.31738913 14 43
-0 0 -0 4 43
-0 0 -0 7 43
-0 0 -0 13 43
-0 0 -0 4 43
-0 0 -0 11 43
0.00028283245 2.3882911 -0.31374136 9 43
0 0 -0 8 43
0 0 -0 17 43
0 0 -0 14 43
0 0 -0 8 43
0 0 -0 9 43
0 0 -0 12 43
0 0 -0 10 43
0.11780761 2.3923173 -0.31476274 14 43
0.13215895 2.3856225 -0.31388727 7 43
0.14649287 2.3798294 -0.31315771 9 43
0.16202146 2.3927047 -0.31520048 6 43
0.17771353 2.4054785 -0.31724322 9 43
0.19278377 2.4082875 -0.31782687 7 43
0.20933191 2.4277587 -0.32089096 17 43
0.2258545 2.4441612 -0.32351735 14 43
0.31243014 3.1722956 -0.43163693 74 43
0.33127326 3.1644151 -0.43076149 93 43
0.27493501 2.4769557 -0.32906196 28 43
0.28508094 2.4319866 -0.32264191 127 43
0.30036017 2.4331372 -0.32307962 163 43
0.31528395 2.4312484 -0.32307962 159 43
0.33072698 2.4331894 -0.32366326 137 43
0.34537295 2.4291553 -0.32337144 116 43
0.35940269 2.4211185 -0.322496 108 43
0.37334684 2.4130013 -0.32162052 195 43
0.38783211 2.4087114 -0.3213287 149 43
0.40146488 2.3994558 -0.32030734 109 43
0.41584256 2.3949976 -0.32001552 110 43
0.43122917 2.396296 -0.32059914 115 43
0.44845453 2.407222 -0.32264191 164 43
0.46433663 2.4102542 -0.32351735 196 43
0.47853899 2.4044485 -0.32307962 158 43
0.4938792 2.4043746 -0.32351735 135 43
0.50923645 2.4042027 -0.32395509 127 43
0.52461022 2.4039328 -0.32439283 134 43
0.54021615 2.40453 -0.32497647 166 43
0.55562687 2.404062 -0.32541418 191 43
0.57036746 2.4006073 -0.32541418 149 43
0.59093982 2.4210923 -0.32906196 59 43
0.60602427 2.4183805 -0.32920787 54 43
0.66732842 2.5957255 -0.35678491 14 43
0 0 -0 124 43
0 0 -0 128 43
0 0 -0 21 43
0 0 -0 3 43
0 0 -0 3 43
0.91332108 3.078774 -0.43513879 61 43
0 0 -0 155 43
0 0 -0 178 43
0 0 -0 183 43
0 0 -0 158 43
0 0 -0 176 43
0 0 -0 174 43
1.062036 3.0872409 -0.44301796 186 43
1.082595 3.0853343 -0.44374749 171 43
0 0 -0 192 43
0 0 -0 203 43
0 0 -0 191 43
0 0 -0 212 43
0 0 -0 112 43
0 0 -0 240 43
0 0 -0 173 43
1.2185211 2.9936731 -0.43820292 80 43
0 0 -0 129 43
0 0 -0 243 43
0 0 -0 348 43
0 0 -0 155 43
0 0 -0 173 43
0 0 -0 165 43
1.3941022 3.043843 -0.45527443 579 43
1.4006553 3.0092173 -0.45104301 73 43
1.4131761 2.9880438 -0.44900027 84 43
0 0 -0 51 43
0 0 -0 61 43
0 0 -0 49 43
0 0 -0 52 43
0 0 -0 44 43
0 0 -0 46 43
0 0 -0 73 43
0 0 -0 118 43
0 0 -0 116 43
0 0 -0 143 43
0 0 -0 133 43
0 0 -0 149 43
1.4556571 2.5330527 -0.39238706 142 43
1.4736614 2.528348 -0.39311659 168 43
1.4906565 2.5218136 -0.39355433 134 43
0 0 -0 146 43
0 0 -0 141 43
0 0 -0 147 43
0 0 -0 151 43
0 0 -0 173 43
1.6113079 2.5102062 -0.4014335 139 43
1.6288365 2.5035899 -0.40201715 129 43
1.6501545 2.502636 -0.40362215 153 43
0 0 -0 175 43
0 0 -0 156 43
0 0 -0 127 43
0 0 -0 158 43
0 0 -0 145 43
0 0 -0 139 43
1.815173 2.511277 -0.41850501 221 43
1.8276271 2.4960997 -0.41777545 105 43
1.8476206 2.4911973 -0.41894275 161 43
1.8670288 2.485352 -0.4199641 120 43
1.8888296 2.4825122 -0.42156914 122 43
1.9076478 2.475579 -0.42244458 125 43
1.928277 2.4708486 -0.42375779 105 43
0 0 -0 120 43
0 0 -0 110 43
0 0 -0 127 43
0 0 -0 122 43
2.0461385 2.4622915 -0.43367967 122 43
2.0663016 2.4557481 -0.43484697 119 43
2.0883851 2.4513094 -0.43645197 133 43
2.1163049 2.4534361 -0.43937019 133 43
0 0 -0 103 43
0 0 -0 145 43
0 0 -0 122 43
0 0 -0 97 43
2.6425323 2.8802893 -0.53800559 111 43
2.6890967 2.8951986 -0.54427975 153 43
2.7251027 2.898109 -0.54821932 137 43
2.7516985 2.8906512 -0.55011618 177 43
2.8304625 2.9371297 -0.56310219 32 43
2.9561708 3.0302062 -0.58586419 38 43
3.0407305 3.0788977 -0.59972566 72 43
3.0658586 3.0664802 -0.60103887 89 43
3.0930591 3.0559566 -0.60278982 73 43
3.1237848 3.0486703 -0.60527027 104 43
3.1580973 3.0445557 -0.60848027 80 43
3.1996386 3.0469582 -0.6131494 95 43
3.2442091 3.051677 -0.61840218 84 43
3.2759149 3.0438378 -0.6210286 94 43
3.3061888 3.0343859 -0.62336314 92 43
3.3423319 3.029994 -0.62686503 77 43
3.3873868 3.0331936 -0.63211781 89 43
3.4237154 3.0280862 -0.63561964 83 43
3.454149 3.0174384 -0.63795418 101 43
3.487576 3.0091166 -0.64087242 77 43
3.5240417 3.0030651 -0.64437425 81 43
3.565104 3.0005021 -0.64875156 90 43
3.6001816 2.992487 -0.65196157 79 43
3.637588 2.9860375 -0.65560937 7 43
0 0 -0 4 43
0 0 -0 3 43
3.6414993 2.8786845 -0.6461252 6 43
3.6427207 2.8434987 -0.64306104 12 43
0 0 -0 5 43
3.6757662 2.7973843 -0.64276922 115 43
3.7110491 2.7884505 -0.6461252 204 43
3.740799 2.7750614 -0.64845973 161 43
3.7234423 2.7269125 -0.64218557 66 43
3.7521276 2.712712 -0.64437425 63 43
3.8942993 2.7793221 -0.66713625 172 43
3.9217918 2.7627842 -0.66903311 161 43
3.9719663 2.7618325 -0.67501545 152 43
4.0141201 2.7547684 -0.67953867 124 43
4.0645256 2.7528398 -0.68552095 157 43
4.1125903 2.7487459 -0.69106555 137 43
4.1566277 2.7414405 -0.69588059 100 43
4.194097 2.7293792 -0.6995284 67 43
4.205771 2.7003851 -0.69865292 43 43
4.1679459 2.6401055 -0.68916875 15 43
3.5817733 2.2379303 -0.58440506 22 43
3.5853329 2.2096794 -0.58265418 32 43
3.5836098 2.1783845 -0.58002776 25 43
3.5824866 2.1477034 -0.57754731 36 43
3.5802708 2.1166146 -0.57492089 29 43
3.5795181 2.0866313 -0.57258636 24 43
3.5708144 2.0522981 -0.56893861 17 43
3.5764551 2.0264459 -0.56777132 25 43
3.5767317 1.9977058 -0.56572855 32 43
3.5802569 1.9709483 -0.56426948 15 43
3.5818498 1.943279 -0.56251854 15 43
4.7216029 2.5246758 -0.75118065 32 43
4.6582408 2.4541388 -0.73804873 96 43
4.691649 2.4350848 -0.74111283 308 43
4.69241 2.3990428 -0.73877823 279 43
4.6937895 2.3635287 -0.73658961 278 43
4.7099757 2.3355632 -0.73688143 224 43
4.763329 2.3257263 -0.74330145 174 43
4.8078222 2.3110342 -0.74826241 313 43
4.8129706 2.2772572 -0.74680334 290 43
4.816092 2.2426689 -0.7450524 288 43
4.8189707 2.208128 -0.74330145 266 43
4.8198037 2.1728227 -0.74125874 236 43
4.8203855 2.1375909 -0.73921597 242 43
4.8261566 2.1048079 -0.73804873 233 43
4.8289804 2.0708642 -0.7364437 263 43
4.8297462 2.0361962 -0.73454684 300 43
4.8284416 2.0008392 -0.73235822 312 43
4.8323822 1.967815 -0.73104501 290 43
4.8278337 1.9315087 -0.72841865 311 43
4.8174982 1.8931603 -0.72491676 268 43
4.8317924 1.8646343 -0.72535449 381 43
4.8338919 1.8314446 -0.72389543 338 43
4.8302035 1.7962294 -0.72156084 294 43
4.8206902 1.7590926 -0.71835083 253 43
4.8146286 1.723475 -0.71572441 244 43
4.8251133 1.6939005 -0.71572441 249 43
4.8241916 1.6603961 -0.71397352 260 43
4.8202286 1.6260178 -0.71178484 255 43
4.8216619 1.5936147 -0.71047163 234 43
4.8191147 1.5600358 -0.70857483 156 43
4.8153939 1.5262492 -0.70653206 8 43
4.8378959 1.5007803 -0.70857483 16 43
4.8640518 1.4762429 -0.71120119 62 43
4.9137969 1.4584836 -0.71747535 72 43
5.0005574 1.4509288 -0.72943997 82 43
10.564582 2.9965396 -1.5811188 17 43
10.556075 2.9242623 -1.5770333 42 43
10.589099 2.86357 -1.5793679 73 43
10.593079 2.7950077 -1.5773251 48 43
10.646436 2.7393286 -1.5828698 50 43
10.669761 2.675637 -1.5838912 57 43
10.710003 2.6159892 -1.5875388 61 43
10.695054 2.5428984 -1.5828698 67 43
10.735516 2.4830258 -1.5866634 56 43
10.739932 2.4147191 -1.5850583 58 43
10.832832 2.3658807 -1.5968771 60 43
10.891663 2.308809 -1.6035889 45 43
10.912407 2.2433307 -1.6046103 43 43
10.958954 2.1829054 -1.6095713 46 43
10.980885 2.1173081 -1.6108845 41 43
11.035487 2.0576928 -1.6171587 52 43
11.064457 1.9929247 -1.6196392 53 43
11.000452 1.9117764 -1.6082581 35 43
11.172965 1.871222 -1.6323334 56 43
11.275067 1.8172802 -1.645903 85 43
11.314357 1.7524577 -1.6501344 79 43
11.361102 1.6883855 -1.6555331 111 43
11.36831 1.6182247 -1.6550953 91 43
11.379005 1.5485731 -1.6552413 81 43
11.398104 1.4799986 -1.6567004 83 43
11.422679 1.4119767 -1.659035 102 43
11.451761 1.3442861 -1.662099 108 43
11.50404 1.2789174 -1.6686651 97 43
11.532331 1.2104766 -1.6717291 104 43
11.554309 1.1411529 -1.6739178 116 43
11.563064 1.070418 -1.6742096 138 43
11.57927 1.0003008 -1.6756687 133 43
11.588148 0.92947042 -1.6761065 124 43
11.602512 0.85900766 -1.6774197 168 43
5.2738552 0.35729486 -0.74111283 132 43
5.2729859 0.32474527 -0.74067509 480 43
5.2778425 0.29254964 -0.74111283 448 43
5.2548361 0.25893718 -0.73746508 225 43
5.2415004 0.22604655 -0.7352764 50 43
5.2437773 0.19391783 -0.73542231 405 43
5.2448683 0.16173896 -0.73542231 437 43
5.2467513 0.12957866 -0.73556823 415 43
5.2256866 0.096974075 -0.73235822 321 43
5.225194 0.064895533 -0.73221231 385 43
5.2205477 0.032800935 -0.73148274 407 43
5.2117467 0.00076433783 -0.73016953 398 43
5.1968141 -0.031128805 -0.72798091 19 43
5.1539884 -0.062509015 -0.72170675 256 43
5.1821928 -0.094649568 -0.72593814 411 43
5.1656904 -0.12606253 -0.72360361 261 43
5.1885519 -0.15847576 -0.72710544 20 43
5.1756182 -0.18987657 -0.72535449 13 43
5.1644716 -0.22120887 -0.72389543 209 43
5.1590648 -0.2527006 -0.72331178 87 43
5.1475391 -0.28380889 -0.72185266 25 43
5.1842117 -0.31773987 -0.72754318 8 43
5.1525521 -0.34755296 -0.72316587 68 43
5.1434164 -0.37865499 -0.72214448 278 43
11.673461 -0.9299522 -1.6886548 138 43
11.655707 -1.0005475 -1.6869038 155 43
11.658215 -1.0728618 -1.688217 136 43
11.662243 -1.1454377 -1.6898221 146 43
11.661882 -1.2176929 -1.6908433 163 43
11.678774 -1.2919428 -1.6944911 146 43
11.686349 -1.3654134 -1.6968257 147 43
11.683642 -1.4378183 -1.6977012 149 43
11.688336 -1.5112553 -1.699744 142 43
11.681785 -1.5833435 -1.7001816 162 43
11.707111 -1.6599882 -1.7054344 140 43
11.732916 -1.7371479 -1.7108331 107 43
11.709325 -1.8071467 -1.7089363 131 43
11.711692 -1.8811548 -1.710979 118 43
11.712614 -1.9550972 -1.7128758 110 43
11.697473 -2.0264213 -1.7124381 139 43
11.702346 -2.1013031 -1.7150645 122 43
11.693123 -2.1737907 -1.7156482 127 43
11.716483 -2.2525914 -1.7211927 174 43
11.7267 -2.3292561 -1.7248405 126 43
11.718971 -2.4025559 -1.7258619 146 43
11.704008 -2.474417 -1.7258619 134 43
11.716639 -2.5522885 -1.7300932 166 43
11.728752 -2.630408 -1.7343247 168 43
11.741311 -2.7089942 -1.7387019 143 43
11.757196 -2.7887464 -1.743663 160 43
11.743709 -2.8617711 -1.7442466 144 43
11.747043 -2.9390559 -1.7474567 145 43
11.743161 -3.0147676 -1.7496452 114 43
11.741663 -3.0912976 -1.7522717 111 43
11.743487 -3.1689532 -1.7554817 106 43
11.740033 -3.24543 -1.7579621 122 43
11.72561 -3.3190203 -1.7588376 131 43
11.733532 -3.3991604 -1.7632149 20 43
5.1541963 -1.5281754 -0.75439066 189 43
5.0566692 -1.5330971 -0.740821 133 43
5.0008612 -1.5497565 -0.73367137 133 43
4.9723935 -1.5744436 -0.73075318 46 43
4.9673462 -1.6064451 -0.73148274 38 43
4.9564562 -1.6365839 -0.73133683 150 43
4.9369454 -1.663808 -0.72987771 238 43
4.8134351 -1.6551698 -0.71222258 143 43
4.7667775 -1.671912 -0.70653206 164 43
4.7033286 -1.6821513 -0.69821519 164 43
4.6036835 -1.6784685 -0.6842078 218 43
4.5487809 -1.690156 -0.67720407 259 43
4.5466523 -1.7211852 -0.67851728 349 43
4.5498528 -1.7543861 -0.6807059 361 43
4.5500541 -1.7866067 -0.68245685 408 43
4.548193 -1.8181617 -0.68391597 394 43
4.5506978 -1.8516241 -0.6861046 421 43
4.5520487 -1.8848073 -0.68814737 451 43
4.5449572 -1.9146219 -0.68887693 426 43
4.5203915 -1.9370211 -0.68683416 429 43
4.5229335 -1.9710414 -0.68916875 420 43
4.5487461 -2.0155804 -0.69529694 366 43
4.5570416 -2.0527937 -0.69865292 368 43
4.5560546 -2.0860677 -0.70054972 426 43
1.021359 -0.47624803 -0.12770565 158 43
1.0237844 -0.48504189 -0.12858111 101 43
4.5641537 -2.1922672 -0.70828301 29 43
4.5692902 -2.2293365 -0.7113471 11 43
4.5537519 -2.256453 -0.71105528 36 43
4.5486593 -2.2887967 -0.7125144 51 43
4.5486274 -2.3238618 -0.71484894 41 43
4.5500922 -2.3599229 -0.71747535 45 43
4.5486588 -2.3947074 -0.71966398 35 43
4.5487146 -2.4304948 -0.72214448 32 43
4.5554605 -2.4701438 -0.72579223 19 43
4.559289 -2.5085366 -0.72900224 22 43
4.5645456 -2.5480328 -0.73250413 25 43
4.5660443 -2.5857384 -0.73542231 19 43
4.5715413 -2.6260209 -0.73907006 21 43
4.5698757 -2.6624851 -0.74155056 12 43
4.5713415 -2.7010398 -0.74461466 15 43
4.5750523 -2.7412369 -0.74811649 5 43
4.5716758 -2.777473 -0.75045109 13 43
4.573081 -2.8168826 -0.7536611 17 43
4.5758524 -2.8574612 -0.75716299 17 43
4.5808053 -2.8997664 -0.76110256 16 43
4.5837455 -2.9411712 -0.7647503 20 43
4.5838604 -2.9811029 -0.76796031 16 43
4.582005 -3.0200582 -0.77087855 15 43
4.5806661 -3.0596516 -0.77394265 15 43
4.5806522 -3.1004508 -0.77729857 20 43
4.5770454 -3.1391268 -0.7800709 14 43
4.5804486 -3.1829543 -0.78415638 15 43
4.5818672 -3.2258027 -0.78795004 28 43
4.5853486 -3.2705102 -0.79218143 25 43
4.582839 -3.311327 -0.7953915 30 43
4.5887828 -3.3586612 -0.80020654 30 43
4.5935225 -3.4056029 -0.80487567 36 43
4.59232 -3.4485717 -0.80852342 22 43
4.5923371 -3.4928505 -0.81246299 25 43
4.5872798 -3.5336378 -0.81552714 21 43
4.5873551 -3.5787523 -0.81961262 13 43
4.5878253 -3.624613 -0.82384402 25 43
4.5871315 -3.669996 -0.8279295 15 43
4.5952787 -3.7229776 -0.83376592 21 43
4.6006527 -3.7743146 -0.83916461 21 43
4.5933905 -3.8157446 -0.84222871 18 43
4.6016941 -3.8705971 -0.84835696 34 43
4.6004567 -3.9179986 -0.85273427 20 43
4.6003084 -3.9668217 -0.8574034 15 43
4.5982432 -4.0144887 -0.8617807 29 43
4.6031785 -4.0688295 -0.86761713 21 43
4.6039324 -4.1200829 -0.872724 45 43
4.6049633 -4.1721621 -0.87797678 24 43
4.6004229 -4.219728 -0.88220817 29 43
4.5983715 -4.2700868 -0.88702321 28 43
4.5929909 -4.3178687 -0.8912546 19 43
4.6094155 -4.3868833 -0.90000921 27 43
4.5895367 -4.421946 -0.90146834 20 43
4.6104841 -4.4969873 -0.91139024 10 43
4.6278648 -4.5696702 -0.9207285 17 43
4.641027 -4.6392379 -0.9293372 21 43
4.6458578 -4.7013984 -0.93634087 31 43
4.6494079 -4.7630835 -0.94319868 29 43
4.651001 -4.8235641 -0.94976467 39 43
4.6492958 -4.8813772 -0.95574695 54 43
4.6673961 -4.9609623 -0.96610659 47 43
4.6692004 -5.0242867 -0.97311032 21 43
4.6603656 -5.0768881 -0.97792536 23 43
4.6497302 -5.1281042 -0.98244858 18 43
4.6492038 -5.1911693 -0.98930633 14 43
4.6566 -5.264051 -0.998061 15 43
4.659369 -5.3327479 -1.0059401 16 43
4.6763377 -5.4188995 -1.0171752 16 43
4.6917806 -5.5047054 -1.0282644 26 43
4.6865911 -5.5674434 -1.0348303 31 43
4.6902957 -5.6417332 -1.0435851 51 43
4.6932635 -5.7162762 -1.0523397 38 43
4.6805353 -5.7726264 -1.0575924 21 43
4.6877007 -5.8545156 -1.0676602 25 43
4.6817617 -5.9211893 -1.0748098 27 43
4.6934476 -6.0113993 -1.0863367 24 43
4.7035971 -6.1011906 -1.0977178 25 43
4.7044291 -6.1803102 -1.107056 41 43
4.6997099 -6.2533426 -1.115227 64 43
4.698987 -6.3329029 -1.1245652 74 43
4.7161751 -6.4382238 -1.1385727 37 43
4.7061534 -6.5079203 -1.1460141 42 43
4.6759062 -6.5503612 -1.1484946 26 43
4.6669726 -6.6234031 -1.1565197 38 43
4.7409344 -6.8167715 -1.1861395 201 43
4.7208571 -6.8775401 -1.1918299 248 43
4.7473841 -7.0079303 -1.2099228 463 43
4.7620378 -7.1232762 -1.2252434 266 43
4.7743621 -7.2374115 -1.2402722 30 43
4.7476778 -7.2939286 -1.2450873 36 43
4.7514911 -7.3986664 -1.258365 20 43
4.7647882 -7.5204353 -1.2745612 28 43
4.772047 -7.6350923 -1.289444 61 43
4.7702875 -7.7374878 -1.3021382 84 43
4.7725902 -7.8485985 -1.3162915 53 43
4.7905011 -7.9880219 -1.3352598 24 43
4.8109078 -8.1347675 -1.3553954 18 43
4.8142395 -8.2555695 -1.3710079 27 43
4.8123217 -8.3698549 -1.385453 74 43
4.7974701 -8.4637699 -1.3963963 62 43
4.7975736 -8.5863132 -1.4121546 29 43
4.8211741 -8.7542315 -1.4355003 23 43
4.7980494 -8.8401613 -1.4449844 38 43
4.8109183 -8.9950485 -1.4659956 69 43
4.8077636 -9.123291 -1.4824834 39 43
4.8191719 -9.2825584 -1.5040781 24 43
4.8558369 -9.4951506 -1.5344275 24 43
4.8504543 -9.6299028 -1.5517908 45 43
4.8471169 -9.7720327 -1.5703214 42 43
4.830925 -9.8913689 -1.5850583 18 43
4.8520403 -10.091109 -1.6129273 34 43
0 -0 -0 320 43
0 -0 -0 724 43
4.883584 -10.654431 -1.6901139 27 43
4.8998809 -10.865458 -1.7194418 64 43
4.8752494 -10.990267 -1.7347624 43 43
4.9157443 -11.267509 -1.774596 31 43
4.9101043 -11.445648 -1.7983793 87 43
4.8801579 -11.571269 -1.8137 33 43
4.9053135 -11.833114 -1.8507612 129 43
0 -0 -0 428 43
4.995419 -12.481133 -1.9442897 28 43
4.9571185 -12.609141 -1.9597563 30 43
4.9598436 -12.846967 -1.992586 22 43
4.9636922 -13.095469 -2.0270209 18 43
4.9663992 -13.34913 -2.0621853 29 43
4.926475 -13.494582 -2.0802782 43 43
4.8635988 -13.580437 -2.0890329 45 43
4.7828026 -13.617491 -2.0902002 41 43
4.7043123 -13.661547 -2.0925345 49 43
4.6219802 -13.694841 -2.0932641 51 43
4.5425234 -13.737032 -2.0954528 38 43
4.4456477 -13.726059 -2.0894706 42 43
4.3673248 -13.771939 -2.0923886 43 43
4.2891932 -13.819263 -2.0955987 53 43
4.2100697 -13.864252 -2.0985169 38 43
4.1271744 -13.89741 -2.0996842 44 43
4.0407205 -13.918673 -2.0991006 40 43
3.9622624 -13.967949 -2.1028943 36 43
3.8780673 -13.997718 -2.1037698 33 43
3.8047655 -14.068044 -2.1109192 42 43
3.718879 -14.093038 -2.1112111 46 43
3.6404741 -14.147207 -2.1160262 46 43
3.5572109 -14.183671 -2.1182148 44 43
3.4776297 -14.235984 -2.122884 57 43
3.3963952 -14.28304 -2.1268237 57 43
3.313822 -14.325779 -2.1301794 60 43
3.2306347 -14.367077 -2.1333895 37 43
3.1483326 -14.413691 -2.137475 36 43
3.0614746 -14.440479 -2.1386423 49 43
2.9760008 -14.474497 -2.1409769 59 43
2.889838 -14.506067 -2.1430197 49 43
2.8032124 -14.536154 -2.1449165 54 43
2.7166889 -14.567669 -2.1471052 47 43
2.6293581 -14.595747 -2.1488559 45 43
2.5450048 -14.64182 -2.1533792 57 43
2.4613299 -14.694237 -2.1589239 40 43
2.368916 -14.695389 -2.1568811 45 43
2.2805207 -14.721379 -2.158632 35 43
2.1985893 -14.79185 -2.1670949 40 43
2.1130884 -14.842279 -2.1726394 37 43
2.0214441 -14.851046 -2.1720557 33 43
1.9344889 -14.895543 -2.1768708 46 43
1.8452415 -14.924806 -2.1794972 52 43
1.756054 -14.95648 -2.1825614 57 43
1.6667662 -14.989588 -2.1859174 51 43
1.577448 -15.025114 -2.1897109 58 43
1.4885353 -15.067983 -2.1946719 50 43
1.3997948 -15.117221 -2.2006543 47 43
1.3095683 -15.155094 -2.2050316 44 43
1.2191672 -15.195386 -2.2098465 43 43
1.12737 -15.222312 -2.2127647 40 43
1.0342818 -15.233878 -2.2134943 49 43
0.9421317 -15.261661 -2.2167044 46 43
0.8488 -15.273081 -2.2175798 43 43
0.75531471 -15.282942 -2.2183094 55 43
0.66242588 -15.308044 -2.2213736 31 43
0.56819075 -15.303912 -2.2202063 40 43
0.47458416 -15.316998 -2.2216654 34 43
0.38014829 -15.301821 -2.219039 54 43
0.28623235 -15.302876 -2.2188931 41 43
0.19210514 -15.286538 -2.2162666 47 43
0.098131299 -15.260718 -2.212327 44 43
0.0044910754 -15.260044 -2.2121811 34 43
-0.089091547 -15.250881 -2.2108679 46 43
-0.18258511 -15.243122 -2.2098465 46 43
-0.27593327 -15.231824 -2.2083874 47 43
-0.36874318 -15.203141 -2.204448 51 43
