# .PCD v0.7 - Point Cloud Data file format
VERSION 0.7
FIELDS x y z intensity ring
SIZE 4 4 4 4 1
TYPE F F F F U
COUNT 1 1 1 1 1
WIDTH 264
HEIGHT 1
VIEWPOINT 0 0 0 1 0 0 0
POINTS 264
DATA ascii
4.616375 -3.5572844 -1.0357957 43 46
4.6099653 -3.5976446 -1.0394232 22 46
4.6132956 -3.4226818 -1.1605706 18 48
4.6172476 -3.4697437 -1.1671145 14 48
4.6107564 -3.5542336 -1.1767257 16 48
4.614399 -3.6481895 -1.1894045 39 48
4.6125574 -3.6929538 -1.1949259 22 48
4.6119461 -2.8788743 -1.7032566 6 57
4.6107178 -2.2866628 -0.97324133 5 47
5.3734422 0.26401713 -0.8210929 75 44
3.0221701 3.0957406 -0.81186348 26 47
3.9644737 2.6843994 -0.60732377 50 42
5.5461311 0.92834014 -1.2769797 24 50
5.5622973 0.89599478 -1.2794877 37 50
5.6008911 0.93643111 -1.3589472 16 51
5.5854421 0.89864945 -1.3536845 22 51
5.6831474 0.95121807 -1.5229394 9 53
5.319746 0.45814875 -0.81462258 172 44
5.3239827 0.39276022 -0.81446475 382 44
5.3351593 0.36068428 -0.81588507 440 44
5.3461428 0.32848597 -0.81730539 487 44
5.3539734 0.29600307 -0.81825227 452 44
5.2174468 0.67497945 -0.86604637 230 45
5.2322493 0.64428037 -0.8679111 264 45
5.2409983 0.61273706 -0.86875874 266 45
5.2456388 0.58067602 -0.86892825 97 45
5.2510633 0.5486837 -0.86926728 61 45
5.2768888 0.51867568 -0.87316626 388 45
5.2858605 0.48683116 -0.87418342 370 45
5.260273 0.45193583 -0.86926728 19 45
5.2580352 0.41925815 -0.86841971 19 45
5.3204627 0.39141136 -0.87876052 218 45
5.3109651 0.35796037 -0.87672621 546 45
5.3386369 0.32693797 -0.88113379 398 45
5.2344747 0.67828673 -0.93440568 19 46
5.2326818 0.6454339 -0.93331742 260 46
5.242404 0.61400062 -0.93440568 75 46
5.2538919 0.58268887 -0.9358567 17 46
5.2583466 0.55054295 -0.93603808 75 46
5.2821779 0.52029085 -0.93984699 343 46
5.2833128 0.48768961 -0.93948424 352 46
5.2911043 0.45568419 -0.94039112 366 46
5.2987022 0.42360148 -0.94129801 301 46
5.3080673 0.39158723 -0.94256765 42 46
5.2052712 0.67340159 -0.99331707 252 47
5.20541 0.64096946 -0.99254495 244 47
5.2189898 0.6101591 -0.99447531 179 47
5.2294621 0.57888168 -0.99582654 14 47
5.2612157 0.54974675 -1.0014246 149 47
5.254725 0.51649225 -0.99949419 362 47
5.249979 0.48351854 -0.99794996 233 47
5.1891088 0.67149353 -1.0536191 175 48
5.1989603 0.64035863 -1.0548462 346 48
5.2125144 0.60958266 -1.0568911 360 48
5.2249126 0.57855672 -1.0587316 301 48
5.1916127 0.67438728 -1.1209482 263 49
5.1975904 0.6427595 -1.121381 122 49
5.2795849 0.68319464 -0.41792613 126 38
5.2767553 0.64993477 -0.41732943 15 38
5.2885609 0.61847025 -0.4180114 17 38
5.2991886 0.58677566 -0.4186081 79 38
5.3036799 0.55435294 -0.41869333 216 38
5.2864747 0.68486053 -0.48307639 362 39
5.2718105 0.65009195 -0.48122892 245 39
5.3023891 0.62086344 -0.48385429 373 39
5.3120337 0.58897626 -0.4844377 427 39
5.314558 0.55626738 -0.48434046 454 39
5.3158903 0.52345186 -0.484146 461 39
5.2757635 0.68363386 -0.54845786 12 40
5.2838049 0.65173596 -0.54889607 12 40
5.2896791 0.61953402 -0.54911524 20 40
5.2973323 0.58750343 -0.54955345 212 40
5.301826 0.55509198 -0.54966301 18 40
5.312057 0.52323169 -0.55042994 16 40
5.2943821 0.48871058 -0.54812914 95 40
5.3240194 0.45851648 -0.55108732 139 40
5.268271 0.68249816 -0.61321408 301 41
5.2782698 0.65088993 -0.61394423 287 41
5.2792068 0.61814392 -0.61357915 341 41
5.2937517 0.58694524 -0.61491781 380 41
5.2844205 0.55310631 -0.61333573 250 41
5.3114214 0.52301085 -0.61625648 95 41
5.3174958 0.49068502 -0.61662155 432 41
5.331284 0.45898712 -0.61796021 566 41
5.3340001 0.42626634 -0.61796021 498 41
5.2424603 0.67932093 -0.67454481 18 42
5.2583327 0.64859599 -0.67614853 9 42
5.2444959 0.61424547 -0.67374301 140 42
5.2747612 0.58500183 -0.6773513 58 42
5.2979646 0.55468798 -0.68002409 17 42
5.316062 0.52362591 -0.68202865 27 42
5.3112803 0.49026915 -0.68095958 371 42
5.3082643 0.45716077 -0.68015772 356 42
5.3445573 0.42726395 -0.6847015 38 42
5.3460903 0.39438948 -0.68456787 163 42
5.3454432 0.36137876 -0.68416691 138 42
5.2371154 0.67938173 -0.74038327 224 43
5.2568946 0.64917803 -0.74271786 244 43
5.2706041 0.61806446 -0.74417692 308 43
5.2742972 0.58571303 -0.74417692 350 43
5.2876306 0.55437326 -0.74563605 14 43
5.295855 0.52240515 -0.74636561 300 43
5.297976 0.4898093 -0.74621969 431 43
5.3067951 0.45780379 -0.74709517 256 43
5.3351436 0.42729235 -0.75088882 20 43
5.3080673 0.39235419 -0.74651152 44 43
5.3380113 0.36165559 -0.750597 494 43
5.3500042 0.32950565 -0.75205612 420 43
5.2413068 0.6791715 -0.80594283 10 44
5.2571359 0.64844841 -0.80783659 53 44
5.2590542 0.61594945 -0.80752099 200 44
5.267642 0.58421278 -0.80831003 15 44
5.2760377 0.55239391 -0.80909908 15 44
5.2960343 0.52165467 -0.81178194 199 44
5.2893023 0.48824206 -0.81020379 355 44
5.3076921 0.42431948 -0.81225538 39 44
5.1276693 0.95362979 -0.85824841 69 45
5.1596131 0.92685956 -0.86282545 290 45
5.1719999 0.8963629 -0.86401212 298 45
5.1715708 0.86363596 -0.86299497 265 45
5.1826105 0.83282703 -0.86401212 72 45
5.184701 0.80055964 -0.86350358 223 45
5.195365 0.76959956 -0.86452067 271 45
5.2019405 0.73798424 -0.86485976 273 45
5.2132068 0.70698041 -0.86604637 203 45
5.1549821 0.89452142 -0.92588097 277 46
5.1729832 0.86498171 -0.92823887 27 46
5.1820769 0.83384919 -0.92896438 20 46
5.1909833 0.8026377 -0.92968988 29 46
5.1773276 0.76803088 -0.92624372 159 46
5.2169938 0.74122638 -0.93277329 14 46
5.2253418 0.70973068 -0.9334988 15 46
5.1914744 0.86696434 -0.9962126 127 47
5.1666656 0.83026111 -0.99022847 280 47
5.1726322 0.79869336 -0.99042153 264 47
5.1754947 0.76665163 -0.99003547 265 47
5.1791296 0.73474294 -0.98984241 260 47
5.1952076 0.70453542 -0.99215883 103 47
5.1565552 0.79639834 -1.0505517 306 48
5.2620487 0.77965665 -1.0718193 21 48
5.256073 0.74584264 -1.0695698 19 48
5.2489104 0.71199989 -1.0671159 17 48
5.1454878 0.76494515 -1.1135892 130 49
5.1723142 0.73652917 -1.1185673 66 49
5.1844749 0.70583391 -1.1202989 232 49
5.1740265 1.0613281 -0.41434592 292 38
5.1667595 1.0268428 -0.41315255 153 38
5.1925316 0.99888378 -0.41485739 303 38
5.2073793 0.96864343 -0.41562459 300 38
5.2171474 0.93737781 -0.41596556 334 38
5.2012024 0.90160608 -0.41409022 104 38
5.2154818 0.8711518 -0.41485739 249 38
5.2423711 0.84261078 -0.41673273 332 38
5.2444887 0.80997229 -0.41647699 300 38
5.2454171 0.77719367 -0.41613603 12 38
5.2550197 0.74569327 -0.41656226 15 38
5.2871413 0.71718299 -0.41894907 317 38
5.1245456 1.0847342 -0.4740335 211 39
5.1642513 1.0600818 -0.47733951 15 39
5.1696825 1.0281802 -0.47724226 15 39
5.1729622 0.99587524 -0.47695056 25 39
5.180932 0.96448052 -0.47714505 185 39
5.183814 0.93214369 -0.47685334 18 39
5.1953192 0.90134096 -0.47743675 16 39
5.2243104 0.8733899 -0.47977039 120 39
5.2295713 0.84131765 -0.47977039 359 39
5.2415199 0.81027967 -0.48045105 211 39
5.2483616 0.77839547 -0.48064551 23 39
5.2697897 0.74856067 -0.48229852 283 39
5.2772422 0.71661413 -0.48259023 342 39
5.1400986 1.0553032 -0.54045993 258 40
5.1688995 1.0282029 -0.54297978 329 40
5.1819434 0.99778283 -0.54374671 320 40
5.1860137 0.96560448 -0.5435276 324 40
5.1801014 0.93165499 -0.5422129 199 40
5.2023697 0.90274072 -0.54407543 79 40
5.2205558 0.87293273 -0.54549968 327 40
5.2277765 0.84119928 -0.54571885 327 40
5.244627 0.81092817 -0.54703355 46 40
5.2475376 0.77844089 -0.54681444 12 40
5.255168 0.74664718 -0.5471431 92 40
5.2488155 0.71291727 -0.54593796 250 40
5.1503148 1.0572178 -0.60652077 15 41
5.1635189 1.0269531 -0.60737264 14 41
5.1784949 0.99694169 -0.60846788 220 41
5.1532898 0.95932835 -0.60457361 59 41
5.2030382 0.93560493 -0.61004996 14 41
5.2106366 0.90400183 -0.61029333 24 41
5.2043381 0.87004644 -0.60883301 314 41
5.2164383 0.83920193 -0.60968488 310 41
5.2322788 0.80884904 -0.61102355 41 41
5.2341981 0.77629167 -0.61065841 149 41
5.2496719 0.74569845 -0.61199707 305 41
5.2590666 0.71414191 -0.61260557 312 41
5.1163964 1.0831971 -0.66692734 169 42
5.1540117 1.0581586 -0.67120379 325 42
5.1487436 1.024195 -0.66960013 341 42
5.1549311 0.99258363 -0.66960013 362 42
5.1648216 0.96166021 -0.67013472 323 42
5.1979361 0.93486124 -0.67387664 18 42
5.19381 0.90125608 -0.67254025 266 42
5.1953321 0.86871701 -0.67200565 342 42
5.1780601 0.8332032 -0.66893196 150 42
5.2251897 0.80792409 -0.67467844 12 42
5.2290683 0.77570242 -0.67454481 24 42
5.2278423 0.74276686 -0.67374301 288 42
5.2352476 0.71107537 -0.67414391 31 42
5.1415324 1.0235052 -0.73469275 348 43
5.1438298 0.99118853 -0.7341091 188 43
5.1634302 0.96214807 -0.73615187 15 43
5.1760521 0.93167609 -0.73717326 13 43
5.1709499 0.89803445 -0.73556823 217 43
5.1988034 0.87004989 -0.73892415 306 43
5.1952543 0.83671659 -0.737611 200 43
5.2178874 0.80755079 -0.74023736 57 43
5.2256799 0.7759558 -0.74067509 299 43
5.2332811 0.7442956 -0.74111283 309 43
5.2318678 0.71136975 -0.74023736 251 43
5.1432514 0.99033564 -0.7983678 241 44
5.1540852 0.95966202 -0.79915684 50 44
5.1763988 0.93098938 -0.80183971 91 44
5.1742301 0.89785999 -0.80057716 328 44
5.1601629 0.86283898 -0.79742092 246 44
5.1916833 0.83539426 -0.80168188 17 44
5.2123256 0.80593604 -0.80420691 26 44
5.1947064 0.77060765 -0.80057716 96 44
5.2032475 0.73927432 -0.80120844 122 44
5.2341051 0.71092027 -0.80546939 21 44
5.5673537 0.92989886 -1.139712 28 48
5.3170052 0.65488935 -0.28770587 295 36
5.3067245 0.65346766 -0.35250109 356 37
5.3185587 0.62182218 -0.35308284 361 37
5.2983022 0.75277245 -0.15667413 271 34
5.265274 0.84612954 -0.21921688 222 35
5.2831988 0.81579083 -0.2198406 422 35
5.289093 0.78350496 -0.21988858 365 35
5.3135796 0.7538473 -0.22084814 29 35
5.2824736 0.71638948 -0.21912093 233 35
5.1882625 0.93219024 -0.28250065 128 36
5.2460108 0.90936995 -0.28570852 287 36
5.2544456 0.87765706 -0.2858901 321 36
5.2597318 0.84539986 -0.2858901 324 36
5.2648201 0.81311083 -0.2858901 339 36
5.2776093 0.78196102 -0.2863743 136 36
5.3050385 0.75278723 -0.2877664 9 36
5.3056011 0.71968555 -0.28752431 82 36
5.3069472 0.68673337 -0.28734273 397 36
5.2182498 1.0036626 -0.35010147 367 37
5.2272515 0.97217286 -0.35031962 363 37
5.2036705 0.934784 -0.34813812 91 37
5.2486148 0.90965849 -0.35104677 20 37
5.2550812 0.87760103 -0.35111949 23 37
5.2495356 0.84359688 -0.35031962 250 37
5.2684121 0.81350422 -0.35133764 359 37
5.2713313 0.78086984 -0.35119221 85 37
5.2829351 0.749493 -0.35170123 53 37
5.2943525 0.71800309 -0.35221022 426 37
5.3036041 0.68614495 -0.35257381 370 37
8.6158419 -1.3880252 -1.7836701 54 48
8.6168165 -1.4424815 -1.785715 73 48
8.6494303 -1.6121469 -1.7985983 46 48
8.6143847 -1.6603705 -1.7932813 70 48
6.2900033 1.4937428 -0.67467195 189 40
9.0163717 -2.5558252 -1.8044533 69 47
