# .PCD v0.7 - Point Cloud Data file format
VERSION 0.7
FIELDS x y z intensity ring
SIZE 4 4 4 4 1
TYPE F F F F U
COUNT 1 1 1 1 1
WIDTH 1337
HEIGHT 1
VIEWPOINT 0 0 0 1 0 0 0
POINTS 1337
DATA ascii
4.6780868 2.4261727 -0.41332301 211 38
4.6769137 2.3892651 -0.41178864 171 38
4.683475 2.3564932 -0.41102144 175 38
4.7058816 2.3316922 -0.41178864 154 38
4.7308459 2.3080153 -0.41281155 139 38
4.792522 2.3018029 -0.41732943 237 38
4.7993488 2.2689469 -0.41664749 267 38
4.8032432 2.2348332 -0.41570982 215 38
4.8087115 2.2015867 -0.41494262 215 38
4.8175874 2.1699939 -0.41451642 240 38
4.8280787 2.1391823 -0.41426069 278 38
4.7908745 2.0876303 -0.40957233 119 38
4.8191633 2.0648644 -0.41102144 292 38
4.8170505 2.0290682 -0.40965757 256 38
4.819283 1.9952815 -0.4087199 279 38
4.8286662 1.9645472 -0.40846416 297 38
4.8267517 1.9293358 -0.40718552 279 38
4.8088198 1.8880333 -0.40445775 227 38
4.8203139 1.8584913 -0.40445775 305 38
4.8204446 1.8246477 -0.40343481 241 38
4.8250117 1.7926071 -0.40283811 278 38
4.8171973 1.7561439 -0.40113327 189 38
4.8213148 1.724205 -0.40053657 282 38
4.7885528 1.6794244 -0.39661539 164 38
4.8063054 1.652602 -0.39729732 210 38
4.8248529 1.6259429 -0.39806452 267 38
4.8281155 1.5941215 -0.39746782 281 38
4.8216891 1.5592562 -0.39601868 229 38
4.8102679 1.5230265 -0.39414334 55 38
4.8204741 1.4937774 -0.39422858 50 38
4.854341 1.4716854 -0.39644489 93 38
4.86519 1.4424384 -0.39661539 76 38
5.0988445 1.4777188 -0.41664749 5 38
13.746523 3.8919816 -1.1847724 40 38
13.84409 3.8280056 -1.1913362 28 38
14.054896 3.7936125 -1.2079585 129 38
14.174261 3.7326727 -1.2164828 129 38
14.278928 3.6666927 -1.2237284 246 38
14.276027 3.5727215 -1.2215122 253 38
14.280255 3.4808114 -1.2199777 299 38
14.249963 3.3809347 -1.2154599 276 38
14.242286 3.2869382 -1.2129879 290 38
14.235936 3.1935992 -1.2106863 283 38
14.216323 3.0977051 -1.2072766 294 38
14.203868 3.0038211 -1.2045488 284 38
14.198606 2.911808 -1.202503 311 38
14.183956 2.8182254 -1.19969 322 38
14.162823 2.7238035 -1.1963655 338 38
14.149882 2.6313865 -1.1938082 321 38
14.127516 2.5376461 -1.1904837 324 38
14.125149 2.4478517 -1.1889493 265 38
14.120248 2.3578537 -1.1872444 301 38
14.105921 2.2665858 -1.1847724 285 38
14.091006 2.1755829 -1.1823003 280 38
14.078465 2.0852861 -1.180084 318 38
14.068305 1.995645 -1.1781235 283 38
14.064488 1.9071443 -1.1767596 318 38
14.049246 1.8173599 -1.174458 266 38
14.046288 1.729417 -1.1732646 301 38
14.033874 1.6405379 -1.171304 274 38
14.009015 1.5505614 -1.1683205 218 38
14.005383 1.4632289 -1.1672124 217 38
13.995256 1.375415 -1.1655927 260 38
13.983589 1.2876891 -1.1638879 245 38
13.961446 1.1993057 -1.1613306 261 38
13.967549 1.1135381 -1.1612453 280 38
13.963188 1.0270103 -1.1603076 276 38
5.3682075 0.36197764 -0.42278498 292 38
5.3434758 0.32738894 -0.42048344 511 38
5.3374252 0.29415777 -0.41980147 540 38
5.3321638 0.26106185 -0.41920477 577 38
5.3296833 0.22816923 -0.4188638 554 38
5.2732329 0.19334942 -0.41391972 62 38
5.3141556 0.16220281 -0.41732943 31 38
5.3090744 0.12944743 -0.41681799 338 38
5.3087726 0.096851021 -0.41673273 375 38
5.3192301 0.064395055 -0.41758516 30 38
5.3165359 0.031738039 -0.41732943 35 38
5.3056707 -0.00088157889 -0.41639176 37 38
5.2527595 -0.033099856 -0.41187388 181 38
5.2843385 -0.065728471 -0.41460165 29 38
5.2748699 -0.097984113 -0.41383448 35 38
5.2741694 -0.13034827 -0.41383448 169 38
5.2105298 -0.16076696 -0.40846416 264 38
13.096196 -0.48511666 -1.0836742 146 38
13.111886 -0.56628168 -1.0852938 136 38
13.121101 -0.64736271 -1.0864019 120 38
13.125836 -0.7283572 -1.0871692 150 38
13.125098 -0.80912745 -1.0875101 131 38
13.126844 -0.89011836 -1.0881069 115 38
13.128091 -0.97116113 -1.0887035 134 38
13.128838 -1.0522528 -1.0893003 127 38
13.13206 -1.1336472 -1.0901526 146 38
13.126842 -1.2143862 -1.0903231 140 38
13.018006 -1.2849226 -1.0816283 104 38
12.984113 -1.3620719 -1.079412 257 38
12.976501 -1.4418253 -1.0794972 269 38
12.976316 -1.5224657 -1.0802644 258 38
12.97563 -1.603158 -1.0810317 233 38
12.983335 -1.6850536 -1.082566 219 38
12.990521 -1.767104 -1.0841004 217 38
12.136044 -1.7267517 -1.0112176 77 38
13.002352 -1.9315099 -1.0870839 197 38
13.000102 -2.0127792 -1.0879363 208 38
12.99931 -2.0944107 -1.0889592 201 38
13.003903 -2.1770954 -1.0904937 198 38
13.005025 -2.2594035 -1.0917723 223 38
13.002684 -2.3412774 -1.0927951 245 38
13.014519 -2.4259467 -1.0950967 241 38
13.007215 -2.5072656 -1.0957787 248 38
13.012107 -2.591116 -1.0975688 132 38
12.096131 -2.4859486 -1.0189748 229 38
12.08065 -2.5601223 -1.0189748 249 38
12.153296 -2.6535432 -1.0267318 145 38
12.155255 -2.7322166 -1.0283514 180 38
13.051727 -3.0180006 -1.1085651 180 38
13.038779 -3.0994105 -1.1090766 180 38
13.041779 -3.1847937 -1.1110371 223 38
13.035522 -3.2681491 -1.1122305 196 38
13.028732 -3.3515475 -1.1134239 190 38
13.038751 -3.4395607 -1.1161518 199 38
13.047217 -3.5275626 -1.1187943 209 38
13.055093 -3.6157975 -1.1214368 219 38
13.058542 -3.7031741 -1.1237384 173 38
13.052797 -3.7882295 -1.1252728 156 38
5.116879 -1.5188931 -0.41911954 119 38
5.0597935 -1.5357883 -0.41485739 133 38
4.988421 -1.5476111 -0.4093166 134 38
4.9531875 -1.5700597 -0.40701503 56 38
4.9624186 -1.6065614 -0.4087199 36 38
4.9590893 -1.6391695 -0.4093166 167 38
4.9498825 -1.6698855 -0.40940183 423 38
4.8453341 -1.6677908 -0.40087754 244 38
4.7682638 -1.6740508 -0.39482528 226 38
4.6997442 -1.6824517 -0.38954023 192 38
4.6275592 -1.688709 -0.38391417 216 38
4.540535 -1.6885866 -0.37692425 302 38
4.5328836 -1.7174743 -0.37717998 462 38
4.5120358 -1.7413083 -0.37624231 314 38
4.4901385 -1.7645869 -0.37521937 253 38
4.4792271 -1.7921046 -0.37521937 255 38
4.4801421 -1.8244411 -0.37632754 213 38
4.4863515 -1.859145 -0.37794715 308 38
4.4950566 -1.8951552 -0.37982252 186 38
4.5575132 -1.9545156 -0.38672718 359 38
4.5472612 -1.98324 -0.38689768 363 38
4.5413823 -2.013932 -0.38749439 380 38
1.0174931 -0.45837826 -0.057944838 174 38
4.559803 -2.0894363 -0.39158604 232 38
4.5414772 -2.1148515 -0.3910746 77 38
4.5419245 -2.1490707 -0.39235324 9 38
4.5232644 -2.1743088 -0.39184177 57 38
4.5178957 -2.2059572 -0.39260897 61 38
4.5194492 -2.241163 -0.39405808 50 38
4.5118418 -2.2719891 -0.39465478 75 38
4.5120096 -2.3068886 -0.39601868 69 38
4.5198774 -2.3460073 -0.39814976 61 38
4.5195012 -2.3811283 -0.39951366 57 38
4.5179849 -2.415863 -0.4007923 48 38
4.5381041 -2.4625504 -0.40420201 33 38
4.5386186 -2.4990008 -0.40573639 29 38
4.538856 -2.5355499 -0.40727076 24 38
4.5379481 -2.5717044 -0.4087199 22 38
4.5428138 -2.6114192 -0.41076574 15 38
4.5465012 -2.6507883 -0.41272631 25 38
4.5284352 -2.6776209 -0.41255584 7 38
4.5520811 -2.7294409 -0.41656226 12 38
4.5556798 -2.7697446 -0.4186081 25 38
4.5496249 -2.8044431 -0.41971624 19 38
4.5526094 -2.8449802 -0.42176208 13 38
4.5552669 -2.885659 -0.42380792 8 38
4.5802312 -2.9410138 -0.4281553 7 38
4.5637693 -2.9701495 -0.4283258 10 38
4.5670829 -3.0123613 -0.43054211 10 38
4.5692215 -3.0541713 -0.43267319 9 38
4.5767922 -3.1000323 -0.43540096 11 38
4.5823278 -3.1449726 -0.43795824 19 38
4.578486 -3.1838391 -0.43957788 13 38
4.5816693 -3.2279418 -0.44196469 11 38
4.5909705 -3.2768338 -0.44503343 10 38
4.5853105 -3.3154511 -0.4465678 17 38
4.5761337 -3.3517671 -0.44776121 14 38
4.5834866 -3.4005628 -0.45074472 18 38
4.5792608 -3.4411936 -0.45253479 16 38
4.5755014 -3.4825037 -0.45441017 14 38
4.5761414 -3.5275466 -0.45679697 20 38
4.5748291 -3.5715015 -0.45901328 23 38
4.5840907 -3.6242244 -0.462423 19 38
4.596765 -3.6803083 -0.46625894 9 38
4.5911226 -3.72225 -0.46813428 22 38
4.5882182 -3.7667897 -0.47035059 14 38
4.5926008 -3.8178029 -0.47341934 18 38
4.5942421 -3.8670857 -0.47623238 20 38
4.6113744 -3.9301047 -0.4808355 35 38
0 -0 -0 0 38
0 -0 -0 0 38
0 -0 -0 0 38
0 -0 -0 0 38
0 -0 -0 0 38
0 -0 -0 0 38
0 -0 -0 0 38
0 -0 -0 0 38
0 -0 -0 0 38
0 -0 -0 0 38
0 -0 -0 0 38
0 -0 -0 0 38
0 -0 -0 0 38
0 -0 -0 0 38
0 -0 -0 0 38
0 -0 -0 0 38
4.6276793 -4.8623719 -0.53675491 23 38
4.6284661 -4.9233441 -0.54059088 21 38
4.6279998 -4.983778 -0.54434156 26 38
4.6323524 -5.0502644 -0.54877418 28 38
4.6407447 -5.122159 -0.5538035 27 38
4.6404548 -5.1854358 -0.55780995 32 38
4.6494594 -5.2600985 -0.56309503 38 38
4.6341324 -5.308044 -0.56531131 54 38
4.6613321 -5.4058022 -0.57315367 42 38
4.6603737 -5.4722314 -0.57741582 26 38
4.6606979 -5.5411382 -0.58193374 23 38
4.6648073 -5.6156187 -0.58704829 31 38
4.6612258 -5.6818829 -0.59122521 20 38
4.6551242 -5.7459903 -0.59514642 17 38
4.6596131 -5.8242402 -0.60060197 16 38
4.6880207 -5.9340339 -0.60946721 22 38
4.7029972 -6.0286798 -0.61662763 16 38
4.7023954 -6.1047854 -0.62174219 15 38
4.7028451 -6.1834884 -0.62711251 22 38
4.6995134 -6.258441 -0.63205665 24 38
4.6835709 -6.317575 -0.63529587 32 38
4.7065024 -6.4306192 -0.6442464 56 38
4.7083826 -6.5167198 -0.65029866 93 38
4.7082253 -6.6014609 -0.65618038 58 38
4.6991744 -6.6750364 -0.66086876 55 38
4.7348771 -6.8142085 -0.67237657 189 38
4.7211504 -6.8842187 -0.67663872 177 38
4.7642593 -7.0393081 -0.68968093 375 38
4.7292776 -7.0808372 -0.69095957 407 38
4.7619486 -7.2253637 -0.70280832 47 38
4.7533722 -7.309577 -0.7084344 32 38
4.7859049 -7.4593668 -0.72070938 23 38
4.7949281 -7.5753083 -0.72948939 24 38
4.7805448 -7.6561418 -0.73468924 25 38
4.7695284 -7.7438688 -0.74057102 41 38
4.7700286 -7.8521843 -0.74849862 75 38
4.7514563 -7.9308791 -0.7534427 50 38
4.7670636 -8.0688324 -0.76426858 41 38
4.7756386 -8.1978006 -0.77415675 30 38
4.7967014 -8.351366 -0.78643173 28 38
4.8194938 -8.5115633 -0.79930347 14 38
4.7919407 -8.5853472 -0.80365086 18 38
4.8006401 -8.7263317 -0.81456196 26 38
4.7887931 -8.8327055 -0.82206333 27 38
4.8119688 -9.0069284 -0.83612841 50 38
4.7988429 -9.116518 -0.84388554 47 38
4.8079433 -9.2713928 -0.85599005 34 38
4.8352623 -9.4657602 -0.87184525 14 38
4.832613 -9.6056213 -0.88241541 19 38
4.8266578 -9.7422295 -0.89264458 15 38
4.8524036 -9.9471817 -0.90935218 40 38
4.8430338 -10.084549 -0.91958135 70 38
4.8287525 -10.214965 -0.92912859 48 38
4.8487725 -10.422371 -0.94592142 20 38
4.8548145 -10.605033 -0.96032751 11 38
4.8412023 -10.749091 -0.97106814 22 38
4.8913774 -11.040956 -0.9956181 42 38
4.8792524 -11.198643 -1.0075521 65 38
4.8771448 -11.384067 -1.0220435 32 38
4.8423924 -11.497339 -1.0298005 27 38
4.920753 -11.886793 -1.0631306 90 38
4.9288139 -12.116115 -1.0815431 275 38
4.9346123 -12.346901 -1.1000408 59 38
4.9708905 -12.662606 -1.1262957 16 38
4.9679985 -12.887173 -1.1441115 13 38
4.9794617 -13.156902 -1.166019 59 38
4.930903 -13.274071 -1.1739465 42 38
4.981061 -13.66542 -1.2068504 13 38
0 -0 -0 238 38
0 -0 -0 1049 38
5.0133896 -14.583021 -1.2817789 21 38
5.0272021 -14.920378 -1.3094829 12 38
5.0336242 -15.248034 -1.3362492 45 38
5.0190463 -15.523228 -1.3582419 20 38
5.0626168 -15.992589 -1.3976243 27 38
5.0599222 -16.331715 -1.425243 31 38
5.1153884 -16.876404 -1.471189 155 38
4.9814439 -16.80526 -1.462068 1243 38
4.902081 -16.91781 -1.4693989 33 38
4.7960114 -16.939901 -1.468717 7 38
5.1783972 -18.728338 -1.6248821 38 38
5.0548177 -18.728016 -1.6220691 155 38
5.2592263 -19.971748 -1.7293901 39 38
5.1544237 -20.073126 -1.7355276 41 38
5.4503102 -21.779421 -1.8832538 10 38
4.1451864 -17.006212 -1.4600221 5 38
4.0352407 -17.008059 -1.4579763 7 38
3.9068336 -16.928617 -1.4488553 219 38
3.8020158 -16.948383 -1.4485143 416 38
3.6939211 -16.952896 -1.4468948 450 38
3.5861201 -16.957695 -1.4453603 501 38
3.4798007 -16.968643 -1.4444227 494 38
3.3727055 -16.975018 -1.4431441 305 38
3.2622764 -16.963104 -1.440331 455 38
3.156492 -16.973986 -1.4395639 503 38
3.0506971 -16.984207 -1.4387966 442 38
0 -0 -0 267 38
2.9641185 -17.751537 -1.5022174 106 38
2.9499674 -18.359638 -1.5533632 397 38
2.8320911 -18.343912 -1.550465 425 38
2.7134974 -18.320536 -1.54697 438 38
2.5958569 -18.300339 -1.5438161 458 38
2.4774959 -18.271494 -1.5399801 388 38
2.3622704 -18.262636 -1.5379343 360 38
2.2461514 -18.244152 -1.5351212 403 38
2.1287293 -18.211079 -1.5311148 433 38
2.0134416 -18.192108 -1.5283871 405 38
1.8979492 -18.167454 -1.525233 413 38
1.7832252 -18.146034 -1.52242 399 38
1.6692922 -18.128855 -1.5200332 406 38
1.5560635 -18.115923 -1.5180726 353 38
1.4421066 -18.090368 -1.5150892 190 38
1.3058009 -17.755064 -1.4855951 1387 38
1.2076808 -17.923786 -1.4994044 102 38
1.1009661 -17.984562 -1.5040076 196 38
0.99021095 -17.984016 -1.5034108 419 38
0.87896872 -17.97184 -1.5018765 459 38
0.76753038 -17.950018 -1.4995749 426 38
0.65628368 -17.924519 -1.4970176 424 38
0.5456214 -17.906298 -1.4951422 402 38
0.43498957 -17.878431 -1.4924997 449 38
0.32486507 -17.857851 -1.4905392 453 38
0.21502152 -17.837589 -1.4886638 462 38
0.10549758 -17.826616 -1.4876409 460 38
-0.0038816831 -17.807001 -1.485936 283 38
-0.11267957 -17.73391 -1.4797133 211 38
-0 -0 -0 239 38
-0.33005193 -17.718241 -1.4786052 283 38
-0.43896031 -17.72385 -1.479287 286 38
-0.54591703 -17.663063 -1.4743429 478 38
-0.65413761 -17.655397 -1.474002 490 38
-0.76224166 -17.646074 -1.4735758 515 38
-0.84755892 -17.176331 -1.4337673 359 38
-0.96801353 -17.442396 -1.4570386 167 38
-1.0589498 -17.175575 -1.434705 281 38
-1.1529877 -17.001751 -1.4203842 532 38
-1.256478 -16.983425 -1.4194465 486 38
-1.359946 -16.966457 -1.4186792 446 38
-1.4629102 -16.944889 -1.4175711 466 38
-1.5664873 -16.931625 -1.4172301 429 38
-1.6689777 -16.907814 -1.4160367 419 38
-1.7723788 -16.894281 -1.415781 474 38
-1.8757867 -16.881107 -1.4156106 476 38
-1.977706 -16.855427 -1.4144171 436 38
-2.0803585 -16.837042 -1.4139056 414 38
-2.2103093 -17.029478 -1.4316362 236 38
-2.299042 -16.900085 -1.4216628 116 38
-2.4015727 -16.877769 -1.4209808 529 38
-2.5069911 -16.875528 -1.422089 537 38
-2.6138449 -16.881489 -1.4239644 552 38
-2.7208657 -16.886774 -1.4258397 553 38
-2.8275564 -16.888432 -1.4274594 572 38
-2.9353929 -16.895306 -1.4295903 480 38
-3.0427139 -16.89757 -1.4313805 464 38
-3.1501729 -16.899151 -1.4331706 416 38
-3.2583315 -16.902983 -1.4352164 423 38
-3.3654881 -16.900261 -1.4367508 433 38
-3.4709282 -16.888077 -1.437518 202 38
-2.5679727 -12.117689 -1.0222139 273 38
-0 -0 -0 865 38
-2.6994362 -12.00944 -1.015565 883 38
-2.7753189 -12.002358 -1.0164174 907 38
-2.8313975 -11.911433 -1.009939 194 38
-2.9344532 -12.016761 -1.0207648 765 38
-3.0122511 -12.014958 -1.0222139 764 38
-3.0951021 -12.031952 -1.025368 491 38
-5.7359796 -21.743032 -1.8863225 14 38
-0 -0 -0 14 38
-5.9584827 -21.512573 -1.8722575 216 38
-6.1034184 -21.521618 -1.8763491 4692 38
-6.4297724 -22.15357 -1.9360192 146 38
-6.5746584 -22.144266 -1.9387469 145 38
-7.0082603 -23.084543 -2.0264621 24 38
-7.2489939 -23.360842 -2.0551038 60 38
-7.1028066 -22.4032 -1.9731852 119 38
-7.1861119 -22.192368 -1.9581823 193 38
-7.3468552 -22.222589 -1.9649166 143 38
-7.9026227 -23.42042 -2.0771816 52 38
-7.7393417 -22.480274 -1.9965417 117 38
-7.8200207 -22.26973 -1.9817947 199 38
-2.5809541 -7.2089915 -0.61756533 498 38
-2.6210394 -7.181788 -0.6165424 1354 38
-2.664362 -7.163703 -0.61637193 1257 38
-2.7269816 -7.1965995 -0.62088978 829 38
-2.7682173 -7.1722956 -0.62020785 701 38
-0 -0 -0 821 38
-0 -0 -0 1518 38
-2.8456435 -6.9872508 -0.60793287 1495 38
-2.8976192 -6.9917488 -0.60997868 1350 38
-2.9443367 -6.9830184 -0.61083108 1432 38
-2.994591 -6.9822187 -0.61245072 1248 38
-3.0094895 -6.8997855 -0.6064837 1346 38
-3.0465174 -6.8693495 -0.60537553 1312 38
-3.1545496 -6.9967618 -0.61909968 1035 38
-3.2094605 -7.003541 -0.62157172 1221 38
-3.2565796 -6.9927483 -0.62242419 1151 38
-3.390209 -7.1644616 -0.64058095 1002 38
-5.7050209 -11.866818 -1.0889592 25 38
-5.7300682 -11.734002 -1.0796678 26 38
-5.7678695 -11.629892 -1.073104 32 38
-5.8028173 -11.522203 -1.0661993 27 38
-5.8475494 -11.435816 -1.0613405 13 38
-5.8712416 -11.310407 -1.0527309 50 38
-5.9321694 -11.258303 -1.0511966 59 38
-5.9978485 -11.215541 -1.0505999 77 38
-6.0637012 -11.173273 -1.0500884 80 38
-6.062933 -11.010179 -1.0378134 9 38
-6.1021891 -10.922321 -1.0328693 9 38
-6.0988345 -10.760721 -1.0206796 89 38
-6.1250167 -10.653995 -1.0138601 19 38
-0 -0 -0 24 38
-6.1442227 -10.390212 -0.99519193 23 38
-6.1591787 -10.27114 -0.98709381 64 38
-6.1490941 -10.113118 -0.97507459 14 38
-6.1514225 -9.9785109 -0.96535689 21 38
-6.1391306 -9.8231373 -0.95350808 11 38
-6.0995708 -9.6278944 -0.93756765 8 38
-5.8322573 -9.0822392 -0.88591033 49 38
-5.8655896 -9.0120449 -0.88241541 54 38
-5.8889542 -8.9276466 -0.87747133 56 38
-5.8788342 -8.7944326 -0.86749786 47 38
-5.891891 -8.697978 -0.86127514 46 38
-5.901732 -8.5984097 -0.85471141 61 38
-5.9117126 -8.5006876 -0.84831816 69 38
-5.9413781 -8.4324894 -0.84499371 178 38
-6.008637 -8.4177704 -0.84729528 810 38
-6.0531683 -8.3710556 -0.84627235 121 38
-6.0991187 -8.3265219 -0.84550518 65 38
-6.2575583 -8.4337673 -0.86093414 701 38
-6.3313384 -8.4246826 -0.86408812 697 38
-6.4034309 -8.412631 -0.86698639 719 38
-6.482305 -8.4086905 -0.87082237 477 38
-6.0297432 -7.7232165 -0.80075258 12 38
-6.6702867 -8.4363642 -0.88258588 395 38
-6.7555556 -8.4372749 -0.88718903 653 38
-6.8348098 -8.4297171 -0.89093971 616 38
-6.9331927 -8.4446039 -0.89724767 579 38
-7.0180006 -8.4417439 -0.90168029 543 38
-7.1094494 -8.4457817 -0.90696537 593 38
-7.2600274 -8.5180159 -0.92000759 115 38
-7.34796 -8.5147953 -0.92469591 89 38
-7.4367809 -8.5115652 -0.92946953 97 38
-7.5278177 -8.5098019 -0.93449891 98 38
-7.6390538 -8.5295067 -0.9420855 55 38
-7.1196709 -7.8521419 -0.86928797 67 38
-7.855001 -8.5569611 -0.95623583 71 38
-7.9405942 -8.544364 -0.96041274 86 38
-8.0051613 -8.5085421 -0.96194714 74 38
-8.1108208 -8.5155363 -0.9685961 501 38
-8.1788254 -8.4821053 -0.97055668 554 38
-8.3205013 -8.5237322 -0.98155302 265 38
-8.353735 -8.4533844 -0.97925144 157 38
-8.3469572 -8.3435049 -0.97217631 178 38
-8.3667984 -8.2613306 -0.96842563 222 38
-8.3709669 -8.1646194 -0.96288478 546 38
-8.3936396 -8.086834 -0.95964557 623 38
-8.4661989 -8.0571594 -0.96237338 440 38
-8.346324 -7.8460569 -0.94251174 9 38
-8.6958618 -8.0746899 -0.9777171 367 38
-8.8047218 -8.0757313 -0.98462176 480 38
-8.9072733 -8.0697174 -0.99075925 486 38
-9.0160208 -8.0680637 -0.99757874 555 38
-9.1512108 -8.0884705 -1.0073817 448 38
-9.2366982 -8.0636187 -1.0114733 396 38
-9.3131676 -8.0302134 -1.0145421 178 38
-9.4639149 -8.0594778 -1.0259646 109 38
-9.5871553 -8.0634632 -1.0342332 95 38
-9.6832047 -8.0433187 -1.039433 100 38
-2.9525383 -2.4224064 -0.28920916 45 38
-2.9309583 -2.374768 -0.28520274 96 38
-2.9485865 -2.3592288 -0.28554371 286 38
-2.9332967 -2.3176229 -0.2823045 131 38
-2.9592466 -2.308773 -0.28358313 280 38
-2.9402037 -2.2650371 -0.28000292 129 38
-2.9437363 -2.2391131 -0.27889475 127 38
-2.9430778 -2.2102404 -0.27736038 132 38
-2.9453783 -2.1838336 -0.27616698 124 38
-2.9386213 -2.1510096 -0.2740359 111 38
-2.9638791 -2.14169 -0.27531457 302 38
-2.9477608 -2.1026375 -0.27224579 120 38
-2.9492004 -2.0764816 -0.27105242 118 38
-2.9537034 -2.0526614 -0.27019998 99 38
-2.9613123 -2.0311184 -0.26968852 95 38
-2.9695935 -2.0101178 -0.26926231 118 38
-2.9851856 -1.9940723 -0.26960328 118 38
-3.0123401 -1.9855865 -0.27113765 95 38
-3.0511966 -1.9844463 -0.27386543 69 38
-3.0792491 -1.9759092 -0.27548504 76 38
-3.1089952 -1.9681679 -0.27727515 86 38
-3.1539743 -1.9696337 -0.28059962 323 38
-3.2041776 -1.9737556 -0.28443557 117 38
-3.2290015 -1.9618169 -0.28571421 180 38
-3.3127756 -1.9849774 -0.29287463 75 38
-3.3454814 -1.9767758 -0.29492044 57 38
-3.3782103 -1.9682471 -0.29696628 46 38
-3.405776 -1.9564134 -0.29850066 26 38
-10.730313 -6.0756965 -1.0174403 384 38
-0 -0 -0 5 38
-10.694066 -5.8830543 -1.0066997 308 38
-8.0618896 -4.3709216 -0.74704945 364 38
-8.099103 -4.3270063 -0.74807239 465 38
-8.1784019 -4.3050737 -0.75318694 158 38
-10.625591 -5.5101366 -0.9864971 269 38
-10.620159 -5.4248939 -0.98274642 524 38
-10.611412 -5.338583 -0.97874004 524 38
-10.603793 -5.253469 -0.97490406 587 38
-10.59553 -5.1686502 -0.97106814 552 38
-10.590219 -5.0858564 -0.96757317 513 38
-10.573484 -4.9982142 -0.96305531 555 38
-10.558784 -4.91223 -0.95879316 637 38
-10.545239 -4.8274446 -0.95470148 612 38
-10.531054 -4.743011 -0.9506098 610 38
-10.511677 -4.6569166 -0.94609195 622 38
-10.500775 -4.5752187 -0.9424265 628 38
-10.492017 -4.495007 -0.93901676 639 38
-10.48267 -4.4150763 -0.93560702 700 38
-10.468136 -4.3335247 -0.9317711 648 38
-10.459457 -4.2549462 -0.92853189 668 38
-10.439107 -4.1722007 -0.92426974 628 38
-10.433905 -4.096055 -0.92145669 651 38
-10.434669 -4.0226393 -0.91924036 690 38
-10.413494 -3.941258 -0.9150635 185 38
-1.6559137 -0.61548597 -0.11360853 25 38
-1.6680841 -0.60838461 -0.11437573 25 38
-1.6624038 -0.5947836 -0.11352329 6 38
-1.6716634 -0.58655012 -0.11403475 9 38
-1.5301255 -0.52640134 -0.10090733 66 38
-1.5210519 -0.51286727 -0.099799164 129 38
-1.5194395 -0.50196308 -0.099372953 166 38
-1.5186986 -0.4914045 -0.099031977 178 38
-1.5178856 -0.48087397 -0.098691009 171 38
-1.5160489 -0.47007713 -0.098264791 172 38
-1.5150906 -0.45960999 -0.097923815 183 38
-1.5131058 -0.4488892 -0.097497605 173 38
-1.5129607 -0.43876466 -0.097241871 184 38
-1.5117897 -0.42838746 -0.096900903 173 38
-1.5067071 -0.41697913 -0.096218958 196 38
-1.5034655 -0.40616861 -0.095707498 176 38
-1.4982214 -0.39490622 -0.095025554 214 38
-1.4977211 -0.3849625 -0.094769828 185 38
-1.4942557 -0.37431425 -0.094258368 186 38
-1.4936202 -0.36443081 -0.094002642 198 38
-1.4919503 -0.35433936 -0.093661666 222 38
-1.4911839 -0.34450614 -0.09340594 215 38
-1.4903531 -0.33469573 -0.093150206 231 38
-1.4923787 -0.32554477 -0.093150206 218 38
-1.4894741 -0.31535098 -0.092723995 194 38
-1.4825965 -0.30440456 -0.091956809 237 38
-1.4863908 -0.29569006 -0.092127293 214 38
-1.4803498 -0.28505901 -0.091445349 235 38
-1.4820709 -0.2759704 -0.091445349 205 38
-1.4798137 -0.2661669 -0.091104373 221 38
-1.481419 -0.2570819 -0.091104373 215 38
-1.4800203 -0.24749503 -0.090848647 211 38
-1.481511 -0.23840913 -0.090848647 258 38
-1.4799919 -0.22885825 -0.090592921 233 38
-1.4803827 -0.21962692 -0.090507671 225 38
-1.4817024 -0.21053933 -0.090507671 246 38
-1.4829664 -0.20144381 -0.090507671 247 38
-1.4821982 -0.19208512 -0.090337187 254 38
-1.4853268 -0.18323036 -0.090507671 266 38
-1.486423 -0.17411312 -0.090507671 224 38
-1.4854828 -0.16477016 -0.090337187 251 38
-1.4864658 -0.1556523 -0.090337187 196 38
-1.4873929 -0.14652859 -0.090337187 227 38
-1.488264 -0.13739936 -0.090337187 204 38
-1.489079 -0.12826495 -0.090337187 171 38
-1.484872 -0.11872996 -0.089910977 132 38
-1.4905409 -0.10998201 -0.090337187 83 38
-1.4911877 -0.10083415 -0.090337187 62 38
-1.4947618 -0.09186507 -0.090592921 56 38
-1.4515238 -0.080282412 -0.086842224 29 38
-1.4370614 -0.070644766 -0.085563578 12 38
-1.4404542 -0.061953418 -0.085819311 5 38
-1.4308503 -0.052749448 -0.084966876 8 38
-1.4331388 -0.044029571 -0.085137367 9 38
-1.4363703 -0.035307806 -0.085393094 10 38
-1.4405446 -0.026566142 -0.085734062 15 38
-1.4376917 -0.017690664 -0.085478336 14 38
-1.4586964 -0.008992184 -0.087268442 21 38
-1.4497569 -4.377402e-05 -0.086501256 12 38
-1.4477371 0.0088390624 -0.086330764 12 38
-1.4825255 0.018158352 -0.089314274 44 38
-1.4823861 0.027254615 -0.089314274 75 38
-1.465122 -0.1071941 -0.10580269 10 39
-1.4627732 -0.098000303 -0.10551098 9 39
-1.4603668 -0.088839374 -0.10521927 15 39
-1.4608845 -0.079877056 -0.10521927 16 39
-1.4553828 -0.070617557 -0.10463586 14 39
-1.450817 -0.061471514 -0.10414968 5 39
-1.453156 -0.052641965 -0.10434415 8 39
-1.4484777 -0.043570954 -0.10385797 15 39
-1.4497128 -0.034707062 -0.10395521 14 39
-1.4479083 -0.025774108 -0.10376074 11 39
-1.4540102 -0.016963877 -0.10434415 13 39
-1.3933773 -0.0076574828 -0.098412789 54 39
-1.397379 0.00089148182 -0.098801732 59 39
-1.4361618 0.009696166 -0.10259391 17 39
-1.487825 0.019133043 -0.10765016 3 39
-1.4419053 0.027428094 -0.10317732 5 39
-1.4247954 0.035863042 -0.10152432 6 39
-0 0 -0 4 39
-0 0 -0 3 39
-0 0 -0 3 39
-0 0 -0 2 39
-0 0 -0 3 39
-0 0 -0 3 39
-0 0 -0 3 39
-0 0 -0 4 39
-0 0 -0 3 39
-0 0 -0 3 39
-0 0 -0 3 39
-0 0 -0 2 39
-0 0 -0 4 39
-0 0 -0 5 39
-0 0 -0 4 39
-0 0 -0 3 39
-0 0 -0 3 39
-0 0 -0 4 39
-0 0 -0 4 39
-0 0 -0 2 39
-1.5441126 0.23960868 -0.11494282 3 39
-0 0 -0 2 39
-0 0 -0 4 39
-0 0 -0 2 39
-1.5181756 0.27391148 -0.11299811 6 39
-1.5047245 0.2810379 -0.11183129 7 39
-1.5059038 0.29082936 -0.11212299 11 39
-1.4914007 0.29754227 -0.11085893 14 39
-1.4729725 0.30328843 -0.10920592 23 39
-1.4886109 0.31602761 -0.11095617 35 39
-1.4778917 0.32324842 -0.11008105 61 39
-1.4797649 0.33318198 -0.11046999 92 39
-1.4796323 0.34270304 -0.11066446 141 39
-1.4842802 0.35338384 -0.1113451 153 39
-1.4830509 0.36272028 -0.11144234 183 39
-1.4827284 0.37229657 -0.11163682 188 39
-1.485236 0.38262519 -0.11212299 182 39
-1.4838227 0.3919847 -0.11222023 203 39
-1.4871548 0.40263811 -0.11280364 166 39
-1.4884933 0.41281658 -0.11319258 174 39
-1.4878476 0.42248431 -0.11338706 175 39
-1.4900069 0.43299067 -0.11387323 181 39
-1.4911389 0.44325653 -0.11426217 175 39
-1.492201 0.45355251 -0.11465111 172 39
-1.4941434 0.46417278 -0.11513729 146 39
-1.4941136 0.47423309 -0.115429 169 39
-1.4987515 0.48584151 -0.11620688 145 39
-1.5004677 0.49658859 -0.11669306 135 39
-1.501165 0.50705713 -0.117082 155 39
-1.5036727 0.5182001 -0.11766542 153 39
-1.5070391 0.52972215 -0.11834607 144 39
-1.507509 0.54029965 -0.11873501 155 39
-1.5097759 0.55158448 -0.11931842 143 39
-1.5119607 0.56291741 -0.11990183 119 39
-1.5270947 0.57923007 -0.12184654 75 39
-1.6024464 0.61901987 -0.13011156 16 39
-4.9244943 1.9345187 -0.47918698 3 39
-4.9254699 1.9698696 -0.48054829 341 39
-4.9178996 2.0019298 -0.48103446 474 39
-4.904604 2.0316873 -0.48093721 407 39
-4.8966317 2.0636747 -0.48142341 412 39
-4.8893661 2.0960326 -0.48200682 440 39
-4.8882742 2.1311619 -0.48327088 464 39
-4.8778358 2.1623251 -0.48356259 482 39
-8.7856369 3.9582856 -0.90371716 346 39
-8.7729483 4.0175042 -0.9049812 910 39
-8.7589607 4.0762963 -0.90614802 971 39
-8.7553787 4.140172 -0.90848166 971 39
-8.7351933 4.1964011 -0.90906513 919 39
-8.7164364 4.2534113 -0.90984297 994 39
-8.7017679 4.3125582 -0.91110706 971 39
-8.5995703 4.3278489 -0.90284204 370 39
-8.6871881 4.4389386 -0.91538543 658 39
-8.6536036 4.4889517 -0.91470474 516 39
-8.652318 4.5558724 -0.91762185 396 39
-8.6689701 4.6327949 -0.92258084 838 39
-8.6482553 4.6901684 -0.92345595 575 39
-8.8617334 4.8765092 -0.95048743 142 39
-8.8750982 4.9550457 -0.95534921 358 39
-8.6895027 4.9216285 -0.93794405 21 39
-8.1456347 4.679914 -0.88008893 39 39
-8.5132151 4.9607596 -0.92491448 377 39
-8.7422533 5.1662965 -0.95437682 361 39
-8.7120962 5.2208638 -0.95457131 309 39
-8.8134432 5.3553481 -0.96983731 16 39
-2.9374328 1.8105667 -0.29939854 7 39
-2.9802973 1.8622924 -0.30562162 51 39
-2.9713371 1.882141 -0.30591333 40 39
-2.9622457 1.9019498 -0.30620503 53 39
-2.9571946 1.9244305 -0.30698293 49 39
-2.9536409 1.9480162 -0.30795527 36 39
-2.949909 1.9716305 -0.30892763 56 39
-2.9443495 1.9941564 -0.30970553 42 39
-2.9369831 2.0155623 -0.31028894 53 39
-2.9302819 2.0375209 -0.31096959 37 39
-2.9193523 2.0566082 -0.31116405 53 39
-2.9091091 2.076216 -0.31145576 50 39
-2.9043822 2.0998554 -0.31242812 77 39
-2.8697584 2.1017663 -0.30980274 12 39
-2.8384192 2.1057026 -0.30756634 28 39
-2.79759 2.1021628 -0.3041631 26 39
-2.7577045 2.0988042 -0.3008571 28 39
-2.7226973 2.0986803 -0.29813451 24 39
-2.6760254 2.0890241 -0.29395336 29 39
-2.6280138 2.077641 -0.28957778 38 39
-2.5942328 2.0769401 -0.28695241 24 39
-2.5489602 2.0665057 -0.2828685 31 39
-2.5100706 2.0606449 -0.2795625 29 39
-2.4736462 2.0562932 -0.27654821 26 39
-2.4419408 2.0554168 -0.27411732 26 39
-2.4042783 2.049067 -0.27090856 25 39
-2.3675401 2.0429831 -0.26779702 30 39
-2.3377159 2.042417 -0.2655606 26 39
-2.3064969 2.0402443 -0.26312971 25 39
-2.261302 2.0251558 -0.25885135 26 39
-2.2252309 2.0176094 -0.25573981 15 39
-0 0 -0 4 39
-2.1361244 1.9851679 -0.2471831 23 39
-2.0876462 1.9641527 -0.24232131 42 39
-2.0813227 1.9824144 -0.2430992 31 39
-2.0669694 1.9930762 -0.24280749 29 39
-2.0596886 2.0105858 -0.24348815 36 39
-2.0558114 2.0315773 -0.24465497 42 39
-2.0524578 2.0533004 -0.24591903 22 39
-2.0538116 2.080014 -0.24786374 51 39
-2.053524 2.1053963 -0.24961399 40 39
-2.0530016 2.1308532 -0.25136423 34 39
-0 0 -0 39 39
-0 0 -0 38 39
-0 0 -0 37 39
-0 0 -0 43 39
-0 0 -0 37 39
-2.0402422 2.2798555 -0.26118499 30 39
-2.0354469 2.3027678 -0.2625463 36 39
-2.0343757 2.3302035 -0.26449102 30 39
-0 0 -0 34 39
-0 0 -0 36 39
-0 0 -0 31 39
-0 0 -0 37 39
-0 0 -0 35 39
-2.0092828 2.4800396 -0.27411732 34 39
-2.0207758 2.5257289 -0.27829844 17 39
-0 0 -0 3 39
-2.6020994 3.3348272 -0.37553394 28 39
-2.59921 3.3735895 -0.37835377 47 39
-2.5850918 3.3981857 -0.37942335 35 39
-2.5785427 3.4330788 -0.38175702 34 39
-2.5675106 3.4624238 -0.38341001 27 39
-2.5715063 3.5126376 -0.38759115 60 39
-2.5674002 3.5525451 -0.3905082 66 39
-2.5594313 3.5876729 -0.39284188 89 39
-2.5499806 3.6212089 -0.39498106 79 39
-2.5601029 3.6833618 -0.40052345 82 39
-2.5673044 3.7424912 -0.40567696 179 39
-0 0 -0 8 39
-0 0 -0 15 39
-0 0 -0 19 39
-2.119626 3.2588375 -0.34208494 115 39
-2.0818436 3.2441456 -0.33887616 126 39
-2.0523114 3.241725 -0.33712593 110 39
-1.7159067 2.747858 -0.27878463 66 39
-0 0 -0 61 39
-0 0 -0 74 39
-0 0 -0 77 39
-0 0 -0 60 39
-0 0 -0 73 39
-0 0 -0 69 39
-0 0 -0 55 39
-0 0 -0 84 39
-0 0 -0 76 39
-0 0 -0 88 39
-0 0 -0 79 39
-0 0 -0 90 39
-0 0 -0 106 39
-0 0 -0 66 39
-0 0 -0 54 39
-0 0 -0 53 39
-0 0 -0 60 39
-1.3469496 2.8045342 -0.26624125 72 39
-1.3233303 2.7992518 -0.26478273 72 39
-1.2397414 2.6647685 -0.24941951 11 39
-1.2179772 2.6605632 -0.24815544 8 39
-1.1930387 2.6489329 -0.24611351 4 39
-0 0 -0 7 39
-0 0 -0 6 39
-0 0 -0 15 39
-1.1044703 2.6223896 -0.24027938 5 39
-1.0860724 2.6236005 -0.23969597 4 39
-1.0733325 2.6385109 -0.24057108 5 39
-1.0560136 2.6422751 -0.24027938 9 39
-1.0419654 2.6542625 -0.24086279 41 39
-1.0256594 2.6606059 -0.24086279 36 39
-1.011431 2.6724334 -0.2414462 28 39
-0.99952459 2.6907158 -0.24271026 20 39
-0.98572558 2.7042775 -0.24348815 18 39
-0.96911389 2.7102749 -0.24348815 18 39
-0.95312518 2.7180486 -0.24368261 19 39
-0.93480986 2.7191403 -0.24319644 11 39
-0 0 -0 4 39
-0.89199996 2.7020581 -0.24027938 2 39
-0.86896557 2.6875961 -0.23823743 2 39
-0.84975159 2.6843388 -0.23736231 4 39
-0.82294208 2.6562328 -0.23395906 4 39
-0.80200273 2.6459947 -0.23240329 2 39
-0.78008717 2.6317837 -0.23045859 5 39
-0 0 -0 4 39
-0.74121594 2.6181784 -0.22812493 6 39
-0 0 -0 2 39
-0 0 -0 4 39
-0 0 -0 3 39
-0.66781366 2.6008804 -0.22462445 4 39
-0 0 -0 3 39
-0.63490224 2.6050122 -0.22423552 7 39
-0 0 -0 4 39
-0.60042059 2.6019406 -0.22316593 7 39
-0.58466238 2.6065469 -0.22326316 6 39
-0.56887019 2.6110575 -0.2233604 9 39
-0.55118775 2.60671 -0.22258252 4 39
-0.53618461 2.6149173 -0.22306868 13 39
-0.52032405 2.6191342 -0.22316593 17 39
-0.49652061 2.5822091 -0.21917927 36 39
-0.46243066 2.4873662 -0.20945573 70 39
-0.44592527 2.4833002 -0.20877507 85 39
-0.4301686 2.4830477 -0.20848337 79 39
-0.41476047 2.484659 -0.20838614 72 39
-0.39919049 2.4851918 -0.20819166 75 39
-0.38362959 2.4856274 -0.20799719 83 39
-0.36880952 2.4908879 -0.20828889 92 39
-0.35379916 2.4950747 -0.20848337 92 39
-0.33888543 2.5001571 -0.20877507 96 39
-0.32443494 2.5090983 -0.20945573 65 39
-0.307569 2.4991887 -0.20828889 11 39
-0.2900252 2.4822476 -0.20644142 3 39
-0.27533844 2.4889264 -0.2069276 14 39
-0.25923091 2.4826503 -0.20614971 10 39
-0.24203782 2.4643853 -0.20420501 6 39
-0.22709543 2.4678061 -0.20439948 11 39
-0.21032284 2.4503131 -0.20255201 7 39
-0 0 -0 8 39
-0 0 -0 5 39
-0.16363662 2.4309306 -0.20031558 10 39
-0 0 -0 17 39
-0.1329661 2.4178498 -0.19885705 10 39
-0.11822602 2.4206083 -0.19905153 11 39
-0.10345708 2.4232767 -0.19924599 7 39
-0.087923281 2.4059634 -0.19749576 9 39
-0 0 -0 15 39
-0 0 -0 7 39
-0 0 -0 11 39
-0 0 -0 11 39
-0 0 -0 6 39
0.00069586729 2.3936357 -0.19613446 9 39
0 0 -0 9 39
0 0 -0 14 39
0 0 -0 14 39
0 0 -0 26 39
0 0 -0 32 39
0 0 -0 30 39
0 0 -0 18 39
0.11819381 2.3917124 -0.19623169 25 39
0.13325003 2.3978984 -0.19691235 11 39
0.14802158 2.3980291 -0.19700958 25 39
0.16273282 2.3970757 -0.19700958 28 39
0.1780221 2.4039726 -0.19778746 20 39
0.19253193 2.3998587 -0.19749576 10 39
0.20878708 2.4164813 -0.19924599 25 39
0.22434063 2.4230831 -0.20002387 51 39
0.23706229 2.3998702 -0.19788469 80 39
0.25002477 2.3815427 -0.19623169 116 39
0.26299036 2.3651254 -0.19477317 268 39
0.27726638 2.3614902 -0.19457869 280 39
0.29126447 2.3557932 -0.19418974 281 39
0.30545846 2.3519876 -0.19399528 255 39
0.32001799 2.3510554 -0.19409251 263 39
0.33499697 2.3529892 -0.19448146 290 39
0.35176179 2.3666415 -0.19603722 222 39
0.36733976 2.3713238 -0.19671787 202 39
0.38125136 2.3650947 -0.19632892 214 39
0.39657584 2.3676193 -0.1968151 185 39
0.41109583 2.3651412 -0.1968151 188 39
0.42595226 2.3645334 -0.19700958 182 39
0.44045275 2.3618753 -0.19700958 195 39
0.45531261 2.361083 -0.19720405 154 39
0.47347689 2.3767922 -0.19905153 25 39
0.48345262 2.351418 -0.1968151 63 39
0.49972498 2.3571708 -0.19769023 162 39
0.51311934 2.3491979 -0.19720405 196 39
0.52970284 2.3557165 -0.1981764 168 39
0.54437107 2.3533916 -0.19827364 159 39
0.55857122 2.3490388 -0.1981764 178 39
0.57297415 2.3455672 -0.1981764 169 39
0.58977187 2.3516624 -0.19914876 131 39
0.60691345 2.358603 -0.20021835 104 39
0.62264144 2.359647 -0.20070453 73 39
0 0 -0 49 39
0 0 -0 13 39
0 0 -0 8 39
0.69919938 2.4086595 -0.20731655 8 39
0.91876519 3.0951762 -0.27771503 111 39
0 0 -0 192 39
0 0 -0 211 39
0 0 -0 211 39
0 0 -0 195 39
0 0 -0 181 39
0 0 -0 220 39
1.0614976 3.0839307 -0.28092381 210 39
1.0807296 3.0782986 -0.28102106 191 39
0 0 -0 202 39
0 0 -0 230 39
0 0 -0 208 39
0 0 -0 224 39
0 0 -0 209 39
0 0 -0 215 39
1.2292703 3.0724914 -0.28559113 221 39
1.2499748 3.0695004 -0.28607729 210 39
0 0 -0 241 39
0 0 -0 203 39
0 0 -0 272 39
0 0 -0 215 39
0 0 -0 205 39
0 0 -0 237 39
1.3934636 3.0410509 -0.28909159 731 39
1.4011816 3.0089817 -0.28656346 118 39
0 0 -0 64 39
0 0 -0 47 39
0 0 -0 55 39
0 0 -0 65 39
0 0 -0 77 39
0 0 -0 57 39
0 0 -0 53 39
1.3491822 2.5605474 -0.24504392 119 39
0 0 -0 141 39
0 0 -0 141 39
0 0 -0 157 39
0 0 -0 188 39
0 0 -0 140 39
1.4544114 2.5298655 -0.24737756 163 39
1.4739149 2.5277736 -0.24815544 155 39
1.4939535 2.5263944 -0.24903056 183 39
0 0 -0 128 39
0 0 -0 137 39
0 0 -0 146 39
0 0 -0 165 39
0 0 -0 152 39
1.6160277 2.5166037 -0.25447574 168 39
1.6379498 2.5166531 -0.25564259 151 39
1.6571947 2.5123725 -0.25632322 153 39
0 0 -0 181 39
0 0 -0 169 39
0 0 -0 159 39
0 0 -0 164 39
0 0 -0 142 39
0 0 -0 184 39
1.8130866 2.5074704 -0.26458824 201 39
1.8302014 2.4987078 -0.26487994 171 39
1.8484623 2.4914284 -0.26536614 165 39
1.8690932 2.4872024 -0.26624125 147 39
1.8921516 2.4859853 -0.26750532 121 39
1.9146577 2.4837902 -0.26867214 118 39
1.9365957 2.4806273 -0.26974171 135 39
0 0 -0 147 39
0 0 -0 140 39
0 0 -0 128 39
0 0 -0 133 39
2.0391228 2.4529755 -0.27392286 114 39
2.0631044 2.4510808 -0.27528414 113 39
2.0890751 2.451257 -0.27693716 138 39
2.116425 2.4527137 -0.27878463 133 39
0 0 -0 152 39
0 0 -0 135 39
0 0 -0 131 39
0 0 -0 136 39
2.6568778 2.8949244 -0.34616882 102 39
2.6894898 2.8946126 -0.348308 150 39
2.7140172 2.8853071 -0.34928036 161 39
2.7405896 2.8779724 -0.35054442 252 39
2.7996297 2.9041057 -0.35637856 25 39
2.9918227 3.0657043 -0.38078466 50 39
3.0378494 3.0749087 -0.38457686 77 39
3.0665102 3.0660655 -0.38593814 71 39
3.0994239 3.0611835 -0.38788286 74 39
3.1345294 3.0580978 -0.39011925 85 39
3.169713 3.0546961 -0.39235568 97 39
3.2006481 3.0468585 -0.3940087 94 39
3.2330558 3.0401201 -0.39585617 88 39
3.2676878 3.0351305 -0.39799535 84 39
3.3133776 3.0399256 -0.40159306 72 39
3.3540871 3.0395935 -0.40451011 84 39
3.3912096 3.0355556 -0.406941 90 39
3.4291534 3.0318353 -0.40946913 79 39
3.472425 3.032347 -0.41267791 77 39
3.5105565 3.0278895 -0.41520602 99 39
3.5381589 3.014039 -0.41637287 78 39
3.5642002 2.998682 -0.4173452 52 39
3.6024313 2.9932983 -0.41987333 101 39
3.6191916 2.9698749 -0.41967887 5 39
3.6118345 2.9269273 -0.41647008 5 39
0 0 -0 3 39
3.6076639 2.8509033 -0.41151106 8 39
3.6337183 2.8354506 -0.41258067 22 39
3.5477891 2.7334995 -0.39984283 2 39
3.667448 2.7900429 -0.41248342 170 39
3.7043891 2.7824357 -0.41491431 191 39
3.743772 2.7762585 -0.4176369 196 39
3.7759917 2.7644091 -0.41948438 211 39
3.8259492 2.7650983 -0.42347103 190 39
3.8784864 2.7670124 -0.4277494 222 39
3.9271219 2.7655187 -0.43154159 160 39
3.9644444 2.7555764 -0.43397248 147 39
4.010818 2.7514746 -0.43747297 165 39
4.060586 2.7491395 -0.44136238 134 39
4.1137843 2.7485089 -0.44564074 143 39
4.1704497 2.7495201 -0.45030802 133 39
4.2047591 2.73528 -0.45234999 123 39
4.2490997 2.7271752 -0.45555875 138 39
4.3077903 2.7276833 -0.46042052 131 39
4.3733978 2.7317924 -0.46606019 160 39
4.4256606 2.7268417 -0.47014409 145 39
4.4754748 2.7198005 -0.47393626 153 39
4.5228071 2.7107143 -0.47743675 120 39
4.5684824 2.7001357 -0.48074275 144 39
4.6090379 2.6860902 -0.48346534 168 39
4.6754775 2.6865292 -0.48910502 352 39
4.6693611 2.6450315 -0.48657688 259 39
4.6716008 2.6085644 -0.48502111 232 39
4.6456714 2.5568075 -0.4803538 185 39
4.6490254 2.5216081 -0.47899252 181 39
4.6766973 2.4996054 -0.4803538 242 39
4.6787391 2.4639037 -0.47889528 189 39
4.6778688 2.4268956 -0.47714505 250 39
4.6846967 2.394069 -0.47626993 264 39
4.6841869 2.3576691 -0.47461691 285 39
4.6949987 2.3271143 -0.47422796 246 39
4.741385 2.3139842 -0.47772846 192 39
4.787786 2.3003719 -0.48122892 269 39
4.7919145 2.2662685 -0.48015934 220 39
4.788588 2.2288399 -0.47831187 179 39
4.7867923 2.1923668 -0.47665885 190 39
4.8055983 2.1654088 -0.47724226 216 39
4.8151555 2.1342676 -0.47685334 268 39
4.7953191 2.0903573 -0.47335285 149 39
4.7998228 2.0573637 -0.47247773 342 39
4.812356 2.0278738 -0.47247773 357 39
4.8191919 1.9960213 -0.47189432 342 39
4.8230529 1.9630351 -0.47101921 313 39
4.8257666 1.9297071 -0.47004685 353 39
4.8125067 1.8902307 -0.46742147 305 39
4.8100867 1.8552905 -0.46596295 367 39
4.8195186 1.8250362 -0.46576849 328 39
4.8166337 1.7902255 -0.46430996 343 39
4.8097639 1.7541543 -0.46246248 233 39
4.8157516 1.7229317 -0.46197629 268 39
4.8121467 1.6884046 -0.46051776 212 39
4.8177104 1.6572263 -0.4600316 278 39
4.8277884 1.6276342 -0.4600316 296 39
4.8339047 1.5967313 -0.45964265 272 39
4.8066831 1.5550845 -0.45585045 177 39
4.7981086 1.5198474 -0.45400298 58 39
4.8111463 1.491558 -0.45439193 53 39
4.8278265 1.464322 -0.45516983 43 39
4.8462615 1.4375039 -0.45614216 41 39
0 0 -0 4 39
13.259933 3.7588618 -1.3088002 69 39
13.307686 3.6843362 -1.3113283 89 39
13.263749 3.5846899 -1.3046191 62 39
13.326876 3.514153 -1.3088002 63 39
13.304812 3.4211574 -1.3044246 59 39
13.351619 3.3459907 -1.30705 47 39
13.372865 3.2642398 -1.3071473 59 39
13.546599 3.2187183 -1.3226076 26 39
13.467187 3.1126683 -1.3126897 40 39
13.552063 3.0448177 -1.3193016 31 39
13.558822 2.959059 -1.3181348 56 39
13.56504 2.8733323 -1.316968 46 39
13.558043 2.7850358 -1.3145372 52 39
13.55145 2.6971283 -1.3122034 49 39
13.606834 2.6214621 -1.3160928 54 39
13.633426 2.5399287 -1.3171625 57 39
13.655611 2.4574623 -1.3178431 37 39
13.667491 2.3731158 -1.3175514 49 39
13.689648 2.2905235 -1.3183293 49 39
13.719166 2.2090151 -1.319885 62 39
13.756066 2.1284487 -1.3222187 79 39
13.771821 2.0444417 -1.3225104 69 39
13.78115 1.9594803 -1.3222187 57 39
13.808693 1.87703 -1.3237745 53 39
13.85252 1.7964929 -1.3269832 55 39
13.847479 1.7095093 -1.3254275 57 39
13.891315 1.6284533 -1.3287334 57 39
13.926764 1.5460443 -1.3312616 65 39
13.962714 1.4633654 -1.333887 79 39
13.985297 1.3790327 -1.3352482 91 39
13.97863 1.2918196 -1.3337897 137 39
5.3437281 0.46006119 -0.48628518 127 39
5.3484344 0.42742303 -0.48647964 536 39
5.3440084 0.39408374 -0.48579898 531 39
5.3224945 0.35967043 -0.48346534 58 39
5.3375149 0.32780138 -0.48472941 35 39
5.3155766 0.29372174 -0.48239574 46 39
5.3113141 0.26080626 -0.48181233 508 39
5.3098316 0.22808295 -0.48152062 421 39
5.2932286 0.19483523 -0.47977039 26 39
5.2893505 0.1621993 -0.47928423 262 39
5.2743268 0.12934749 -0.47772846 446 39
5.2780066 0.097037934 -0.47802016 418 39
5.2794976 0.064663276 -0.47811738 287 39
5.2698426 0.032204647 -0.47714505 428 39
5.2699413 -0.00013110606 -0.47714505 426 39
5.2668552 -0.032449119 -0.47685334 459 39
5.2625766 -0.064717256 -0.47646439 236 39
5.2491441 -0.096770987 -0.47520033 265 39
5.2474566 -0.12895307 -0.47510308 451 39
5.2386079 -0.16090576 -0.47432521 433 39
5.2295651 -0.19275473 -0.47354731 419 39
13.097585 -0.56149709 -1.2430691 133 39
13.112781 -0.64277595 -1.2449164 120 39
13.117534 -0.72371501 -1.2457917 111 39
13.12278 -0.80479741 -1.2467639 117 39
13.129511 -0.8861053 -1.2479308 117 39
13.131767 -0.96723396 -1.2487087 116 39
13.136498 -1.048661 -1.2497783 97 39
13.139732 -1.1300972 -1.2507507 119 39
13.114712 -1.2090569 -1.2490004 104 39
13.059503 -1.2848312 -1.244333 117 39
12.964265 -1.3558364 -1.2357763 274 39
12.960648 -1.4359057 -1.2362626 257 39
12.955547 -1.5158659 -1.2366514 252 39
12.960819 -1.5971557 -1.2381101 214 39
12.975451 -1.6798441 -1.2405409 239 39
12.97279 -1.7604984 -1.2413188 228 39
12.983421 -1.8431404 -1.2434579 63 39
12.99845 -1.9267081 -1.2460834 166 39
12.989334 -2.0068846 -1.2463751 146 39
13.003307 -2.0908115 -1.2490004 196 39
13.006922 -2.1733458 -1.2506534 176 39
13.004128 -2.2549834 -1.2517229 178 39
13.002782 -2.3370204 -1.252987 173 39
13.007767 -2.4203997 -1.2549318 199 39
13.018082 -2.5050557 -1.2574599 226 39
12.997585 -2.5839162 -1.2569737 153 39
12.090366 -2.4808555 -1.1681005 195 39
12.088549 -2.5578771 -1.1694617 207 39
12.136806 -2.6459889 -1.1758792 147 39
12.162101 -2.7297776 -1.1800604 204 39
13.036338 -3.0100484 -1.2694198 185 39
13.040864 -3.0954957 -1.2717535 193 39
13.036129 -3.1789904 -1.2732121 184 39
13.03955 -3.2647181 -1.2755457 198 39
13.031804 -3.3478842 -1.2768097 201 39
13.027378 -3.4320917 -1.2784628 236 39
13.042586 -3.5218177 -1.2821577 205 39
13.050468 -3.6100023 -1.285172 232 39
13.052013 -3.696789 -1.2876029 256 39
13.049159 -3.7826223 -1.2896448 192 39
5.1400614 -1.5249609 -0.48609069 158 39
5.0686975 -1.5377041 -0.47977039 135 39
4.9821625 -1.5449166 -0.47189432 167 39
4.957408 -1.5706513 -0.47033855 52 39
4.9599881 -1.6050205 -0.47160262 40 39
4.9320898 -1.6294961 -0.46975514 174 39
4.9380322 -1.6651307 -0.47140813 449 39
4.8223085 -1.6591572 -0.46051776 180 39
4.7725916 -1.6748823 -0.45643386 145 39
4.6610131 -1.667943 -0.44593245 213 39
4.614223 -1.6832178 -0.44214025 167 39
4.5412993 -1.6882772 -0.43562549 299 39
4.540163 -1.7196333 -0.43659782 433 39
4.514668 -1.7417308 -0.43504205 307 39
4.5344682 -1.7814015 -0.43825084 471 39
4.5299215 -1.8117766 -0.43893149 403 39
4.5325475 -1.8451632 -0.44039002 350 39
4.5156231 -1.8706555 -0.43980661 296 39
4.5233216 -1.9064405 -0.44184855 185 39
4.5133686 -1.9349431 -0.44204304 178 39
4.4995861 -1.961805 -0.44184855 231 39
4.5038433 -1.9966336 -0.44359878 205 39
4.4996748 -2.0279095 -0.44447392 226 39
1.0022185 -0.46009398 -0.07002002 182 39
4.4961076 -2.0930505 -0.44680756 85 39
0.90651804 -0.42982286 -0.060296472 13 39
4.5257082 -2.1747808 -0.45283616 32 39
4.5337467 -2.2129817 -0.45516983 27 39
4.5361352 -2.2487118 -0.45692006 34 39
4.5382552 -2.2845542 -0.45867029 30 39
4.5409923 -2.3209596 -0.46051776 30 39
4.5443363 -2.3579426 -0.46246248 32 39
4.5491576 -2.3959808 -0.46460167 28 39
4.5484161 -2.4313526 -0.46615744 31 39
4.545661 -2.4658566 -0.46751872 23 39
4.5461416 -2.502337 -0.46926895 19 39
4.5411305 -2.5360053 -0.4704358 32 39
4.5531983 -2.579514 -0.47354731 50 39
4.5467782 -2.6128559 -0.47461691 38 39
4.5598998 -2.6577387 -0.47792292 24 39
4.5589304 -2.6947803 -0.47967315 45 39
4.5636539 -2.7354901 -0.48210403 28 39
4.5595427 -2.7711916 -0.48356259 31 39
4.5577064 -2.808511 -0.48531282 16 39
4.5547395 -2.8453848 -0.48696584 19 39
4.5523319 -2.8828602 -0.48871607 16 39
4.5521483 -2.9220247 -0.490758 19 39
4.5549927 -2.9634657 -0.49318889 23 39
4.5616536 -3.0077894 -0.49610597 25 39
4.5753903 -3.0572808 -0.49989814 33 39
4.5713811 -3.0953386 -0.50164837 20 39
4.578568 -3.1413422 -0.50475991 13 39
4.5722842 -3.1784632 -0.50631571 17 39
0 -0 -0 0 39
0 -0 -0 0 39
0 -0 -0 0 39
0 -0 -0 0 39
0 -0 -0 0 39
0 -0 -0 0 39
0 -0 -0 0 39
0 -0 -0 0 39
0 -0 -0 0 39
0 -0 -0 0 39
0 -0 -0 0 39
0 -0 -0 0 39
0 -0 -0 0 39
0 -0 -0 0 39
0 -0 -0 0 39
0 -0 -0 0 39
4.596374 -3.9648252 -0.55532235 18 39
4.6116962 -4.0276442 -0.56047583 32 39
4.6092677 -4.0756392 -0.56339294 37 39
4.6130981 -4.1297283 -0.5671851 31 39
4.6112742 -4.1793394 -0.57029665 20 39
4.6148815 -4.2344646 -0.57418609 28 39
4.6223612 -4.2938542 -0.57865888 12 39
4.6234832 -4.3480401 -0.58235383 22 39
4.6161823 -4.3948531 -0.58497918 12 39
4.6070476 -4.4403582 -0.58741009 10 39
4.5925398 -4.4810514 -0.58916032 6 39
4.6032009 -4.5469079 -0.59441102 9 39
4.6090016 -4.6088405 -0.59907836 15 39
4.6254077 -4.6823411 -0.60530144 9 39
4.6306553 -4.745532 -0.61006594 18 39
4.6456633 -4.8197088 -0.61628902 15 39
4.6455183 -4.8791127 -0.62047017 10 39
4.6455002 -4.9394197 -0.62474853 22 39
4.6510134 -5.0064707 -0.62990201 30 39
4.6451092 -5.0620427 -0.63349968 17 39
4.6413708 -5.1206789 -0.63748634 28 39
4.6410708 -5.183907 -0.64205641 36 39
4.6401687 -5.247323 -0.64662647 33 39
4.6386619 -5.3109221 -0.6511966 24 39
4.6456509 -5.3852472 -0.65712792 19 39
4.6467366 -5.4537969 -0.66228139 20 39
4.6561275 -5.5332208 -0.66879618 22 39
4.6418123 -5.5854115 -0.67181051 16 39
4.6592393 -5.6768646 -0.67978382 16 39
4.6801052 -5.7741508 -0.68843776 19 39
4.6924853 -5.8625808 -0.69592488 21 39
4.6848192 -5.927176 -0.70039773 18 39
4.6912355 -6.0107245 -0.70720422 20 39
4.6846485 -6.0788078 -0.71206599 36 39
4.6774011 -6.1470351 -0.71692777 46 39
4.6760693 -6.224153 -0.72285914 79 39
4.6899776 -6.3230648 -0.73141587 54 39
4.6881433 -6.4023061 -0.73754168 41 39
4.6995077 -6.5011172 -0.74600118 52 39
4.6739845 -6.5500822 -0.74843204 30 39
4.6703935 -6.6307082 -0.75465512 31 39
4.7057638 -6.7687316 -0.7676847 100 39
4.743556 -6.9131789 -0.7813949 255 39
4.7574229 -7.0253797 -0.79121566 407 39
4.7452002 -7.1007743 -0.79666084 305 39
4.7552466 -7.211175 -0.80618995 38 39
4.7190537 -7.2527289 -0.80764848 64 39
4.7400718 -7.3837185 -0.81951123 92 39
4.7639184 -7.5219607 -0.83215183 67 39
4.7609267 -7.6202579 -0.84012514 51 39
4.7542949 -7.7145629 -0.84761226 44 39
4.7797751 -7.8634968 -0.86132246 23 39
4.7979741 -8.0036402 -0.87396306 18 39
4.7786632 -8.0834742 -0.87970001 21 39
4.7640662 -8.1728277 -0.88650644 29 39
4.7892265 -8.3330574 -0.90128624 43 39
4.7787366 -8.4341536 -0.90935683 69 39
4.7720389 -8.5441208 -0.91839969 62 39
4.8102565 -8.7380152 -0.93677723 36 39
4.8006988 -8.8487186 -0.94582009 23 39
4.8214073 -9.0184326 -0.9613778 16 39
4.8165503 -9.1438217 -0.97197646 24 39
4.8286748 -9.304822 -0.98646456 50 39
4.8204255 -9.4299784 -0.996966 59 39
4.8058963 -9.5456018 -1.0063978 36 39
4.8334627 -9.7487793 -1.0253588 20 39
4.8504157 -9.9356556 -1.0424722 11 39
4.8342071 -10.058517 -1.0525846 25 39
0 -0 -0 390 39
0 -0 -0 904 39
4.8709021 -10.63166 -1.1048001 29 39
4.8415742 -10.741191 -1.1133568 16 39
4.8586974 -10.958115 -1.1333873 20 39
4.9047723 -11.247714 -1.1610996 55 39
4.8799958 -11.380957 -1.1720871 65 39
4.8684611 -11.549163 -1.1867697 30 39
4.9137259 -11.859243 -1.2164265 145 39
0 -0 -0 537 39
4.9164596 -12.290111 -1.2555152 53 39
4.9581842 -12.61831 -1.2868249 12 39
4.9777856 -12.900119 -1.3131758 39 39
4.9341574 -13.024418 -1.3229966 61 39
4.9388041 -13.282059 -1.346722 23 39
4.9646988 -13.606619 -1.3773513 21 39
4.9750504 -13.89919 -1.4045771 57 39
4.9988108 -14.240283 -1.4367621 12 39
5.0389776 -14.641466 -1.4750729 22 39
5.0082245 -14.847513 -1.4931587 42 39
5.0276103 -15.212481 -1.52758 10 39
5.0669217 -15.653037 -1.5696831 56 39
5.0727391 -16.005453 -1.6026459 17 39
5.1030273 -16.45072 -1.6450405 33 39
5.1196537 -16.869328 -1.6846154 197 39
5.0157657 -16.899469 -1.6845182 447 39
4.8936706 -16.866842 -1.6781006 15 39
4.8031182 -16.942513 -1.6827679 8 39
5.1835928 -18.721169 -1.8601254 44 39
5.0600524 -18.720917 -1.8569167 119 39
4.9618421 -18.815126 -1.8633342 38 39
0 -0 -0 2 39
5.2090478 -20.783169 -2.0555687 8 39
0 -0 -0 2 39
4.0221839 -16.92688 -1.6620568 7 39
