# .PCD v0.7 - Point Cloud Data file format
VERSION 0.7
FIELDS x y z intensity ring
SIZE 4 4 4 4 1
TYPE F F F F U
COUNT 1 1 1 1 1
WIDTH 1323
HEIGHT 1
VIEWPOINT 0 0 0 1 0 0 0
POINTS 1323
DATA ascii
4.9750848 -1.5425235 0.36289126 90 26
4.943644 -1.5660871 0.36144707 80 26
4.9424872 -1.5991571 0.36201218 60 26
4.9382677 -1.6313323 0.36238894 137 26
4.9281654 -1.6616021 0.36238894 528 26
4.8263364 -1.6603107 0.35629824 241 26
4.7576718 -1.6694014 0.35240525 228 26
4.6834421 -1.6756951 0.34813547 229 26
4.6083789 -1.6807994 0.34380293 228 26
4.556818 -1.6937413 0.34104016 285 26
4.5220737 -1.7124779 0.33940759 485 26
4.5049629 -1.7376778 0.33896807 367 26
4.5313725 -1.7798852 0.34147969 555 26
4.500906 -1.7998722 0.34016109 420 26
4.5073404 -1.8346055 0.3413541 482 26
4.505219 -1.8660473 0.34198201 407 26
0.99249959 -0.41791427 0.1029385 370 26
0.99266851 -0.42517608 0.10312688 309 26
0.98272222 -0.4280678 0.10262455 400 26
0.99376285 -0.44015715 0.10356641 735 26
0.99104339 -0.44624647 0.10356641 726 26
0.98828661 -0.452319 0.10356641 12 26
4.5186553 -2.103265 0.34876338 16 26
4.5173931 -2.1364994 0.34957966 26 26
4.5140939 -2.1689327 0.35027036 14 26
4.5132565 -2.2027192 0.35114944 17 26
4.5237985 -2.2423396 0.35284477 31 26
4.517086 -2.2736452 0.35334709 15 26
4.5199351 -2.3099494 0.35454011 21 26
4.513649 -2.3417768 0.35510522 20 26
4.5212708 -2.3810558 0.356675 39 26
4.5180178 -2.41487 0.35749128 34 26
4.5338187 -2.4592035 0.35968894 17 26
4.5247641 -2.4903452 0.36012846 28 26
4.5276966 -2.5282815 0.36144707 27 26
4.5285969 -2.5653629 0.36264008 21 26
4.5352688 -2.6060314 0.36427265 16 26
4.5372996 -2.6443648 0.36559126 21 26
4.535594 -2.6807895 0.36665869 14 26
4.5404596 -2.7213974 0.36822844 20 26
4.5432916 -2.7611289 0.36967263 16 26
4.5449562 -2.8004735 0.37105402 17 26
4.5505404 -2.842586 0.37274936 16 26
4.5524054 -2.882736 0.37419355 17 26
4.5573077 -2.9251721 0.37588888 12 26
4.5568404 -2.9645104 0.37720749 19 26
4.5610609 -3.0072494 0.37890282 14 26
4.5607781 -3.0473785 0.38028422 23 26
4.5651326 -3.0909746 0.38204235 15 26
4.5699453 -3.135303 0.3838633 26 26
4.5702882 -3.1769576 0.38537025 25 26
4.5727391 -3.2204583 0.38706562 17 26
4.5748272 -3.2641079 0.38876095 20 26
4.5781689 -3.3090732 0.39058188 19 26
4.5754933 -3.3500743 0.39196327 22 26
4.5788989 -3.3959231 0.39384699 16 26
4.5803175 -3.4407403 0.39560512 17 26
4.5821519 -3.4863067 0.39742604 16 26
4.5820174 -3.5308056 0.39912137 14 26
4.5752149 -3.5705214 0.40031439 12 26
4.5680971 -3.6102858 0.40150744 11 26
4.5661168 -3.6544628 0.40313998 24 26
4.5684175 -3.7025216 0.40514928 20 26
4.5857282 -3.7634091 0.40841439 7 26
4.5878792 -3.8125269 0.41048646 7 26
4.5712719 -3.8463893 0.41105157 14 26
4.5756922 -3.8983152 0.41337484 19 26
4.5796466 -3.9504392 0.41569808 17 26
4.5688505 -3.990283 0.4168283 11 26
4.5779233 -4.0479941 0.41965389 18 26
4.5782795 -4.0986423 0.42178875 15 26
4.5863194 -4.1568198 0.42461434 18 26
4.5849929 -4.2071514 0.42668644 14 26
4.5941882 -4.2678118 0.42970037 14 26
4.5999022 -4.3260069 0.43246314 17 26
4.5964003 -4.3761735 0.43447244 17 26
4.5982037 -4.4319997 0.43698406 31 26
4.603065 -4.4914975 0.43980965 16 26
4.5988483 -4.5428033 0.44188172 27 26
4.604054 -4.6041064 0.44483289 19 26
4.6037698 -4.6606727 0.44734451 15 26
4.6071458 -4.721694 0.45023286 12 26
4.6134076 -4.7865243 0.45343518 29 26
4.6080356 -4.8400416 0.45563287 23 26
4.6069655 -4.8987617 0.45827004 38 26
4.6060266 -4.9583812 0.46097004 37 26
4.6018295 -5.0152307 0.46341887 40 26
4.6165428 -5.0936608 0.46768862 25 26
4.6191492 -5.1598167 0.47089094 23 26
4.6171498 -5.2217088 0.47371653 23 26
4.6185026 -5.2882795 0.47691885 36 26
4.6302919 -5.3679104 0.4811886 28 26
4.6231556 -5.42661 0.48370022 14 26
4.6482401 -5.5243716 0.48941416 17 26
4.6480598 -5.593473 0.49274206 20 26
4.6605 -5.6789804 0.49738854 23 26
4.6544704 -5.7431383 0.50027692 20 26
4.6696534 -5.8347077 0.50536293 19 26
4.679554 -5.921196 0.51000947 15 26
4.6719909 -5.9867787 0.51296061 24 26
4.6644068 -6.0532808 0.51597452 25 26
4.6579943 -6.1222968 0.51917684 21 26
4.6593003 -6.202632 0.52325827 24 26
4.6675229 -6.2936339 0.52815592 36 26
4.675981 -6.3865786 0.53317916 57 26
4.6671047 -6.457212 0.53644425 51 26
4.6639118 -6.5369129 0.54040003 37 26
4.640378 -6.5890713 0.54222095 15 26
4.6477075 -6.6862597 0.54749537 59 26
4.7014403 -6.8529153 0.5580442 348 26
4.7035036 -6.9469233 0.56300461 384 26
4.7073607 -7.0453615 0.56827903 542 26
4.6937056 -7.1191082 0.57166976 154 26
4.7146945 -7.2473302 0.5791418 62 26
4.7213469 -7.355916 0.58510691 38 26
4.6878681 -7.4032979 0.58648831 71 26
4.7110858 -7.5419655 0.59465104 48 26
4.7479568 -7.7058339 0.60463476 32 26
4.7487845 -7.8141422 0.61047429 13 26
4.7484608 -7.9227476 0.61631382 30 26
4.744442 -8.0273438 0.62183934 21 26
4.7548938 -8.1589184 0.62931144 24 26
4.7405396 -8.250246 0.63383234 23 26
4.738523 -8.3651505 0.64004862 47 26
4.7479224 -8.5029936 0.64789742 35 26
4.7481079 -8.6272726 0.65474159 64 26
4.7740655 -8.801877 0.66516483 56 26
4.7735949 -8.9313488 0.67232293 32 26
4.7772932 -9.0717392 0.68023455 24 26
4.7877183 -9.2284536 0.6892764 28 26
4.7877698 -9.3687468 0.6971252 36 26
4.7970452 -9.5307798 0.70648098 23 26
4.7655096 -9.614583 0.71031117 21 26
4.7764564 -9.7871513 0.72035766 39 26
4.791081 -9.9719048 0.73122042 55 26
4.7993488 -10.148179 0.74145532 50 26
4.8334241 -10.384644 0.75583434 22 26
4.8119998 -10.50666 0.76223898 21 26
4.820827 -10.698866 0.77347845 26 26
4.8294954 -10.896132 0.78503191 36 26
4.8518729 -11.130497 0.799097 43 26
4.8440318 -11.301327 0.80876672 72 26
4.8397002 -11.48535 0.81931555 62 26
4.8588753 -11.731518 0.83407134 70 26
4.8797226 -11.989439 0.84958059 291 26
4.8468227 -12.121092 0.85648751 117 26
4.8964005 -12.466448 0.87783629 54 26
4.8909221 -12.68063 0.8902688 41 26
4.9667535 -13.116413 0.91758269 20 26
4.9251184 -13.251419 0.92461526 26 26
4.9021854 -13.441724 0.93535244 36 26
4.9070187 -13.715874 0.95167798 47 26
0 -0 0 19 26
4.9561453 -14.408322 0.99381042 10 26
4.9476652 -14.675841 1.0095708 19 26
4.9457893 -14.973168 1.0272777 36 26
4.9766946 -15.383064 1.0523939 19 26
5.0096822 -15.815772 1.0789543 16 26
4.9911485 -16.099785 1.0956566 32 26
5.0732989 -16.727026 1.1349007 44 26
5.0074601 -16.882229 1.1430634 418 26
4.9043341 -16.914553 1.1431891 558 26
4.7947435 -16.924162 1.1418705 583 26
4.6836233 -16.927292 1.1401751 578 26
4.5739465 -16.934515 1.1387937 579 26
4.4648662 -16.942959 1.1375378 533 26
4.3553576 -16.948771 1.1361566 372 26
4.236249 -16.915152 1.1322635 242 26
4.1337991 -16.946644 1.1326402 516 26
4.0235138 -16.945471 1.1309448 598 26
3.9151957 -16.951363 1.1297519 589 26
3.807394 -16.958513 1.1286844 613 26
3.6992271 -16.963028 1.1274914 552 26
3.5903215 -16.96295 1.1260473 616 26
3.4811552 -16.960218 1.1244775 571 26
3.3739095 -16.965597 1.1234728 567 26
3.2652199 -16.96246 1.1219659 451 26
3.1603482 -16.978251 1.1217147 579 26
3.0534632 -16.982588 1.1207728 532 26
0 -0 0 558 26
2.8820131 -17.241249 1.1349635 149 26
2.93243 -18.230175 1.196875 164 26
2.83515 -18.342512 1.2029028 594 26
2.7181578 -18.329947 1.2010192 575 26
2.6014266 -18.316635 1.1991354 538 26
2.4841559 -18.29665 1.196875 541 26
2.3653059 -18.26107 1.1936727 515 26
2.2493062 -18.243544 1.1916633 541 26
2.1330307 -18.220325 1.1893401 565 26
2.0167952 -18.193392 1.1868285 540 26
1.9018013 -18.17366 1.1848191 554 26
1.7868325 -18.150225 1.1826215 493 26
1.6731396 -18.136002 1.1810517 470 26
1.5591753 -18.115101 1.1791052 477 26
1.4456893 -18.095476 1.1772842 506 26
1.3319163 -18.067179 1.1749611 549 26
1.2180071 -18.030203 1.1721355 579 26
1.1063136 -18.020403 1.1710681 528 26
0.99412602 -17.997953 1.1692472 599 26
0.88215786 -17.972813 1.1673006 596 26
0.771092 -17.959938 1.1661704 510 26
0.6598506 -17.936405 1.1644123 547 26
0.54892713 -17.912186 1.162654 545 26
0.43839899 -17.890272 1.1610843 581 26
0.32830688 -17.875662 1.1600169 585 26
0.21866643 -17.881332 1.1602681 62 26
0.094392113 -15.485122 1.0094452 145 26
-0.00062497676 -15.491397 1.009822 218 26
-0.095826931 -15.515054 1.0113289 265 26
-0.19091289 -15.505193 1.0107639 331 26
-0.28606582 -15.504727 1.0108266 365 26
-0.38122019 -15.503677 1.0108894 356 26
-0.47652587 -15.507031 1.0112661 373 26
-0.57177669 -15.506808 1.0114546 400 26
-0.66695678 -15.504004 1.0115173 314 26
-0.86608058 -17.613878 1.144696 625 26
-0.97325861 -17.592289 1.1436914 664 26
-1.0810007 -17.582998 1.143503 699 26
-1.1885307 -17.571054 1.1431891 333 26
-0.89634597 -12.145917 0.80142027 173 26
-0.96225929 -12.032745 0.79463887 228 26
-1.0346159 -12.00971 0.79357141 311 26
-1.1096635 -12.018043 0.79451329 410 26
-1.1846565 -12.02392 0.79532957 379 26
-1.2586195 -12.01841 0.79545516 349 26
-1.3213325 -11.911267 0.78917611 211 26
-1.3840561 -11.814714 0.78358775 244 26
-2.1382225 -17.330091 1.1337705 34 26
-2.1351981 -16.473383 1.0802729 40 26
-2.2359679 -16.457993 1.0801474 39 26
-1.7397366 -12.242582 0.81316209 153 26
-1.7822987 -12.012515 0.79922259 55 26
-2.6029074 -16.830265 1.106645 74 26
-2.708189 -16.826788 1.1074612 158 26
-2.8268623 -16.902382 1.1133635 300 26
-2.9296668 -16.879803 1.1130496 367 26
-3.1381555 -17.444969 1.1503471 364 26
-3.2557359 -17.482292 1.153989 549 26
-3.3648314 -17.471786 1.154617 605 26
-3.4748945 -17.465494 1.1555588 639 26
-3.5862114 -17.464373 1.1568774 514 26
-2.5947526 -12.254568 0.82327133 428 26
-0 -0 0 810 26
-2.698787 -12.01634 0.81002253 1024 26
-2.7753882 -12.012196 0.81083882 1112 26
-2.8534241 -12.01339 0.81203187 1087 26
-2.9341817 -12.024742 0.81391555 1043 26
-3.0130026 -12.026842 0.81523418 1026 26
-3.0912142 -12.025527 0.81636441 929 26
-3.1664698 -12.012123 0.81674111 187 26
-6.0026102 -22.215874 1.4830114 360 26
-6.1497273 -22.218061 1.4855857 351 26
-6.2921987 -22.201994 1.4870299 413 26
-6.4422107 -22.210894 1.4901694 146 26
-4.700315 -15.84176 1.0748101 28 26
-4.7980094 -15.81453 1.0749358 25 26
-4.8961377 -15.788606 1.0751868 26 26
-7.053184 -22.26017 1.5042974 260 26
-7.2050023 -22.26395 1.5074369 341 26
-7.3511825 -22.248699 1.5093833 289 26
-7.5086093 -22.265589 1.5135275 144 26
-7.6645708 -22.275723 1.517295 314 26
-7.7971416 -22.216972 1.5165415 79 26
-2.5850139 -7.2242937 0.51792103 256 26
-2.6251881 -7.1970453 0.51716757 1519 26
-2.6710379 -7.1854796 0.51748151 1798 26
-2.7200263 -7.1820216 0.51836056 1200 26
-2.7830832 -7.2145462 0.52168846 1006 26
-0 -0 0 875 26
-0 -0 0 1646 26
-2.8514328 -7.0049558 0.5110141 1855 26
-2.8935966 -6.9854836 0.51088852 1752 26
-2.9457078 -6.9896693 0.5123955 1573 26
-2.992866 -6.9815536 0.5130862 1513 26
-3.0264733 -6.9420166 0.51164198 1247 26
-3.0508091 -6.8822589 0.50881642 1708 26
-3.1044629 -6.8888865 0.51057458 1150 26
-3.2065301 -7.0003662 0.51961637 1523 26
-3.2570052 -6.9968452 0.52074665 1554 26
-3.3084111 -6.9947729 0.52200246 881 26
-5.7591681 -11.98479 0.87174565 30 26
-5.8015127 -11.885549 0.86728752 45 26
-5.8127127 -11.725438 0.85855961 44 26
-5.8239632 -11.569207 0.85008287 45 26
-5.8262501 -11.399067 0.8406015 41 26
-5.8211546 -11.218708 0.83036667 26 26
-5.8419752 -11.091827 0.82389927 65 26
-5.8515782 -10.946634 0.81611323 44 26
-5.8629532 -10.807886 0.80876672 40 26
-5.844933 -10.618704 0.79777837 35 26
-5.8656936 -10.503348 0.79206443 58 26
-5.8572173 -10.338645 0.78277147 59 26
-5.8628569 -10.202136 0.77548778 52 26
-5.8775983 -10.084058 0.76952267 60 26
-5.8885741 -9.9618902 0.76324362 65 26
-5.8926291 -9.830555 0.75627387 53 26
-5.8911495 -9.6927261 0.74880177 88 26
-5.8871551 -9.5535898 0.74120414 57 26
-5.9007149 -9.4453421 0.73586696 75 26
-5.9040914 -9.3229561 0.72946233 63 26
-5.9024167 -9.1950092 0.72261816 80 26
-5.9255223 -9.1075916 0.71878791 72 26
-5.9252524 -8.9860773 0.71238327 78 26
-5.9170623 -8.8549547 0.70522517 77 26
-5.929873 -8.7573299 0.70057869 86 26
-5.925334 -8.6360188 0.69411123 67 26
-5.9582725 -8.5708189 0.6919136 63 26
-5.9647717 -8.4688234 0.68689036 107 26
-6.0201015 -8.4369392 0.68726707 189 26
-6.0910511 -8.4265327 0.68933916 94 26
-6.0412216 -8.2505026 0.67853922 26 26
-6.2142148 -8.3784056 0.69147402 64 26
-6.0820646 -8.0959539 0.67226017 17 26
-6.0995946 -8.0163889 0.66893226 16 26
-6.1169872 -7.9377055 0.66566712 12 26
-6.1133814 -7.8331494 0.66032994 21 26
-6.1563783 -7.789227 0.65982765 18 26
-6.1722488 -7.7115688 0.65662533 80 26
-6.2483582 -7.7092156 0.65951365 159 26
-6.3164392 -7.6961889 0.66158575 346 26
-6.3960767 -7.6964321 0.66478807 118 26
-6.5537095 -7.7883835 0.67558807 22 26
-6.6091423 -7.7571397 0.67634153 58 26
-6.684648 -7.7489347 0.6790415 16 26
-6.7576747 -7.7370872 0.68149036 28 26
-6.8539467 -7.7508006 0.68613684 51 26
-6.8933868 -7.6996775 0.68538338 34 26
-7.2991028 -8.0528383 0.71897632 670 26
-7.3004651 -7.9556928 0.71451819 515 26
-7.3158569 -7.8749213 0.71144146 616 26
-7.3189096 -7.7819028 0.70729727 774 26
-7.407814 -7.7802148 0.7110647 475 26
-7.5219073 -7.8035946 0.71709257 942 26
-7.6553845 -7.8451495 0.72481579 5947 26
-7.7875471 -7.8832273 0.73235065 4958 26
-7.8336535 -7.833178 0.7321623 1503 26
-7.941216 -7.8438754 0.73743671 173 26
-8.0513449 -7.8556361 0.74289948 66 26
-8.1396379 -7.8448691 0.74641573 84 26
-8.2071371 -7.8133574 0.74811107 87 26
-9.1826677 -8.6352329 0.82823181 65 26
-9.2727737 -8.6133661 0.83143413 93 26
-9.3798704 -8.6062365 0.83608061 71 26
-9.4805698 -8.592083 0.84016198 81 26
-0 -0 0 75 26
-8.5915995 -7.5965462 0.75671339 488 26
-0 -0 0 886 26
-0 -0 0 589 26
-8.6312046 -7.3529816 0.74855065 458 26
-8.6188812 -7.2516952 0.74384135 302 26
-8.6363478 -7.1763506 0.74164367 365 26
-8.6509008 -7.0991664 0.73925763 309 26
-2.93155 -2.3760915 0.27259848 128 26
-2.9523082 -2.3630476 0.27310082 254 26
-2.9291656 -2.3151865 0.27008685 161 26
-2.94489 -2.2983978 0.27021244 212 26
-2.957356 -2.2790668 0.27008685 175 26
-2.9514267 -2.2457714 0.26851711 122 26
-2.956373 -2.2210264 0.26782641 127 26
-2.9507055 -2.1885772 0.26631942 154 26
-2.9415305 -2.1539237 0.2645613 124 26
-2.9635892 -2.1422646 0.26525199 304 26
-2.960429 -2.1124477 0.26399618 171 26
-2.9684389 -2.0907955 0.26361945 139 26
-2.9664605 -2.0622892 0.2624892 111 26
-2.9700055 -2.0378385 0.26179853 133 26
-2.977495 -2.0162196 0.26142177 125 26
-2.9898102 -1.997912 0.26142177 117 26
-3.0120118 -1.9861211 0.26217526 102 26
-3.0484033 -1.9833839 0.26399618 85 26
-3.0907533 -1.9840478 0.26625663 78 26
-3.1382842 -1.9874692 0.26889384 111 26
-3.1639638 -1.9766349 0.2698985 344 26
-3.2108707 -1.9786474 0.27247292 94 26
-3.2348917 -1.9661645 0.27335197 193 26
-3.3111002 -1.9847559 0.27806127 86 26
-3.3584433 -1.9852206 0.28063568 74 26
-3.3886695 -1.9751284 0.28195429 77 26
-3.4647622 -1.9910907 0.28660077 48 26
-8.7168531 -4.9377298 0.66547877 49 26
-3.7808552 -2.1114106 0.30763561 40 26
-8.7505589 -4.8159537 0.66359508 25 26
-8.7071276 -4.7226791 0.65838343 464 26
-8.714817 -4.6578741 0.65687644 748 26
-8.7273378 -4.5959435 0.65574622 706 26
-8.7270241 -4.5276008 0.65373695 650 26
-8.7341995 -4.4635224 0.65229279 623 26
-8.7373533 -4.3977327 0.65059739 702 26
-8.7355576 -4.3298564 0.64858812 719 26
-8.7341557 -4.2626061 0.64664161 747 26
-8.7412539 -4.1998582 0.64532304 787 26
-8.7415972 -4.1341977 0.64356488 791 26
-8.7459879 -4.070797 0.64212072 835 26
-8.7490244 -4.0070825 0.64061373 852 26
-8.7525177 -3.9438949 0.63916951 851 26
-8.760128 -3.8828373 0.63803929 780 26
-8.7600012 -3.818645 0.63640678 866 26
-8.7594166 -3.7546008 0.63477421 915 26
-8.7602158 -3.6914828 0.63326722 884 26
-8.7614937 -3.6288786 0.63182306 925 26
-8.7641821 -3.5671506 0.63050443 996 26
-8.7682981 -3.5062675 0.62931144 914 26
-8.7701387 -3.4447386 0.62799281 912 26
-8.7743492 -3.384397 0.62686259 925 26
-8.7781496 -3.3241336 0.62573236 897 26
-8.7796707 -3.2632561 0.62447655 851 26
-8.7817135 -3.202827 0.62328357 864 26
-8.7889843 -3.1445131 0.62246728 860 26
-8.7939863 -3.0855699 0.62152541 941 26
-8.7938786 -3.0250607 0.6202696 956 26
-8.7952509 -2.965307 0.61913937 995 26
-8.7952747 -2.9053373 0.61794633 1013 26
-8.7882471 -2.8433292 0.61631382 1062 26
-8.7788877 -2.7809143 0.61455566 1022 26
-8.6127567 -2.670259 0.6024999 1140 26
-8.6051016 -2.6101205 0.60093009 1087 26
-8.6085167 -2.5535824 0.60011381 1069 26
-8.6211472 -2.4998796 0.59992546 1104 26
-8.6248016 -2.44367 0.599172 1075 26
-8.6223192 -2.3859129 0.59804177 1059 26
-8.6252346 -2.3298399 0.59728825 1117 26
-8.630682 -2.2745838 0.59672314 1019 26
-8.6357765 -2.2193489 0.59615803 777 26
-6.4689956 -1.6203501 0.45475379 251 26
-8.8349495 -2.1553032 0.60733473 1029 26
-8.848979 -2.1012828 0.60739756 1080 26
-6.5619054 -1.5158246 0.45889795 318 26
-8.8370953 -1.9842271 0.60501152 1186 26
-8.8393526 -1.9278401 0.60438359 1159 26
-8.8432035 -1.8719134 0.60388124 1151 26
-8.8457241 -1.8158115 0.60331613 1200 26
-8.8439741 -1.7589706 0.6024999 1229 26
-8.8408804 -1.7020311 0.60162079 1210 26
-8.8472328 -1.647022 0.60136962 1188 26
-8.8493137 -1.5912926 0.60086733 1107 26
-8.8500605 -1.5354294 0.60030222 1186 26
-8.8504562 -1.4796168 0.59973711 1191 26
-8.8524704 -1.4241742 0.59929758 1123 26
-8.861043 -1.3698295 0.59929758 1262 26
-8.8603954 -1.3141161 0.59873247 1147 26
-8.8633518 -1.2590234 0.59841847 1232 26
-8.8590422 -1.2030042 0.59766501 1240 26
-8.862298 -1.1481107 0.59741384 1256 26
-8.8642235 -1.0931005 0.5970999 1252 26
-8.8677902 -1.0383421 0.59691155 1302 26
-8.8700266 -0.98347104 0.59666038 1224 26
-8.873909 -0.92881936 0.59653479 1313 26
-8.8744745 -0.87386382 0.59622085 1280 26
-8.8786755 -0.81930292 0.59615803 1311 26
-8.8775692 -0.76429564 0.59578127 1268 26
-8.8801022 -0.70965058 0.59565574 1285 26
-8.8902617 -0.65559006 0.59603244 1307 26
-8.8861504 -0.60049009 0.59553015 1245 26
-8.8906641 -0.54601556 0.59559292 1254 26
-8.8898611 -0.49123311 0.59534174 1220 26
-8.8907137 -0.43657887 0.59521616 1098 26
-8.8932257 -0.38201827 0.59521616 1154 26
-8.8934078 -0.32736993 0.59509057 1229 26
-8.8942509 -0.2727643 0.5950278 1168 26
-8.890769 -0.21806292 0.59471387 692 26
-8.8899441 -0.16346948 0.59458828 771 26
-8.9007587 -0.10904055 0.59521616 1234 26
-8.9032564 -0.054436583 0.59534174 1227 26
-8.9074154 0.00019405611 0.59559292 1232 26
-8.9142323 0.054892246 0.59603244 1266 26
-8.9037476 0.10946479 0.59540457 934 26
-8.9198723 0.1644085 0.59647197 1322 26
-9.3793011 -0.69254148 0.51345277 420 27
-9.3843708 -0.63504565 0.51350349 372 27
-9.3950682 -0.57788235 0.51385891 378 27
-9.3884659 -0.5196712 0.5133512 368 27
-9.212925 -0.45324805 0.50426388 602 27
-9.4001226 -0.40467966 0.51365584 474 27
-9.3904524 -0.34655049 0.51304662 519 27
-9.3834181 -0.28864777 0.51258969 437 27
-9.3330946 -0.22978207 0.5099498 318 27
-9.3383236 -0.17258526 0.51015288 269 27
-9.2722979 -0.11444888 0.50675148 518 27
-9.2308807 -0.057287358 0.50461924 663 27
-9.2180758 -0.00064410834 0.5039593 575 27
-9.2189045 0.055922884 0.50401002 659 27
-9.1674576 0.11187293 0.50142092 457 27
-9.1815767 0.16839409 0.50218242 676 27
-9.1703863 0.22448488 0.50167477 781 27
-9.1488714 0.28014028 0.50065941 844 27
-9.1389961 0.33597893 0.50025326 872 27
-9.0878706 0.38995677 0.49776566 569 27
-9.1082497 0.44683415 0.49893332 939 27
-9.094367 0.50210869 0.49837488 998 27
-9.0881243 0.5577181 0.49822259 1071 27
-9.0855274 0.61353844 0.49827334 1076 27
-9.0776081 0.66898155 0.49807027 1063 27
-9.0504341 0.72284228 0.49690264 1154 27
-9.0627441 0.77981442 0.49776566 1105 27
-9.0458555 0.83430856 0.49715647 1159 27
-9.0485172 0.89057875 0.49756262 1161 27
-9.0220232 0.94390297 0.4964965 1213 27
-9.0140762 0.99902356 0.49639496 1289 27
-9.0097599 1.054546 0.4964965 1306 27
-9.0090675 1.1105413 0.49680111 1324 27
-9.026845 1.1690025 0.49807027 1467 27
-9.0254402 1.2251735 0.49837488 1667 27
-9.4300861 1.3390273 0.51954484 423 27
-9.4681253 1.4037424 0.52193087 373 27
-9.4711781 1.4636402 0.52254009 327 27
-9.4669495 1.522519 0.52279395 377 27
-9.4593992 1.5809075 0.52289546 335 27
-9.4544411 1.6397722 0.52314931 425 27
-9.4609127 1.7007546 0.52401233 416 27
-9.4591351 1.7604171 0.52446926 371 27
-9.4550209 1.8197446 0.52482462 332 27
-9.4544525 1.8798664 0.52538306 350 27
-9.4466534 1.938645 0.52558613 368 27
-9.4394655 1.9976053 0.52583998 376 27
-9.4319096 2.0565505 0.52609378 365 27
-9.4230108 2.1152594 0.52629685 317 27
-9.4079084 2.1725888 0.52619535 322 27
-9.4002314 2.2316573 0.52649993 334 27
-9.387331 2.2895305 0.52655071 318 27
-9.3721371 2.3468444 0.52649993 302 27
-9.3546591 2.4035614 0.52634764 262 27
-9.3426323 2.4616783 0.52649993 262 27
-9.353385 2.5259845 0.52787066 279 27
-9.3444481 2.5851915 0.52822602 311 27
-9.2938166 2.6326845 0.52639842 75 27
-8.6472626 2.5070329 0.49304432 49 27
-8.6269293 2.558625 0.49279049 52 27
-8.6043768 2.6094825 0.49243513 65 27
-8.5967894 2.6648891 0.49289203 74 27
-8.5983667 2.723315 0.49385661 49 27
-8.5966988 2.7809386 0.49466887 45 27
-8.8507061 2.9231787 0.50918829 402 27
-8.8250313 2.9748793 0.50878215 366 27
-8.8595018 3.0471563 0.51162511 251 27
-8.9141483 3.1272383 0.51558501 345 27
-8.8515339 3.1664071 0.5132497 219 27
-8.6320772 3.1478062 0.50243628 734 27
-8.5938759 3.1937566 0.50142092 519 27
-8.7553234 3.315011 0.51126975 83 27
-8.6882248 3.350708 0.50873142 275 27
-8.6637831 3.4024949 0.50852835 243 27
-8.6622171 3.4633746 0.50959444 218 27
-9.078371 3.6944685 0.53360736 642 27
-9.0786009 3.7596531 0.53487653 909 27
-9.0544405 3.8148999 0.53482574 528 27
-8.3946838 3.5978255 0.49964407 626 27
-8.3907614 3.6572452 0.50065941 752 27
-8.3672504 3.7082565 0.50060862 521 27
-8.3561773 3.764859 0.50126863 604 27
-8.3483562 3.8231277 0.50213164 661 27
-8.3256464 3.8747017 0.50218242 634 27
-8.4895201 4.0144939 0.51274198 347 27
-8.4116116 4.0409999 0.50974673 419 27
-8.3390856 4.0693293 0.50705606 471 27
-8.3246984 4.1257405 0.50766528 532 27
-8.3295593 4.1920033 0.50939137 486 27
-8.3597126 4.271656 0.51258969 388 27
-8.2766037 4.2934446 0.50934058 542 27
-8.2607088 4.3497305 0.5099498 538 27
-8.2506008 4.409277 0.51091439 504 27
-8.2321701 4.4645786 0.51142204 479 27
-8.2238712 4.5255971 0.51253897 467 27
-8.214262 4.5861945 0.51360506 480 27
-8.2016096 4.6453676 0.51451886 515 27
-8.8640404 5.0925412 0.55503112 377 27
-9.0992804 5.3021746 0.57071823 676 27
-9.0975304 5.376195 0.57254583 731 27
-9.0789356 5.4406409 0.5734089 608 27
-0 0 0 5 27
-2.92801 1.804763 0.21021998 13 27
-2.9939699 1.8708297 0.2148398 50 27
-2.9891853 1.8934383 0.21524593 49 27
-2.9833951 1.9155191 0.21560131 60 27
-2.9782836 1.9381444 0.21600744 44 27
-2.9738402 1.9613286 0.21646436 49 27
-2.9683938 1.9839764 0.21687049 43 27
-2.9619541 2.0060713 0.21722586 52 27
-2.952884 2.0264671 0.21742892 43 27
-2.9420345 2.0456872 0.21753046 37 27
-2.9343269 2.0671501 0.21783507 52 27
-2.9199617 2.083956 0.21773353 50 27
-2.9063103 2.1012485 0.21768276 65 27
-2.8498428 2.0871904 0.21494134 24 27
-2.8313663 2.1004741 0.21458596 40 27
-2.7824867 2.0908215 0.21230143 22 27
-2.7560914 2.0975776 0.21143839 31 27
-2.7170591 2.0943375 0.20976306 22 27
-2.6821089 2.0937698 0.20834158 23 27
-2.6425667 2.0891378 0.20661551 24 27
-2.6109817 2.0903394 0.20539708 41 27
-2.5686181 2.0824311 0.20346794 40 27
-2.5295393 2.0766163 0.20174184 33 27
-2.4875569 2.0678484 0.1998127 30 27
-2.4473069 2.0599303 0.19798507 20 27
-2.4080093 2.0522444 0.19620822 19 27
-2.3825135 2.0558939 0.19534518 32 27
-2.3533022 2.0560241 0.19422829 28 27
-2.3159485 2.0485983 0.19255297 27 27
-2.2698448 2.0328004 0.19026844 37 27
-2.2018194 1.9963987 0.18646091 7 27
-2.1556723 1.9788177 0.18412562 3 27
-2.1317804 1.9811341 0.18331334 28 27
-2.0933886 1.9695511 0.18148571 33 27
-2.0762 1.9775393 0.18113035 50 27
-2.0683424 1.994399 0.18143494 40 27
-2.0660753 2.0168152 0.18214568 42 27
-2.0636106 2.0392783 0.18285643 31 27
-2.059535 2.0603747 0.18346564 26 27
-2.0608938 2.0871806 0.18448098 33 27
-2.0620005 2.1140802 0.18549633 47 27
-2.0586951 2.1367576 0.18620707 36 27
-0 0 0 49 27
-0 0 0 49 27
-0 0 0 44 27
-0 0 0 51 27
-2.0545695 2.2677095 0.19092843 41 27
-2.0539422 2.2951527 0.19194376 44 27
-2.0517316 2.321177 0.19285758 55 27
-2.053221 2.3517725 0.19407599 35 27
-0 0 0 33 27
-0 0 0 27 27
-0 0 0 37 27
-0 0 0 40 27
-2.0200393 2.4622772 0.19727433 37 27
-2.0118117 2.4831588 0.19783276 44 27
-2.0520921 2.5648415 0.20235105 6 27
-2.8626108 3.6224713 0.27007458 105 27
-2.8501632 3.6525631 0.27088684 185 27
-2.8405027 3.6865928 0.27195296 201 27
-2.8365803 3.7285879 0.27352673 214 27
-2.8286486 3.7658823 0.27479592 185 27
-2.81739 3.7992089 0.27581125 118 27
-2.7963862 3.8196473 0.27601433 83 27
-2.7816746 3.8488731 0.27677584 56 27
-2.8154483 3.9463432 0.28180179 139 27
-2.8113139 3.9921186 0.28357866 161 27
-2.8021612 4.0314317 0.28494936 168 27
-2.8033698 4.0864267 0.28728467 74 27
-0 0 0 16 27
-0 0 0 6 27
-2.1700664 3.2919853 0.23580667 54 27
-2.1285796 3.272594 0.23382674 184 27
-2.0830963 3.2460961 0.23144069 103 27
-1.8023163 2.847111 0.20666628 6 27
-0 0 0 12 27
-0 0 0 18 27
-0 0 0 17 27
-0 0 0 7 27
-0 0 0 9 27
-0 0 0 9 27
-0 0 0 5 27
-0 0 0 3 27
-0 0 0 6 27
-0 0 0 7 27
-0 0 0 4 27
-0 0 0 5 27
-0 0 0 10 27
-0 0 0 7 27
-0 0 0 6 27
-0 0 0 3 27
-0 0 0 9 27
-0 0 0 38 27
-1.2555354 2.6143799 0.18280566 79 27
-1.2339169 2.6102989 0.18214568 89 27
-1.2094444 2.599714 0.18113035 65 27
-1.1884773 2.5961912 0.18052113 74 27
-1.1659571 2.5888674 0.17970887 79 27
-0 0 0 61 27
-0 0 0 64 27
-0 0 0 82 27
-1.0818946 2.5688486 0.17706896 76 27
-1.0622884 2.5662127 0.1765613 71 27
-1.045769 2.5708325 0.17645976 62 27
-1.0270069 2.569783 0.17605361 74 27
-1.02291 2.6057799 0.17767817 246 27
-0.99647313 2.5849874 0.17620592 84 27
-0.97988546 2.5891852 0.17610438 89 27
-0.97094309 2.6138701 0.17711973 72 27
-0.96755534 2.6544912 0.17899811 46 27
-0.95528913 2.6716614 0.17960733 48 27
-0.94681889 2.700088 0.18082574 44 27
-0.93380952 2.7162344 0.18138418 48 27
-0.92063743 2.7323222 0.18194263 37 27
-0.89977986 2.7255926 0.18128264 25 27
-0.82766396 2.5600357 0.17214455 4 27
-0.80952585 2.5574498 0.1717384 3 27
-0.79263461 2.5585535 0.17153533 4 27
-0.7751801 2.5576348 0.17123073 5 27
-0.76032484 2.5652153 0.17138304 7 27
-0 0 0 5 27
-0 0 0 3 27
-0 0 0 4 27
-0.69245064 2.5657482 0.17046922 4 27
-0 0 0 4 27
-0 0 0 3 27
-0.64413488 2.5741844 0.17026615 4 27
-0 0 0 3 27
-0 0 0 3 27
-0 0 0 4 27
-0 0 0 4 27
-0 0 0 4 27
-0 0 0 3 27
-0 0 0 3 27
-0 0 0 5 27
-0 0 0 4 27
-0 0 0 4 27
-0 0 0 4 27
-0 0 0 3 27
-0.42031515 2.5178401 0.16513866 4 27
-0 0 0 4 27
-0 0 0 3 27
-0 0 0 3 27
-0 0 0 3 27
-0.33857587 2.4978812 0.16351411 3 27
-0.32619888 2.522691 0.16468176 6 27
-0 0 0 5 27
-0 0 0 3 27
-0.27794474 2.5123861 0.16386949 7 27
-0 0 0 5 27
-0.24444464 2.4887729 0.16249876 4 27
-0.22981311 2.4971874 0.16285414 7 27
-0.21371339 2.4895952 0.16239724 3 27
-0 0 0 4 27
-0 0 0 8 27
-0.16744657 2.4871287 0.16209263 15 27
-0.15193693 2.484122 0.16188955 10 27
-0.13652582 2.4820161 0.16173725 12 27
-0.12085109 2.4738295 0.16128035 5 27
-0.10515273 2.4625511 0.16067114 12 27
-0.09000387 2.462152 0.16062038 10 27
-0 0 0 14 27
-0 0 0 37 27
-0 0 0 22 27
-0 0 0 27 27
-0 0 0 33 27
0.00068464054 2.4508131 0.1599604 31 27
0.015722534 2.4507627 0.1599604 19 27
0 0 0 43 27
0 0 0 67 27
0 0 0 95 27
0 0 0 143 27
0 0 0 160 27
0 0 0 130 27
0.12059785 2.4408448 0.15960503 101 27
0.13518783 2.4330785 0.15924966 92 27
0.15005332 2.4312062 0.1591989 90 27
0.16469947 2.426254 0.15899582 100 27
0.17789827 2.4022894 0.15782818 179 27
0.19311139 2.4071259 0.15813278 234 27
0.20813408 2.4088807 0.15828508 326 27
0.22291078 2.4075584 0.15828508 367 27
0.23797217 2.409127 0.15843739 487 27
0.2527498 2.4076216 0.15843739 623 27
0.26751795 2.4060254 0.15843739 619 27
0.28250796 2.4063225 0.15853892 540 27
0.29665726 2.3995876 0.15828508 398 27
0.31060645 2.3917794 0.15798047 326 27
0.324471 2.3838906 0.15767588 244 27
0.339513 2.3848214 0.15782818 189 27
0.35706657 2.4024518 0.15884352 132 27
0.3714962 2.3982418 0.15874198 130 27
0.38604608 2.3949311 0.15869123 107 27
0.39941776 2.3846366 0.15828508 82 27
0.41421264 2.3831251 0.15833585 73 27
0.42865086 2.3795557 0.15828508 62 27
0.4439739 2.3808081 0.15848815 42 27
0.45838529 2.3770585 0.15843739 53 27
0.47412989 2.3800786 0.15874198 50 27
0.48892552 2.3781028 0.15879275 46 27
0.50371474 2.3760352 0.15884352 28 27
0.51934755 2.3777788 0.15909736 23 27
0.53370893 2.3735728 0.15904659 22 27
0.54848742 2.3712265 0.15909736 24 27
0.56325722 2.368788 0.15914813 14 27
0.57778126 2.3652875 0.15914813 26 27
0.59276843 2.3636353 0.15924966 23 27
0.60775715 2.3618884 0.1593512 12 27
0.6245271 2.3668067 0.1598081 27 27
0.63981861 2.3658228 0.1599604 30 27
0.65272588 2.356077 0.15965579 11 27
0.66961896 2.3606758 0.16011271 10 27
0.8964619 3.0893872 0.19889888 41 27
0.91795588 3.0924461 0.19935578 209 27
0 0 0 236 27
0 0 0 248 27
0 0 0 218 27
0 0 0 245 27
0 0 0 204 27
0 0 0 189 27
0 0 0 257 27
1.0801566 3.0766647 0.20113264 209 27
0 0 0 222 27
0 0 0 200 27
0 0 0 210 27
0 0 0 233 27
0 0 0 226 27
0 0 0 235 27
1.2190508 3.0469222 0.20219876 189 27
1.2418631 3.0495608 0.20275719 210 27
0 0 0 226 27
0 0 0 189 27
0 0 0 188 27
0 0 0 196 27
0 0 0 221 27
0 0 0 198 27
1.3928621 3.0397367 0.20534632 289 27
1.4165426 3.0419993 0.20595554 167 27
0 0 0 80 27
0 0 0 53 27
0 0 0 50 27
0 0 0 50 27
0 0 0 35 27
0 0 0 49 27
0 0 0 75 27
1.3626677 2.5861659 0.18397331 95 27
0 0 0 119 27
0 0 0 86 27
0 0 0 101 27
0 0 0 125 27
0 0 0 100 27
1.4753382 2.5663004 0.18585169 94 27
1.494576 2.5632403 0.18620707 96 27
1.5209438 2.5720785 0.18727317 85 27
0 0 0 97 27
0 0 0 91 27
0 0 0 100 27
0 0 0 99 27
0 0 0 422 27
1.6318421 2.5412524 0.18889773 159 27
1.6430485 2.5244937 0.1884916 130 27
1.6596068 2.5160325 0.18859313 106 27
0 0 0 163 27
0 0 0 117 27
0 0 0 99 27
0 0 0 120 27
0 0 0 93 27
0 0 0 80 27
1.8082218 2.5007372 0.19224837 109 27
1.8264812 2.4936247 0.1925022 112 27
1.8476952 2.4903936 0.19300988 97 27
1.8701375 2.4885929 0.19361909 94 27
1.8871857 2.4794559 0.19377139 131 27
1.9151621 2.4844451 0.1948375 64 27
1.9377416 2.4820964 0.19544671 53 27
0 0 0 40 27
2.2463145 2.8059449 0.2180889 56 27
2.2609746 2.7890048 0.21788584 71 27
2.2736111 2.7696743 0.21753046 79 27
2.2873719 2.7518303 0.21727662 86 27
2.3151422 2.7507367 0.21813966 38 27
2.4880314 2.9197235 0.23037457 96 27
2.5280738 2.9301186 0.23210067 143 27
2.5506027 2.9198177 0.23245603 140 27
2.5737617 2.910099 0.23286217 139 27
2.6022251 2.9061596 0.23367445 130 27
2.6340895 2.9056807 0.23474056 167 27
2.6586196 2.8968234 0.23524824 151 27
2.6933336 2.898752 0.23651741 154 27
2.7144897 2.8858097 0.23677126 170 27
2.7390306 2.876334 0.23727892 179 27
2.9679732 3.0788326 0.25276294 7 27
3.0021501 3.0762923 0.25387982 87 27
3.0314949 3.0684733 0.25464132 83 27
3.066505 3.0660603 0.25580898 85 27
3.0994678 3.0612266 0.25682431 83 27
3.1310568 3.0547082 0.25773811 65 27
3.1655579 3.0506897 0.25885502 76 27
3.1994038 3.0456734 0.2599211 65 27
3.2369435 3.0437777 0.26124105 83 27
3.2738483 3.0408556 0.26251024 72 27
3.3101027 3.0369191 0.26372865 91 27
3.3501306 3.036006 0.26520091 88 27
3.3910151 3.0353813 0.26672393 85 27
3.4275289 3.0303984 0.26794234 70 27
3.4633565 3.0244238 0.26910999 80 27
3.4984832 3.0174706 0.27022687 62 27
3.5328941 3.009552 0.27129298 85 27
3.5558782 2.9916768 0.27159759 72 27
3.5764718 2.9717174 0.27174988 49 27
3.5892353 2.9452806 0.27139452 3 27
3.5816395 2.9024456 0.26971918 5 27
3.6126344 2.891026 0.27058223 7 27
3.6169872 2.8582749 0.26971918 9 27
3.6313083 2.8335693 0.26951611 18 27
3.6430898 2.8069663 0.26916075 14 27
3.6689861 2.7912138 0.26971918 144 27
3.7020113 2.7806487 0.27073455 184 27
3.7430649 2.7757339 0.27225757 187 27
3.7906423 2.7751405 0.2741867 174 27
3.8367336 2.7728965 0.27601433 173 27
3.8837519 2.770771 0.27789271 127 27
3.924356 2.7635701 0.27936497 112 27
3.9477985 2.7440002 0.27977112 73 27
4.0164361 2.7553308 0.28296944 137 27
4.0547657 2.7451971 0.28428939 143 27
4.1055751 2.7430215 0.28637084 138 27
4.1623454 2.7441742 0.28880769 122 27
4.2117496 2.7398298 0.29078761 126 27
4.2595749 2.733902 0.29266599 142 27
4.3108597 2.7296276 0.29474744 133 27
4.3529348 2.7190039 0.29627046 147 27
4.4052429 2.7142551 0.2984027 172 27
4.4653354 2.7136354 0.3009918 203 27
4.5161629 2.7067299 0.3030225 167 27
4.5644932 2.697777 0.30490088 166 27
4.6206474 2.6928596 0.30723619 199 27
4.6474738 2.6704302 0.30784538 266 27
4.660296 2.6398938 0.30764234 209 27
4.6624565 2.6034558 0.30683005 210 27
4.6669703 2.5685358 0.30617008 216 27
4.6624537 2.5288954 0.30500242 189 27
4.6681952 2.4950588 0.30444399 210 27
4.652492 2.4500742 0.30266714 273 27
4.6638923 2.4196403 0.30246407 214 27
4.6581988 2.3805203 0.30129641 240 27
4.667366 2.3491981 0.3009918 235 27
4.6969028 2.3280587 0.30185485 202 27
4.741612 2.314095 0.30358094 214 27
4.7836246 2.2983716 0.30515474 307 27
4.7940264 2.2672677 0.30495167 304 27
4.7933621 2.2310634 0.30413938 244 27
4.7960668 2.1966169 0.30353019 292 27
4.7985291 2.1622217 0.30292097 332 27
4.8098798 2.131928 0.30281943 354 27
4.7780151 2.0828097 0.30033183 268 27
4.8072267 2.060539 0.30124566 353 27
4.801374 2.0232432 0.30023032 399 27
4.797091 1.9868618 0.2993165 409 27
4.7980928 1.9528695 0.29870731 367 27
4.7960763 1.9178269 0.2979458 407 27
4.7845163 1.8792295 0.29667661 331 27
4.7968888 1.8501966 0.29672736 419 27
4.8025475 1.8186052 0.29642278 388 27
4.8070636 1.786666 0.29606739 334 27
4.7860374 1.7454951 0.2943413 254 27
4.8070006 1.7197987 0.29489976 343 27
4.8005009 1.6843156 0.29398593 288 27
4.8135781 1.6558038 0.29413825 364 27
4.8189158 1.6246407 0.2938844 346 27
4.8155184 1.5906533 0.29317367 262 27
4.8147364 1.5576918 0.29261523 230 27
4.7889791 1.5169531 0.29073682 51 27
4.8029656 1.4890198 0.29099068 50 27
4.8712621 1.4775074 0.29413825 110 27
4.9204473 1.4595276 0.29627046 95 27
5.011796 1.4532468 0.30063644 102 27
14.098515 3.9966555 0.78028542 251 27
14.099673 3.903676 0.77906698 311 27
14.097329 3.810051 0.77769631 316 27
14.176452 3.7382538 0.78064078 163 27
14.226205 3.6581647 0.78206229 288 27
14.226102 3.5652199 0.78089464 256 27
14.189498 3.4636483 0.7778486 119 27
14.188135 3.3712063 0.77668095 304 27
14.189093 3.2795863 0.77566558 102 27
14.171922 3.1841395 0.77373642 323 27
14.121916 3.0819974 0.77013195 126 27
14.142514 2.995703 0.77023351 299 27
14.15476 2.9076636 0.76992887 155 27
14.119443 2.8102252 0.76718748 264 27
14.118769 2.7201347 0.76627368 253 27
14.116539 2.6299753 0.7653091 291 27
14.098991 2.5372915 0.763583 293 27
14.089695 2.4464605 0.76231378 306 27
14.078831 2.3556745 0.76099384 339 27
14.050622 2.2624137 0.75881088 260 27
14.043513 2.1729496 0.75774473 288 27
14.033861 2.0833642 0.75657713 267 27
14.024628 1.9941201 0.7554602 309 27
14.015818 1.9052025 0.75439411 288 27
14.000504 1.815697 0.75302339 322 27
13.990565 1.7271858 0.7519573 311 27
13.979078 1.6387489 0.75084043 326 27
13.970011 1.5508488 0.74987584 354 27
13.963371 1.4634343 0.74906355 322 27
13.95718 1.3762578 0.74830204 320 27
13.937516 1.2880167 0.74688059 270 27
13.924262 1.2006699 0.74581444 282 27
13.912453 1.113694 0.74484986 233 27
13.906076 1.0273501 0.74418992 249 27
12.816052 0.86769682 0.68834591 240 27
12.800202 0.78775251 0.68727982 196 27
12.852659 0.71185243 0.68971664 400 27
12.85878 0.633075 0.6898182 665 27
12.856436 0.55390465 0.68951356 274 27
12.859592 0.47500861 0.68951356 272 27
12.864262 0.39615634 0.68961513 267 27
12.881426 0.31758586 0.69037664 279 27
12.886127 0.23859666 0.69052893 288 27
12.891344 0.15957418 0.690732 303 27
12.891082 0.080465056 0.69068122 294 27
12.885341 0.0013641741 0.69037664 275 27
12.886105 -0.077704743 0.69042736 273 27
12.887383 -0.15679505 0.69052893 284 27
12.891171 -0.23595853 0.69078273 275 27
12.897468 -0.31524733 0.69118887 298 27
12.903276 -0.3946223 0.69159502 226 27
13.015387 -0.47799271 0.69743329 98 27
13.018196 -0.55810076 0.69773787 80 27
13.019514 -0.63821244 0.69799173 109 27
17.817863 -0.98262119 0.94248676 100 27
13.017679 -0.79836118 0.69834709 94 27
18.708242 -1.2621151 0.98853266 94 27
18.710106 -1.3776157 0.98904032 85 27
18.711256 -1.4931867 0.98954803 73 27
18.722639 -1.609764 0.99061412 159 27
18.712408 -1.7246137 0.99061412 136 27
13.017242 -1.2806772 0.70027626 109 27
12.923715 -1.3515993 0.69591027 248 27
12.926098 -1.432081 0.69646871 242 27
12.925003 -1.5122949 0.6968748 254 27
13.317917 -1.6411284 0.71748632 103 27
13.306606 -1.7226865 0.71743554 97 27
12.2042 -1.6562651 0.6614393 199 27
12.164144 -1.726909 0.65991628 477 27
12.142451 -1.7999045 0.65935785 503 27
13.317569 -2.0575678 0.72038007 107 27
13.311595 -2.1403532 0.72073543 152 27
13.318898 -2.225446 0.72180152 135 27
13.318769 -2.309515 0.7225123 113 27
13.289602 -2.3885453 0.7217508 108 27
13.137234 -2.4444783 0.71464336 84 27
12.966051 -2.4950483 0.70657134 190 27
12.074772 -2.4005456 0.66118544 312 27
12.05101 -2.4727838 0.66072851 261 27
12.053198 -2.5504007 0.66164237 277 27
16.451887 -3.5863109 0.89131337 127 27
16.022236 -3.595804 0.87009269 141 27
15.713772 -3.6280136 0.85516709 112 27
15.324873 -3.6374385 0.83602786 178 27
14.932582 -3.6412849 0.81668556 171 27
14.61156 -3.6581581 0.80104923 157 27
14.297674 -3.6729705 0.78576827 203 27
13.939743 -3.6723719 0.76815206 214 27
13.262255 -3.5811131 0.73368108 63 27
13.031151 -3.6046603 0.72266459 174 27
13.006866 -3.684006 0.72256303 234 27
13.003201 -3.7693045 0.72357839 259 27
5.1386728 -1.5245492 0.30784538 126 27
5.0556278 -1.5337422 0.30393633 166 27
4.9812522 -1.5446346 0.30048415 167 27
4.9174089 -1.5579884 0.2975904 127 27
4.9533696 -1.6028805 0.30002725 56 27
4.9434409 -1.6332436 0.30002725 137 27
4.9125051 -1.6565293 0.29891035 540 27
4.8248034 -1.6600149 0.29474744 267 27
4.760808 -1.6707499 0.29185373 218 27
4.6789966 -1.6743736 0.2879954 279 27
4.5973229 -1.6770573 0.2841371 260 27
4.5551152 -1.6934097 0.28241101 276 27
4.5194197 -1.7117823 0.28104028 403 27
4.510695 -1.7401992 0.28114182 381 27
4.5213141 -1.7762376 0.28230947 478 27
4.4982743 -1.7991279 0.2816495 352 27
4.5167532 -1.8387377 0.28327405 431 27
4.5118451 -1.8690915 0.28362942 424 27
0.99816263 -0.4216806 0.09046004 376 27
0.99647444 -0.42819059 0.090510808 462 27
0.99291277 -0.43389785 0.09046004 377 27
0.99662352 -0.44281384 0.09081541 714 27
0.97203302 -0.43907747 0.089596994 98 27
4.5307999 -2.075465 0.28870615 11 27
4.5324678 -2.1099668 0.28951842 90 27
4.5140185 -2.1351767 0.28921381 44 27
4.5224385 -2.1732106 0.29043224 25 27
4.5162001 -2.204422 0.29083836 38 27
4.5401745 -2.2507131 0.2929706 15 27
4.526279 -2.2785287 0.2929706 28 27
4.526443 -2.3135276 0.29378286 20 27
4.5254612 -2.3481543 0.29454437 37 27
4.5233402 -2.3823907 0.29525512 22 27
4.5262547 -2.4195127 0.29627046 33 27
4.5218592 -2.4529521 0.29687968 40 27
4.5215988 -2.4888351 0.29774272 29 27
4.5306602 -2.5301614 0.29916421 20 27
4.52461 -2.5633264 0.29972264 27 27
4.5252509 -2.6004913 0.30068722 15 27
4.5273314 -2.6387661 0.30175331 15 27
4.5291123 -2.6771636 0.30281943 15 27
4.5323048 -2.7167084 0.30398709 24 27
4.535182 -2.756393 0.30515474 28 27
4.5334902 -2.793596 0.30606854 23 27
4.5391359 -2.8356421 0.30743927 33 27
4.5317779 -2.8698499 0.30804846 27 27
4.5418224 -2.9153996 0.30972379 34 27
4.538919 -2.9530132 0.31063759 31 27
4.5440631 -2.9961963 0.31205907 31 27
4.5588136 -3.0462093 0.31408978 25 27
4.5582323 -3.0864394 0.31520665 20 27
4.5622706 -3.1301656 0.31662813 31 27
4.5659428 -3.174057 0.31804961 20 27
4.5684304 -3.2175357 0.31942034 19 27
4.5721817 -3.2623239 0.32089257 13 27
4.5650311 -3.299675 0.32170486 18 27
4.5672646 -3.3441389 0.32312635 12 27
4.5691233 -3.3887537 0.32454783 16 27
4.5674114 -3.431118 0.32576624 14 27
4.5677357 -3.4754021 0.32713696 14 27
4.5684786 -3.5204279 0.32855844 13 27
4.5625405 -3.560679 0.32957378 13 27
4.5664678 -3.6090376 0.33124909 16 27
4.5652933 -3.6538343 0.33261982 17 27
4.5621881 -3.6974945 0.33388901 9 27
4.5656676 -3.7469544 0.33561507 19 27
4.5656376 -3.7940428 0.33713809 10 27
4.5804873 -3.8541281 0.33967647 14 27
4.5704389 -3.8938165 0.34059027 21 27
4.5789843 -3.9498308 0.34277326 17 27
4.5809946 -4.0008407 0.3445501 13 27
4.5810533 -4.0507007 0.34622544 21 27
4.5843935 -4.1040411 0.3481546 10 27
4.5865097 -4.1569033 0.35003299 14 27
4.5763731 -4.1991439 0.3510991 10 27
4.5768681 -4.2516098 0.3529267 10 27
4.5754347 -4.3028708 0.35465279 10 27
4.5872893 -4.3673553 0.35734347 13 27
4.5719128 -4.406507 0.35815573 8 27
4.5905457 -4.4791064 0.36140484 13 27
4.5985084 -4.5422745 0.36394322 33 27
4.5973916 -4.5972352 0.36587235 22 27
4.6013885 -4.6580348 0.36820766 18 27
4.5950441 -4.7090502 0.36983222 12 27
4.6041908 -4.7766981 0.3726244 26 27
4.6099234 -4.8417406 0.37521353 29 27
4.610239 -4.9019408 0.37744731 29 27
4.6106687 -4.9630575 0.37973183 41 27
4.6165986 -5.0309839 0.38247326 25 27
4.6198549 -5.0969496 0.3850624 18 27
4.6304698 -5.17207 0.38826072 16 27
4.6357031 -5.2422752 0.39110368 14 27
4.6251345 -5.2954392 0.39277899 24 27
4.6271367 -5.3637924 0.39546967 20 27
4.6323595 -5.4369287 0.39846495 29 27
4.6239948 -5.495048 0.40044487 18 27
4.634244 -5.5763078 0.4039478 27 27
4.6341624 -5.6463203 0.40668923 22 27
4.6415715 -5.726625 0.41009063 30 27
4.6525378 -5.8126879 0.41384742 25 27
4.6576653 -5.8928318 0.41719806 20 27
4.6564517 -5.9661708 0.42009178 18 27
4.6825604 -6.0760994 0.4253208 17 27
4.6857176 -6.1579614 0.4287222 10 27
4.6736445 -6.2209268 0.43090519 17 27
4.6746616 -6.3024225 0.43425584 14 27
4.6606894 -6.3648262 0.43638808 18 27
4.6467113 -6.4281034 0.43857107 27 27
4.6547604 -6.5231495 0.44273397 28 27
4.6485858 -6.5997567 0.44572926 33 27
4.6330919 -6.6642327 0.447963 35 27
4.6972342 -6.8456903 0.45740572 274 27
4.7055507 -6.948801 0.46197477 312 27
4.7161064 -7.057251 0.46684843 482 27
4.6903124 -7.1127334 0.46847296 160 27
4.7239408 -7.2602377 0.47568193 37 27
4.706286 -7.3311048 0.47822028 38 27
4.7365751 -7.4787998 0.48537847 21 27
4.7599335 -7.618669 0.49202898 15 27
4.7382526 -7.6885395 0.4944658 32 27
4.7340522 -7.7882967 0.49867949 23 27
4.7298317 -7.8900018 0.50299472 32 27
4.7270813 -7.9962444 0.50756377 51 27
4.7483568 -8.1458845 0.51467115 53 27
4.7445765 -8.2553892 0.51939255 39 27
4.7608037 -8.4025126 0.52629685 31 27
4.7700438 -8.5405502 0.53264278 27 27
4.7604246 -8.6475191 0.53716105 21 27
4.7858734 -8.8213997 0.54553765 22 27
4.7589722 -8.90168 0.54848218 18 27
4.7596631 -9.0358572 0.55452347 24 27
4.7584248 -9.169487 0.56051397 23 27
4.7616343 -9.3149986 0.56716448 39 27
4.7919841 -9.5179768 0.5770641 54 27
4.7965016 -9.6742516 0.58427304 58 27
4.7948971 -9.8219604 0.59097433 41 27
4.8293047 -10.048319 0.60209239 29 27
4.8453054 -10.242061 0.611332 18 27
4.8165221 -10.344931 0.61544418 20 27
4.8107901 -10.50049 0.62250078 18 27
4.8127694 -10.677303 0.63072509 21 27
4.8273339 -10.887398 0.64077699 34 27
4.862258 -11.150245 0.65372264 76 27
4.8531933 -11.318464 0.66138852 49 27
4.8577657 -11.523797 0.67108506 42 27
4.8538804 -11.714845 0.67996931 50 27
0 -0 0 302 27
4.8607612 -12.150912 0.70063162 75 27
4.9011903 -12.473299 0.71662331 45 27
4.8756285 -12.635442 0.72383225 63 27
4.9218683 -12.991988 0.74160075 34 27
4.9910679 -13.422578 0.76332915 13 27
4.9497032 -13.565532 0.76942122 12 27
4.9232655 -13.754552 0.77800089 23 27
4.9257941 -14.03233 0.79135269 20 27
4.9608541 -14.414522 0.81028885 25 27
4.9537301 -14.685997 0.8232345 20 27
4.9766855 -15.058432 0.8415615 12 27
4.9632583 -15.332872 0.85460865 21 27
4.9907107 -15.7467 0.87506789 23 27
4.9842634 -16.067951 0.89055187 13 27
5.0692105 -16.703157 0.92268753 36 27
5.0143771 -16.894793 0.93121642 364 27
4.9050512 -16.906059 0.93020111 495 27
4.7957759 -16.916622 0.92918575 472 27
4.6857567 -16.923592 0.92801809 459 27
4.5771356 -16.934671 0.92710429 460 27
4.4670267 -16.93926 0.92588586 469 27
4.3555412 -16.937334 0.92436284 464 27
4.2471623 -16.946304 0.92344904 514 27
4.1369424 -16.946819 0.92212909 527 27
4.0257211 -16.941763 0.92055529 503 27
3.9162931 -16.942793 0.91933692 507 27
3.8089752 -16.951887 0.91857541 509 27
3.699563 -16.950546 0.91730624 486 27
3.5907249 -16.950457 0.91613859 494 27
3.4840379 -16.959452 0.91547859 457 27
3.3771806 -16.966797 0.91476786 452 27
3.2705534 -16.974451 0.91410786 380 27
3.1619465 -16.970636 0.91288948 536 27
3.0558107 -16.978907 0.91233104 532 27
2.9500341 -16.988482 0.91187412 535 27
2.8843243 -17.236753 0.92375368 133 27
2.9343362 -18.22139 0.97355634 154 27
2.8400478 -18.352551 0.97939456 504 27
2.7228365 -18.339008 0.97782075 447 27
2.6053357 -18.320763 0.97604394 408 27
2.4865463 -18.289894 0.97365785 497 27
2.3692622 -18.26618 0.97167796 524 27
2.2522404 -18.240726 0.96964723 513 27
2.1357369 -18.215519 0.96766734 540 27
2.0202894 -18.195524 0.96599203 511 27
1.9052719 -18.175795 0.96436745 523 27
1.7901803 -18.151363 0.96253985 491 27
1.6741726 -18.112282 0.96000147 560 27
1.5601722 -18.089378 0.95832616 594 27
1.4472339 -18.074718 0.95710772 544 27
1.3340186 -18.052382 0.95553398 557 27
1.2219427 -18.041296 0.9545694 550 27
1.1095616 -18.02154 0.95319867 533 27
0.99724764 -17.997097 0.95162487 490 27
0.88561994 -17.978937 0.95040649 524 27
0.77399421 -17.9541 0.94888347 507 27
0.66292846 -17.934557 0.94766504 550 27
0.55216247 -17.915327 0.94649738 637 27
0.4413116 -17.881437 0.944619 578 27
0.33123183 -17.864838 0.94365442 579 27
0.22136 -17.84656 0.94263905 584 27
0.11172491 -17.827608 0.94162375 577 27
0.0023293602 -17.800993 0.94025302 506 27
-0.10683028 -17.789686 0.93969458 484 27
-0.21576665 -17.770721 0.93878078 516 27
-0.32449251 -17.752087 0.93791771 553 27
-0.43282765 -17.7258 0.93669933 562 27
-0.54085243 -17.698853 0.93548089 488 27
-0.64779496 -17.65029 0.93319637 650 27
-0.75531459 -17.628021 0.93228257 627 27
-0.86307341 -17.615076 0.93187642 621 27
-0.97009754 -17.590502 0.93091184 606 27
-1.077158 -17.570261 0.93020111 657 27
-1.1840066 -17.549372 0.92949033 618 27
-1.2911522 -17.534803 0.92913496 627 27
-1.3975286 -17.511618 0.92837346 647 27
-1.5040967 -17.492764 0.9278658 567 27
-1.610486 -17.473259 0.92735815 589 27
-1.7174742 -17.461061 0.92725658 622 27
-1.823024 -17.435295 0.92649508 636 27
-1.9295312 -17.419809 0.926292 317 27
-1.3831 -11.819966 0.64032012 227 27
-2.1401024 -17.370039 0.92502284 606 27
-2.2472832 -17.361534 0.9252767 669 27
-2.3516219 -17.331583 0.9244644 462 27
-2.3968992 -16.886696 0.90238065 456 27
-2.5026641 -16.88649 0.90314215 576 27
-2.608212 -16.883646 0.90380216 561 27
-2.7155619 -16.890991 0.90502053 635 27
-2.8219485 -16.890757 0.90588361 647 27
-2.9272406 -16.882963 0.90639126 633 27
-2.2926607 -12.755847 0.69418418 20 27
-2.3703382 -12.738593 0.69403183 21 27
-2.4482675 -12.722829 0.69398111 21 27
-2.5264819 -12.708547 0.69403183 24 27
-2.5462229 -12.409084 0.67930937 75 27
-2.5937977 -12.258389 0.6723035 408 27
-0 -0 0 773 27
-2.6948404 -12.006376 0.66088086 894 27
-2.7718287 -12.004211 0.66164237 950 27
-2.8516581 -12.013215 0.66301304 1015 27
-2.9309928 -12.018779 0.66423148 1050 27
-3.0102606 -12.022851 0.66539913 1054 27
-3.0886946 -12.022533 0.66636372 1014 27
-3.1646945 -12.012047 0.66682059 175 27
-3.4421296 -12.747372 0.70657134 26 27
-7.0037766 -25.323368 1.3709624 17 27
-7.2167072 -25.483635 1.381725 83 27
-7.396286 -25.519451 1.3859894 209 27
-7.5638013 -25.510931 1.3879694 239 27
-7.7384434 -25.524254 1.3911678 162 27
-7.8990498 -25.489647 1.3918785 67 27
-8.0836372 -25.530201 1.3966506 116 27
-5.6563349 -17.489311 0.9697488 27 27
-5.6696134 -17.169765 0.95451862 91 27
-5.7805986 -17.151691 0.95543242 74 27
-5.8954716 -17.144232 0.95695543 61 27
-6.0197244 -17.162397 0.95989996 40 27
-2.5826411 -7.2190061 0.42511773 216 27
-2.6234672 -7.1936402 0.42461008 1463 27
-2.6658182 -7.1727266 0.42435622 1719 27
-2.7225058 -7.1898603 0.42618385 1105 27
-2.7762704 -7.1981802 0.42755458 819 27
-2.7984879 -7.1252313 0.42450854 843 27
-2.803977 -7.0124059 0.41927952 1396 27
-2.8488333 -6.9996943 0.41953334 1586 27
-2.8970771 -6.9950013 0.4202441 1567 27
-2.9473088 -6.9945807 0.42120865 1647 27
-2.9972508 -6.9928889 0.42212248 1675 27
-3.0253415 -6.9404902 0.4202441 1287 27
-3.0496662 -6.8807068 0.41795957 1559 27
-3.1086435 -6.8991995 0.42004102 1207 27
-3.2095335 -7.0080342 0.42719918 1624 27
-3.2566864 -6.9972644 0.42770687 1427 27
-3.303401 -6.9852762 0.42816377 632 27
-5.7431955 -11.95598 0.70961738 34 27
-5.7910514 -11.868455 0.70667291 33 27
-5.8225322 -11.749473 0.70195156 33 27
