# .PCD v0.7 - Point Cloud Data file format
VERSION 0.7
FIELDS x y z intensity ring
SIZE 4 4 4 4 1
TYPE F F F F U
COUNT 1 1 1 1 1
WIDTH 1278
HEIGHT 1
VIEWPOINT 0 0 0 1 0 0 0
POINTS 1278
DATA ascii
4.9923129 -1.6133634 0.10556715 56 30
4.9500356 -1.6333101 0.10511617 148 30
4.9522395 -1.6678019 0.1052886 481 30
4.8397861 -1.6630554 0.10385608 214 30
4.7785358 -1.6748568 0.10313982 214 30
4.698494 -1.6792378 0.10215827 177 30
4.6270361 -1.685782 0.1012961 212 30
4.5444288 -1.6873358 0.10027477 305 30
4.5330548 -1.7148343 0.1002615 517 30
4.5037875 -1.7354243 0.099996224 405 30
4.5321474 -1.7783697 0.10055332 576 30
4.5044365 -1.7994666 0.10031456 448 30
4.5285077 -1.8413864 0.1008186 625 30
4.523591 -1.8718148 0.10091145 572 30
4.5240006 -1.9045805 0.10108388 559 30
4.5250974 -1.9378152 0.10126958 236 30
4.532373 -1.9739301 0.10154812 411 30
4.5503459 -2.0150664 0.10198584 293 30
4.5515718 -2.0491071 0.1021848 242 30
4.5489144 -2.0815737 0.10233071 446 30
4.5587225 -2.1199889 0.10266231 301 30
4.5148916 -2.133394 0.10221133 34 30
4.5197444 -2.1697125 0.10247661 38 30
4.5171309 -2.2026641 0.10263578 26 30
4.5187626 -2.2378845 0.10286127 22 30
4.5272779 -2.2768018 0.10319287 33 30
4.5319228 -2.3140886 0.10347142 31 30
4.5327296 -2.3496766 0.10369691 33 30
4.539463 -2.3886211 0.10401525 21 30
4.5317774 -2.4201984 0.10412136 33 30
4.5361814 -2.4584427 0.10441317 23 30
4.5297728 -2.4910488 0.10454582 32 30
4.5344853 -2.5300028 0.10485089 25 30
4.5589027 -2.5804384 0.10546104 15 30
4.5447183 -2.6093585 0.10548756 23 30
4.5502229 -2.6497765 0.10581917 20 30
4.5459313 -2.6847658 0.10600486 24 30
4.5551066 -2.7280231 0.10640279 19 30
4.5493922 -2.7626693 0.10657522 15 30
4.5527892 -2.8031149 0.10689356 12 30
4.5414414 -2.8347042 0.10698641 20 30
4.5307221 -2.8667943 0.10709252 13 30
4.5374537 -2.910197 0.10747718 8 30
4.542984 -2.9532447 0.10784858 21 30
4.5540009 -3.0003202 0.10831282 16 30
4.5629468 -3.046531 0.10875054 15 30
4.5690117 -3.0912828 0.10914846 12 30
4.5755229 -3.1367884 0.10955965 12 30
4.5652232 -3.1710796 0.10970555 17 30
4.5693922 -3.2157218 0.11009021 14 30
4.5674858 -3.2564704 0.11038202 14 30
4.5741668 -3.3037567 0.11081974 13 30
4.582859 -3.3530183 0.11129725 9 30
4.5750523 -3.3906019 0.11150947 20 30
4.5805497 -3.438421 0.11194719 16 30
4.5872235 -3.4876451 0.11241143 11 30
4.5823736 -3.5285385 0.11268998 11 30
4.5787711 -3.5707328 0.11299505 20 30
4.5787458 -3.6161141 0.11336645 11 30
4.5783353 -3.6616292 0.11373784 18 30
4.5829768 -3.7116802 0.11420209 10 30
4.585629 -3.7606566 0.1146398 16 30
4.5893903 -3.8110826 0.11510405 16 30
4.6110716 -3.8771408 0.11588663 9 30
4.6069894 -3.922215 0.11623149 8 30
4.6085854 -3.9726079 0.11668248 7 30
4.5984359 -4.0133038 0.11693449 12 30
4.5991988 -4.0639567 0.11738548 7 30
4.5860991 -4.1027679 0.1175977 7 30
4.5852942 -4.1529832 0.11803541 12 30
4.5847821 -4.2040176 0.1184864 14 30
4.580884 -4.2524805 0.11888432 14 30
4.5794768 -4.303792 0.1193353 13 30
4.5877533 -4.3648953 0.11997198 15 30
4.6048131 -4.4352789 0.12078109 15 30
4.6075783 -4.4927707 0.12133818 21 30
4.6069641 -4.5476522 0.12184222 21 30
4.6171646 -4.6140041 0.12255848 17 30
4.618288 -4.6721168 0.12311557 18 30
4.6125846 -4.7239766 0.12355329 17 30
4.6216884 -4.7917762 0.12428281 18 30
4.6280632 -4.8576913 0.12497254 17 30
4.6324315 -4.9224072 0.12563576 20 30
4.6402631 -4.9917531 0.12637855 19 30
4.6352439 -5.0481205 0.12688258 22 30
4.6444845 -5.1209083 0.12767842 21 30
4.6396618 -5.1791024 0.12820899 28 30
4.6376119 -5.2411728 0.12880588 18 30
4.6349735 -5.303412 0.12940276 26 30
4.6356649 -5.3703566 0.13007922 20 30
4.6396003 -5.4420738 0.13083528 17 30
4.6576405 -5.5316329 0.13189642 19 30
4.6613293 -5.6054697 0.132679 28 30
4.663651 -5.6787858 0.13344832 30 30
4.667767 -5.7554464 0.1342707 28 30
4.6648655 -5.8245645 0.13496043 23 30
4.6631513 -5.896215 0.13568996 28 30
4.6693478 -5.9790955 0.13660517 42 30
4.6563845 -6.0385165 0.13712248 39 30
4.6743622 -6.1393728 0.13832951 27 30
4.6744537 -6.2182941 0.13916515 44 30
4.6993737 -6.3319736 0.14057115 45 30
4.6964798 -6.4098926 0.14138025 53 30
4.6980796 -6.4953041 0.14230874 40 30
4.7051969 -6.5899267 0.14338313 56 30
4.698657 -6.6668968 0.14416572 59 30
4.6707931 -6.7144818 0.1444708 51 30
4.7115641 -6.8625464 0.14639409 478 30
4.7176003 -6.9625187 0.1475348 292 30
4.7220297 -7.0619898 0.14866225 557 30
4.711648 -7.1409087 0.1494581 82 30
4.823215 -7.4085131 0.15323837 20 30
4.8003616 -7.4733043 0.15379547 21 30
4.7752886 -7.5355587 0.15431276 24 30
4.760231 -7.6147432 0.15509535 29 30
4.780066 -7.7519016 0.15677989 20 30
4.7604671 -7.82722 0.15749615 17 30
4.7833242 -7.974618 0.1593266 35 30
4.7577181 -8.0434074 0.15993676 14 30
4.7400107 -8.1268654 0.16077238 21 30
4.7523594 -8.2641506 0.16243041 23 30
4.7503791 -8.3792715 0.16374356 34 30
4.7647223 -8.5261011 0.16553421 38 30
4.776958 -8.6725407 0.16731159 50 30
4.7808952 -8.8071442 0.16890329 31 30
4.7758121 -8.9280109 0.17028277 47 30
4.8001928 -9.1075268 0.17253765 35 30
4.8054996 -9.254837 0.17430179 48 30
4.7932415 -9.3713923 0.17560166 41 30
4.8238153 -9.5756588 0.17820144 54 30
4.8031821 -9.6821117 0.17934215 84 30
4.8200402 -9.8677359 0.1816501 70 30
4.8308988 -10.045815 0.18383868 74 30
4.8470225 -10.239757 0.18625276 59 30
4.8550344 -10.421579 0.18848112 39 30
4.8684945 -10.620241 0.19094825 38 30
4.8924394 -10.847712 0.19382656 26 30
4.8793082 -10.998177 0.19557743 18 30
4.8813066 -11.187377 0.19788538 31 30
4.8614535 -11.331063 0.19953012 23 30
4.8392415 -11.473081 0.20114835 27 30
4.8928165 -11.801833 0.20544593 87 30
4.8844399 -11.989057 0.20770082 209 30
4.7948079 -11.978884 0.20713046 311 30
4.6710958 -11.880589 0.20531328 511 30
4.5945086 -11.899698 0.20518064 602 30
4.5206981 -11.925796 0.20515411 566 30
4.4481354 -11.955184 0.20518064 785 30
4.3770962 -11.988828 0.20527349 511 30
0 -0 0 159 30
0 -0 0 47 30
4.9832273 -14.470652 0.23899087 39 30
4.9969807 -14.805075 0.24324864 42 30
5.00493 -15.134504 0.24742684 39 30
5.0389061 -15.556849 0.25289166 28 30
5.0600247 -15.955386 0.25801161 13 30
5.0616179 -16.307005 0.26246834 11 30
5.1015005 -16.79892 0.26886165 53 30
5.0134149 -16.880709 0.26956466 464 30
4.9144816 -16.927477 0.26979014 284 30
4.7906046 -16.887089 0.26882187 21 30
5.1965289 -18.755709 0.29414305 18 30
5.0698619 -18.74477 0.29355943 152 30
4.9621491 -18.803564 0.29394409 76 30
5.165381 -20.072197 0.31090888 76 30
5.0966077 -20.320766 0.31388006 14 30
5.3104219 -21.737774 0.33280793 26 30
4.0245366 -16.923515 0.26672614 10 30
3.9154372 -16.925484 0.26642105 66 30
3.8110719 -16.947239 0.26639453 597 30
3.7042401 -16.957605 0.26622209 544 30
3.5961804 -16.96143 0.26597008 584 30
3.4882135 -16.964567 0.26571804 512 30
3.3795621 -16.963095 0.26541299 428 30
3.273711 -16.974676 0.2652936 490 30
3.1678448 -16.985598 0.26517424 481 30
3.0610819 -16.990938 0.26498854 519 30
0 -0 0 550 30
2.9058642 -17.346743 0.2692861 112 30
2.9529266 -18.316866 0.28208598 312 30
2.8407869 -18.336617 0.28211251 491 30
2.7244003 -18.327986 0.28176764 486 30
2.6068172 -18.30872 0.28129011 452 30
2.4898431 -18.290684 0.28083915 485 30
2.3726735 -18.267937 0.2803351 495 30
2.2555089 -18.241465 0.27979127 529 30
2.1399245 -18.224174 0.27938008 504 30
2.0241957 -18.202179 0.27891585 514 30
1.9082953 -18.174479 0.27838528 507 30
1.7930077 -18.148033 0.27788123 467 30
1.6781168 -18.120859 0.27737722 495 30
1.5647459 -18.105909 0.27704561 498 30
1.4508221 -18.080284 0.27658138 582 30
1.3377149 -18.059929 0.27619672 535 30
1.2250476 -18.040861 0.27583858 523 30
1.1125416 -18.019096 0.27545393 539 30
1.0004042 -17.997629 0.27508253 501 30
0.88876975 -17.97946 0.27476418 521 30
0.77705014 -17.952606 0.27433974 536 30
0.66587901 -17.930058 0.2739816 548 30
0.55510676 -17.909821 0.27366325 537 30
0.44443426 -17.881901 0.27325207 574 30
0.33429345 -17.862297 0.27296028 605 30
0.22442253 -17.843016 0.27268171 546 30
0.11486501 -17.833057 0.2725358 581 30
0.005435307 -17.812429 0.27225727 564 30
-0.10377203 -17.797129 0.27205831 568 30
-0 -0 0 538 30
-0.32145563 -17.755526 0.271541 512 30
-0.4298133 -17.729227 0.27122265 556 30
-0.53783 -17.701269 0.27089107 608 30
-0.64548326 -17.671656 0.2705462 757 30
-0.7530067 -17.646383 0.27026764 730 30
-0.86019552 -17.619459 0.26997584 713 30
-0.96708232 -17.591885 0.26968402 715 30
-1.0740294 -17.569651 0.26947179 674 30
-1.1809415 -17.549761 0.26929936 683 30
-1.2884561 -17.54019 0.26927283 742 30
-1.3951831 -17.52099 0.26912692 642 30
-1.5013809 -17.497156 0.26892796 674 30
-1.6075221 -17.474669 0.26875553 677 30
-1.7138349 -17.455521 0.26863617 675 30
-1.8202847 -17.438709 0.26855657 652 30
-1.9264829 -17.420256 0.26846373 618 30
-2.0325232 -17.401154 0.26837087 642 30
-2.1382794 -17.380415 0.26826477 605 30
-2.244627 -17.364985 0.26823825 661 30
-2.345897 -17.312243 0.26772094 400 30
-2.3943887 -16.890627 0.26226938 628 30
-2.5003254 -16.891443 0.2624816 670 30
-2.60743 -16.898514 0.26278669 711 30
-2.7120197 -16.888121 0.26286626 681 30
-2.8175676 -16.882996 0.26302543 685 30
-2.9246907 -16.88608 0.263304 677 30
-2.2816489 -12.709683 0.20726311 26 30
-2.3566673 -12.679715 0.20705087 52 30
-2.4357455 -12.671889 0.20714372 74 30
-2.5144269 -12.66161 0.20721005 66 30
-2.5511045 -12.446116 0.20450418 229 30
-2.5800638 -12.206201 0.20146669 366 30
-0 -0 0 898 30
-2.692899 -12.009706 0.19923832 913 30
-2.7735069 -12.023161 0.19964951 1093 30
-2.8497658 -12.016619 0.19979541 992 30
-2.9286528 -12.020279 0.20008722 1005 30
-3.0069637 -12.020514 0.20033924 1014 30
-3.0846417 -12.017333 0.20055147 972 30
-3.1679943 -12.034924 0.2010555 62 30
-3.4288166 -12.708405 0.21057914 30 30
-7.0527258 -25.514864 0.38712448 193 30
-7.2219486 -25.516327 0.38774788 257 30
-7.3975754 -25.537804 0.38866311 279 30
-7.5657816 -25.531239 0.38920695 242 30
-7.7388253 -25.538881 0.389963 263 30
-7.9104714 -25.539627 0.39063948 264 30
-8.0857372 -25.549715 0.39146185 287 30
-8.2611151 -25.557657 0.39227095 241 30
-8.4353285 -25.559662 0.39301375 273 30
-8.621048 -25.593653 0.3942208 258 30
-8.8062019 -25.622541 0.39537477 192 30
-8.9735079 -25.597279 0.39578596 189 30
-2.586693 -7.2369308 0.13791832 303 30
-2.6248868 -7.2040129 0.13767956 1626 30
-2.6669517 -7.182147 0.13759999 1757 30
-2.7205248 -7.1908979 0.13795811 1162 30
-2.7728667 -7.195529 0.1382632 930 30
-0 -0 0 899 30
-0 -0 0 1667 30
-2.8475831 -7.0024829 0.13624704 1702 30
-2.8950846 -6.9959655 0.13640621 1698 30
-2.9464936 -6.9983439 0.13669802 1666 30
-2.9972529 -6.9985156 0.13696331 1704 30
-3.0189743 -6.9314075 0.13626032 1331 30
-3.0472746 -6.8807545 0.13579607 1737 30
-3.1181753 -6.9257488 0.13672455 1279 30
-3.2105482 -7.0155907 0.13831624 1515 30
-3.2560649 -7.0011988 0.13839583 1421 30
-3.30708 -6.9982648 0.13864785 423 30
-5.7351198 -11.945415 0.21174638 36 30
-5.7631602 -11.817431 0.21038017 33 30
-5.7982802 -11.706581 0.20926599 35 30
-5.8183298 -11.568057 0.20774062 31 30
-5.8641872 -11.483161 0.20701109 24 30
-5.899097 -11.378611 0.20598975 35 30
-5.9455199 -11.297958 0.20532654 76 30
-6.0081353 -11.248917 0.20514084 63 30
-6.0794268 -11.216235 0.20520717 238 30
-6.102354 -11.095489 0.20394708 49 30
-6.1274409 -10.980999 0.20277983 40 30
-6.0991378 -10.774385 0.20020659 210 30
-6.1646352 -10.735892 0.20019333 233 30
-6.1292405 -10.524193 0.19752724 39 30
-6.1540341 -10.419233 0.19649264 59 30
-6.1731477 -10.306648 0.19533867 160 30
-6.147511 -10.122435 0.1930705 50 30
-6.1455407 -9.980649 0.19145228 36 30
-6.1690693 -9.8825312 0.19051053 56 30
-6.200717 -9.7988663 0.18979427 40 30
-5.8579707 -9.1327763 0.17989925 76 30
-5.8741102 -9.0354643 0.17893097 56 30
-5.8986306 -8.9524937 0.17818817 66 30
-5.9212441 -8.8679018 0.17741886 74 30
-5.9122224 -8.7378244 0.17592001 64 30
-5.9176626 -8.6312857 0.17479256 79 30
-5.9357114 -8.5447197 0.17398344 77 30
-5.9546485 -8.4607134 0.17321412 134 30
-6.0186415 -8.4411135 0.17349267 167 30
-6.070322 -8.4040251 0.17349267 86 30
-6.0497355 -8.2681732 0.17187445 29 30
-6.2908883 -8.4879541 0.17611897 141 30
-6.0745001 -8.0917568 0.17018992 33 30
-6.0968003 -8.0185146 0.16959302 22 30
-6.1001287 -7.9215388 0.16859822 23 30
-6.0705204 -7.7838268 0.16691367 46 30
-6.1677489 -7.8092051 0.1679748 16 30
-6.1986856 -7.7501307 0.16761667 23 30
-6.2511578 -7.7181664 0.16772279 27 30
-6.3535662 -7.7469263 0.16887677 433 30
-6.4009809 -7.7077956 0.16887677 132 30
-6.4964213 -7.725771 0.16987157 45 30
-6.568985 -7.715456 0.17038888 52 30
-6.6847568 -7.7545233 0.1717816 27 30
-6.7894173 -7.7788982 0.17293558 18 30
-6.850925 -7.7528272 0.17321412 35 30
-6.9503717 -7.7687688 0.17424873 21 30
-7.0402002 -7.7726641 0.17508437 14 30
-7.117496 -7.761745 0.17566799 12 30
-7.1772332 -7.7311172 0.17590675 10 30
-7.2656245 -7.7306485 0.17670259 29 30
-7.3336005 -7.7076535 0.17710051 26 30
-7.4778743 -7.763329 0.17895749 138 30
-0 -0 0 265 30
-0 -0 0 287 30
-7.7502713 -7.7552109 0.18141136 409 30
-7.8652716 -7.7742853 0.18267144 266 30
-7.9865189 -7.7978258 0.18403764 464 30
-8.0903549 -7.8028154 0.18507224 322 30
-8.1612473 -7.7750974 0.1854967 353 30
-8.3376932 -7.8461599 0.18784444 33 30
-9.2389221 -8.5879259 0.20329714 36 30
-9.4026632 -8.6331873 0.20530002 76 30
-9.505826 -8.6210079 0.20620199 80 30
-9.6158943 -8.6138897 0.20722331 91 30
-9.731473 -8.6103811 0.2083375 70 30
-9.8466158 -8.6051188 0.20943843 64 30
-9.9370785 -8.5772057 0.21010163 53 30
-10.860809 -9.2588024 0.22528903 233 30
-6.6109309 -5.5663128 0.15061209 322 30
-11.052034 -9.190033 0.22664198 296 30
-11.026302 -9.0547838 0.22523598 122 30
-2.9261413 -2.373394 0.085949525 133 30
-2.9570394 -2.3685205 0.086228073 303 30
-2.9417129 -2.3267632 0.085724033 161 30
-2.9346554 -2.2920535 0.085365906 264 30
-2.954999 -2.2788882 0.085472018 180 30
-2.9593792 -2.2534454 0.085312851 141 30
-2.9475727 -2.2160194 0.084888399 127 30
-2.952282 -2.1913371 0.084742494 130 30
-2.9559927 -2.1660898 0.08458332 137 30
-2.9724689 -2.1502552 0.084636383 297 30
-2.9497995 -2.1064124 0.084052756 133 30
-2.9536779 -2.0819371 0.083906852 122 30
-2.9598298 -2.0592067 0.083800741 131 30
-2.9682872 -2.0381773 0.083734423 119 30
-2.9749427 -2.016 0.083641574 141 30
-2.9847629 -1.9960408 0.08360178 153 30
-3.016151 -1.9903539 0.083906852 101 30
-3.0492566 -1.9854475 0.084238455 87 30
-3.0807321 -1.9791286 0.084543534 81 30
-3.1181567 -1.9762441 0.084941454 88 30
-3.1615961 -1.9766841 0.085432224 414 30
-3.2238822 -1.9882101 0.086214811 110 30
-3.2326035 -1.966313 0.086161755 231 30
-3.3217833 -1.9927282 0.087355524 74 30
-3.3485789 -1.9809622 0.087581016 73 30
-3.4021311 -1.9845577 0.088217691 66 30
-3.5884767 -2.0638297 0.090883777 35 30
-3.6767511 -2.0846722 0.092037752 37 30
-3.7287529 -2.0840218 0.092634641 29 30
-3.8273039 -2.1083777 0.093934521 8 30
-3.8041379 -2.0652966 0.093390696 25 30
-3.8608241 -2.0654964 0.094053902 5 30
-3.8636947 -2.0366399 0.093907997 14 30
-3.8912048 -2.0207272 0.094133481 15 30
-10.672925 -5.4588842 0.19499381 211 30
-9.6917505 -4.8822923 0.17992577 179 30
-9.7107763 -4.8174009 0.1797666 155 30
-9.7221832 -4.7489495 0.17950132 161 30
-10.60813 -5.101285 0.19211549 108 30
-10.595849 -5.0155654 0.19147882 316 30
-10.59742 -4.936945 0.19105436 512 30
-9.7994413 -4.492259 0.17897075 133 30
-9.804945 -4.4221807 0.17865242 137 30
-9.8026457 -4.3489604 0.17822796 94 30
-9.7934027 -4.2731366 0.17771067 65 30
-9.7339783 -4.1763024 0.1764771 73 30
-9.5963459 -4.04772 0.17412935 178 30
-9.5932913 -3.9772744 0.17373143 187 30
-9.5897341 -3.9070191 0.17333351 205 30
-9.5847492 -3.836586 0.17292231 205 30
-9.5894976 -3.770386 0.17265704 254 30
-9.6264439 -3.716877 0.172856 117 30
-9.6191492 -3.6463995 0.17243154 232 30
-9.5982323 -3.5712707 0.1718214 315 30
-9.5993004 -3.5047662 0.17152959 295 30
-9.5679083 -3.4269209 0.1707868 251 30
-9.5859251 -3.3671548 0.170747 285 30
-9.5789871 -3.2988324 0.17036234 357 30
-9.58389 -3.2348788 0.17015012 90 30
-9.7611513 -3.2281234 0.17235196 24 30
-10.166988 -3.2932549 0.17773719 200 30
-10.282317 -3.2610345 0.1790636 383 30
-8.5975065 -2.6688156 0.15538716 943 30
-8.5936279 -2.609911 0.15510862 1142 30
-8.600853 -2.5545704 0.15498924 1075 30
-8.6134853 -2.5009122 0.15494944 1141 30
-8.6209726 -2.4458308 0.15484333 1151 30
-8.6223269 -2.3891499 0.15465763 1060 30
-8.6262064 -2.333328 0.15451173 1062 30
-8.6355267 -2.279079 0.15444541 1064 30
-8.6464434 -2.225302 0.15440561 706 30
-6.4941998 -1.6290652 0.12478685 208 30
-6.539042 -1.5977288 0.12526436 150 30
-6.5380216 -1.5550315 0.12511845 368 30
-6.5493884 -1.5153364 0.12514499 426 30
-10.208111 -2.2957423 0.17476603 42 30
-9.3779793 -2.0487127 0.16330583 208 30
-9.3874388 -1.99051 0.16326605 375 30
-9.3916407 -1.9312613 0.16315994 377 30
-9.3886042 -1.8706686 0.16296096 402 30
-9.3665237 -1.8065889 0.16250999 401 30
-9.3449945 -1.7430339 0.16207227 466 30
-9.3466568 -1.6840659 0.1619529 177 30
-9.286869 -1.6145271 0.16101114 292 30
-9.2956142 -1.5573484 0.16099788 356 30
-9.2990723 -1.4993275 0.1609183 369 30
-9.2843819 -1.4385678 0.16059996 337 30
-9.2633629 -1.3771628 0.16020203 280 30
-9.2607489 -1.3187478 0.16005613 327 30
-9.3122606 -1.2678335 0.16063975 127 30
-9.3902674 -1.2198131 0.1615815 143 30
-9.2437592 -1.143157 0.15952556 375 30
-9.2486134 -1.0861837 0.15949903 391 30
-9.248148 -1.0286413 0.15940619 431 30
-9.2363853 -0.96999729 0.15916744 414 30
-9.2083311 -0.90996373 0.15871646 374 30
-9.1968145 -0.85187823 0.15849096 433 30
-9.3224087 -0.80584633 0.16009592 93 30
-9.1796646 -0.73679614 0.15813284 421 30
-9.1750383 -0.67979234 0.15801345 539 30
-9.1630745 -0.62239903 0.15780123 666 30
-9.1457634 -0.56487018 0.15752268 872 30
-9.1171093 -0.50696707 0.15709823 652 30
-9.1460142 -0.452299 0.15744309 485 30
-9.1496162 -0.39621481 0.15745637 287 30
-9.1198997 -0.33887959 0.15703191 197 30
-9.0578442 -0.28093338 0.156183 541 30
-9.080389 -0.22587149 0.15646155 262 30
-9.0736055 -0.17000151 0.15635544 298 30
-9.0584812 -0.11412284 0.15614322 548 30
-9.0310135 -0.058359168 0.15577182 520 30
-9.0142031 -0.0029399896 0.15554632 548 30
-9.1440382 0.053130906 0.15727067 55 30
-6.5989466 0.078730039 0.1235135 215 30
-9.8495188 0.17815027 0.16664839 255 30
-9.1760883 -0.67590398 0.049004946 454 31
-9.1650972 -0.61857587 0.048984002 464 31
-9.1447659 -0.56085598 0.048950493 443 31
-9.1450396 -0.50456858 0.048946302 476 31
-9.1469641 -0.44839707 0.048944905 447 31
-9.1475458 -0.392178 0.048942115 245 31
-9.1527777 -0.33615282 0.048946302 149 31
-9.0707073 -0.27740759 0.048829015 468 31
-6.5779939 -0.16046083 0.04534534 823 31
-6.5748553 -0.12002228 0.045339756 658 31
-9.0732765 -0.11038624 0.048827622 949 31
-9.0327845 -0.05445911 0.048770376 432 31
-9.0279484 0.00096614612 0.048763394 498 31
-9.2317686 0.057607848 0.04904823 51 31
-6.5954418 0.081961587 0.04536768 522 31
-6.5808167 0.12217153 0.045348134 138 31
-9.7050009 0.23919599 0.049712852 160 31
-8.9497051 0.27562791 0.04866007 603 31
-8.9798241 0.33171421 0.048704751 405 31
-6.6058092 0.28492355 0.045390021 345 31
-8.9560995 0.44095361 0.048678219 480 31
-8.9442396 0.49540237 0.048665654 591 31
-8.9210691 0.54904789 0.048637729 470 31
-9.7665949 0.66115236 0.049825948 423 31
-9.6885548 0.71562445 0.049722627 990 31
-8.9383593 0.7154727 0.048678219 497 31
-8.9377861 0.77064711 0.048683807 1050 31
-8.9199438 0.82427925 0.048665654 1390 31
-8.913723 0.87889749 0.048664257 1393 31
-8.8942385 0.93211716 0.04864471 1122 31
-8.900279 0.98799604 0.048661467 672 31
-8.9049749 1.0438678 0.048676826 607 31
-9.6943722 1.1966439 0.049796626 1299 31
-8.7972813 1.1408616 0.04854418 254 31
-8.8416424 1.2018163 0.048616786 120 31
-8.820241 1.2540761 0.048597239 241 31
-8.8054562 1.3071456 0.048587464 197 31
-8.7873869 1.3596225 0.048573501 246 31
-8.7699938 1.4120857 0.048560936 267 31
-9.6310902 1.611305 0.049792439 896 31
-9.6446686 1.6744726 0.049825948 1403 31
-8.7513742 1.5748662 0.048573501 664 31
-8.7464619 1.6294491 0.048580483 588 31
-8.7549562 1.6866776 0.04860701 918 31
-8.7620964 1.7438765 0.048632145 1124 31
-8.7394762 1.7951939 0.048615389 830 31
-8.717535 1.8465065 0.048600029 701 31
-8.6904087 1.8965521 0.048577689 572 31
-9.5538158 2.1463542 0.049830139 996 31
-8.6421223 1.9974275 0.048542783 384 31
-8.6637564 2.0585032 0.048591651 258 31
-8.6529055 2.1120982 0.048594445 519 31
-8.6368732 2.1644228 0.048590258 608 31
-8.6398945 2.2216084 0.048613992 350 31
-8.6096621 2.2702475 0.048590258 332 31
-9.0850267 2.4552445 0.04929816 127 31
-8.5695887 2.3725302 0.048573501 362 31
-8.5683393 2.4288838 0.048593048 228 31
-8.5744047 2.4875395 0.048623767 1296 31
-8.5704842 2.5435169 0.048640523 914 31
-8.5920372 2.6073768 0.048694976 370 31
-8.6083517 2.6701157 0.048742447 359 31
-8.6051531 2.7271132 0.048761997 170 31
-8.5796947 2.7770915 0.048749428 264 31
-9.4284678 3.115742 0.050022822 1037 31
-9.4139109 3.1751328 0.050029803 1087 31
-9.4037075 3.2360885 0.050043765 1074 31
-9.3987713 3.2990251 0.050066106 1091 31
-9.3905926 3.361012 0.050084256 1172 31
-9.3820057 3.4230225 0.050102409 1125 31
-9.3720741 3.4847059 0.050119165 1171 31
-9.3589325 3.5453334 0.050131731 1103 31
-9.3509979 3.6080902 0.050152674 1175 31
-9.2979679 3.6533344 0.050106596 571 31
-9.1138144 3.6457112 0.049863648 962 31
-9.1023884 3.7060878 0.049880404 1042 31
-9.0961065 3.7687571 0.049905535 1025 31
-9.0811043 3.8279939 0.0499181 1006 31
-9.0767469 3.8919158 0.049947422 944 31
-9.0627794 3.951932 0.049962781 898 31
-9.0502443 4.0127335 0.049980935 913 31
-9.0345697 4.0722976 0.049994897 892 31
-9.0221415 4.1334858 0.050014444 984 31
-9.0047684 4.1925645 0.050027009 944 31
-9.0168419 4.2656941 0.050085653 1095 31
-8.9986105 4.3248382 0.050098222 1009 31
-8.982688 4.3852344 0.050114974 997 31
-8.9403801 4.4327188 0.050091237 650 31
-8.6173534 4.3386774 0.049629077 516 31
-8.6074877 4.4001169 0.049655605 778 31
-8.5892038 4.4574542 0.049669567 721 31
-8.5793877 4.5193915 0.049697492 798 31
-8.5656071 4.5794907 0.049719833 848 31
-8.5487738 4.6381602 0.049737982 606 31
-8.8837261 4.8906255 0.050317433 351 31
-8.8963327 4.9689317 0.050385851 774 31
-8.1295748 4.6064496 0.04920461 56 31
-8.8433571 5.0827112 0.050399814 212 31
-9.0539188 5.277863 0.050790768 696 31
-8.9456072 5.2885418 0.050667897 494 31
-9.0733862 5.4394655 0.050928995 711 31
-2.9809487 1.812938 0.041029491 9 31
-2.9808364 1.838014 0.041047644 22 31
-2.9796801 1.8626269 0.0410644 43 31
-2.9749541 1.8851546 0.041075569 60 31
-2.9683805 1.9066141 0.041083947 55 31
-2.9641697 1.9296995 0.041096512 47 31
-2.9597874 1.9528049 0.041109078 47 31
-2.9577274 1.9775957 0.041125834 57 31
-2.9546459 2.0018737 0.041141193 53 31
-2.9505532 2.0256226 0.041155156 59 31
-2.9446375 2.048255 0.041166324 54 31
-2.938555 2.0708907 0.041177496 64 31
-2.9233508 2.0871398 0.041173305 50 31
-2.9291301 2.1185107 0.041205421 88 31
-2.8749261 2.1063159 0.041134212 29 31
-2.8458836 2.1120028 0.041106287 29 31
-2.8136818 2.1150107 0.041072775 45 31
-2.7688174 2.1080158 0.041016925 27 31
-2.7296908 2.1048231 0.040970851 29 31
-2.6836133 2.0956936 0.040912207 25 31
-2.6401057 2.0879388 0.040857751 32 31
-2.5921109 2.0759811 0.04079492 26 31
-2.5560172 2.0729582 0.040753033 26 31
-2.5131016 2.0638621 0.040698577 24 31
-2.4780862 2.0607092 0.040658087 35 31
-2.44244 2.0565612 0.040616199 32 31
-2.4107447 2.0552967 0.040581293 31 31
-2.3731 2.0484958 0.040535215 23 31
-2.3446689 2.0492048 0.040505894 32 31
-2.3035831 2.0383816 0.040452834 29 31
-2.2709157 2.0344691 0.040415138 43 31
-2.1894798 1.9859116 0.040285286 23 31
-2.1146228 1.9418422 0.040166602 5 31
-2.113658 1.9649894 0.040187545 38 31
-2.0906341 1.9676456 0.040166602 36 31
-2.0777972 1.9797469 0.040165205 45 31
-2.0684907 1.9952346 0.040170789 33 31
-2.068377 2.0197611 0.040194526 45 31
-2.0644822 2.0408473 0.040211283 33 31
-2.0618207 2.0633757 0.040230829 37 31
-2.0596628 2.0866592 0.040251773 30 31
-2.054503 2.1071305 0.040267132 42 31
-2.051945 2.130497 0.040288076 26 31
-0 0 0 46 31
-0 0 0 50 31
-0 0 0 33 31
-0 0 0 35 31
-2.0541272 2.2680128 0.040430494 39 31
-2.0521786 2.2939847 0.040455628 42 31
-2.0493257 2.3192685 0.040479366 38 31
-2.0462394 2.3446033 0.0405031 43 31
-0 0 0 26 31
-0 0 0 33 31
-0 0 0 36 31
-0 0 0 34 31
-2.0158617 2.4580586 0.040596649 39 31
-2.0057786 2.4765964 0.040607821 46 31
-2.0155396 2.5200861 0.040663671 11 31
-2.8700023 3.6331184 0.04262263 80 31
-2.8568845 3.6624851 0.042643573 244 31
-2.8483975 3.6981637 0.042675685 280 31
-2.8389738 3.7330797 0.042706404 295 31
-2.8280272 3.7664194 0.042734329 250 31
-2.812608 3.7941425 0.042752482 176 31
-2.7833669 3.8032606 0.04273852 160 31
-2.7658365 3.828372 0.042752482 83 31
-2.7382281 3.8395724 0.042742707 120 31
-2.7036767 3.8407679 0.042716179 138 31
-2.674922 3.8498952 0.04270361 108 31
-2.6404998 3.8505688 0.042677082 60 31
-0 0 0 54 31
-0 0 0 16 31
-0 0 0 4 31
-2.1203849 3.2612431 0.041589394 101 31
-2.0916915 3.2607274 0.041567054 92 31
-2.0422187 3.2270341 0.041490261 30 31
-2.0218499 3.238656 0.041488864 98 31
-1.9882998 3.2288661 0.041452561 141 31
-1.9653343 3.235878 0.041444182 127 31
-1.9505835 3.2564533 0.041458145 175 31
-1.9376894 3.2804124 0.041477691 387 31
-1.9029216 3.2671852 0.041437201 190 31
-1.8803475 3.2744648 0.04143022 173 31
-1.8429682 3.2554882 0.041381352 111 31
-1.7907788 3.2091115 0.041289195 77 31
-1.7589992 3.1981378 0.041254289 57 31
-1.7631836 3.2528205 0.041324105 14 31
-1.7106638 3.2027261 0.041227762 33 31
-1.7375796 3.301641 0.041367389 7 31
-1.7509091 3.3770373 0.041469313 183 31
-1.7251489 3.3779223 0.041453958 189 31
-1.6949476 3.3696866 0.041424636 171 31
-1.6680217 3.3674796 0.041405085 178 31
-1.6429415 3.3686645 0.041391123 172 31
-1.6057825 3.3444312 0.041338068 102 31
-1.2602748 2.667197 0.040276907 114 31
-1.2421973 2.6712532 0.040271323 102 31
-1.2232847 2.6733699 0.040262945 86 31
-1.1965866 2.6580331 0.040228035 152 31
-1.1798495 2.6644111 0.040226642 4959 31
-1.1594824 2.6624336 0.04021268 5603 31
-0 0 0 1903 31
-1.1212858 2.6635606 0.040193129 119 31
-1.1037732 2.667619 0.040188942 154 31
-1.0854992 2.6697104 0.040181961 146 31
-1.067241 2.6716783 0.04017498 164 31
-1.0464401 2.6670072 0.040158223 120 31
-1.0278965 2.6677799 0.040149845 114 31
-1.0200084 2.696481 0.040183358 57 31
-1.0051861 2.7073755 0.040190339 5 31
-0.98992574 2.7172501 0.040195923 6 31
-0.96818072 2.7091501 0.04017498 6 31
-0.95187062 2.7159832 0.040176377 6 31
-0.94364631 2.7463582 0.04021268 7 31
-0 0 0 5 31
-0 0 0 5 31
-0.92987937 2.8774338 0.040380228 7 31
-0.93757647 2.9631622 0.040497515 9 31
-0.9371475 3.0261674 0.040581293 7 31
-0.99287981 3.2768354 0.040938735 99 31
-0.97190154 3.27999 0.040934548 123 31
-0.95175761 3.2858915 0.040934548 87 31
-0.92885143 3.2820485 0.040920585 31 31
-0.71184629 2.5764244 0.03989014 5 31
-0.67776722 2.5131664 0.039792404 5 31
-0 0 0 7 31
-0.64662683 2.5203259 0.039791007 8 31
-0.63503826 2.5397666 0.039813347 15 31
-0.61896849 2.5416722 0.039810553 147 31
-0.58949667 2.4870462 0.039726779 618 31
-0.60191327 2.6104596 0.039898518 13 31
-0.68010706 3.0336533 0.040498912 35 31
-0.58581847 2.6909261 0.04000324 10 31
-0.57675296 2.7296891 0.040053505 16 31
-0.6571368 3.2063062 0.040727898 45 31
-0.64213359 3.2338169 0.040761411 97 31
-0.62001014 3.2259126 0.040744655 63 31
-0.60478115 3.2542336 0.040779561 90 31
-0.58551025 3.2618201 0.040785145 136 31
-0.56548506 3.2653513 0.040785145 122 31
-0.54428411 3.2618554 0.040775374 118 31
-0.45530576 2.8366468 0.040169396 50 31
-0.42154026 2.733644 0.040019993 87 31
-0.40079668 2.7094715 0.039982297 75 31
-0.38486755 2.7168298 0.039989278 60 31
-0.36724791 2.712204 0.039979503 80 31
-0.34918553 2.7034974 0.039964143 71 31
-0.33259061 2.7055893 0.039964143 53 31
-0.31528512 2.7016196 0.039955765 60 31
-0.30013552 2.7164242 0.039973918 56 31
-0.28387877 2.722193 0.039979503 47 31
-0.26844487 2.7368209 0.039997652 48 31
-0.26580432 2.8917642 0.04021268 28 31
-0.25371984 2.9590971 0.040304832 31 31
-0.22400129 2.8160596 0.040102374 35 31
-0.18574597 2.533154 0.039704438 88 31
-0.16999693 2.5312529 0.039700251 78 31
-0.1529287 2.5072954 0.039665341 127 31
-0.13726525 2.5031943 0.03965836 115 31
-0.12165792 2.4989955 0.039651379 144 31
-0.1061932 2.4966977 0.039647192 128 31
-0.090687603 2.4923055 0.039640211 162 31
-0 0 0 113 31
-0 0 0 124 31
-0 0 0 126 31
-0 0 0 131 31
-0 0 0 124 31
0.0011086739 2.4949548 0.039641608 134 31
0.01640518 2.4929011 0.039638814 98 31
0 0 0 142 31
0 0 0 130 31
0 0 0 130 31
0 0 0 139 31
0 0 0 138 31
0 0 0 130 31
0.12269519 2.4749155 0.03961787 126 31
0.13804419 2.4771116 0.039622057 129 31
0.15354736 2.4812086 0.039629042 128 31
0.16897115 2.4832127 0.039633229 145 31
0.18501364 2.4930995 0.039648589 102 31
0.20062616 2.4959047 0.039654173 100 31
0.21996842 2.5414534 0.039719798 244 31
0.28049117 3.0269866 0.040402569 69 31
0.30846667 3.1207464 0.040536612 104 31
0.25213704 2.3977346 0.039524321 102 31
0.26651391 2.3931606 0.039520133 92 31
0.28119305 2.3914804 0.039520133 97 31
0.295984 2.3907025 0.039521527 84 31
0.31077597 2.389833 0.039522924 106 31
0.32476106 2.3829267 0.039515942 70 31
0.34275159 2.4046504 0.039549455 150 31
0.35720637 2.4005239 0.039546661 123 31
0.37238732 2.4012516 0.039550848 119 31
0.38711411 2.3989215 0.039550848 131 31
0.40182632 2.3965011 0.039550848 115 31
0.41737813 2.3989167 0.039557829 87 31
0.43173578 2.3943422 0.039555039 117 31
0.44586998 2.3886988 0.039550848 118 31
0.45995125 2.382972 0.039546661 95 31
0.4728086 2.3712778 0.039534096 79 31
0.48373011 2.3506999 0.039508961 30 31
0.5004226 2.358449 0.039524321 80 31
0.51424509 2.3524029 0.039520133 118 31
0.52866948 2.3492033 0.039520133 123 31
0.54329902 2.3468895 0.039521527 101 31
0.5579201 2.3444848 0.039522924 95 31
0.57276905 2.3429604 0.039525717 84 31
0.58713442 2.3394017 0.039525717 77 31
0 0 0 56 31
0 0 0 110 31
0.65043598 2.4034994 0.039634626 14 31
0 0 0 21 31
0.683698 2.4088063 0.039654173 12 31
0 0 0 24 31
0.91711134 3.0876291 0.040655293 221 31
0 0 0 232 31
0 0 0 218 31
0 0 0 224 31
0 0 0 221 31
0 0 0 236 31
0 0 0 206 31
0 0 0 229 31
1.0784352 3.0700481 0.040701371 202 31
0 0 0 209 31
0 0 0 206 31
0 0 0 222 31
0 0 0 192 31
0 0 0 215 31
0 0 0 203 31
1.226714 3.0645506 0.040766995 220 31
1.2488875 3.0653019 0.040779561 235 31
0 0 0 228 31
0 0 0 207 31
0 0 0 292 31
0 0 0 200 31
0 0 0 210 31
0 0 0 229 31
1.3939288 3.0406711 0.040828429 755 31
1.407918 3.0220883 0.04081307 81 31
0 0 0 49 31
0 0 0 54 31
0 0 0 58 31
0 0 0 43 31
0 0 0 40 31
0 0 0 40 31
0 0 0 54 31
1.3643986 2.5883636 0.040243395 81 31
0 0 0 82 31
0 0 0 73 31
0 0 0 68 31
0 0 0 52 31
0 0 0 57 31
1.4736907 2.5624018 0.040285286 90 31
1.4949243 2.562815 0.040300641 97 31
1.5152006 2.5613418 0.04031321 110 31
0 0 0 83 31
0 0 0 82 31
0 0 0 109 31
0 0 0 108 31
0 0 0 64 31
1.6451801 2.5610623 0.040408157 189 31
1.6445044 2.5257726 0.040366266 151 31
1.6478616 2.4972672 0.040335551 176 31
0 0 0 189 31
0 0 0 255 31
0 0 0 271 31
0 0 0 194 31
0 0 0 248 31
0 0 0 228 31
1.7793444 2.4598684 0.040396985 234 31
1.8003118 2.4569728 0.040410947 235 31
1.8201191 2.4523058 0.040422119 220 31
1.8429397 2.4514859 0.040440269 228 31
1.8627909 2.4464984 0.040451441 280 31
1.8844813 2.4437358 0.040466797 202 31
1.9523487 2.4999256 0.040586878 59 31
0 0 0 38 31
2.2746809 2.8403895 0.04123893 76 31
2.3071771 2.8450243 0.041272443 162 31
2.2757435 2.7712915 0.041164931 75 31
2.2748101 2.7357404 0.041125834 89 31
2.3018544 2.7339737 0.041148175 52 31
2.3244228 2.7266493 0.04116074 47 31
2.5011327 2.897855 0.041502826 84 31
2.5484672 2.916348 0.041565657 107 31
2.5795615 2.9156389 0.041593581 133 31
2.6114097 2.9154027 0.041622903 150 31
2.6352928 2.905993 0.041635469 144 31
2.6598349 2.8971369 0.041649431 167 31
2.6884506 2.8924847 0.041671772 156 31
2.7123137 2.8824904 0.041684341 156 31
2.7375338 2.8737605 0.0416997 225 31
2.8599026 2.9656317 0.041910533 7 31
3.0016553 3.0747149 0.042157672 80 31
3.0303032 3.0661995 0.042177219 102 31
3.0660303 3.0645192 0.042210732 69 31
3.0975816 3.0582983 0.042235862 69 31
3.1313186 3.0539007 0.042265184 79 31
3.1672778 3.0512855 0.042298697 82 31
3.2054946 3.0504119 0.042336393 91 31
3.2401772 3.0457582 0.042367112 98 31
3.2793186 3.0448768 0.042406209 84 31
3.315623 3.0409245 0.042439718 87 31
3.3475561 3.0326114 0.042464849 79 31
3.3824918 3.0266883 0.042495567 96 31
3.4257205 3.0277369 0.042541645 75 31
3.4645696 3.0244215 0.042579345 93 31
3.4989629 3.0168233 0.042608667 70 31
3.5387211 3.0134561 0.04264776 84 31
3.5724478 3.0045631 0.042675685 85 31
3.5985072 2.9889779 0.042689648 56 31
0 0 0 4 31
3.5572281 2.881628 0.042550024 7 31
0 0 0 4 31
3.587615 2.834038 0.042541645 5 31
3.6049368 2.8119714 0.042541645 21 31
3.6173704 2.7861366 0.042533267 6 31
3.6757805 2.7953758 0.042605873 149 31
3.7032571 2.7805774 0.042624023 85 31
3.7475574 2.7780566 0.042671498 41 31
3.7742145 2.762099 0.042688254 61 31
3.8056796 2.7494335 0.042713385 44 31
3.8363163 2.7359047 0.042737123 47 31
3.8930924 2.7405295 0.042805538 41 31
3.9467838 2.7422762 0.042868372 29 31
4.005589 2.7468607 0.042939581 15 31
4.0273361 2.7255952 0.042947959 7 31
4.0656023 2.7152781 0.042984258 17 31
4.1731849 2.7502828 0.043136451 107 31
4.2126136 2.7393489 0.043174151 100 31
4.2613211 2.7339766 0.043227211 113 31
4.3067412 2.7259686 0.043274682 114 31
4.3462849 2.7137969 0.043312382 126 31
4.4045706 2.7127831 0.043380801 145 31
4.4672785 2.7137523 0.043456197 143 31
4.5121503 2.7032566 0.043502275 148 31
4.5759993 2.7035062 0.043579068 169 31
4.6149645 2.6884701 0.043615371 178 31
4.6781936 2.6870079 0.043690771 367 31
4.6310773 2.6222696 0.043588843 209 31
4.6462069 2.5933168 0.043587446 178 31
4.6681643 2.5681348 0.043597221 240 31
4.6741652 2.5341983 0.043581862 230 31
4.6693425 2.4946277 0.043549746 238 31
4.6686354 2.4575424 0.043524615 261 31
4.6711998 2.4224021 0.043505065 259 31
4.6726189 2.386868 0.043484122 253 31
4.6764579 2.352757 0.043467369 270 31
4.6854305 2.3213534 0.043458991 216 31
4.7472153 2.3158083 0.04353299 231 31
4.7793622 2.2952986 0.043560918 308 31
4.7996836 2.2689228 0.04357069 328 31
4.7962899 2.2314115 0.043544162 259 31
4.7980723 2.1965261 0.043526009 277 31
4.7941375 2.1592379 0.043499481 324 31
4.7999825 2.1265388 0.043488313 310 31
4.7643566 2.0758655 0.04341431 188 31
4.7953863 2.0544732 0.043442234 363 31
4.8042159 2.0234571 0.04343665 320 31
4.8063788 1.9897312 0.043421291 345 31
4.800899 1.9530388 0.043394763 381 31
4.8100071 1.9224303 0.043390572 365 31
4.804028 1.8859334 0.043364044 344 31
4.8089786 1.8539015 0.043354269 443 31
4.8174577 1.8232968 0.043350082 402 31
4.818244 1.7898703 0.043334723 297 31
4.8028312 1.7506773 0.043295626 189 31
4.8153658 1.7218485 0.04329842 329 31
4.7947016 1.6813424 0.043252341 179 31
4.8200574 1.6570963 0.043274682 326 31
4.8263445 1.6262118 0.043269098 320 31
4.8248372 1.5928028 0.043252341 304 31
4.79456 1.5502377 0.043193698 230 31
4.7849159 1.5147491 0.043165773 212 31
4.8065367 1.4892111 0.043183926 108 31
4.8462057 1.4689804 0.043228608 99 31
4.9126496 1.4562827 0.043312382 87 31
5.0050497 1.4503449 0.043433856 82 31
14.131814 4.0034361 0.05666624 295 31
14.130091 3.9094479 0.05662854 316 31
14.123886 3.8145883 0.056585256 347 31
14.170233 3.7339714 0.056618769 150 31
14.240335 3.6591525 0.056687184 264 31
14.230508 3.5636876 0.056641109 256 31
14.229762 3.4708517 0.056608994 295 31
14.227441 3.3779283 0.056575485 280 31
14.214772 3.2829132 0.056528009 297 31
14.191717 3.1859899 0.056466576 270 31
14.17485 3.0909653 0.056414913 249 31
14.172025 2.9993749 0.056384195 291 31
14.169591 2.9081368 0.056354873 310 31
14.154803 2.8147004 0.056308798 254 31
14.146276 2.7228789 0.056272496 298 31
14.137156 2.6312683 0.056236193 303 31
14.125478 2.5395179 0.056197096 320 31
14.105324 2.4466424 0.05614683 323 31
14.097386 2.3562543 0.056114718 337 31
14.084921 2.2654202 0.056077018 319 31
14.069898 2.1745224 0.056036524 326 31
14.06418 2.085362 0.056009997 328 31
14.056911 1.9962128 0.055982072 282 31
14.045113 1.9066932 0.055948563 311 31
14.035722 1.8177792 0.055919241 332 31
14.028747 1.7294197 0.055894107 339 31
14.01923 1.6409816 0.055866182 346 31
14.000212 1.5517333 0.055825692 376 31
13.978638 1.4625719 0.055782408 392 31
13.969436 1.3750083 0.055757273 350 31
13.956698 1.2873371 0.055727951 303 31
13.947397 1.2002172 0.055704217 307 31
13.93556 1.1131006 0.055677686 312 31
13.937141 1.0272048 0.055670705 289 31
12.822742 0.86590481 0.054102704 264 31
12.815836 0.78647351 0.054085948 274 31
12.864353 0.71025181 0.054147381 472 31
12.889443 0.63233513 0.054176703 766 31
12.880093 0.55267662 0.054158553 312 31
12.888238 0.47381958 0.054165535 296 31
12.8969 0.39491409 0.054173913 333 31
12.895082 0.31567451 0.054168325 291 31
12.900775 0.23661956 0.054173913 295 31
12.901984 0.15745744 0.054173913 332 31
12.902707 0.07828939 0.054173913 326 31
12.906944 -0.00088151952 0.054179497 336 31
12.907696 -0.080083139 0.054180894 309 31
12.910961 -0.15933077 0.054186478 343 31
12.907742 -0.23851117 0.054183684 316 31
12.908034 -0.31775612 0.054186478 316 31
12.935827 -0.39787194 0.054228365 274 31
13.080043 -0.48264465 0.054433618 252 31
13.076836 -0.56289321 0.054433618 268 31
13.080127 -0.64346385 0.054443389 257 31
13.095901 -0.7248134 0.054471314 277 31
13.094202 -0.80533856 0.054475505 243 31
13.094003 -0.88600504 0.054482486 234 31
13.100287 -0.96721417 0.054499242 222 31
13.101084 -1.0481354 0.054509014 197 31
13.104369 -1.1293602 0.054522976 227 31
13.106154 -1.2105728 0.054535545 202 31
12.985029 -1.2797964 0.054376371 110 31
12.947095 -1.356324 0.05433448 255 31
12.951449 -1.4371729 0.054352634 266 31
12.946361 -1.5170797 0.054358218 272 31
13.326853 -1.6445873 0.054906949 115 31
13.336346 -1.7288979 0.054934874 166 31
13.341341 -1.8128486 0.054957215 152 31
13.353727 -1.8980507 0.054990724 57 31
13.34183 -1.9799519 0.054990724 81 31
13.34129 -2.0636117 0.05500748 122 31
13.343185 -2.1478162 0.055028424 104 31
13.348495 -2.2327809 0.055054955 133 31
13.349323 -2.3172078 0.055075899 131 31
13.322059 -2.3967733 0.055057745 110 31
13.09475 -2.4389389 0.054756153 115 31
12.988216 -2.5016594 0.054626301 244 31
12.088931 -2.4055495 0.053368267 299 31
12.066107 -2.4780719 0.053357098 318 31
12.080024 -2.5582743 0.053398985 192 31
16.444134 -3.5876248 0.059658431 142 31
15.988597 -3.5911851 0.05903849 117 31
15.664214 -3.6194525 0.058605649 76 31
15.285613 -3.6309388 0.058094617 189 31
14.910389 -3.6386292 0.057587773 100 31
14.524989 -3.6391826 0.057065573 115 31
14.274782 -3.6697447 0.056737449 165 31
13.913553 -3.6680686 0.056248758 213 31
13.276791 -3.5875201 0.055360734 100 31
13.036714 -3.6086452 0.05504518 193 31
13.020099 -3.6902046 0.055053558 247 31
13.011618 -3.7742023 0.055074502 283 31
5.1392655 -1.5256981 0.043643296 184 31
5.0656919 -1.5377556 0.043549746 155 31
4.9883456 -1.547784 0.043450613 193 31
4.9129763 -1.5575259 0.043354269 102 31
4.9518504 -1.6033412 0.043425478 54 31
4.9324241 -1.6305584 0.043411516 172 31
4.9185362 -1.6595145 0.043405931 540 31
4.831666 -1.6633145 0.043292835 237 31
4.7789073 -1.6780308 0.043230001 208 31
4.6828399 -1.676667 0.043102942 279 31
4.6123381 -1.6834399 0.04301358 259 31
4.5494308 -1.6921986 0.04293539 329 31
4.5249338 -1.7147695 0.042914446 493 31
4.5021982 -1.7378232 0.042896297 397 31
4.5119276 -1.7734586 0.042927012 456 31
4.5009608 -1.8011099 0.042927012 374 31
4.517611 -1.8400029 0.042968903 469 31
4.5117793 -1.8699838 0.042977277 411 31
4.5260229 -1.9085054 0.043016374 413 31
4.5243378 -1.9405744 0.043031733 355 31
4.5004287 -1.9631038 0.04301358 143 31
4.5477228 -2.0170202 0.043104339 373 31
4.5617003 -2.0568006 0.04314483 91 31
4.5408115 -2.0810041 0.043132264 534 31
4.5352101 -2.1122026 0.043143433 413 31
4.5113168 -2.13486 0.04312668 53 31
4.5080476 -2.1672647 0.043142039 58 31
4.5144358 -2.2045338 0.043172754 39 31
4.5151596 -2.2392981 0.043195095 34 31
4.520092 -2.2764018 0.043224417 29 31
4.5247388 -2.3136501 0.043253738 20 31
4.5237722 -2.3482776 0.043274682 23 31
4.5340528 -2.3890374 0.043313779 20 31
4.5316558 -2.4234121 0.043333326 12 31
4.5439506 -2.4659524 0.04337661 17 31
4.570786 -2.5169311 0.043443631 7 31
4.5456519 -2.5395668 0.043428272 22 31
4.5456457 -2.5762823 0.043453403 20 31
4.5540299 -2.6180751 0.0434925 13 31
4.5612078 -2.6595638 0.0435302 13 31
4.5663247 -2.7002211 0.043565106 7 31
4.5676832 -2.7389846 0.043594427 11 31
4.5644641 -2.775269 0.043616768 17 31
4.5601201 -2.8110924 0.043637712 13 31
4.5597482 -2.8496156 0.043665636 15 31
4.5590749 -2.8882396 0.043693561 12 31
4.5589399 -2.9275024 0.043722883 12 31
4.5626855 -2.9695983 0.043759186 8 31
4.5644155 -3.0107491 0.043792695 12 31
4.5741262 -3.0575879 0.04384017 11 31
4.5792928 -3.1018553 0.04388066 13 31
4.5807891 -3.1440377 0.043915566 13 31
4.5770125 -3.1829302 0.043942098 13 31
4.577836 -3.2253492 0.043977004 13 31
4.5717983 -3.2632511 0.044000741 15 31
4.5687094 -3.3035431 0.044030063 16 31
4.5661039 -3.3445101 0.044060778 8 31
4.5744123 -3.3939087 0.044111043 14 31
4.5662947 -3.4315226 0.044133384 10 31
4.5761914 -3.4830904 0.04418784 12 31
4.5769124 -3.5281942 0.044226933 11 31
4.5922308 -3.5851262 0.044292558 7 31
4.5764227 -3.6181962 0.04430373 12 31
4.5752163 -3.6630795 0.044341426 10 31
4.5697455 -3.7049351 0.044372145 11 31
4.5724363 -3.7538393 0.044418223 13 31
4.5708523 -3.7997193 0.044457316 19 31
4.5696421 -3.8463647 0.04449781 15 31
4.5824933 -3.9054589 0.044564828 8 31
4.5864611 -3.95767 0.044616491 21 31
4.5861931 -4.0067868 0.044661172 16 31
4.5877419 -4.0580354 0.04471004 12 31
4.5903234 -4.1107874 0.044761702 14 31
4.5946527 -4.1657372 0.044817552 17 31
4.5903735 -4.2134576 0.044858046 17 31
4.5878792 -4.2633228 0.044902727 14 31
4.5864019 -4.3146853 0.044950198 13 31
4.5779476 -4.3599839 0.044985104 10 31
4.58711 -4.4226894 0.04505492 13 31
4.6042628 -4.4940505 0.045141488 22 31
4.6114621 -4.5566511 0.045209903 15 31
4.6124082 -4.6138515 0.04526715 17 31
4.6142302 -4.672657 0.04532719 19 31
4.6189952 -4.7352357 0.045394208 19 31
4.6134491 -4.7879677 0.045441683 26 31
4.6088076 -4.8422575 0.045491949 29 31
4.6132646 -4.906868 0.045561761 26 31
4.6191421 -4.9739118 0.045635764 23 31
4.6257219 -5.0426846 0.045712557 18 31
4.6202135 -5.0991282 0.045765616 17 31
4.6275258 -5.1705937 0.0458466 18 31
4.6255217 -5.2326012 0.045909431 21 31
4.6367445 -5.3105936 0.046001583 21 31
4.6413035 -5.3821039 0.04608117 21 31
4.6373763 -5.4447346 0.046144005 27 31
4.6309223 -5.5052228 0.046202645 30 31
4.6469088 -5.593523 0.046311554 22 31
4.6607151 -5.6806784 0.046417672 29 31
4.6604023 -5.7518969 0.046494465 30 31
4.6650138 -5.8303509 0.046583828 41 31
4.6613951 -5.8996611 0.046656433 36 31
4.6546397 -5.965992 0.046723451 27 31
4.6545696 -6.0419655 0.04680723 23 31
4.6682734 -6.1372609 0.046924513 24 31
4.671371 -6.2201567 0.047019459 36 31
4.6783915 -6.3097453 0.047125578 38 31
4.6797605 -6.3931975 0.047220521 37 31
4.6779366 -6.47366 0.047309883 38 31
4.6735573 -6.5518966 0.047395054 47 31
4.6637864 -6.6237812 0.047469057 43 31
4.6487417 -6.6892219 0.047531888 33 31
4.7196283 -6.8808861 0.047808349 475 31
4.7126422 -6.9618816 0.047896314 414 31
4.7109494 -7.0521946 0.047999635 406 31
4.7017188 -7.1327286 0.048086204 77 31
4.7058549 -7.2352061 0.048209075 59 31
4.7348375 -7.3783941 0.048398968 61 31
4.7419071 -7.4901023 0.048535801 73 31
4.7530804 -7.6106524 0.048686597 44 31
4.7314739 -7.6805382 0.048753619 55 31
4.7538538 -7.8239346 0.048940718 29 31
4.7504864 -7.9275775 0.049062192 37 31
4.7562008 -8.0486879 0.049211591 25 31
4.775713 -8.1960831 0.049402881 42 31
4.7721677 -8.3067331 0.049534131 47 31
4.7674432 -8.4176455 0.04966538 28 31
4.767386 -8.5392866 0.049813382 48 31
4.7920523 -8.7085466 0.050036784 38 31
4.812911 -8.8749104 0.050254602 18 31
4.7847643 -8.9536619 0.050332792 30 31
4.7758694 -9.070446 0.050471023 25 31
4.7993402 -9.2522516 0.050711181 25 31
4.8102894 -9.4142008 0.050919224 27 31
4.8189793 -9.5757351 0.051125869 34 31
4.8249779 -9.7359324 0.051329724 22 31
4.8274345 -9.8929653 0.051527992 28 31
4.8173161 -10.027856 0.051691357 31 31
4.8292384 -10.21271 0.051931512 27 31
0 -0 0 34 31
4.8784575 -10.653049 0.052517943 18 31
4.8561406 -10.778511 0.052664552 35 31
4.8563762 -10.958034 0.052893538 24 31
4.8661785 -11.164543 0.053163018 12 31
4.8594427 -11.33849 0.053382229 22 31
4.8375483 -11.481439 0.053553972 25 31
4.884881 -11.795458 0.05398402 80 31
0 -0 0 140 31
4.7691002 -11.927866 0.054094326 326 31
4.6629157 -11.873136 0.053968661 587 31
4.5827775 -11.882863 0.053940736 422 31
4.5072999 -11.904213 0.053930961 469 31
4.4400959 -11.947579 0.053954698 320 31
4.3766408 -12.001842 0.053995188 404 31
4.31673 -12.067075 0.054052435 134 31
5.0032043 -14.26075 0.057259653 16 31
4.991735 -14.51245 0.057586379 8 31
4.9962144 -14.820446 0.057995483 18 31
5.004941 -15.152771 0.058439493 15 31
5.0103898 -15.487652 0.058886301 18 31
4.995604 -15.771681 0.059257705 19 31
5.0293484 -16.223251 0.059873458 22 31
5.0954738 -16.800213 0.060670722 59 31
5.0122037 -16.898272 0.060768463 351 31
4.9006243 -16.901815 0.060729366 234 31
4.7703781 -16.838242 0.060593929 9 31
4.6832418 -16.925985 0.0606791 77 31
5.0623269 -18.7423 0.063264981 162 31
4.9579363 -18.813623 0.063323624 91 31
5.1511006 -20.044649 0.06505499 68 31
5.438684 -21.715221 0.067414671 18 31
5.3058138 -21.750126 0.067417465 11 31
4.0140891 -16.905928 0.060419396 11 31
3.9098306 -16.928291 0.060416602 44 31
3.8036957 -16.942205 0.060402639 542 31
3.6977503 -16.956432 0.060390074 500 31
3.5899098 -16.961193 0.060364943 502 31
3.4815466 -16.96233 0.060335621 486 31
3.3750608 -16.971603 0.060318865 451 31
3.2674577 -16.974318 0.06029373 489 31
3.1586673 -16.969469 0.060258824 544 31
3.0521839 -16.975737 0.060240675 533 31
2.9465973 -16.986263 0.060229503 548 31
2.9102693 -17.410379 0.060804766 116 31
2.947649 -18.324375 0.062072571 253 31
2.8346987 -18.339151 0.06206838 459 31
2.7184496 -18.33147 0.062033474 459 31
2.5995882 -18.303253 0.061970644 480 31
2.4810407 -18.273277 0.061906416 547 31
2.3638592 -18.249481 0.06185196 532 31
2.24792 -18.231882 0.061807282 508 31
2.1326351 -18.216528 0.061766788 521 31
2.0168517 -18.193491 0.061716523 505 31
1.9015356 -18.170713 0.061667655 520 31
1.7860848 -18.142233 0.061611805 590 31
1.6703199 -18.105053 0.061544783 560 31
1.5576532 -18.097029 0.061519653 614 31
1.4447494 -18.083319 0.061487537 611 31
1.3310424 -18.054943 0.061435875 583 31
1.2188175 -18.041819 0.061406553 558 31
1.1064972 -18.023006 0.06137025 518 31
0.99373573 -17.990515 0.061315797 573 31
0.88175845 -17.964314 0.061271116 558 31
0.77065569 -17.949404 0.061243191 598 31
0.65976912 -17.933807 0.061215267 640 31
0.54848909 -17.897537 0.061159413 609 31
0.43807203 -17.876574 0.061125904 614 31
0.32811719 -17.864927 0.061106358 618 31
0.21829718 -17.850605 0.061084017 592 31
0.10865298 -17.833609 0.061058883 583 31
-0.00077459641 -17.80794 0.06102258 578 31
-0.10995033 -17.792601 0.061001636 617 31
-0.21886437 -17.770592 0.060972314 595 31
-0.32743892 -17.743919 0.060937408 577 31
-0.43530211 -17.700588 0.060880162 665 31
-0.54338157 -17.680592 0.060856424 760 31
-0.65134245 -17.662935 0.060836878 724 31
-0.75833458 -17.626635 0.060792197 613 31
-0.86573958 -17.606668 0.060771253 615 31
-0.97276264 -17.583052 0.060746122 628 31
-1.0802641 -17.570765 0.060737744 650 31
-1.1873144 -17.55283 0.060722385 639 31
-1.2942587 -17.53524 0.060708422 633 31
-1.4009523 -17.516005 0.060693063 657 31
-1.5071155 -17.492134 0.060672119 666 31
-1.6132222 -17.469612 0.06065397 674 31
-1.7198935 -17.454409 0.060646985 677 31
-1.8261266 -17.43557 0.060635816 721 31
-1.9321932 -17.416086 0.060624648 720 31
-2.0376244 -17.391985 0.060607892 669 31
-2.1438117 -17.375185 0.060602307 709 31
-2.2499981 -17.358728 0.060598116 736 31
-2.3489316 -17.289104 0.060519926 394 31
-2.4001229 -16.888243 0.059975386 609 31
-2.5048757 -16.881111 0.059986554 703 31
-2.6110063 -16.882225 0.060010292 610 31
-2.7177212 -16.885632 0.060038216 631 31
-2.8242464 -16.886393 0.060063347 641 31
-2.9296865 -16.879583 0.060078707 682 31
-3.1367373 -17.437054 0.060895521 144 31
-3.2493436 -17.447954 0.060938805 99 31
-3.3563411 -17.427689 0.060938805 47 31
-2.511472 -12.621499 0.054126438 24 31
