# .PCD v0.7 - Point Cloud Data file format
VERSION 0.7
FIELDS x y z intensity ring
SIZE 4 4 4 4 1
TYPE F F F F U
COUNT 1 1 1 1 1
WIDTH 283
HEIGHT 1
VIEWPOINT 0 0 0 1 0 0 0
POINTS 283
DATA ascii
4.6256695 -3.4761233 -0.95640135 43 45
4.6254301 -3.5205522 -0.96097845 45 45
4.6131091 -3.5560853 -0.9630127 33 45
4.6121802 -3.6006942 -0.9675898 18 45
4.6108766 -3.6454251 -0.97216684 27 45
4.6105595 -3.6451538 -1.188382 50 48
4.6107755 -2.8021481 -1.7554892 18 58
4.6169181 -2.8448217 -1.7646527 16 58
4.6186872 -2.8851621 -1.7722362 11 58
4.6101971 -2.2851737 -0.90991974 7 46
4.6147599 -2.8434916 -0.15916644 5 34
5.637157 0.17400196 -1.2808559 11 50
5.4563713 0.067944601 -1.2379898 11 50
5.7456198 0.21158674 -1.3764096 3 51
5.6704397 0.069537871 -1.3570335 20 51
5.4911346 0.033605944 -1.3127794 62 51
5.5973902 0.069690637 -1.4095082 11 52
5.6391983 0.070129953 -1.4896842 5 53
5.5073051 0.03466684 -1.4538105 7 53
5.1489701 -0.12745118 -0.84705997 23 45
5.139226 -0.15877038 -0.84553427 17 45
5.1322455 -0.19008358 -0.84451717 33 45
5.1191673 -0.22106332 -0.84248286 148 45
5.1118083 -0.25217977 -0.84146577 12 45
5.0983567 -0.282888 -0.83943152 16 45
5.0817699 -0.31325942 -0.83688867 21 45
5.1161337 -0.34689319 -0.84316099 346 45
5.1099772 -0.37798876 -0.84248286 379 45
5.1085443 -0.40941438 -0.84265244 359 45
5.0902257 -0.43939954 -0.83994007 225 45
5.1399961 -0.12612739 -0.90919423 72 46
5.1440401 -0.15781459 -0.91010112 368 46
5.1390443 -0.18922982 -0.90937561 398 46
5.1338563 -0.22058967 -0.9086501 376 46
5.1304417 -0.25198963 -0.90828735 348 46
5.1140704 -0.28264952 -0.90556669 299 46
5.0975165 -0.31311804 -0.90284604 400 46
5.1013861 -0.34478825 -0.9039343 311 46
5.1283541 -0.12694553 -0.96995974 23 47
5.1343436 -0.15862066 -0.97131097 13 47
5.1195464 -0.1896161 -0.9686085 173 47
5.1202469 -0.2211097 -0.96899456 331 47
5.0923338 -0.25122344 -0.96378261 263 47
5.111393 -0.12631324 -1.0286707 399 48
5.1134572 -0.15776457 -1.0292841 392 48
5.0947852 -0.18848442 -1.0256032 98 48
5.2444715 -0.12888038 -0.47481138 480 39
5.2346287 -0.16078442 -0.47393626 518 39
5.2305598 -0.19279116 -0.47364455 449 39
5.235795 -0.1284854 -0.53936428 431 40
5.2319279 -0.16051754 -0.53903562 283 40
5.1831656 -0.1908578 -0.5337767 16 40
5.1957998 -0.22325595 -0.53531057 203 40
5.2062454 -0.25571862 -0.53662527 144 40
5.2114649 -0.12807661 -0.60104442 423 41
5.1788335 -0.15908308 -0.59715015 153 41
5.1658573 -0.19042075 -0.59568983 22 41
5.1834331 -0.22292033 -0.59800202 43 41
5.1829591 -0.25476959 -0.59812373 398 41
5.1822896 -0.28662142 -0.59824544 273 41
5.2074227 -0.12778702 -0.66412085 402 42
5.1807857 -0.1589447 -0.66064626 52 42
5.1896167 -0.19109581 -0.66198266 68 42
5.1833959 -0.22272202 -0.66131443 364 42
5.1789622 -0.25437647 -0.66091353 362 42
5.1782932 -0.28620395 -0.66104716 310 42
5.1616025 -0.31705946 -0.65904254 218 42
5.149672 -0.34805545 -0.65770614 86 42
5.1795368 -0.1263973 -0.72564632 257 43
5.1964626 -0.15871559 -0.72827274 18 43
5.2062659 -0.19099401 -0.72987771 10 43
5.1447039 -0.22036663 -0.72097719 232 43
5.1709223 -0.25327873 -0.72506267 55 43
5.1850758 -0.28586996 -0.72739726 17 43
5.1772995 -0.31731781 -0.72652179 15 43
5.1476169 -0.34722117 -0.72243631 48 43
5.1473627 -0.37894464 -0.72272813 248 43
5.1788964 -0.12708488 -0.78921461 213 44
5.1730843 -0.15870783 -0.78842556 32 44
5.1720128 -0.19044629 -0.78842556 384 44
5.1608815 -0.22175293 -0.78684741 385 44
5.1574512 -0.25331828 -0.78653181 374 44
5.142982 -0.28424966 -0.78448021 269 44
5.1480403 -0.31622538 -0.78558493 361 44
5.1450181 -0.34774053 -0.78542709 334 44
5.1299853 -0.37835804 -0.7833755 356 44
5.1295357 -0.40998542 -0.78369117 380 44
5.135778 -0.44221503 -0.78511149 68 44
5.2162514 0.25520757 -0.85943502 271 45
5.2167349 0.22315411 -0.85926551 395 45
5.2052026 0.19066878 -0.85706174 415 45
5.2003641 0.15854515 -0.85604459 444 45
5.1992688 0.12658492 -0.85570556 313 45
5.1891084 0.094480649 -0.85384083 396 45
5.1895905 0.062639095 -0.85384083 444 45
5.1869206 0.030776983 -0.85333228 421 45
5.1771564 -0.0010501574 -0.85163707 72 45
5.1740961 -0.032798495 -0.85112846 67 45
5.176754 -0.064581752 -0.85163707 403 45
5.1683774 -0.09619955 -0.85028088 323 45
5.2016449 0.22360396 -0.92116511 91 46
5.2009535 0.1916108 -0.92080235 182 46
5.1961336 0.15951413 -0.91971409 13 46
5.1940651 0.12755604 -0.91916996 21 46
5.1947503 0.095683455 -0.91916996 34 46
5.1795058 0.063615203 -0.91626793 360 46
5.1837325 0.031857036 -0.91699344 61 46
5.173996 5.0295592e-05 -0.91517967 22 46
5.158165 -0.031599171 -0.91227764 163 46
5.1657405 -0.063345544 -0.91372865 417 46
5.1573887 -0.094895408 -0.91227764 390 46
5.1667724 0.15751351 -0.97768116 278 47
5.1745076 0.12597653 -0.9790324 228 47
5.1526198 0.0938081 -0.97459263 376 47
5.1589851 0.062262826 -0.9757508 381 47
5.136703 0.030467752 -0.97131097 127 47
5.1358118 -0.0010510593 -0.97111797 9 47
5.1249161 -0.032497801 -0.96899456 205 47
5.1324692 -0.064039238 -0.97053885 369 47
5.1329603 -0.095548309 -0.97073191 30 47
5.1554699 0.12571353 -1.0378729 246 48
5.1502724 0.093971096 -1.036646 380 48
5.1380277 0.062214747 -1.0339875 232 48
5.1412492 0.030704547 -1.034601 21 48
5.1217632 -0.00083744427 -1.030511 108 48
5.1226406 -0.032270219 -1.0307156 396 48
5.1164732 -0.063628063 -1.0294886 383 48
5.1140294 -0.094984449 -1.0290796 364 48
5.1542706 0.096529968 -1.1032001 101 49
5.1215744 0.064476699 -1.0958412 190 49
5.1765451 0.033415377 -1.1079618 9 49
5.1356483 0.0016297029 -1.0988714 32 49
5.1111546 -0.029745623 -1.0934603 331 49
5.1050181 -0.061037827 -1.0921617 408 49
5.0977149 -0.092238419 -1.0906466 257 49
5.1081223 0.032286853 -1.1563618 342 50
5.1101718 0.00094360829 -1.1568179 283 50
5.327188 0.2608186 -0.41877857 627 38
5.320724 0.22778635 -0.41809663 584 38
5.3021078 0.19440602 -0.41639176 76 38
5.2972255 0.1616873 -0.41588032 32 38
5.3130589 0.12954427 -0.41715896 402 38
5.3047881 0.096778616 -0.41639176 375 38
5.3022933 0.064191267 -0.41613603 28 38
5.2986016 0.0316323 -0.41579506 30 38
5.2827544 -0.00087607937 -0.41443118 34 38
5.2813497 -0.065691069 -0.41434592 24 38
5.2738738 -0.097965531 -0.41374922 27 38
5.3123083 0.26085529 -0.48190957 524 39
5.2998881 0.22765365 -0.48054829 387 39
5.2991962 0.1950562 -0.4803538 29 39
5.2893505 0.1621993 -0.47928423 280 39
5.2862663 0.12964293 -0.47889528 453 39
5.2829819 0.097130507 -0.47850633 450 39
5.3033819 0.064961083 -0.48045105 293 39
5.2768092 0.032248762 -0.47782567 430 39
5.273922 -0.00013032438 -0.47753397 429 39
5.268846 -0.032460943 -0.4770478 402 39
5.239687 -0.064440839 -0.47422796 225 39
5.2481489 -0.09675286 -0.47510308 241 39
5.2995629 0.26039255 -0.546924 468 40
5.2851715 0.22718829 -0.54517102 191 40
5.3103056 0.19563131 -0.54780048 30 40
5.2716656 0.16182719 -0.54341805 130 40
5.2765341 0.12957513 -0.54385626 503 40
5.280211 0.097251184 -0.54418498 24 40
5.2717633 0.064741388 -0.54319894 29 40
5.2611275 0.032326866 -0.54199374 33 40
5.2483053 4.5432069e-05 -0.54056948 249 40
5.2501945 -0.032169893 -0.54078859 29 40
5.2399592 -0.06426125 -0.539693 16 40
5.225553 -0.096154772 -0.53815913 53 40
5.2999544 0.26024595 -0.61248386 466 41
5.3074012 0.22797802 -0.61321408 75 41
5.2610893 0.19364516 -0.60737264 115 41
5.2681313 0.16154394 -0.6081028 437 41
5.261085 0.12901981 -0.60712922 424 41
5.2588005 0.096680582 -0.60676414 364 41
5.2523475 0.064324744 -0.60591227 324 41
5.2516508 0.032089449 -0.60579062 363 41
5.2408304 -0.00013682192 -0.60445195 387 41
5.2377534 -0.032276265 -0.60408682 319 41
5.2384491 -0.064425893 -0.60420853 58 41
5.2250538 -0.096332222 -0.6026265 393 41
5.2432966 0.25763205 -0.66960013 285 42
5.2695317 0.22651716 -0.67294115 27 42
5.2638903 0.19392475 -0.67200565 32 42
5.2530942 0.16125847 -0.67040199 418 42
5.23417 0.12853792 -0.6677292 64 42
5.2467504 0.096637368 -0.66933286 35 42
5.235353 0.064296931 -0.6677292 36 42
5.2088919 0.032009769 -0.66412085 173 42
5.2238555 4.7032292e-05 -0.66612548 105 42
5.1999736 -0.031858448 -0.66291809 19 42
5.1877885 -0.063617572 -0.66131443 21 42
5.2021632 -0.095722638 -0.66331905 365 42
5.2360625 0.25800788 -0.73469275 226 43
5.2187676 0.2250611 -0.73192048 46 43
5.2556405 0.19435918 -0.73717326 396 43
5.2508016 0.16192324 -0.73629779 399 43
5.2398281 0.12940614 -0.73454684 369 43
5.2345886 0.097141266 -0.73367137 284 43
5.215302 0.06477046 -0.73075318 421 43
5.214612 0.032762311 -0.73060727 377 43
5.2028432 0.0007610356 -0.72885633 356 43
5.1760392 -0.031009035 -0.72491676 15 43
5.1886115 -0.062921084 -0.72681361 290 43
5.1871386 -0.094738781 -0.7266677 423 43
5.2442389 0.25767827 -0.80041939 23 44
5.2388153 0.22519903 -0.79931468 20 44
5.2104945 0.19196159 -0.79458028 188 44
5.2056522 0.15980563 -0.7936334 140 44
5.2252913 0.12832054 -0.79663187 21 44
5.2101831 0.095966563 -0.79410684 17 44
5.2185731 0.0640921 -0.79536933 68 44
5.1912193 0.031902488 -0.7909506 260 44
5.1725554 5.038987e-05 -0.78795213 31 44
5.1625843 -0.031626578 -0.78637397 28 44
5.1929021 -0.063680656 -0.7912662 268 44
5.1934009 -0.095560752 -0.79142404 377 44
5.2502642 -0.12975568 -0.41178864 171 38
5.2463813 -0.16187584 -0.41153291 284 38
5.3314395 0.06438303 -0.2191689 541 35
5.3267398 0.031637967 -0.21892902 534 35
5.3228383 -0.0010469791 -0.21873711 389 35
5.3277526 0.16261682 -0.28607169 571 36
5.3246589 0.12982625 -0.28582957 610 36
5.321363 0.097079784 -0.28558746 589 36
5.3188643 0.064390659 -0.2854059 186 36
5.316165 0.031735852 -0.28522432 28 36
5.3162594 -0.00088412006 -0.28522432 25 36
5.3061724 -0.033440419 -0.28461906 107 36
5.2938905 -0.065847985 -0.28389275 404 36
5.3334446 0.26096746 -0.35199207 340 37
5.3339491 0.2281943 -0.35191938 562 37
5.3362455 0.19549824 -0.35199207 363 37
5.2974691 0.16152737 -0.34908345 30 37
5.3183017 0.12950961 -0.35053778 484 37
5.3130131 0.096764416 -0.35010147 496 37
5.3125095 0.064150296 -0.35002875 481 37
5.3048244 0.031503014 -0.34944701 248 37
5.2839737 -0.001047827 -0.34792 462 37
5.2868595 -0.033487953 -0.34813812 476 37
5.2855573 -0.065914668 -0.34806544 426 37
5.289042 -0.09841834 -0.34835628 448 37
5.2487741 -0.033074442 -0.41153291 173 38
5.3443489 0.36037061 -0.42073917 288 38
5.3375092 0.32702377 -0.41997197 528 38
5.333446 0.29393876 -0.41946051 546 38
5.3365297 0.42646903 -0.48531282 528 39
5.3420234 0.3939369 -0.48560452 518 39
5.3026347 0.35832405 -0.48152062 50 39
5.2997665 0.32547483 -0.48103446 24 39
5.317564 0.293832 -0.48259023 61 39
5.3240194 0.45851648 -0.55108732 387 40
5.319797 0.42528632 -0.55032039 448 40
5.3203239 0.39249054 -0.55010128 459 40
5.3226318 0.35983825 -0.55010128 410 40
5.3227553 0.32705066 -0.54988211 59 40
5.3048124 0.29328874 -0.54769093 476 40
5.3171802 0.4249185 -0.61589134 513 41
5.2890015 0.39001533 -0.61211878 123 41
5.2992177 0.35809237 -0.61309236 23 41
5.3013148 0.32557026 -0.61309236 27 41
5.3022218 0.29298088 -0.61297065 389 41
5.2867894 0.39001909 -0.67654943 230 42
5.3009481 0.35837391 -0.6781531 71 42
5.2723832 0.32395926 -0.67401028 337 42
5.2653661 0.29111072 -0.67280751 460 42
5.261024 0.35642269 -0.73921597 114 43
5.2700238 0.32456216 -0.74023736 455 43
5.2689524 0.29205489 -0.73979962 437 43
5.2681942 0.29126689 -0.80452251 374 44
8.623229 -1.3349835 -1.7834655 62 48
8.6255054 -1.3895825 -1.785715 62 48
8.6226091 -1.4434514 -1.786942 58 48
8.6319141 -1.4995157 -1.7908274 72 48
8.6331482 -1.5543603 -1.7930769 60 48
8.6147871 -1.6056883 -1.7912364 84 48
8.6163073 -1.6607411 -1.7936903 53 48
9.0324202 -2.5603721 -1.8077348 56 47
9.0103369 1.6202409 -1.6493955 61 46
9.0140219 1.5069544 -1.6464933 65 46
