# .PCD v0.7 - Point Cloud Data file format
VERSION 0.7
FIELDS x y z intensity ring
SIZE 4 4 4 4 1
TYPE F F F F U
COUNT 1 1 1 1 1
WIDTH 278
HEIGHT 1
VIEWPOINT 0 0 0 1 0 0 0
POINTS 278
DATA ascii
4.6124802 -3.5542829 -1.0348887 35 46
4.6107407 -3.5982497 -1.0396045 29 46
4.6148067 -3.6472068 -1.0457714 17 46
4.6125607 -2.321938 -1.2321651 5 51
5.5196543 0.068728141 -1.2528105 8 50
5.5894012 0.20580216 -1.3378966 5 51
5.5655837 0.068230435 -1.3311987 14 51
5.5406528 0.033919513 -1.3249792 47 51
5.5257592 0.068803735 -1.3909551 9 52
5.4921961 0.034685425 -1.38218 4 52
5.5417299 0.06889762 -1.4632372 12 53
5.1203985 -0.12675041 -0.84214383 22 45
5.1155844 -0.15804537 -0.84146577 22 45
5.1125484 -0.18935852 -0.84112674 37 45
5.117198 -0.22097874 -0.84214383 144 45
5.1147614 -0.25232476 -0.84197432 15 45
5.1160693 -0.28386673 -0.84248286 15 45
5.1171823 -0.31543425 -0.84299147 27 45
5.1082673 -0.34636161 -0.8418048 347 45
5.1040802 -0.37755388 -0.84146577 354 45
5.0957732 -0.40839377 -0.84044862 366 45
5.0666599 -0.43737075 -0.83587158 209 45
5.1645741 -0.12673235 -0.91372865 82 46
5.1420746 -0.15775414 -0.90973836 375 46
5.1341305 -0.18904851 -0.90846872 410 46
5.1269789 -0.22029364 -0.90738046 378 46
5.1245484 -0.25169972 -0.90719908 316 46
5.128799 -0.2834647 -0.90828735 290 46
5.1240187 -0.31474796 -0.90774322 349 46
5.089612 -0.34399158 -0.90175772 233 46
5.1430674 -0.1273064 -0.97285527 12 47
5.1529775 -0.15919212 -0.97497869 10 47
5.0871887 -0.18842502 -0.96223831 194 47
5.1045623 -0.22043595 -0.96590602 334 47
5.0962539 -0.25141594 -0.96455473 271 47
5.1123714 -0.1263375 -1.0288751 394 48
5.0987811 -0.15731065 -1.0262166 376 48
5.1182618 -0.18935476 -1.030511 98 48
5.2741694 -0.13034827 -0.41383448 169 38
5.2474566 -0.12895307 -0.47510308 451 39
5.2386079 -0.16090576 -0.47432521 433 39
5.2295651 -0.19275473 -0.47354731 419 39
5.2397699 -0.12858324 -0.53980255 397 40
5.2458367 -0.16094533 -0.54056948 277 40
5.2149515 -0.19203062 -0.53728265 19 40
5.1868625 -0.22287124 -0.53432453 161 40
5.1734838 -0.254107 -0.53300977 134 40
5.2273412 -0.12846322 -0.60299158 378 41
5.1867704 -0.15932509 -0.59812373 154 41
5.2045412 -0.19183797 -0.60043597 19 41
5.1883912 -0.22313245 -0.59861052 63 41
5.195847 -0.25540018 -0.59970576 374 41
5.1783252 -0.28640306 -0.59775865 294 41
5.1985059 -0.12756756 -0.66291809 381 42
5.1718707 -0.15867051 -0.6594435 55 42
5.1836743 -0.19087657 -0.66118079 70 42
5.1903267 -0.22302034 -0.66224992 372 42
5.1858912 -0.25471732 -0.66184902 328 42
5.181262 -0.28636825 -0.66144806 330 42
5.1517105 -0.3164511 -0.65770614 226 42
5.0903459 -0.34404123 -0.64968771 88 42
5.1894269 -0.12663642 -0.72710544 260 43
5.1865745 -0.15841579 -0.72681361 13 43
5.1726522 -0.18976843 -0.72491676 13 43
5.1694136 -0.22141944 -0.72462493 216 43
5.1817918 -0.25380865 -0.7266677 73 43
5.1485267 -0.28386313 -0.72199857 18 43
5.1338511 -0.31466466 -0.72010171 13 43
5.1584744 -0.34795108 -0.72404128 57 43
5.1552558 -0.37952393 -0.72389543 290 43
5.1670504 -0.12679331 -0.78732085 246 44
5.1632142 -0.15840428 -0.78684741 30 44
5.1710262 -0.19040987 -0.78826773 371 44
5.1648278 -0.22192279 -0.78747869 373 44
5.1604099 -0.25346383 -0.78700525 395 44
5.1350946 -0.28381312 -0.78321773 258 44
5.1401558 -0.31574044 -0.78432238 331 44
5.1341805 -0.34700724 -0.78369117 356 44
5.1240764 -0.37792179 -0.78242862 391 44
5.112802 -0.4086467 -0.7810083 377 44
5.0797 -0.43738219 -0.77611613 58 44
5.2182202 0.25530434 -0.85977411 231 45
5.2255964 0.22353515 -0.86079121 399 45
5.2160358 0.19106804 -0.85892648 395 45
5.2102146 0.15884767 -0.85773981 400 45
5.2229142 0.1271659 -0.85977411 286 45
5.2038889 0.094753072 -0.85638368 430 45
5.1935325 0.062687561 -0.85451889 447 45
5.1879063 0.030783052 -0.8535018 397 45
5.1692724 -0.0010503294 -0.85028088 64 45
5.1681833 -0.032762341 -0.85011137 68 45
5.1659141 -0.06444896 -0.84977233 399 45
5.1683774 -0.09619955 -0.85028088 358 45
5.2134352 0.2241099 -0.92334163 90 46
5.1970224 0.19146627 -0.92007685 170 46
5.1922016 0.15939373 -0.91898859 19 46
5.1891499 0.12743568 -0.91826308 21 46
5.1800013 0.095412895 -0.91644931 49 46
5.182456 0.063651219 -0.91681206 385 46
5.1797986 0.031833157 -0.91626793 41 46
5.1789131 4.9973769e-05 -0.91608655 15 46
5.168982 -0.031666256 -0.91427279 206 46
5.1598406 -0.063272744 -0.91264039 417 46
5.1623049 -0.094986238 -0.91318452 392 46
5.1550035 0.15715209 -0.97536474 314 47
5.1490045 0.12534991 -0.97401351 230 47
5.1692972 0.094115488 -0.97787422 390 47
5.1619282 0.062299009 -0.97632992 430 47
5.1357217 0.03046171 -0.97111797 131 47
5.1495485 -0.0010507597 -0.97382045 20 47
5.113142 -0.03242581 -0.96667814 203 47
5.13345 -0.064051256 -0.97073191 362 47
5.144733 -0.095764779 -0.97304833 19 47
5.1486201 0.12554702 -1.0364414 240 48
5.147336 0.09391775 -1.0360324 375 48
5.1292181 0.062108751 -1.032147 272 48
5.1236296 0.030600663 -1.03092 32 48
5.1100168 -0.00083462533 -1.0280571 114 48
5.1265559 -0.032295182 -1.0315336 392 48
5.1213675 -0.063689299 -1.030511 382 48
5.1189227 -0.095075712 -1.0301021 393 48
5.1513419 0.096474461 -1.1025507 103 49
5.1196218 0.064451672 -1.0954083 168 49
5.1355414 0.033141416 -1.0988714 15 49
5.113193 0.0016174556 -1.0938932 29 49
5.1111546 -0.029745623 -1.0934603 342 49
5.1069708 -0.061060723 -1.0925946 388 49
5.0625734 -0.091610648 -1.0828547 228 49
5.1061749 0.032274693 -1.1559058 335 50
5.106277 0.00094318343 -1.1559058 267 50
5.3321638 0.26106185 -0.41920477 577 38
5.3296833 0.22816923 -0.4188638 554 38
5.2732329 0.19334942 -0.41391972 62 38
5.3141556 0.16220281 -0.41732943 31 38
5.3090744 0.12944743 -0.41681799 338 38
5.3087726 0.096851021 -0.41673273 375 38
5.3192301 0.064395055 -0.41758516 30 38
5.3165359 0.031738039 -0.41732943 35 38
5.3056707 -0.00088157889 -0.41639176 37 38
5.2843385 -0.065728471 -0.41460165 29 38
5.2748699 -0.097984113 -0.41383448 35 38
5.3113141 0.26080626 -0.48181233 508 39
5.3098316 0.22808295 -0.48152062 421 39
5.2932286 0.19483523 -0.47977039 26 39
5.2893505 0.1621993 -0.47928423 262 39
5.2743268 0.12934749 -0.47772846 446 39
5.2780066 0.097037934 -0.47802016 418 39
5.2794976 0.064663276 -0.47811738 287 39
5.2698426 0.032204647 -0.47714505 428 39
5.2699413 -0.00013110606 -0.47714505 426 39
5.2668552 -0.032449119 -0.47685334 459 39
5.2625766 -0.064717256 -0.47646439 236 39
5.2491441 -0.096770987 -0.47520033 265 39
5.3045268 0.26063606 -0.54747182 480 40
5.2672963 0.22642122 -0.54319894 171 40
5.2795129 0.19449916 -0.54440409 33 40
5.2577562 0.16140124 -0.54188418 120 40
5.2765341 0.12957513 -0.54385626 503 40
5.280211 0.097251184 -0.54418498 30 40
5.2777267 0.064814188 -0.54385626 35 40
5.2700734 0.032381173 -0.54297978 38 40
5.212522 4.777408e-05 -0.53662527 237 40
5.2482066 -0.032157563 -0.54056948 33 40
5.2389655 -0.064248987 -0.53958344 23 40
5.256361 -0.096723959 -0.54155552 56 40
5.2761617 0.25907239 -0.60956317 429 41
5.2598023 0.22592296 -0.60737264 81 41
5.2888622 0.19467357 -0.61078012 141 41
5.2691236 0.16157457 -0.60822451 418 41
5.2581086 0.12894616 -0.60676414 427 41
5.2578082 0.096662119 -0.60664248 359 41
5.2642574 0.064473242 -0.60737264 319 41
5.2397399 0.032014027 -0.60433024 407 41
5.2348752 -0.00013799126 -0.60372174 383 41
5.2228651 -0.032187834 -0.60226142 351 41
5.2374568 -0.064413905 -0.60408682 55 41
5.2181072 -0.096205696 -0.60177463 418 41
5.2601242 0.25845763 -0.67187202 282 42
5.2606206 0.22613475 -0.67173839 28 42
5.252996 0.19352423 -0.67053562 21 42
5.2471509 0.16107646 -0.66960013 400 42
5.2212906 0.1282226 -0.66599184 51 42
5.2318873 0.096364714 -0.66732824 28 42
5.2224708 0.064139679 -0.66599184 22 42
5.214838 0.032045864 -0.66492271 196 42
5.2139454 4.7680922e-05 -0.66478908 88 42
5.2029462 -0.031876884 -0.66331905 23 42
5.1937342 -0.063690923 -0.66211629 19 42
5.1991906 -0.09566772 -0.66291809 367 42
5.2410026 0.25825244 -0.73542231 221 43
5.2513843 0.226475 -0.73673552 53 43
5.2417998 0.19384427 -0.73513049 391 43
5.2399244 0.16158541 -0.73469275 417 43
5.2368612 0.1293322 -0.7341091 431 43
5.236567 0.097178414 -0.73396319 306 43
5.224205 0.064883024 -0.73206639 392 43
5.2136226 0.032755874 -0.73046136 406 43
5.2127361 0.00076470478 -0.73031545 366 43
5.2076964 -0.031191541 -0.72958589 29 43
5.1994929 -0.06305059 -0.72841865 265 43
5.1950517 -0.09488152 -0.727835 466 43
5.240294 0.25748473 -0.79978812 16 44
5.2319093 0.22490269 -0.79820997 18 44
5.2312174 0.1927235 -0.79789436 202 44
5.2174964 0.16016833 -0.79552716 123 44
5.220355 0.1281997 -0.79584277 17 44
5.2161069 0.096075229 -0.79505372 25 44
5.215611 0.064055942 -0.79489589 95 44
5.1931944 0.031914476 -0.7912662 210 44
5.1992173 4.8644866e-05 -0.79221308 27 44
5.1882577 -0.031785794 -0.79047716 27 44
5.18994 -0.063644111 -0.79079276 258 44
5.1894517 -0.095487788 -0.79079276 381 44
5.2105298 -0.16076696 -0.40846416 264 38
5.3364334 0.064444423 -0.2194088 578 35
5.3397245 0.031717923 -0.21955273 503 35
5.33882 -0.0010466304 -0.21950476 400 35
5.3297482 0.16267757 -0.28619274 547 36
5.3256564 0.12985051 -0.2858901 612 36
5.323359 0.097116053 -0.28570852 652 36
5.2939119 0.064090416 -0.28389275 198 36
5.3071814 0.031682886 -0.28467959 30 36
5.3062778 -0.00088172458 -0.28461906 24 36
5.3061724 -0.033440419 -0.28461906 113 36
5.2829113 -0.065710612 -0.28322697 436 36
5.3434062 0.26145706 -0.35271925 334 37
5.3349457 0.22823715 -0.35199207 546 37
5.3352489 0.19546151 -0.35191938 358 37
5.3363476 0.16272137 -0.35191938 37 37
5.3242841 0.12965661 -0.35097405 437 37
5.3189964 0.096874699 -0.35053778 513 37
5.3244767 0.06429743 -0.35090134 433 37
5.2898645 0.031410892 -0.34835628 269 37
5.3019261 -0.0010474353 -0.34922889 454 37
5.2958355 -0.033542834 -0.34879258 478 37
5.2935357 -0.066012405 -0.34864715 478 37
5.2840562 -0.098326661 -0.34799272 497 37
5.2527595 -0.033099856 -0.41187388 181 38
3.0602913 3.098227 -0.76409227 99 46
3.9053867 2.6443977 -0.59770167 54 42
4.181633 2.6848788 -0.69442153 35 43
5.3682075 0.36197764 -0.42278498 292 38
5.3434758 0.32738894 -0.42048344 511 38
5.3374252 0.29415777 -0.41980147 540 38
5.3437281 0.46006119 -0.48628518 127 39
5.3484344 0.42742303 -0.48647964 536 39
5.3440084 0.39408374 -0.48579898 531 39
5.3224945 0.35967043 -0.48346534 58 39
5.3375149 0.32780138 -0.48472941 35 39
5.3155766 0.29372174 -0.48239574 46 39
5.3319421 0.45919821 -0.55196381 375 40
5.3306961 0.42615685 -0.55152553 431 40
5.3262715 0.39292887 -0.5507586 417 40
5.3166814 0.35943642 -0.5494439 428 40
5.2662048 0.32358012 -0.54363716 61 40
5.3018351 0.29312432 -0.54736221 500 40
5.3211379 0.42523563 -0.61637813 480 41
5.3127584 0.39177242 -0.61503947 111 41
5.2883244 0.35735387 -0.6117537 16 41
5.2904177 0.3248986 -0.6117537 20 41
5.2784367 0.29166135 -0.61004996 393 41
5.277894 0.38936353 -0.67534667 222 42
5.3325891 0.36051068 -0.68242961 67 42
5.2704048 0.32383785 -0.67374301 352 42
5.2663555 0.29116535 -0.67294115 466 42
5.2708941 0.35709357 -0.74067509 121 43
5.2631116 0.32413495 -0.73921597 459 43
5.2640138 0.29178002 -0.73907006 402 43
5.2534046 0.2904503 -0.80215532 318 44
8.1858997 -1.4169784 -1.8020836 74 49
8.61549 -1.3337851 -1.7818296 86 48
8.634203 -1.3909841 -1.7875555 65 48
8.6637402 -1.5050458 -1.7975757 56 48
8.617734 -1.5515844 -1.7898049 62 48
8.6259184 -1.6625942 -1.7957354 54 48
9.0626287 -2.5689313 -1.813912 56 47
9.0142956 1.5639156 -1.6483071 64 46
9.0266314 1.5090618 -1.6488513 63 46
