# .PCD v0.7 - Point Cloud Data file format
VERSION 0.7
FIELDS x y z intensity ring
SIZE 4 4 4 4 1
TYPE F F F F U
COUNT 1 1 1 1 1
WIDTH 269
HEIGHT 1
VIEWPOINT 0 0 0 1 0 0 0
POINTS 269
DATA ascii
4.6165533 -3.696162 -1.1241953 19 47
4.6182685 -2.359421 -1.7501563 6 59
5.5943365 0.17268315 -1.2708234 7 50
5.5819635 0.069499634 -1.2674032 20 50
5.5723796 0.068315178 -1.3328731 24 51
5.4969602 0.033642836 -1.3142146 61 51
5.5944862 0.069654681 -1.4087561 23 52
5.5880322 0.035283931 -1.4070011 6 52
5.5793662 0.069373474 -1.4734493 12 53
5.1568522 -0.12764449 -0.84841615 26 45
5.1569571 -0.15931416 -0.84858567 18 45
5.1480036 -0.19066362 -0.84722948 36 45
5.1122751 -0.22076726 -0.84129626 165 45
5.1383858 -0.25348485 -0.84604287 14 45
5.1318135 -0.28473672 -0.84519523 22 45
5.1230841 -0.3157967 -0.84400856 20 45
5.1181002 -0.34702608 -0.84350002 320 45
5.105063 -0.37762636 -0.84163529 364 45
5.0997028 -0.4087078 -0.84112674 348 45
5.0784431 -0.43838513 -0.83790582 168 45
5.1340976 -0.1259822 -0.90810597 82 46
5.1430573 -0.15778436 -0.90991974 352 46
5.136096 -0.18912104 -0.90883148 395 46
5.1279612 -0.22033593 -0.90756184 379 46
5.1186552 -0.25140983 -0.90611082 350 46
5.1170158 -0.28281257 -0.90611082 251 46
5.1210737 -0.31456688 -0.90719908 380 46
5.1062918 -0.34512019 -0.90484118 297 46
5.1381631 -0.1271861 -0.97189009 18 47
5.1539583 -0.15922219 -0.97517169 12 47
5.1067996 -0.18914689 -0.96609902 166 47
5.0937791 -0.21997274 -0.96378261 347 47
5.0893936 -0.25107908 -0.96320349 273 47
5.111393 -0.12631324 -1.0286707 420 48
5.103673 -0.15746196 -1.0272391 371 48
5.0713086 -0.18761408 -1.0206952 89 48
5.2424817 -0.12883192 -0.47461691 478 39
5.2386079 -0.16090576 -0.47432521 478 39
5.2305598 -0.19279116 -0.47364455 425 39
5.2179089 -0.12804514 -0.5373922 444 40
5.2219925 -0.160212 -0.53794003 274 40
5.2209115 -0.19225052 -0.53794003 21 40
5.2106957 -0.22389711 -0.53695399 167 40
5.2092237 -0.25586513 -0.53695399 124 40
5.218411 -0.12824576 -0.60189629 431 41
5.2264547 -0.16053517 -0.60299158 145 41
5.2243795 -0.19256474 -0.60286987 18 41
5.1705418 -0.22236881 -0.59641999 60 41
5.1988211 -0.25554571 -0.60007089 381 41
5.179316 -0.28645766 -0.59788036 306 41
5.2123761 -0.12790896 -0.66478908 387 42
5.1768236 -0.15882283 -0.66011167 48 42
5.1965489 -0.19135161 -0.66291809 76 42
5.1903267 -0.22302034 -0.66224992 371 42
5.1809416 -0.25447387 -0.66118079 363 42
5.1713667 -0.2858206 -0.66011167 357 42
5.1635804 -0.31718111 -0.6593098 239 42
5.1259418 -0.34644976 -0.65449876 90 42
5.1745915 -0.12627774 -0.72491676 257 43
5.1489983 -0.15727657 -0.72126901 19 43
5.1459589 -0.18879516 -0.72097719 16 43
5.1535993 -0.22074564 -0.7222904 235 43
5.1234922 -0.25096628 -0.718059 73 43
5.1514902 -0.28402585 -0.72243631 17 43
5.1516256 -0.31575003 -0.72272813 12 43
5.150578 -0.34742025 -0.72287405 52 43
5.1148033 -0.37655506 -0.71791309 254 43
5.1788964 -0.12708488 -0.78921461 256 44
5.1790061 -0.15888995 -0.78937244 37 44
5.1690526 -0.19033705 -0.78795213 398 44
5.1648278 -0.22192279 -0.78747869 354 44
5.1554785 -0.25322124 -0.78621614 358 44
5.1528416 -0.28479534 -0.78605837 298 44
5.1450839 -0.31604353 -0.78511149 316 44
5.1341805 -0.34700724 -0.78369117 372 44
5.1260462 -0.37806723 -0.78274429 376 44
5.1187081 -0.40911919 -0.78195518 362 44
5.1161017 -0.44051927 -0.78195518 58 44
5.203455 0.25457865 -0.85723126 282 45
5.2167349 0.22315411 -0.85926551 413 45
5.2091422 0.19081396 -0.85773981 402 45
5.2062745 0.15872668 -0.85706174 422 45
5.2022243 0.12665755 -0.85621411 285 45
5.2019181 0.09471675 -0.85604459 447 45
5.1955032 0.06271179 -0.85485798 411 45
5.1888919 0.03078912 -0.85367131 429 45
5.1535039 -0.0010506734 -0.84756851 81 45
5.1652265 -0.032744266 -0.84960282 59 45
5.1668992 -0.06446103 -0.84994185 439 45
5.1703482 -0.096235789 -0.85061991 344 45
5.1898546 0.22309802 -0.91898859 91 46
5.1940742 0.19135787 -0.91953272 176 46
5.170577 0.15873149 -0.91499829 22 46
5.1704702 0.12697837 -0.91481692 17 46
5.1603365 0.095052153 -0.91282177 45 46
5.1863894 0.063699231 -0.91753757 360 46
5.1738982 0.031797338 -0.91517967 52 46
5.1700625 5.0553048e-05 -0.91445416 16 46
5.168982 -0.031666256 -0.91427279 203 46
5.1775403 -0.063491128 -0.91590518 356 46
5.1682043 -0.095095232 -0.91427279 397 46
5.1814833 0.1579653 -0.98057669 287 47
5.1823549 0.12616934 -0.98057669 246 47
5.1594868 0.09393467 -0.97594386 376 47
5.1550603 0.062214576 -0.97497869 427 47
5.1720252 0.030685259 -0.97826028 126 47
5.146605 -0.0010508238 -0.97324133 14 47
5.1111794 -0.032413814 -0.96629208 187 47
5.1265821 -0.063967116 -0.96938062 395 47
5.1368847 -0.095620461 -0.97150403 28 47
5.1466627 0.12549944 -1.0360324 248 48
5.1522298 0.094006665 -1.0370549 414 48
5.131176 0.062132306 -1.0325561 254 48
5.1520162 0.030768031 -1.0368505 18 48
5.1335096 -0.00084026321 -1.0329651 99 48
5.1275349 -0.032301422 -1.031738 369 48
5.1164732 -0.063628063 -1.0294886 378 48
5.1169653 -0.095039204 -1.0296931 395 48
5.2001481 0.0973996 -1.1133728 100 49
5.129384 0.064576805 -1.0975727 184 49
5.1726398 0.033389289 -1.1070961 15 49
5.1639605 0.0016451449 -1.1051481 21 49
5.1218934 -0.02980566 -1.0958412 347 49
5.1050181 -0.061037827 -1.0921617 431 49
5.122118 -0.092674367 -1.0960577 276 49
5.1110435 0.032305095 -1.1570458 331 50
5.1033559 0.0009428648 -1.1552218 282 50
5.327188 0.2608186 -0.41877857 573 38
5.3217196 0.22782889 -0.41818187 550 38
5.3558755 0.19637348 -0.42099488 64 38
5.3121638 0.16214216 -0.41715896 27 38
5.2961259 0.12913266 -0.41570982 386 38
5.2968183 0.096633814 -0.41570982 359 38
5.2803745 0.063927531 -0.41426069 32 38
5.2736931 0.031485438 -0.41366398 27 38
5.2698016 -0.00087297097 -0.41332301 30 38
5.2637191 -0.033169735 -0.41281155 195 38
5.2703905 -0.065553941 -0.41340825 34 38
5.2688928 -0.097872637 -0.41332301 29 38
5.3202605 0.26124755 -0.48268747 525 39
5.31182 0.22816882 -0.48171511 395 39
5.2663751 0.19384088 -0.47714505 35 39
5.2893505 0.1621993 -0.47928423 274 39
5.293231 0.12981527 -0.47957593 453 39
5.2799969 0.097074963 -0.47821462 406 39
5.2794976 0.064663276 -0.47811738 285 39
5.2788 0.032261368 -0.47802016 417 39
5.2759128 -0.00012993354 -0.47772846 415 39
5.2698412 -0.032466855 -0.47714505 437 39
5.2277446 -0.064296626 -0.47306114 246 39
5.2362075 -0.09653537 -0.47393626 273 39
5.2936063 0.26010031 -0.54626662 505 40
5.2772274 0.22684737 -0.54429454 179 40
5.2715664 0.194207 -0.5435276 29 40
5.2488146 0.16112742 -0.54089814 103 40
5.2735529 0.12950215 -0.5435276 447 40
5.2633162 0.096941255 -0.54232246 39 40
5.2598362 0.064595796 -0.54188418 22 40
5.2541699 0.032284629 -0.5412268 25 40
5.2244496 4.6993409e-05 -0.53794003 252 40
5.245225 -0.032139074 -0.54024076 37 40
5.2349896 -0.064199932 -0.53914517 17 40
5.2384725 -0.096393466 -0.53958344 45 40
5.2940059 0.25995257 -0.6117537 421 41
5.2746768 0.22656517 -0.60919809 80 41
5.2759681 0.19419609 -0.60919809 141 41
5.2691236 0.16157457 -0.60822451 455 41
5.2690234 0.12921625 -0.6081028 422 41
5.2548308 0.096606724 -0.60627735 376 41
5.259295 0.064411372 -0.60676414 315 41
5.248673 0.032070592 -0.60542548 395 41
5.2418232 -0.00013662703 -0.60457361 388 41
5.2347755 -0.032258578 -0.60372174 356 41
5.2404342 -0.064449862 -0.60445195 69 41
5.2310085 -0.096440673 -0.60335666 397 41
5.2630935 0.2586033 -0.67227292 307 42
5.245769 0.22549742 -0.66973376 19 42
5.2421021 0.19312368 -0.66906559 30 42
5.2402167 0.16086411 -0.66866463 402 42
5.2173276 0.12812558 -0.66545731 68 42
5.2318873 0.096364714 -0.66732824 25 42
5.2284164 0.064212255 -0.6667937 36 42
5.2168198 0.032057896 -0.66518998 166 42
5.2159276 4.7551195e-05 -0.66505635 92 42
5.2069106 -0.031901468 -0.66385359 12 42
5.1907616 -0.063654244 -0.66171533 18 42
5.2051358 -0.095777556 -0.66371995 381 42
5.2647166 0.25942627 -0.73892415 189 43
5.2237096 0.22527532 -0.73265004 41 43
5.2447658 0.1939546 -0.73556823 383 43
5.2349801 0.16143183 -0.73396319 401 43
5.2319164 0.12920898 -0.7333796 404 43
5.2345886 0.097141266 -0.73367137 304 43
5.2232156 0.064870514 -0.73192048 388 43
5.2136226 0.032755874 -0.73046136 403 43
5.2117467 0.00076433783 -0.73016953 381 43
5.1691141 -0.030969111 -0.72389543 31 43
5.1757517 -0.062768035 -0.72491676 271 43
5.1990085 -0.094952896 -0.72841865 404 43
5.2415733 0.28979704 -0.80026156 319 44
5.2373352 0.25733957 -0.79931468 21 44
5.2328959 0.22494502 -0.7983678 26 44
5.2361512 0.1929049 -0.7986834 229 44
5.2204576 0.16025901 -0.7960006 116 44
5.2154193 0.12807885 -0.79505372 18 44
5.2042594 0.095857896 -0.79315996 18 44
5.2264724 0.064188525 -0.79663187 88 44
5.2020817 0.031968426 -0.79268652 226 44
5.1942801 4.8968017e-05 -0.79142404 35 44
5.1941824 -0.031822536 -0.79142404 26 44
5.1919146 -0.063668475 -0.79110837 264 44
5.1894517 -0.095487788 -0.79079276 395 44
5.2512603 -0.12978037 -0.41187388 161 38
5.2344308 -0.16150622 -0.41051 247 38
5.3274446 0.064333908 -0.21897699 557 35
5.3197479 0.03159491 -0.21859317 522 35
5.3338256 -0.0010467394 -0.21926486 414 35
5.3367319 0.16289023 -0.28661641 583 36
5.3286505 0.12992328 -0.28607169 589 36
5.3253551 0.097152315 -0.28582957 640 36
5.3098817 0.064282574 -0.28486118 192 36
5.3231521 0.031777047 -0.28564799 24 36
5.3182559 -0.00088459911 -0.28534538 34 36
5.3421059 -0.033669528 -0.286798 105 36
5.3058677 -0.065997846 -0.28461906 431 36
5.3463945 0.26160392 -0.3529374 324 37
5.3329525 0.22815146 -0.35184667 556 37
5.3262787 0.19513093 -0.35126492 342 37
5.3383412 0.16278259 -0.35206479 24 37
5.3143134 0.12941162 -0.35024691 413 37
5.3130131 0.096764416 -0.35010147 461 37
5.321485 0.064260647 -0.35068321 446 37
5.3018327 0.031484589 -0.34922889 257 37
5.2959418 -0.0010475658 -0.34879258 465 37
5.2918463 -0.033518441 -0.34850171 450 37
5.2845602 -0.065902449 -0.34799272 485 37
5.2810645 -0.098271653 -0.34777457 492 37
3.5759149 1.8836212 -1.5529194 32 63
3.0084658 3.0816948 -0.80800277 25 47
3.0287688 3.0673859 -0.012546385 65 32
5.3682075 0.36197764 -0.42278498 279 38
5.3404927 0.32720637 -0.42022771 528 38
5.333446 0.29393876 -0.41946051 558 38
5.3385139 0.42662802 -0.48550728 572 39
5.339046 0.39371669 -0.48531282 519 39
5.3195157 0.35946846 -0.48317364 51 39
5.3027468 0.3256585 -0.48132616 24 39
5.293714 0.2925089 -0.48025656 39 39
5.3597074 0.49473578 -0.5553602 77 40
5.3368936 0.45962429 -0.55251157 420 40
5.3297052 0.42607769 -0.55141598 374 40
5.3193326 0.39241749 -0.54999173 438 40
5.3137064 0.3592355 -0.54911524 427 40
5.2919998 0.32516316 -0.54648572 74 40
5.2998505 0.29301473 -0.5471431 452 40
5.3072863 0.42412564 -0.61467439 477 41
5.3206773 0.39235809 -0.61601305 128 41
5.2665377 0.35587683 -0.60907638 25 41
5.2715945 0.32373846 -0.60944146 31 41
5.2933025 0.29248607 -0.61187541 384 41
5.2877774 0.39009193 -0.67668307 217 42
5.3039145 0.35857424 -0.67855406 82 42
5.2733722 0.32401997 -0.67414391 366 42
5.2752609 0.29165706 -0.67414391 474 42
5.2640991 0.32419598 -0.73936188 433 43
5.2630258 0.29172507 -0.73892415 434 43
9.0352526 -2.5611746 -1.808314 70 47
9.0547609 1.5137632 -1.6541113 62 46
9.3902216 2.1076679 -1.6165181 53 45
