# .PCD v0.7 - Point Cloud Data file format
VERSION 0.7
FIELDS x y z intensity ring
SIZE 4 4 4 4 1
TYPE F F F F U
COUNT 1 1 1 1 1
WIDTH 1286
HEIGHT 1
VIEWPOINT 0 0 0 1 0 0 0
POINTS 1286
DATA ascii
14.037406 1.7304879 -0.64243197 353 35
14.020974 1.6411859 -0.64113653 351 35
14.003976 1.5521507 -0.63984114 334 35
13.978466 1.4625539 -0.6381619 310 35
13.982207 1.3762665 -0.63792199 361 35
13.971491 1.2887027 -0.63701046 330 35
13.957242 1.2010652 -0.63595492 310 35
13.949413 1.1142083 -0.63523525 302 35
13.939054 1.0273458 -0.63441962 283 35
12.828933 0.86632353 -0.58068413 264 35
12.836998 0.78777415 -0.58082801 250 35
12.876496 0.71092337 -0.58250725 451 35
12.901567 0.63293099 -0.58351481 746 35
12.893232 0.55324161 -0.58293909 286 35
12.901375 0.47430372 -0.583179 303 35
12.912029 0.39537874 -0.58356279 272 35
12.9232 0.31636539 -0.58399457 305 35
12.873964 0.23612541 -0.58154774 180 35
5.3274446 0.064333908 -0.21897699 557 35
5.3197479 0.03159491 -0.21859317 522 35
5.3338256 -0.0010467394 -0.21926486 414 35
12.91184 -0.080108479 -0.5832749 176 35
12.932079 -0.15958947 -0.58428246 331 35
12.939845 -0.2391015 -0.58471429 282 35
12.944126 -0.31864133 -0.58500212 296 35
12.938931 -0.39796716 -0.58485818 225 35
13.084974 -0.48282617 -0.59200692 209 35
13.10372 -0.56404805 -0.59306246 204 35
13.105 -0.64468527 -0.59330237 222 35
13.108776 -0.72552478 -0.59368616 213 35
13.118035 -0.80680227 -0.59435785 192 35
13.112838 -0.88727784 -0.59435785 190 35
13.107147 -0.96771997 -0.59435785 178 35
13.106936 -1.0486032 -0.59464574 179 35
13.109212 -1.1297772 -0.59507757 171 35
13.09706 -1.2097336 -0.59483767 147 35
13.016826 -1.2829274 -0.59133524 108 35
12.956058 -1.357262 -0.58879238 236 35
12.969326 -1.439155 -0.58984792 312 35
12.965212 -1.519287 -0.59008783 288 35
12.974482 -1.6011342 -0.59099942 260 35
12.980262 -1.6827673 -0.59176707 265 35
12.969692 -1.762381 -0.59176707 266 35
13.005114 -1.8485307 -0.59402204 84 35
13.009335 -1.9306383 -0.59478968 182 35
12.998231 -2.0105784 -0.59483767 200 35
12.999456 -2.0925174 -0.59550935 209 35
13.002134 -2.1748762 -0.596277 175 35
13.005276 -2.2575176 -0.59709263 169 35
13.01379 -2.3413398 -0.59819615 140 35
13.020782 -2.4251688 -0.59925163 150 35
13.001733 -2.5042617 -0.5990597 202 35
12.123042 -2.412334 -0.55679101 218 35
12.077681 -2.4804478 -0.55530369 291 35
12.076891 -2.557611 -0.55602336 379 35
12.15661 -2.652524 -0.56072521 198 35
13.00456 -2.9211657 -0.6032818 96 35
13.030187 -3.0110214 -0.6054408 256 35
13.037705 -3.0971472 -0.60673624 237 35
13.031071 -3.1801643 -0.60735995 238 35
13.03166 -3.2651577 -0.6083675 243 35
13.035565 -3.3512726 -0.60956693 213 35
13.047597 -3.4398489 -0.61119819 194 35
13.046494 -3.5253127 -0.61220574 232 35
13.040021 -3.6095603 -0.61297339 274 35
13.047419 -3.6979454 -0.61446071 275 35
13.045588 -3.7840531 -0.61551625 273 35
5.156352 -1.5307664 -0.22142388 174 35
5.0665712 -1.5380223 -0.21739371 158 35
4.9768987 -1.544235 -0.21336356 206 35
4.9282889 -1.5623765 -0.21139646 93 35
4.9176593 -1.592279 -0.21134847 107 35
4.9134874 -1.624303 -0.21163633 172 35
4.9299302 -1.6633562 -0.21297973 308 35
4.8261232 -1.6614077 -0.2082299 216 35
4.7639999 -1.6728003 -0.2055911 220 35
4.6831112 -1.676764 -0.20199274 206 35
4.602356 -1.6797991 -0.19839437 232 35
4.5479574 -1.6916511 -0.19613941 251 35
4.5225463 -1.7138653 -0.19537176 420 35
4.5147409 -1.7426612 -0.19551569 297 35
4.5095415 -1.7725214 -0.19580355 424 35
4.5069275 -1.8034959 -0.19623536 321 35
4.523531 -1.8424125 -0.19767471 421 35
4.5204463 -1.8735737 -0.19810651 417 35
4.5281949 -1.9094207 -0.19911405 469 35
4.5347552 -1.9450396 -0.20007361 477 35
4.5245667 -1.973626 -0.20016956 484 35
0.99211735 -0.44102171 -0.015213883 208 35
4.5428076 -2.0482874 -0.20242454 272 35
4.5410519 -2.0811141 -0.20300028 67 35
4.5091801 -2.1000869 -0.20199274 216 35
4.5133653 -2.135829 -0.20290433 79 35
4.5064774 -2.1665103 -0.20324017 82 35
4.54247 -2.2182157 -0.20587897 33 35
4.5341434 -2.2487075 -0.20616683 23 35
4.5336432 -2.2832224 -0.2068865 31 35
4.5275531 -2.315088 -0.20731831 25 35
4.5239024 -2.348345 -0.20789404 26 35
4.5297351 -2.3867636 -0.20899755 20 35
4.5264568 -2.4206333 -0.20962127 21 35
4.529079 -2.4578862 -0.21058083 18 35
4.5349145 -2.4971886 -0.2117323 16 35
4.5378203 -2.5351937 -0.21273984 16 35
4.5360851 -2.5708663 -0.21350749 16 35
4.5375462 -2.6086037 -0.21446705 24 35
4.5438924 -2.6494727 -0.21571448 12 35
4.5473275 -2.688993 -0.21681798 18 35
4.5495911 -2.7281411 -0.2178735 16 35
4.5506911 -2.7668989 -0.21888104 15 35
4.5531869 -2.8068206 -0.21998453 24 35
4.5519748 -2.8447599 -0.22089612 14 35
4.552156 -2.8838584 -0.22190367 18 35
4.5528684 -2.9236052 -0.22295918 10 35
4.554101 -2.9640138 -0.22406268 15 35
4.5541744 -3.0039971 -0.22511819 16 35
4.5614028 -3.0490868 -0.22660552 18 35
4.5641127 -3.0915775 -0.22785296 11 35
4.568943 -3.135911 -0.22924432 20 35
4.575861 -3.1821299 -0.23077962 35 35
4.5717659 -3.2210743 -0.2316912 23 35
4.5681782 -3.260668 -0.23265076 12 35
4.5683236 -3.3032641 -0.23385021 17 35
4.5648937 -3.3436239 -0.23485775 19 35
4.5611396 -3.3840656 -0.23586529 26 35
4.565846 -3.4311855 -0.23740059 28 35
4.5677595 -3.4766755 -0.23879196 27 35
4.5724511 -3.5247562 -0.24037524 28 35
4.5743608 -3.5711811 -0.24181458 25 35
4.5766563 -3.6183808 -0.24330191 37 35
4.5769839 -3.664494 -0.24469328 28 35
4.5839009 -3.7164068 -0.24651644 24 35
4.5779982 -3.7584035 -0.24757196 39 35
4.5871167 -3.8132343 -0.24958704 27 35
4.587326 -3.861244 -0.25107437 30 35
4.5871181 -3.9093988 -0.25256169 28 35
4.5872474 -3.958348 -0.25409698 22 35
4.585443 -4.0061316 -0.25553632 16 35
4.5929518 -4.0626421 -0.25759938 18 35
4.5939851 -4.1140652 -0.25927863 23 35
4.6027002 -4.1730313 -0.26148561 20 35
4.6027679 -4.2248297 -0.26316485 6 35
4.6038356 -4.2781448 -0.26494005 15 35
4.6051493 -4.3323154 -0.26676321 10 35
4.6045232 -4.3852849 -0.26849043 25 35
4.6055775 -4.4404883 -0.27036157 12 35
4.5975471 -4.4874978 -0.27165699 4 35
4.5990615 -4.5444026 -0.27362409 8 35
4.5951056 -4.59655 -0.27525535 8 35
4.5927877 -4.6509504 -0.27703053 12 35
4.6074138 -4.7233672 -0.28000519 15 35
4.6136975 -4.7882257 -0.28245205 28 35
4.5973172 -4.8301892 -0.28336364 12 35
4.6148109 -4.9085121 -0.28667414 13 35
4.6226764 -4.977716 -0.28936091 16 35
4.6325665 -5.0501437 -0.29223961 23 35
4.6457653 -5.1273193 -0.29540616 23 35
4.649528 -5.1951704 -0.29794899 17 35
4.663219 -5.2752314 -0.30125949 17 35
4.6511321 -5.3270664 -0.3027468 23 35
4.6594615 -5.4031534 -0.30576944 26 35
4.6599054 -5.4711776 -0.30826429 22 35
4.6616182 -5.5417023 -0.3109031 16 35
4.6600862 -5.6093798 -0.31334996 28 35
4.6528277 -5.6710682 -0.31541303 26 35
4.6594529 -5.7507257 -0.31857958 27 35
4.6584077 -5.8220973 -0.3212184 31 35
4.6758614 -5.9179645 -0.3253445 40 35
4.691083 -6.0126872 -0.32937467 41 35
4.6522722 -6.0389843 -0.32923073 62 35
4.6865001 -6.1612158 -0.33489215 27 35
4.6870036 -6.2409658 -0.33796275 40 35
4.6944389 -6.3313823 -0.34165707 30 35
4.6903176 -6.4076161 -0.34448779 26 35
4.6860218 -6.4848452 -0.34736648 37 35
4.6652884 -6.540308 -0.34894976 33 35
4.6400242 -6.5900431 -0.35019717 29 35
4.7066879 -6.7725768 -0.35921708 183 35
4.7170324 -6.8771024 -0.36363104 460 35
4.6926675 -6.9323831 -0.36516637 273 35
4.6905541 -7.0216727 -0.36866876 159 35
4.7458034 -7.1995873 -0.37725684 40 35
4.8262782 -7.420301 -0.38824382 18 35
4.7838945 -7.4548182 -0.38853171 22 35
4.7877617 -7.5625114 -0.39299366 17 35
4.7597914 -7.6213956 -0.3946729 25 35
4.7417579 -7.6972275 -0.39731169 23 35
4.7551365 -7.8260446 -0.40292513 17 35
4.7517042 -7.9296098 -0.40709925 23 35
4.7466702 -8.0325642 -0.41122535 12 35
4.7551365 -8.16078 -0.41674283 18 35
4.7632008 -8.2911291 -0.42235628 26 35
4.7535954 -8.3932018 -0.42638645 28 35
4.7838235 -8.5687208 -0.43444678 61 35
4.7942524 -8.7125435 -0.44073191 68 35
4.794045 -8.8401318 -0.44610545 56 35
4.7886839 -8.9609938 -0.45109519 51 35
4.7773633 -9.0732822 -0.45560512 44 35
4.7864642 -9.227437 -0.46237004 44 35
4.8684025 -9.5279036 -0.47700337 13 35
4.8412867 -9.6200485 -0.48036185 32 35
4.8438325 -9.7739677 -0.4870308 23 35
4.822763 -9.8833942 -0.49130085 21 35
4.8143754 -10.021736 -0.49710619 30 35
0 -0 -0 72 35
0 -0 -0 186 35
4.8628674 -10.619015 -0.52406991 80 35
4.8575354 -10.781607 -0.5310747 58 35
4.8621283 -10.97101 -0.53947091 57 35
4.8593879 -11.148967 -0.54724336 40 35
4.8483472 -11.312609 -0.55424815 28 35
4.831212 -11.466404 -0.56072521 21 35
4.880795 -11.785594 -0.57579035 103 35
0 -0 -0 319 35
4.7691822 -11.92807 -0.58010834 322 35
4.8649964 -12.387553 -0.60232222 77 35
4.9262252 -12.773161 -0.62064987 47 35
4.9839616 -13.162775 -0.63912147 24 35
4.9580927 -13.341037 -0.64670199 15 35
4.9473357 -13.566388 -0.65668148 16 35
4.9572177 -13.856995 -0.66997141 22 35
4.9719844 -14.171785 -0.68446082 34 35
4.9980192 -14.530716 -0.70115721 41 35
4.9732356 -14.7523 -0.71084875 27 35
5.0624814 -15.326936 -0.73838824 12 35
5.0495262 -15.608598 -0.75105447 14 35
5.0311899 -15.884003 -0.76338482 24 35
5.0711942 -16.3582 -0.78569466 67 35
5.1052732 -16.832516 -0.80795652 123 35
5.0104179 -16.892252 -0.80939585 409 35
4.9016666 -16.905409 -0.80853224 121 35
4.7692504 -16.834261 -0.80349451 8 35
5.1867313 -18.745209 -0.89729178 40 35
5.0562449 -18.71979 -0.8944611 164 35
4.9654737 -18.842218 -0.899019 30 35
5.0051804 -19.476955 -0.92900532 6 35
4.9154325 -19.626476 -0.9349066 29 35
4.1163263 -16.875158 -0.79740131 7 35
4.0143204 -16.9069 -0.79773718 12 35
3.9109557 -16.933161 -0.79783314 134 35
3.8041368 -16.94417 -0.79720938 474 35
3.6877503 -16.910591 -0.79442668 300 35
3.574816 -16.889904 -0.7923156 31 35
3.4610696 -16.862598 -0.78991675 100 35
3.3668921 -16.93054 -0.7922197 269 35
3.2570899 -16.920475 -0.79073232 266 35
3.1596062 -16.97451 -0.79241157 348 35
3.0527406 -16.978832 -0.7916919 321 35
2.9459412 -16.982481 -0.79097223 454 35
2.9365761 -17.567696 -0.81860763 92 35
2.9498131 -18.337824 -0.85521495 354 35
2.8335755 -18.331888 -0.85406351 464 35
2.7160559 -18.315336 -0.85243225 424 35
2.5985653 -18.296055 -0.85070503 420 35
2.4826238 -18.284931 -0.84940958 483 35
2.3630657 -18.243359 -0.84667486 299 35
2.2466795 -18.221827 -0.84494764 535 35
2.1302981 -18.196579 -0.84307647 507 35
2.0143116 -18.170589 -0.84120536 422 35
1.9009085 -18.164726 -0.84034175 472 35
1.7848135 -18.129328 -0.83808678 517 35
1.6712449 -18.115072 -0.8368873 512 35
1.5294592 -17.769712 -0.81975913 4840 35
1.4434056 -18.066511 -0.83362478 352 35
1.3064313 -17.721397 -0.81659257 136 35
1.1504313 -17.030483 -0.78295988 75 35
1.1044885 -17.990322 -0.82882696 176 35
0.99297804 -17.976814 -0.82786745 463 35
0.88128275 -17.954634 -0.82652402 543 35
0.77002585 -17.934755 -0.82532459 543 35
0.65930361 -17.921175 -0.82446098 588 35
0.54856241 -17.899925 -0.8232615 551 35
0.43786147 -17.868004 -0.82158232 580 35
0.32790431 -17.853376 -0.82076669 543 35
0.2143243 -17.527456 -0.80502981 199 35
0.1066877 -17.514458 -0.80435812 382 35
-0.00078134082 -17.4988 -0.80359048 454 35
-0.10817637 -17.50246 -0.8037824 285 35
-0.21770865 -17.676254 -0.81217855 344 35
-0.32741275 -17.742495 -0.81544107 587 35
-0.43558672 -17.712193 -0.8140977 477 35
-0.54297256 -17.667255 -0.81208265 643 35
-0.64993358 -17.624662 -0.81021148 413 35
-0.75763559 -17.610363 -0.80973166 455 35
-0.86499065 -17.591415 -0.80905998 471 35
-0.97148037 -17.559847 -0.80781257 498 35
-1.0782889 -17.538601 -0.80709291 463 35
-1.1506622 -17.010445 -0.78200036 506 35
-1.2532517 -16.979156 -0.78084886 556 35
-1.3570919 -16.967165 -0.78065693 542 35
-1.4601469 -16.946577 -0.78008121 558 35
-1.5630002 -16.925364 -0.77950549 582 35
-1.6658441 -16.905514 -0.77902567 599 35
-1.7686071 -16.886032 -0.7785939 572 35
-1.8706436 -16.860964 -0.77792221 529 35
-1.9723228 -16.834288 -0.77720255 628 35
-2.0748456 -16.815922 -0.77691466 603 35
-2.2141757 -17.082214 -0.79044449 272 35
-2.3310449 -17.157385 -0.79476249 204 35
-2.3998938 -16.886629 -0.78233618 571 35
-2.5046353 -16.87949 -0.78272003 589 35
-2.6101425 -16.876637 -0.78334373 547 35
-2.7168195 -16.880026 -0.78430331 537 35
-2.8228128 -16.877817 -0.78502297 635 35
-2.9297349 -16.879862 -0.78598249 683 35
-3.0378489 -16.887127 -0.78722996 591 35
-3.1450653 -16.88781 -0.78818953 644 35
-3.2525933 -16.88879 -0.78919703 611 35
-3.3610308 -16.893007 -0.79039651 633 35
-2.5401006 -12.368279 -0.5695532 304 35
-2.5534739 -12.057347 -0.55506378 107 35
-0 -0 -0 847 35
-2.6940227 -11.992943 -0.55348051 687 35
-2.7749777 -12.008304 -0.55506378 993 35
-2.8522995 -12.006599 -0.55583143 971 35
-2.9325452 -12.016043 -0.5571748 1038 35
-3.010102 -12.013326 -0.55794245 1051 35
-3.0852494 -12.000435 -0.55823034 884 35
-6.7166848 -25.48122 -1.2288207 226 35
-6.8775969 -25.456886 -1.2296842 269 35
-7.0437908 -25.450788 -1.2315074 166 35
-0 -0 -0 4 35
-0 -0 -0 4 35
-0 -0 -0 4 35
-0 -0 -0 4 35
-0 -0 -0 4 35
-8.0958424 -25.553261 -1.2506027 27 35
-0 -0 -0 5 35
-8.4313679 -25.520277 -1.2540572 6 35
-9.1992197 -27.281559 -1.3459833 8 35
-10.3009 -29.941055 -1.4839684 4 35
-0 -0 -0 4 35
-2.5849273 -7.2214317 -0.33148572 416 35
-2.6213169 -7.1838522 -0.3303822 1462 35
-2.6656947 -7.1685691 -0.33043018 1585 35
-2.7220109 -7.184772 -0.33210942 934 35
-2.7739527 -7.188437 -0.33316493 718 35
-2.7814906 -7.078311 -0.32836711 829 35
-2.8011343 -7.0017543 -0.32529652 1418 35
-2.843667 -6.98351 -0.32524854 1428 35
-2.8906679 -6.9760809 -0.32577631 1472 35
-2.952424 -7.0033154 -0.32812724 1623 35
-2.9984882 -6.9924126 -0.32851106 1573 35
-3.0050142 -6.8905597 -0.32414505 1178 35
-3.0427849 -6.8619471 -0.32361728 1452 35
-3.1369462 -6.9588022 -0.32971051 1280 35
-3.2091167 -7.0039005 -0.33311695 1506 35
-3.2562463 -6.9931335 -0.33359674 1385 35
-3.3264248 -7.0308108 -0.33666736 224 35
-5.724443 -11.911612 -0.59786028 28 35
-5.7588716 -11.79727 -0.59363818 41 35
-5.7796931 -11.657899 -0.58807272 36 35
-5.8138428 -11.548162 -0.58409053 30 35
-5.8573194 -11.458906 -0.58121186 20 35
-5.8990002 -11.36778 -0.57823724 31 35
-5.9463 -11.288948 -0.57593429 58 35
-5.9966226 -11.217013 -0.57401514 129 35
-6.0700984 -11.188787 -0.5744949 230 35
-6.0567636 -11.002569 -0.56633866 33 35
-6.0744891 -10.876245 -0.56144488 33 35
-6.086956 -10.743167 -0.5561673 139 35
-6.1492767 -10.699553 -0.55583143 125 35
-6.1413832 -10.535625 -0.54882663 37 35
-6.1637301 -10.426373 -0.54484445 52 35
-6.1613483 -10.277835 -0.53865528 136 35
-6.151154 -10.119481 -0.53189033 38 35
-6.1596856 -9.9948082 -0.52699655 28 35
-6.1383452 -9.8246689 -0.519512 36 35
-6.1130147 -9.6517973 -0.51183552 17 35
-5.8408499 -9.0979795 -0.48237693 49 35
-5.8736873 -9.026804 -0.48036185 54 35
-5.8728843 -8.9055347 -0.47546807 45 35
-5.8857985 -8.8070421 -0.47186971 56 35
-5.889327 -8.6963224 -0.46755168 58 35
-5.9052815 -8.6056614 -0.46438512 72 35
-5.9345994 -8.5356388 -0.46241802 69 35
-5.9535041 -8.4516983 -0.45963529 139 35
-6.0122123 -8.4247665 -0.46021104 792 35
-6.0544305 -8.3747644 -0.45944336 160 35
-6.1245852 -8.3632479 -0.46097869 82 35
-6.2424254 -8.4153671 -0.46635222 727 35
-6.2495503 -8.3178072 -0.46280184 333 35
-6.1770916 -8.1171379 -0.45301431 118 35
-6.1743498 -8.0110397 -0.44888818 205 35
-6.0273614 -7.7218065 -0.43358317 41 35
-6.158237 -7.790473 -0.4400602 182 35
-6.195312 -7.7392826 -0.4392446 327 35
-6.2728701 -7.7383714 -0.44154754 336 35
-6.3652225 -7.7545576 -0.44495398 360 35
-6.447156 -7.7568398 -0.44754481 348 35
-6.5139217 -7.7400641 -0.44898415 347 35
-6.6442032 -7.7972732 -0.45512533 272 35
-6.7297611 -7.8002267 -0.45790806 226 35
-6.8162603 -7.8031745 -0.46073878 237 35
-6.9017248 -7.8038559 -0.46347353 370 35
-7.0280919 -7.8491783 -0.46913496 281 35
-7.1224041 -7.8569746 -0.47244546 297 35
-7.2245035 -7.8720031 -0.4762837 279 35
-7.2991815 -7.8560677 -0.47815484 341 35
-7.3705134 -7.8358727 -0.4797861 197 35
-7.4515138 -7.8252249 -0.48208904 16 35
-7.5028539 -7.7829518 -0.48232895 8 35
-7.5644193 -7.7510672 -0.4832885 7 35
-7.6314907 -7.7244043 -0.4846319 9 35
-7.7154694 -7.7141609 -0.48712677 23 35
-7.9303584 -7.8323374 -0.49844959 126 35
-8.0318842 -7.8358493 -0.50204796 156 35
-8.1279964 -7.8328629 -0.50526249 173 35
-8.2562017 -7.8592954 -0.51058805 192 35
-8.3370132 -7.8392825 -0.51274705 22 35
-8.6857252 -8.0673914 -0.53246611 327 35
-8.7851067 -8.0598669 -0.53572857 612 35
-8.9158049 -8.0795994 -0.54100621 508 35
-9.0202827 -8.0740433 -0.54455656 553 35
-9.116046 -8.0595675 -0.54753125 549 35
-9.2586126 -8.0849562 -0.55348051 339 35
-9.6120882 -8.2902746 -0.57276773 7 35
-9.6551723 -8.2246618 -0.57228792 385 35
-9.703928 -8.1639776 -0.57219195 191 35
-9.7169647 -8.073638 -0.56988901 267 35
-2.9169648 -2.392493 -0.14427505 56 35
-2.9176223 -2.363229 -0.14341144 153 35
-2.9351871 -2.347779 -0.14360335 326 35
-2.9221103 -2.3080473 -0.14192413 138 35
-2.9409416 -2.2937613 -0.14221199 333 35
-2.9335988 -2.2592111 -0.14091659 142 35
-2.9338923 -2.230886 -0.14010096 105 35
-2.9411366 -2.2080426 -0.13971713 134 35
-2.9442 -2.182219 -0.13909341 127 35
-2.9478636 -2.1570315 -0.13851768 131 35
-2.9472818 -2.1289558 -0.13770205 265 35
-2.9456537 -2.1003885 -0.13683844 112 35
-2.9495032 -2.075948 -0.13631068 126 35
-2.9531639 -2.0515397 -0.13578293 103 35
-2.9582837 -2.0282948 -0.13535112 120 35
-2.9657109 -2.0067449 -0.13506325 129 35
-2.972985 -1.9851801 -0.13477539 136 35
-3.0051234 -1.9800971 -0.13592686 97 35
-3.0406594 -1.9768727 -0.13727024 82 35
-3.0695434 -1.9689697 -0.1382298 76 35
-3.0925374 -1.9570454 -0.13885352 70 35
-3.1570096 -1.9708443 -0.14182816 358 35
-3.2098603 -1.9765884 -0.14413111 121 35
-3.214246 -1.9521868 -0.14369932 227 35
-3.3186908 -1.9878891 -0.14888094 65 35
-3.3506026 -1.9791785 -0.14998445 56 35
-3.3661354 -1.9605943 -0.15017636 78 35
-3.4326622 -1.9712565 -0.15319899 23 35
-10.731011 -6.0780153 -0.55544764 417 35
-9.7852707 -5.4631991 -0.50137627 124 35
-10.719035 -5.8986702 -0.55074573 304 35
-10.623328 -5.7613482 -0.54354906 4 35
-10.657598 -5.6955853 -0.54350108 172 35
-10.512056 -5.5351305 -0.53371352 58 35
-10.629163 -5.5137682 -0.53822345 210 35
-10.618324 -5.4257159 -0.53582454 644 35
-10.626434 -5.3478861 -0.53448117 644 35
-10.616092 -5.2612886 -0.53217822 627 35
-10.604191 -5.174582 -0.5298273 624 35
-10.591627 -5.0882201 -0.52747637 653 35
-10.57389 -5.000073 -0.52488554 764 35
-10.562716 -4.9157081 -0.52267855 712 35
-10.546366 -4.8295898 -0.52023166 663 35
-10.537554 -4.747551 -0.51821661 633 35
-10.528133 -4.665803 -0.5162015 664 35
-10.519024 -4.5847492 -0.51423442 696 35
-10.501973 -4.5008349 -0.5118835 780 35
-10.496256 -4.4223466 -0.51015627 732 35
-10.486281 -4.3425689 -0.50823712 699 35
-10.474798 -4.2627044 -0.50627005 681 35
-10.452531 -4.1790643 -0.50377518 738 35
-10.442648 -4.1009722 -0.50195199 810 35
-10.425678 -4.0206428 -0.49979299 795 35
-10.436141 -3.9512897 -0.4990733 821 35
-10.389034 -3.8607292 -0.49542698 669 35
-10.27271 -3.7459099 -0.48827824 728 35
-10.258823 -3.669683 -0.48640707 748 35
-10.261354 -3.5997212 -0.48539954 695 35
-10.253025 -3.5262923 -0.48386425 663 35
-10.211054 -3.4419312 -0.48064971 110 35
-10.225342 -3.3770192 -0.48031387 77 35
-1.6710194 -0.53949869 -0.047407206 27 35
-1.6676328 -0.52712357 -0.04707136 53 35
-1.6622494 -0.51421875 -0.046639558 48 35
-1.6539034 -0.50053006 -0.046063822 26 35
-1.6521555 -0.48895198 -0.045823928 23 35
-1.6388161 -0.47407559 -0.045008302 22 35
-1.6436162 -0.46455574 -0.045104258 10 35
-1.6291078 -0.44966629 -0.04424065 27 35
-1.6221935 -0.43705666 -0.04376087 21 35
-1.6171178 -0.4250581 -0.043377046 20 35
-1.6109889 -0.41288969 -0.042945243 38 35
-1.6086475 -0.40178347 -0.04270535 32 35
-1.6042898 -0.390248 -0.042369504 32 35
-1.5804151 -0.37416497 -0.041074093 48 35
-1.5710026 -0.36176252 -0.040498357 67 35
-1.5761166 -0.35277283 -0.040642291 60 35
-1.5665406 -0.34054071 -0.040066555 64 35
-1.5578517 -0.32864633 -0.039538793 86 35
-1.5529897 -0.31767508 -0.039202947 92 35
-1.537276 -0.30463219 -0.038339343 117 35
-1.5332313 -0.29406068 -0.038051471 124 35
-1.528133 -0.28336746 -0.037715625 151 35
-1.5259106 -0.27327839 -0.037523713 162 35
-1.5236222 -0.26322728 -0.037331801 180 35
-1.5222532 -0.25337932 -0.037187867 160 35
-1.5208206 -0.24355808 -0.037043933 171 35
-1.5203123 -0.23391664 -0.036947977 198 35
-1.5197428 -0.22429061 -0.036852021 161 35
-1.5191126 -0.21468037 -0.036756065 191 35
-1.5184218 -0.20508635 -0.036660105 178 35
-1.518661 -0.19563726 -0.036612127 181 35
-1.5188415 -0.18619294 -0.036564149 172 35
-1.5169792 -0.17652139 -0.036420215 178 35
-1.5160482 -0.16698982 -0.036324259 199 35
-1.5170443 -0.15768439 -0.036324259 176 35
-1.5159951 -0.14817715 -0.036228303 168 35
-1.5158812 -0.13878056 -0.036180325 161 35
-1.5167042 -0.12947668 -0.036180325 173 35
-1.5184658 -0.12024754 -0.036228303 218 35
-1.4948282 0.036663115 -0.05353114 205 36
-1.491582 0.045741942 -0.053349562 219 36
-1.4932683 0.054967217 -0.053470612 219 36
-1.4958946 0.064258002 -0.05365219 194 36
-1.4954722 0.073435426 -0.05365219 211 36
-1.4949934 0.082610086 -0.05365219 220 36
-1.4984435 0.092027433 -0.053894296 190 36
-1.4998424 0.10135509 -0.054015346 207 36
-1.5011832 0.11070338 -0.054136399 211 36
-1.4984857 0.11975283 -0.054015346 237 36
-1.502695 0.1293745 -0.054317977 199 36
-1.5018729 0.13859244 -0.054317977 180 36
-1.5039742 0.14809938 -0.054499555 187 36
-1.4970809 0.15669979 -0.054136399 253 36
-1.5030357 0.16665456 -0.05456008 205 36
-1.5029761 0.17599022 -0.054620605 214 36
-1.5058305 0.18569869 -0.054862708 220 36
-1.5056525 0.19506329 -0.054923236 200 36
-1.5073946 0.20470184 -0.055104814 214 36
-1.5031455 0.21352528 -0.054923236 242 36
-1.504769 0.22318448 -0.055104814 251 36
-1.5083033 0.23317714 -0.055407442 209 36
-1.5088151 0.24274513 -0.055528495 197 36
-1.5102506 0.25249302 -0.055710074 213 36
-1.5096563 0.26192588 -0.055770598 201 36
-1.509003 0.27136093 -0.055831123 192 36
-1.5082909 0.28079784 -0.055891648 231 36
-1.5143806 0.29155889 -0.056375857 202 36
-1.5145209 0.30123541 -0.056496907 194 36
-1.5155772 0.31112558 -0.056678485 199 36
-1.5165691 0.32104003 -0.056860063 197 36
-1.5165211 0.3307654 -0.056981117 201 36
-1.5193323 0.34115902 -0.057283744 187 36
-1.5201279 0.35114977 -0.057465322 181 36
-1.5169735 0.36023962 -0.057404798 202 36
-1.5186132 0.37048811 -0.0576469 191 36
-1.5250251 0.38198406 -0.058191635 162 36
-1.5236193 0.39158297 -0.05825216 150 36
-1.5211879 0.40092432 -0.05825216 115 36
-1.6063834 0.43396041 -0.06376002 44 36
-1.610424 0.445674 -0.064183697 27 36
-1.6124606 0.45690876 -0.064486332 33 36
-1.6287987 0.47235882 -0.06569685 21 36
-1.6354386 0.48518521 -0.066302106 14 36
-1.6352961 0.49608088 -0.066483684 18 36
-1.6388946 0.50817639 -0.066907369 17 36
-1.6414546 0.52003294 -0.067270517 12 36
-1.6439306 0.53194004 -0.067633674 18 36
-1.649165 0.544837 -0.068178408 26 36
-1.6533571 0.55749899 -0.068662614 13 36
-1.6565118 0.56990784 -0.069086298 16 36
-1.647333 0.57807696 -0.068723142 22 36
-4.9394131 1.7682714 -0.2809875 14 36
-4.9622259 1.8108672 -0.28316644 339 36
-4.9463434 1.8395407 -0.2828638 539 36
-4.93963 1.8716249 -0.28316644 617 36
-4.93364 1.9040555 -0.28352958 599 36
-4.9311538 1.9379435 -0.28413486 623 36
-4.9265838 1.9711308 -0.28461906 643 36
-4.9180942 2.0028288 -0.28486118 607 36
-4.9075565 2.0337324 -0.2849822 592 36
-4.895905 2.0641942 -0.28504273 587 36
-4.8932381 2.0985246 -0.28570852 370 36
-4.8839293 2.1301057 -0.28595063 306 36
-4.8798919 2.1640801 -0.28655589 628 36
-9.0167398 4.0653982 -0.56261456 473 36
-9.0297365 4.1381145 -0.56515664 1022 36
-9.0114136 4.1968136 -0.56564087 1042 36
-8.9963198 4.2571511 -0.56636715 1057 36
-8.9871216 4.3204894 -0.56751716 974 36
-8.9792776 4.3847504 -0.56878823 946 36
-8.9691944 4.4481907 -0.56993818 920 36
-8.9622355 4.5134678 -0.57133031 880 36
-8.949481 4.5760999 -0.5723592 878 36
-8.9380665 4.6396651 -0.57350922 861 36
-8.9279737 4.7041926 -0.57478029 946 36
-8.9130239 4.766417 -0.57574868 962 36
-8.7897406 4.7700701 -0.5692724 208 36
-8.8529873 4.8749533 -0.57568818 146 36
-8.8795481 4.9608288 -0.57962233 973 36
-8.1281919 4.6066904 -0.52938586 44 36
-8.5333071 4.905736 -0.55970931 114 36
-8.7694864 5.1133752 -0.57841182 357 36
-8.8015242 5.2046871 -0.58289075 451 36
-8.9731588 5.3807755 -0.59729588 309 36
-8.9485025 5.4409184 -0.59790117 13 36
-2.9443281 1.8147565 -0.17258561 9 36
-2.9763057 1.8597692 -0.17567243 38 36
-2.9648385 1.8779966 -0.17567243 45 36
-2.9540994 1.8966924 -0.17573296 44 36
-2.9490983 1.9191389 -0.17621715 34 36
-2.944766 1.942145 -0.1767619 46 36
-2.9527092 1.9734912 -0.17821451 25 36
-2.9488084 1.9971699 -0.17881978 51 36
-2.9488428 2.0236993 -0.17972766 61 36
-2.9429257 2.0463142 -0.18021187 46 36
-2.933578 2.066633 -0.18045397 46 36
-2.9216547 2.0851741 -0.1805145 50 36
-2.9201288 2.1112506 -0.18136185 89 36
-2.8684688 2.1008148 -0.17845662 23 36
-2.8467069 2.1118331 -0.17779084 35 36
-2.8097575 2.1112692 -0.17597505 34 36
-2.7681577 2.1067045 -0.17379612 24 36
-2.7283018 2.1029284 -0.17173824 23 36
-2.6854506 2.0962863 -0.16943826 33 36
-2.6404355 2.0873411 -0.16695669 32 36
-2.5940745 2.0766754 -0.16435409 22 36
-2.5494955 2.0667777 -0.16187252 31 36
-2.5105371 2.0608461 -0.15981464 24 36
-2.4732833 2.0557914 -0.1578778 29 36
-2.442296 2.0555005 -0.15642518 33 36
-2.4045694 2.0490797 -0.15442783 31 36
-2.3730595 2.0474913 -0.15291469 36 36
-2.344667 2.0482211 -0.15164363 29 36
-2.3058891 2.0394208 -0.14952523 29 36
-2.2687955 2.0315547 -0.14752787 40 36
-2.1956539 1.990456 -0.14256476 15 36
-0 0 -0 3 36
-2.1301184 1.9791965 -0.1391753 17 36
-2.1070297 1.9819695 -0.13826741 28 36
-2.0753145 1.9762725 -0.13663322 47 36
-2.0703344 1.9958979 -0.13723847 49 36
-2.0637629 2.0141418 -0.13772269 41 36
-2.061305 2.0365899 -0.13857004 37 36
-2.0537093 2.0541413 -0.13899373 22 36
-2.0578978 2.083751 -0.14044635 50 36
-2.0513458 2.1027701 -0.14099108 34 36
-2.0508702 2.1282566 -0.14208055 45 36
-2.04603 2.1494775 -0.14280686 53 36
-2.0430574 2.1729007 -0.14371474 46 36
-2.0378366 2.1941733 -0.14444105 47 36
-2.0364792 2.2198772 -0.14553052 49 36
-2.0368931 2.2478659 -0.14680156 41 36
-2.0343771 2.2729671 -0.1478305 34 36
-2.0322907 2.2988696 -0.14891997 38 36
-2.0286496 2.3233278 -0.14988838 57 36
-0 0 -0 29 36
-0 0 -0 41 36
-0 0 -0 42 36
-0 0 -0 26 36
-2.0134013 2.4539199 -0.15533572 36 36
-2.0039611 2.4732082 -0.15588045 47 36
-1.987501 2.4838989 -0.15575939 18 36
-2.8700035 3.6325672 -0.24358249 30 36
-2.8605525 3.6666369 -0.24485354 142 36
-2.8532276 3.7038898 -0.24636668 130 36
-2.8425314 3.7372177 -0.24757721 141 36
-2.8375266 3.7785351 -0.24939299 136 36
-2.8107219 3.7910635 -0.24902983 119 36
-2.7538071 3.7623243 -0.24557985 79 36
-2.7254093 3.7718687 -0.24503511 78 36
-2.6871457 3.7673907 -0.24346144 63 36
-2.650764 3.7650347 -0.24206935 110 36
-2.6145129 3.7623746 -0.24067725 100 36
-2.5823462 3.7651746 -0.23970884 86 36
-0 0 -0 6 36
-0 0 -0 10 36
-2.0765007 3.1502988 -0.19165127 6 36
-2.1316767 3.2776248 -0.19994332 149 36
-2.0856545 3.2503161 -0.19703807 128 36
-2.0549953 3.2461836 -0.19582756 109 36
-0 0 -0 66 36
-0 0 -0 102 36
-0 0 -0 72 36
-0 0 -0 79 36
-0 0 -0 60 36
-0 0 -0 61 36
-1.5707111 2.7341802 -0.15406467 71 36
-1.5480036 2.7333431 -0.15333836 54 36
-0 0 -0 71 36
-0 0 -0 79 36
-0 0 -0 77 36
-0 0 -0 83 36
-0 0 -0 80 36
-0 0 -0 91 36
-0 0 -0 61 36
-0 0 -0 54 36
-0 0 -0 52 36
-0 0 -0 55 36
-0 0 -0 15 36
-0 0 -0 17 36
-0 0 -0 37 36
-0 0 -0 8 36
-0 0 -0 6 36
-0 0 -0 13 36
-0 0 -0 14 36
-0 0 -0 18 36
-0 0 -0 13 36
-0 0 -0 10 36
-0 0 -0 10 36
-0 0 -0 8 36
-0 0 -0 6 36
-0 0 -0 7 36
-0 0 -0 10 36
-0 0 -0 27 36
-0.97589469 2.6764238 -0.13560428 14 36
-0.95676571 2.6748421 -0.13512006 6 36
-0.94000494 2.6797204 -0.13505954 4 36
-0.91348565 2.6561751 -0.13318324 7 36
-0 0 -0 4 36
-0 0 -0 9 36
-0 0 -0 9 36
-0 0 -0 5 36
-0.81739998 2.6371801 -0.13027799 12 36
-0.79772884 2.6306829 -0.12955168 9 36
-0.7773174 2.6211729 -0.1286438 5 36
-0.7595529 2.6201408 -0.12828064 6 36
-0.74264604 2.6218705 -0.12809905 4 36
-0.7252146 2.6215677 -0.12779643 6 36
-0 0 -0 8 36
-0 0 -0 4 36
-0.67435485 2.6248043 -0.12719117 7 36
-0 0 -0 4 36
-0.64422089 2.6416101 -0.1277359 11 36
-0.62477452 2.6319163 -0.12688854 5 36
-0.60569596 2.6230564 -0.1261017 7 36
-0.58893436 2.6238015 -0.12592013 7 36
-0.57133657 2.6205387 -0.12549645 16 36
-0.55359447 2.6161826 -0.12501223 4 36
-0.53572696 2.6107297 -0.12446751 34 36
-0.52203172 2.6257162 -0.12519382 6 36
-0.50157559 2.6063249 -0.12380172 33 36
-0.47316617 2.5426219 -0.11968596 68 36
-0.45402715 2.5258284 -0.11847544 73 36
-0.43391928 2.502012 -0.11684124 96 36
-0.41362783 2.475091 -0.11502546 134 36
-0.39795816 2.4746258 -0.11484388 184 36
-0.38352805 2.4819536 -0.11514652 159 36
-0.37063146 2.5000584 -0.11611493 108 36
-0.3557049 2.5052505 -0.11629651 118 36
-0.34113085 2.5133204 -0.11665966 128 36
-0.32634312 2.5203159 -0.11696229 134 36
-0.31160429 2.5282149 -0.11732545 106 36
-0.29678079 2.5360279 -0.1176886 101 36
-0.2819829 2.5447459 -0.11811228 89 36
-0.26646703 2.547421 -0.11817281 160 36
-0.25571129 2.5986774 -0.12119911 40 36
-0.22795753 2.471976 -0.11339127 10 36
-0.21278548 2.4733284 -0.11339127 12 36
-0.19681244 2.4646373 -0.112786 7 36
-0 0 -0 5 36
-0.16695522 2.4728422 -0.11314916 9 36
-0.15086447 2.4588757 -0.11224127 9 36
-0.13484171 2.4428117 -0.11121233 6 36
-0.11994784 2.4455872 -0.11133339 8 36
-0.10451354 2.4363046 -0.11072812 7 36
-0.089161187 2.4259274 -0.11006234 7 36
-0.074638844 2.4384012 -0.11078865 12 36
-0.059748463 2.441807 -0.11097023 12 36
-0.044692159 2.4381356 -0.11072812 16 36
-0.029671149 2.4333735 -0.11042549 11 36
-0.014674956 2.4225302 -0.10975971 8 36
0.00019208092 2.4325562 -0.11036497 7 36
0.015073412 2.4255223 -0.10994129 14 36
0.029843457 2.4164014 -0.10939655 9 36
0 0 -0 10 36
0 0 -0 15 36
0.074223869 2.4124496 -0.10921498 15 36
0 0 -0 17 36
0.10433993 2.4233239 -0.10994129 15 36
0.11910877 2.420644 -0.10982023 17 36
0.13456799 2.4308307 -0.11048602 16 36
0.15003377 2.4389257 -0.11103075 30 36
0 0 -0 28 36
0 0 -0 14 36
0 0 -0 5 36
0 0 -0 31 36
0 0 -0 12 36
0.31218022 3.1658266 -0.15575939 125 36
0.33066198 3.154917 -0.15521467 54 36
0 0 -0 60 36
0 0 -0 85 36
0 0 -0 82 36
0 0 -0 72 36
0 0 -0 56 36
0 0 -0 202 36
0.35741353 2.408174 -0.11048602 135 36
0.37248859 2.4079084 -0.11060707 171 36
0.38741502 2.406563 -0.11066759 138 36
0.40283352 2.4080784 -0.1109097 126 36
0.41811427 2.4085116 -0.11109128 130 36
0.43253091 2.4039359 -0.11097023 104 36
0.44818774 2.4061432 -0.11127286 124 36
0.46105355 2.3935466 -0.11066759 112 36
0.4733918 2.3789253 -0.10994129 81 36
0.48657289 2.3691318 -0.1095176 58 36
0.50213528 2.3709838 -0.10982023 86 36
0.52327549 2.3980889 -0.11169654 198 36
0.53360134 2.375356 -0.11048602 128 36
0.54816622 2.3720372 -0.11048602 122 36
0.56178701 2.3647447 -0.11024392 87 36
0.57675987 2.3631923 -0.11036497 93 36
0.59052098 2.3567042 -0.11018339 60 36
0.61442107 2.3897707 -0.11248337 14 36
0.81622589 3.0953355 -0.15696992 32 36
0.8388508 3.1037588 -0.15781727 63 36
0.81817758 2.9552233 -0.14879891 15 36
0.66961569 2.3624487 -0.11175706 9 36
0.68855059 2.3736331 -0.11272548 26 36
0.91704112 3.0898926 -0.15830149 129 36
0.93714303 3.088028 -0.15854359 209 36
0.95814401 3.0888929 -0.15896727 174 36
0.98009592 3.0924706 -0.15957253 212 36
1.0015126 3.0939956 -0.16005674 181 36
1.0214181 3.0906353 -0.16023831 192 36
1.0403627 3.0843098 -0.16023831 177 36
1.0612177 3.0835309 -0.16060147 192 36
1.0821023 3.082612 -0.16096462 187 36
0 0 -0 168 36
0 0 -0 171 36
0 0 -0 165 36
0 0 -0 184 36
0 0 -0 181 36
0 0 -0 186 36
1.2271881 3.0675941 -0.16320409 182 36
1.2493762 3.068326 -0.16374882 200 36
0 0 -0 184 36
0 0 -0 160 36
0 0 -0 201 36
0 0 -0 191 36
0 0 -0 198 36
0 0 -0 196 36
1.3957762 3.0463314 -0.16604881 677 36
1.4022199 3.0114696 -0.16429356 115 36
0 0 -0 95 36
0 0 -0 97 36
0 0 -0 88 36
0 0 -0 67 36
0 0 -0 79 36
0 0 -0 93 36
0 0 -0 66 36
1.341223 2.5460753 -0.13735953 146 36
1.3582324 2.5404384 -0.1375411 158 36
1.3761754 2.536443 -0.13784373 149 36
1.3946018 2.5331974 -0.13820688 158 36
1.4130402 2.5298209 -0.13857004 136 36
1.4319817 2.5271816 -0.13899373 156 36
1.4514414 2.5252702 -0.13947792 149 36
0 0 -0 155 36
1.4919751 2.5235929 -0.14062792 142 36
0 0 -0 166 36
0 0 -0 165 36
0 0 -0 171 36
0 0 -0 180 36
0 0 -0 187 36
0 0 -0 186 36
0 0 -0 182 36
1.6585263 2.5148346 -0.14553052 168 36
0 0 -0 173 36
0 0 -0 170 36
0 0 -0 167 36
0 0 -0 150 36
0 0 -0 153 36
1.7905625 2.5089531 -0.14976734 207 36
1.8106029 2.5043898 -0.15025154 175 36
1.8312442 2.5004799 -0.15079628 146 36
0 0 -0 138 36
0 0 -0 155 36
0 0 -0 153 36
0 0 -0 144 36
0 0 -0 134 36
1.9554709 2.4736631 -0.15406467 136 36
1.9787229 2.4717469 -0.15485151 159 36
2.0020247 2.4696383 -0.15563835 161 36
0 0 -0 143 36
0 0 -0 137 36
0 0 -0 134 36
2.08793 2.4501483 -0.15805939 164 36
2.1114025 2.4471145 -0.15884621 156 36
2.1349163 2.4438846 -0.15963306 156 36
2.1624377 2.4449434 -0.16078305 130 36
2.1933818 2.4494739 -0.16223568 133 36
2.2157457 2.444103 -0.16290146 104 36
2.6674449 2.906203 -0.20206171 138 36
2.6947403 2.9000173 -0.20290908 153 36
2.7200077 2.8914247 -0.20357487 155 36
2.7487133 2.8862445 -0.20454328 193 36
2.7601352 2.8628578 -0.20399855 18 36
3.0140231 3.0879993 -0.22451684 50 36
3.0287042 3.0651877 -0.22415368 46 36
3.0658102 3.064893 -0.22572735 75 36
3.1008952 3.0621536 -0.22711945 72 36
3.1360612 3.0590985 -0.22851154 78 36
3.1677117 3.0522637 -0.22960101 64 36
3.2015653 3.0472198 -0.23087205 76 36
3.2420211 3.0480275 -0.23268783 88 36
3.2760234 3.0423403 -0.23395887 73 36
3.3063993 3.0329766 -0.23492728 79 36
3.3397422 3.0260348 -0.23613781 81 36
3.3738675 3.0194631 -0.23740885 72 36
3.4110291 3.0152302 -0.238922 101 36
3.4482651 3.0106542 -0.24043515 103 36
3.5082519 3.0252881 -0.24376407 396 36
3.5313084 3.0075877 -0.24412723 66 36
3.5474045 2.9839361 -0.24394564 9 36
3.5656469 2.9621134 -0.24394564 16 36
3.5991898 2.9528401 -0.24515617 37 36
3.5738058 2.8955157 -0.24176672 4 36
3.5922847 2.8741562 -0.24182725 4 36
3.6067195 2.8495853 -0.24158514 5 36
3.6170528 2.821876 -0.24104041 23 36
0 0 -0 5 36
3.6784229 2.7978199 -0.24309829 98 36
3.7043011 2.7817893 -0.24376407 122 36
3.7429509 2.7750571 -0.24539827 141 36
3.7945447 2.7773862 -0.24800089 138 36
3.8454978 2.7786014 -0.25054297 118 36
3.8811662 2.7682834 -0.25193506 120 36
3.9184847 2.7587807 -0.25344822 136 36
3.967308 2.7568974 -0.25580874 147 36
4.0063763 2.7477438 -0.25744292 121 36
4.0611868 2.7488437 -0.26022711 169 36
4.1111803 2.746047 -0.26264817 157 36
4.1629577 2.7438381 -0.26519024 134 36
4.2106776 2.7383754 -0.26742971 133 36
4.2568054 2.7313521 -0.26954812 132 36
4.3038483 2.7243986 -0.27172706 155 36
4.3568916 2.7206705 -0.27432966 132 36
4.4058003 2.7137759 -0.27662963 133 36
4.4624653 2.7110467 -0.27947435 134 36
4.5124106 2.7036197 -0.28183487 113 36
4.5710258 2.7007582 -0.28480065 159 36
4.6021743 2.681201 -0.28582957 146 36
4.6687427 2.6817443 -0.28934008 325 36
4.6729488 2.6461618 -0.28849271 239 36
4.6455169 2.593117 -0.28546643 198 36
4.6184864 2.5409906 -0.28250065 144 36
4.6699686 2.5321085 -0.2849822 215 36
4.6854177 2.5034063 -0.2849822 244 36
4.6680083 2.4574084 -0.28274277 169 36
4.6732512 2.4236655 -0.28207698 196 36
4.6791453 2.3904049 -0.2814717 179 36
4.6856995 2.3576121 -0.28092697 202 36
4.6982884 2.3279307 -0.28080592 159 36
4.7367063 2.3108737 -0.28244013 161 36
4.7804899 2.296025 -0.28443748 236 36
4.7971954 2.2679291 -0.28461906 239 36
4.7974453 2.2321362 -0.28371117 206 36
4.8028827 2.1989186 -0.28316644 206 36
4.8035426 2.1636691 -0.28231907 219 36
4.8076019 2.1301115 -0.28171381 243 36
4.7903833 2.0874164 -0.27971646 108 36
4.8058538 2.0591629 -0.27989805 256 36
4.8128791 2.0273116 -0.27953488 248 36
4.816927 1.9943063 -0.27899015 245 36
4.8152041 1.9590713 -0.27808225 243 36
4.8150845 1.9246734 -0.27729541 277 36
4.8026457 1.8856096 -0.27572176 264 36
4.8057427 1.8528746 -0.27517703 335 36
4.8104863 1.8208792 -0.27475333 272 36
4.8131475 1.7882004 -0.27420861 276 36
4.7883921 1.745645 -0.27190861 190 36
4.8055921 1.7185835 -0.27233231 279 36
4.8019176 1.6841105 -0.27142441 213 36
4.8131046 1.6549393 -0.27148494 269 36
4.8203306 1.6244195 -0.27130336 264 36
4.8254681 1.5932474 -0.27100074 271 36
4.8161578 1.5574678 -0.2697902 190 36
4.8008809 1.5200553 -0.26821655 49 36
4.816792 1.4926367 -0.26864022 60 36
4.8478308 1.4697123 -0.27003232 79 36
4.9160924 1.4575256 -0.27378494 96 36
5.0016418 1.4495559 -0.27862701 70 36
14.13926 4.0031638 -0.85392576 170 36
14.122188 3.9048936 -0.85132313 293 36
14.135282 3.8153071 -0.85065734 246 36
14.188349 3.736382 -0.85253364 139 36
14.261282 3.6621621 -0.855681 226 36
14.255403 3.5675609 -0.85392576 243 36
14.244052 3.471988 -0.85186785 271 36
14.236922 3.3778412 -0.85011262 251 36
14.233066 3.2848105 -0.84859949 252 36
14.21789 3.1895514 -0.84642053 236 36
14.207934 3.0958776 -0.84460479 290 36
14.200295 3.0030656 -0.84297055 319 36
14.187164 2.9094617 -0.84103376 328 36
14.165588 2.8145761 -0.83861268 286 36
14.161027 2.7234581 -0.83728111 292 36
14.149012 2.6312246 -0.83552587 289 36
14.135417 2.5390651 -0.83371013 271 36
14.124175 2.4476829 -0.83207589 199 36
14.137943 2.3608081 -0.8320154 287 36
14.115699 2.2681568 -0.82977593 127 36
14.078053 2.1735833 -0.82662857 364 36
14.099024 2.0883307 -0.82711279 105 36
14.062159 1.9947733 -0.82408649 322 36
14.039515 1.9037585 -0.82196808 136 36
14.038062 1.8159136 -0.82118124 298 36
14.016248 1.7257192 -0.81918389 214 36
14.023599 1.6393369 -0.81900233 218 36
14.017519 1.5515025 -0.81803387 283 36
13.995999 1.4622489 -0.81615758 245 36
13.973913 1.373318 -0.81428128 325 36
13.969155 1.2863603 -0.81349444 275 36
13.971812 1.2001959 -0.81319183 391 36
13.926178 1.1102412 -0.80998397 255 36
13.938702 1.0252099 -0.81034708 317 36
12.848232 0.86580789 -0.74370807 221 36
12.845333 0.78646857 -0.74322385 198 36
12.878819 0.70922709 -0.74497914 425 36
12.890904 0.63058066 -0.74546331 567 36
12.906499 0.55198312 -0.74618965 238 36
12.91064 0.47281647 -0.74625015 209 36
5.3367319 0.16289023 -0.28661641 583 36
5.3286505 0.12992328 -0.28607169 589 36
5.3253551 0.097152315 -0.28582957 640 36
5.3098817 0.064282574 -0.28486118 192 36
5.3231521 0.031777047 -0.28564799 24 36
5.3182559 -0.00088459911 -0.28534538 34 36
5.3421059 -0.033669528 -0.286798 105 36
5.3058677 -0.065997846 -0.28461906 431 36
12.921048 -0.24058467 -0.74649227 230 36
12.92332 -0.31996116 -0.74673438 249 36
12.937077 -0.39974484 -0.74770278 225 36
13.090984 -0.48492345 -0.75720537 198 36
13.104715 -0.56597179 -0.75823432 171 36
13.110966 -0.64686233 -0.75883955 184 36
13.110737 -0.72751886 -0.75908166 163 36
13.12097 -0.80887282 -0.75998956 161 36
13.124722 -0.88997442 -0.76053429 187 36
13.122996 -0.97078413 -0.7607764 169 36
13.120772 -1.0516061 -0.76101851 157 36
13.119045 -1.1325233 -0.76132113 168 36
13.101911 -1.212079 -0.76071584 133 36
13.031647 -1.2862693 -0.75690275 140 36
12.969902 -1.3605807 -0.75363433 303 36
12.970238 -1.4411292 -0.75417906 318 36
12.97503 -1.5223148 -0.7550264 279 36
12.975351 -1.6031237 -0.75563169 242 36
12.980119 -1.6846362 -0.75653958 229 36
12.984373 -1.7662675 -0.75744748 242 36
12.143195 -1.7277694 -0.70660567 105 36
12.983442 -1.9287002 -0.75877905 206 36
12.991092 -2.0113838 -0.75998956 205 36
12.994272 -2.0935986 -0.76095796 182 36
12.992995 -2.1752689 -0.7616843 215 36
12.994155 -2.2575147 -0.76259214 202 36
12.995776 -2.3400335 -0.76356059 211 36
12.996874 -2.422657 -0.76452899 249 36
12.999406 -2.50576 -0.76561844 262 36
12.129171 -2.4152689 -0.71277934 192 36
12.081859 -2.4830146 -0.71078199 329 36
12.079089 -2.5597913 -0.71156883 288 36
12.168476 -2.656858 -0.71810561 163 36
12.162657 -2.7338808 -0.7187714 138 36
13.034517 -3.0140207 -0.77409208 197 36
13.032287 -3.097867 -0.77512103 196 36
13.0237 -3.1803782 -0.77578682 212 36
13.018463 -3.2638719 -0.77669472 193 36
13.025259 -3.3506539 -0.77838945 211 36
13.032443 -3.4378965 -0.78014469 208 36
13.044828 -3.5269165 -0.7822631 208 36
13.052762 -3.6151519 -0.78413939 229 36
13.046659 -3.6998041 -0.78516835 202 36
13.041925 -3.7850738 -0.7863183 202 36
5.1309128 -1.5230601 -0.28740326 103 36
5.0603433 -1.5359552 -0.28352958 102 36
4.9850445 -1.5465633 -0.27935332 90 36
4.9374018 -1.5650547 -0.27693227 64 36
4.9552445 -1.6042384 -0.27868751 36 36
4.9472036 -1.6352396 -0.27880856 174 36
4.9332933 -1.6642877 -0.27856648 457 36
4.8220029 -1.6597579 -0.2720902 237 36
4.7665219 -1.6734391 -0.26918495 228 36
4.6960211 -1.6811186 -0.2653113 239 36
4.6293583 -1.6893657 -0.26167974 224 36
4.5534177 -1.6933788 -0.25744292 343 36
4.5252075 -1.7145652 -0.25629294 474 36
4.4978404 -1.7358288 -0.25520346 352 36
4.5131164 -1.7736189 -0.25689819 495 36
4.5123425 -1.805357 -0.25756398 350 36
4.5205927 -1.8409175 -0.25883502 412 36
4.526732 -1.8758825 -0.25998503 360 36
4.5390496 -1.9137069 -0.26155868 366 36
4.5418992 -1.9478178 -0.26252711 347 36
4.5408406 -1.9804391 -0.26325342 356 36
1.0102482 -0.44767383 -0.029865509 172 36
4.5589628 -2.0552976 -0.26609814 153 36
4.535377 -2.0782416 -0.26537183 225 36
4.5415416 -2.1148813 -0.26664287 36 36
4.5411105 -2.1486857 -0.26749024 31 36
4.5350375 -2.1799691 -0.26797444 30 36
4.5529685 -2.2230854 -0.27009284 9 36
4.5463958 -2.2545283 -0.27057704 13 36
4.5360427 -2.284178 -0.27081916 15 36
4.5441594 -2.3233292 -0.27233231 19 36
4.5422211 -2.3576066 -0.27317965 12 36
4.5453305 -2.3947394 -0.27439019 23 36
4.5499153 -2.4329402 -0.27572176 23 36
4.5524473 -2.470335 -0.27693227 24 36
4.5538168 -2.5073705 -0.27808225 24 36
4.5566449 -2.5454891 -0.27935332 20 36
4.5574393 -2.5827522 -0.2805033 17 36
4.5579476 -2.6201203 -0.28165329 20 36
4.5719643 -2.6656368 -0.28377169 8 36
4.5580997 -2.695164 -0.28395328 13 36
4.5560293 -2.7318084 -0.2849822 13 36
4.5519743 -2.7674913 -0.2858901 17 36
4.5569992 -2.8089893 -0.28746378 12 36
4.5599923 -2.8495946 -0.28891641 12 36
4.5618148 -2.8898075 -0.29030851 15 36
4.5675139 -2.9328465 -0.29200321 10 36
4.5678368 -2.9727967 -0.29333478 11 36
4.5645075 -3.0106621 -0.29442427 13 36
4.5691833 -3.0541458 -0.29611897 10 36
4.5718436 -3.0966799 -0.29769266 10 36
4.5692153 -3.1359718 -0.29890317 11 36
4.5670962 -3.1759174 -0.30017421 17 36
4.5720015 -3.2211294 -0.30199 18 36
4.5692115 -3.2613008 -0.30326104 18 36
4.5693355 -3.3038986 -0.30477419 13 36
4.5707183 -3.3477998 -0.30640838 14 36
4.5789475 -3.3971949 -0.30858731 6 36
4.5747733 -3.4378207 -0.30985835 18 36
4.5805969 -3.4863822 -0.31191623 15 36
4.5780907 -3.5290496 -0.31336886 12 36
4.5846739 -3.5791883 -0.31554779 25 36
4.5876813 -3.6270635 -0.31748462 23 36
4.5863767 -3.6719899 -0.31911883 26 36
4.5924459 -3.7233231 -0.32135829 18 36
4.5988283 -3.7755015 -0.32365826 37 36
4.5970669 -3.8215163 -0.325353 14 36
4.598731 -3.8708649 -0.32735035 26 36
4.6030006 -3.922967 -0.32958981 15 36
4.599246 -3.968745 -0.33122402 15 36
4.6026187 -4.0211916 -0.33346346 28 36
4.6025295 -4.0711827 -0.33546081 9 36
4.6094341 -4.1279826 -0.33806345 30 36
4.6076803 -4.1776438 -0.34000027 23 36
4.6150489 -4.2362137 -0.34272394 13 36
4.6174841 -4.2909532 -0.34508443 22 36
4.6194196 -4.345881 -0.34744495 25 36
4.6172404 -4.3975506 -0.34950283 21 36
4.6203485 -4.4548993 -0.35204491 16 36
4.612926 -4.5026889 -0.35373965 10 36
4.6086397 -4.5540624 -0.355737 7 36
4.5869603 -4.5886087 -0.35628173 6 36
4.608511 -4.667098 -0.36057907 16 36
4.6083612 -4.7245855 -0.36306062 16 36
4.5979834 -4.772182 -0.36469483 10 36
4.6319208 -4.8668289 -0.37026322 19 36
4.6354704 -4.9307952 -0.373229 21 36
4.6404452 -4.9971819 -0.37637633 27 36
4.6434298 -5.0623426 -0.37940264 16 36
4.6431074 -5.1247673 -0.38218683 16 36
4.6475172 -5.1933284 -0.38545522 22 36
4.6433268 -5.25316 -0.3879973 17 36
4.6451406 -5.3206544 -0.39114466 21 36
4.6456475 -5.3876109 -0.39423147 21 36
4.6442127 -5.4532528 -0.39719725 29 36
4.6485701 -5.5267177 -0.40076828 35 36
4.6515617 -5.5996718 -0.40427878 37 36
4.6380057 -5.6535754 -0.40627614 43 36
4.6553779 -5.7463031 -0.41129979 34 36
4.6767721 -5.8456903 -0.41680765 33 36
4.6668024 -5.9071736 -0.41934973 30 36
4.6605506 -5.9742627 -0.42231551 23 36
4.6658316 -6.057312 -0.4264918 25 36
4.6714759 -6.1422381 -0.43078914 25 36
4.6702585 -6.2194777 -0.4344812 12 36
4.669457 -6.2985349 -0.43829435 16 36
4.6708069 -6.3818421 -0.44241011 17 36
4.6526036 -6.4395094 -0.44458905 16 36
4.6773343 -6.5581441 -0.45130742 24 36
4.6548176 -6.6120234 -0.45318371 33 36
4.7132587 -6.7830939 -0.46371523 175 36
4.6862268 -6.8332896 -0.46528891 418 36
4.6967974 -6.9396214 -0.47097832 183 36
4.6901612 -7.022265 -0.47491252 184 36
4.7584825 -7.2201042 -0.48719928 53 36
4.8006067 -7.3822198 -0.49682289 33 36
4.7735453 -7.4401016 -0.49888077 37 36
4.753427 -7.5097361 -0.50178599 66 36
4.7405624 -7.592103 -0.50559914 67 36
4.7593169 -7.7272878 -0.51316488 66 36
4.741869 -7.8058252 -0.51667541 41 36
4.7262001 -7.8887196 -0.5204885 47 36
4.7675686 -8.0696859 -0.5312016 13 36
4.7867937 -8.2169514 -0.53949368 40 36
4.7874875 -8.3353224 -0.54572785 23 36
4.8041191 -8.4844093 -0.55408043 16 36
4.7991548 -8.5982733 -0.55995142 21 36
4.7876801 -8.7027721 -0.56515664 21 36
4.7912765 -8.8372869 -0.57241976 36 36
4.7774096 -8.942235 -0.57762498 24 36
4.7996264 -9.1180058 -0.58767229 49 36
4.8244576 -9.3032417 -0.59832484 80 36
4.8095083 -9.4153385 -0.60395378 85 36
4.7920179 -9.5249243 -0.60940111 54 36
4.8469157 -9.783123 -0.62489569 30 36
4.8419337 -9.9257174 -0.63252199 34 36
4.8384066 -10.074913 -0.64057195 31 36
4.8400536 -10.238874 -0.64959031 27 36
4.8297644 -10.381509 -0.65715605 24 36
4.8299527 -10.550719 -0.66647702 23 36
4.8622632 -10.795857 -0.68082166 46 36
4.861423 -10.973335 -0.69062686 74 36
4.8737345 -11.185977 -0.70273203 32 36
4.8800793 -11.390918 -0.71429247 34 36
4.859683 -11.538396 -0.72203982 38 36
4.8735442 -11.772743 -0.73547655 174 36
4.7696242 -11.724758 -0.7303924 54 36
4.849833 -12.134756 -0.75526851 128 36
4.9164305 -12.523867 -0.77869207 54 36
4.9331951 -12.796885 -0.79448932 36 36
4.9588027 -13.102311 -0.81234443 16 36
4.9335761 -13.281268 -0.82196808 16 36
4.946672 -13.571066 -0.83873373 30 36
0 -0 -0 151 36
0 -0 -0 487 36
5.0020266 -14.549965 -0.89580971 8 36
5.0219655 -14.904835 -0.91657007 18 36
5.0023789 -15.153378 -0.93049103 39 36
5.0115557 -15.500057 -0.95064616 29 36
5.0148549 -15.8417 -0.97043812 7 36
5.0687919 -16.360344 -1.0014274 21 36
5.1058345 -16.844883 -1.0301772 177 36
5.0074863 -16.893122 -1.0312667 441 36
4.9012375 -16.9149 -1.0307219 66 36
4.7761497 -16.869741 -1.026001 17 36
5.1821918 -18.742062 -1.1419686 23 36
5.0543509 -18.726286 -1.1390028 147 36
4.9563823 -18.821619 -1.1430581 60 36
4.9721203 -19.363117 -1.1750762 6 36
4.8885932 -19.534634 -1.183913 18 36
4.1349673 -16.964283 -1.021643 9 36
4.0284948 -16.979624 -1.0210378 27 36
3.9089723 -16.937885 -1.016922 196 36
3.8023481 -16.949863 -1.0161958 509 36
3.6940243 -16.953369 -1.0149852 410 36
3.5748565 -16.904427 -1.0105668 213 36
3.4766798 -16.953423 -1.0122615 466 36
3.3708396 -16.965624 -1.0117168 323 36
3.2619648 -16.961483 -1.0102036 443 36
3.1561875 -16.972347 -1.0096589 378 36
3.0498705 -16.979605 -1.0089326 405 36
0 -0 -0 309 36
2.9551864 -17.698038 -1.0508771 90 36
2.9472358 -18.342634 -1.0893716 413 36
2.8302159 -18.331764 -1.0876163 433 36
2.7125633 -18.314226 -1.0854979 435 36
2.5952325 -18.295937 -1.0833795 408 36
2.4779603 -18.274918 -1.08114 422 36
2.3628361 -18.26701 -1.0797479 387 36
2.2447319 -18.23262 -1.0767821 467 36
2.1278341 -18.203421 -1.0741795 485 36
2.0123675 -18.182402 -1.0721216 441 36
1.8976537 -18.164623 -1.0703059 461 36
1.7828436 -18.142151 -1.068248 426 36
1.6693873 -18.129889 -1.0668559 435 36
1.5558071 -18.112938 -1.0652217 367 36
1.4391674 -18.053488 -1.0610454 90 36
1.3278539 -18.05501 -1.0606217 289 36
1.2134901 -18.010035 -1.0574138 134 36
1.1010697 -17.986256 -1.0555376 183 36
0.98980975 -17.976727 -1.0545691 299 36
0.87807459 -17.953548 -1.0528139 420 36
0.76730049 -17.944637 -1.0519665 418 36
0.65626729 -17.92407 -1.0504534 426 36
0.54539388 -17.898827 -1.0486982 495 36
0.43517041 -17.88587 -1.0477297 440 36
0.32507205 -17.869242 -1.0465797 529 36
0.2146537 -17.807022 -1.042706 411 36
0.10538195 -17.807005 -1.0426456 349 36
-0.003853732 -17.690531 -1.0355641 201 36
-0.11285257 -17.761042 -1.0398613 416 36
