# .PCD v0.7 - Point Cloud Data file format
VERSION 0.7
FIELDS x y z intensity ring
SIZE 4 4 4 4 1
TYPE F F F F U
COUNT 1 1 1 1 1
WIDTH 1317
HEIGHT 1
VIEWPOINT 0 0 0 1 0 0 0
POINTS 1317
DATA ascii
2.1993537 3.0453012 0.45642355 180 22
2.2326689 3.0517981 0.45921463 124 22
2.2543111 3.0420332 0.45977283 158 22
2.2783041 3.035296 0.46077761 160 22
2.3047049 3.0315428 0.46222895 144 22
2.3353896 3.0330908 0.4644618 171 22
2.3625126 3.0296745 0.46602482 194 22
2.3866014 3.0221398 0.4670296 161 22
2.416894 3.0221837 0.46915078 178 22
2.4460254 3.0204244 0.47104871 144 22
2.4708145 3.0130427 0.47216514 184 22
2.5019538 3.0131147 0.47439799 182 22
2.4711463 2.9391427 0.46580151 87 22
2.475605 2.9080358 0.46345702 81 22
2.4622557 2.8566632 0.4580982 40 22
2.480391 2.8422501 0.45820984 35 22
2.6491387 2.9982443 0.48388758 128 22
2.680738 2.9967449 0.48612043 126 22
2.7077482 2.9898143 0.48757178 119 22
2.7341022 2.9819324 0.48891148 145 22
2.7706034 2.9847634 0.49192584 147 22
2.8011162 2.9807408 0.49393541 136 22
2.8296282 2.9742961 0.49561003 140 22
2.8664396 2.9762018 0.49862438 144 22
2.8943605 2.9685178 0.5001874 168 22
2.9090297 2.9471667 0.49962917 175 22
3.0268116 3.0290713 0.51548237 8 22
0 0 0 7 22
0 0 0 4 22
0 0 0 4 22
0 0 0 0 22
0 0 0 0 22
0 0 0 0 22
0 0 0 0 22
0 0 0 0 22
0 0 0 0 22
0 0 0 0 22
0 0 0 0 22
0 0 0 0 22
0 0 0 0 22
0 0 0 0 22
0 0 0 0 22
0 0 0 0 22
0 0 0 0 22
0 0 0 0 22
0 0 0 0 22
3.6983192 2.8883712 0.56159067 8 22
3.7206943 2.8692651 0.56226051 5 22
3.7651131 2.8668478 0.56605637 20 22
3.8366501 2.8842933 0.57364804 76 22
3.8686399 2.8713574 0.57565761 136 22
3.9102345 2.8651848 0.57900691 137 22
3.9623661 2.8661797 0.58380753 140 22
4.0098028 2.8631773 0.58793831 115 22
4.0622249 2.8631346 0.59273893 145 22
4.1041908 2.8551786 0.59608817 133 22
4.13556 2.8395033 0.5979861 110 22
4.1923952 2.8408294 0.60334492 160 22
4.2353568 2.8321741 0.60680586 184 22
4.2816873 2.8252869 0.6107133 173 22
4.3322554 2.820648 0.615179 201 22
4.3929605 2.8219383 0.62098444 202 22
4.442091 2.8151422 0.62522686 204 22
4.4887738 2.8062687 0.6291343 215 22
4.5515862 2.8068368 0.63516301 295 22
4.6001387 2.797961 0.63929379 153 22
4.6504564 2.7896166 0.64364785 174 22
4.7222276 2.7934065 0.65079296 166 22
4.7676067 2.7808998 0.65447712 204 22
4.8397155 2.7832968 0.66162223 359 22
4.8454638 2.7471776 0.66017091 298 22
4.8526864 2.7120624 0.65894282 324 22
4.8518267 2.6726475 0.65670997 298 22
4.8576541 2.6371381 0.6553703 345 22
4.8614759 2.6007209 0.65380728 320 22
4.8369017 2.54953 0.64867175 182 22
4.8480449 2.5175138 0.64811355 284 22
4.8572073 2.4845519 0.64733201 298 22
4.8617105 2.4493372 0.64599234 301 22
4.8784285 2.4203434 0.64621562 258 22
4.9485493 2.4174044 0.65313745 387 22
4.9641848 2.3874257 0.65324908 428 22
4.9706564 2.3530948 0.65224427 334 22
4.962481 2.3120608 0.64945322 183 22
4.9838009 2.2848806 0.65034634 311 22
4.9850445 2.2485383 0.64878339 288 22
4.9796715 2.209446 0.6464389 250 22
4.9803829 2.1732862 0.64487588 306 22
4.9844913 2.1387684 0.64375949 406 22
4.9901958 2.1050544 0.64286631 398 22
4.9910841 2.0694485 0.641415 410 22
4.9871225 2.0320363 0.63940543 438 22
4.9764318 1.9921663 0.63661438 460 22
4.9756141 1.9565036 0.63505137 522 22
4.9865985 1.9255792 0.63493973 582 22
4.992744 1.8928324 0.63426989 525 22
4.9772544 1.8521132 0.63103223 375 22
4.9941258 1.8235832 0.63170207 521 22
4.9715409 1.7808437 0.62768298 350 22
4.9945631 1.7545863 0.6291343 500 22
4.9977183 1.721319 0.62824118 518 22
5.0025368 1.6887145 0.62757134 461 22
5.0052562 1.6554918 0.62667817 308 22
4.9737225 1.6112764 0.62176591 42 22
4.9816208 1.5801271 0.62154263 41 22
4.9902735 1.5492362 0.62143099 32 22
4.9987345 1.5182985 0.62131935 33 22
5.0060511 1.4870325 0.62109607 34 22
5.0103097 1.4549026 0.62053788 39 22
5.0134063 1.4225055 0.61986798 27 22
5.0086327 1.3880026 0.61830503 36 22
5.0141773 1.3564658 0.61797005 24 22
5.0070319 1.3216171 0.61618382 26 22
5.0092726 1.2893838 0.61551392 21 22
5.004559 1.2554806 0.61406261 22 22
4.9938264 1.2202691 0.6119414 20 22
4.9915519 1.1873057 0.61082494 26 22
4.985189 1.1535205 0.60926199 18 22
4.9824772 1.1207302 0.60814553 15 22
5.0028524 1.0931059 0.60970855 21 22
5.0036325 1.0611519 0.60903871 17 22
5.0139427 1.0312307 0.60948527 27 22
5.0192013 1.0002521 0.60937363 36 22
5.0242686 0.96924788 0.60926199 21 22
5.0144906 0.93548656 0.6074757 30 22
5.0132904 0.90346736 0.60669422 29 22
5.013844 0.87183851 0.60613596 28 22
5.0132184 0.84007281 0.60546613 26 22
5.0123925 0.80834758 0.60479629 25 22
5.0143118 0.77712053 0.60446137 27 22
5.0022755 0.74385512 0.60256344 16 22
5.0234709 0.71552873 0.60446137 37 22
5.020874 0.68375367 0.60367984 29 22
5.0289168 0.65344518 0.60412645 41 22
5.0298729 0.62221026 0.60379148 43 22
5.033596 0.59133583 0.60379148 71 22
5.0252776 0.55912137 0.6024518 47 22
5.0197186 0.52734256 0.60144699 62 22
5.0179152 0.4960438 0.60088879 70 22
5.019875 0.46515352 0.60077715 72 22
5.0137243 0.43357351 0.59977239 113 22
5.0252051 0.40351689 0.60077715 150 22
5.0394788 0.37355584 0.60211688 175 22
5.032753 0.34202144 0.60111207 207 22
5.046659 0.3118692 0.6024518 326 22
5.036571 0.28023604 0.60111207 446 22
5.0391884 0.249376 0.60122371 625 22
5.0515447 0.2189239 0.6024518 737 22
5.0418692 0.18751863 0.60122371 567 22
5.0419316 0.15654801 0.60111207 454 22
5.060679 0.12605239 0.60312164 333 22
5.0653315 0.095072575 0.6035682 283 22
5.0439587 0.063716009 0.60111207 188 22
5.0422673 0.032752901 0.60088879 144 22
5.0413799 0.0018132331 0.60077715 100 22
5.0403023 -0.02911431 0.60066551 108 22
5.0440035 -0.060088128 0.60111207 86 22
5.045527 -0.09107244 0.60133535 63 22
5.0438795 -0.12200539 0.60122371 57 22
5.0450225 -0.15301216 0.60144699 63 22
5.044982 -0.18400125 0.60155863 51 22
5.0447507 -0.21499561 0.60167027 48 22
5.047307 -0.24613948 0.60211688 40 22
0 -0 0 36 22
5.0637441 -0.30927229 0.60434973 29 22
5.0677004 -0.34073746 0.60501957 28 22
5.0724516 -0.37233564 0.60580105 35 22
5.0730433 -0.40368932 0.60613596 37 22
5.0724511 -0.43497929 0.60635924 22 22
5.0766139 -0.46673244 0.60714078 23 22
5.0855222 -0.49903867 0.60848045 24 22
5.09126 -0.53116214 0.60948527 24 22
5.090868 -0.56271929 0.60982019 16 22
5.0892935 -0.59417629 0.61004347 27 22
5.0865383 -0.62551379 0.61015511 22 22
5.0697923 -0.65505606 0.60870373 21 22
5.0646925 -0.68601793 0.60859209 24 22
5.0682592 -0.71819741 0.60948527 26 22
5.0696554 -0.75015533 0.61015511 28 22
5.0610285 -0.78064179 0.60970855 19 22
5.0708609 -0.81404477 0.6113832 20 22
5.0775328 -0.84710687 0.61272287 28 22
5.0800729 -0.87960303 0.61361605 28 22
5.0853391 -0.91268903 0.61484408 24 22
5.0874596 -0.94532788 0.61573726 29 22
5.0883946 -0.97783941 0.61651874 27 22
5.0881472 -1.0102043 0.61718857 24 22
5.0906143 -1.0432018 0.61819339 24 22
5.0957847 -1.076884 0.61953306 23 22
5.0958776 -1.1096114 0.6203146 30 22
5.1006093 -1.1434678 0.62165427 30 22
5.1070538 -1.1778706 0.62321728 31 22
5.1113334 -1.2119368 0.62455696 41 22
5.1124902 -1.245394 0.62556177 53 22
5.1115007 -1.2784284 0.62634325 47 22
5.1141481 -1.3124861 0.62757134 40 22
5.1117644 -1.3453592 0.62824118 36 22
5.1149263 -1.3798057 0.62958091 32 22
5.1149845 -1.4135473 0.63058567 33 22
5.1205573 -1.4489653 0.63226032 48 22
5.1306605 -1.4858874 0.63449317 41 22
5.1652751 -1.5303291 0.63962871 100 22
5.1519837 -1.560841 0.63918215 501 22
5.0511813 -1.5641967 0.62846446 166 22
4.9713783 -1.5729718 0.6202029 160 22
4.8935518 -1.5814388 0.61216468 185 22
4.8016562 -1.5843389 0.6024518 181 22
4.7353392 -1.5947372 0.59575325 274 22
4.7423811 -1.6295768 0.59776282 401 22
4.7351065 -1.6596311 0.59809774 376 22
4.7313843 -1.6909956 0.59887922 477 22
4.7283888 -1.722717 0.59977239 468 22
4.7428823 -1.7610388 0.60278672 598 22
4.7384934 -1.7925693 0.6035682 539 22
4.740387 -1.8266137 0.60513121 595 22
4.74019 -1.8600225 0.60647094 646 22
4.7369933 -1.8923914 0.6074757 591 22
4.7455444 -1.9296581 0.60993183 612 22
4.7501426 -1.9655803 0.6119414 598 22
4.7590575 -2.0035598 0.61450917 715 22
4.7110486 -2.0174637 0.61015511 145 22
4.7149801 -2.0534756 0.61216468 125 22
4.7350016 -2.0968559 0.61618382 50 22
4.7356381 -2.13199 0.61785841 28 22
4.7432499 -2.1705194 0.62042624 40 22
4.7415562 -2.2050309 0.62187755 38 22
4.7423124 -2.2408772 0.62366384 36 22
4.7410154 -2.275955 0.62522686 43 22
4.7403588 -2.3115368 0.62690145 39 22
4.740334 -2.3476372 0.62868774 56 22
4.7364931 -2.3820376 0.63002747 45 22
4.7332931 -2.4169312 0.63147879 47 22
4.7324896 -2.4532471 0.63326508 46 22
4.7305384 -2.4891813 0.63493973 67 22
4.7353368 -2.528929 0.6375075 65 22
4.7406979 -2.5693026 0.64018691 61 22
4.7518363 -2.6131892 0.64364785 56 22
4.7660847 -2.6592457 0.64755529 47 22
4.7756219 -2.7031269 0.6509046 48 22
4.7753196 -2.7417812 0.65302581 27 22
4.7738628 -2.7800331 0.65503538 33 22
4.7772503 -2.8214023 0.65771478 23 22
4.7760463 -2.8603642 0.65983599 20 22
4.7796397 -2.9025123 0.66262704 10 22
4.7778177 -2.9416854 0.66474825 21 22
4.7765369 -2.9814711 0.6669811 21 22
4.7799859 -3.0245402 0.66988379 15 22
4.7839217 -3.0682995 0.67289811 28 22
4.7816677 -3.108429 0.67513096 18 22
4.7791009 -3.1486459 0.67736381 19 22
4.7778726 -3.1900516 0.67981994 31 22
4.7787848 -3.2332311 0.68261099 24 22
4.7744279 -3.2731698 0.6847322 33 22
4.7828188 -3.3222477 0.6886397 15 22
4.8005381 -3.3784149 0.69388688 13 22
4.7821455 -3.4095378 0.69422179 21 22
4.7957735 -3.4638383 0.69902247 14 22
4.7856574 -3.5014153 0.70058542 24 22
4.7912269 -3.550833 0.70438129 18 22
4.7860379 -3.5926938 0.70672578 27 22
4.7931719 -3.6442485 0.71085656 19 22
4.8030014 -3.6984501 0.7154339 28 22
4.8052926 -3.7474084 0.71900642 31 22
4.8126216 -3.8008451 0.72336048 30 22
4.8124905 -3.8489251 0.72670972 34 22
4.8142662 -3.8990226 0.73039395 22 22
4.8179126 -3.9511764 0.73441309 27 22
4.8119254 -3.9959021 0.73709249 29 22
4.810894 -4.0451798 0.74055338 30 22
4.801115 -4.0875077 0.74278623 25 22
4.8000293 -4.1376538 0.74635881 24 22
4.8097377 -4.197742 0.75160599 34 22
4.819633 -4.2587619 0.75696486 37 22
4.8304405 -4.3213854 0.76254696 34 22
4.8288755 -4.3736262 0.76634282 38 22
4.8473573 -4.4448161 0.77326465 26 22
4.8542218 -4.5062537 0.77851182 26 22
4.8496518 -4.5577331 0.78208435 28 22
4.852551 -4.6168604 0.78688496 35 22
4.8549061 -4.6761937 0.79168564 32 22
4.8496003 -4.7287903 0.7953698 47 22
4.8445377 -4.7821956 0.79916567 54 22
4.8523564 -4.8490629 0.80508268 51 22
4.8504543 -4.9070163 0.80954838 34 22
4.8487167 -4.9658394 0.81412572 37 22
4.8512678 -5.0298319 0.81948459 38 22
4.8436189 -5.0839677 0.82328039 41 22
4.8525124 -5.156291 0.8298673 35 22
4.8451385 -5.2121725 0.83388644 27 22
4.8641434 -5.2974367 0.84237123 46 22
4.8789449 -5.3794484 0.85029787 47 22
4.8915954 -5.4603581 0.85800117 23 22
4.8770952 -5.5118532 0.86123884 37 22
4.8726091 -5.5753484 0.86626273 38 22
4.8701234 -5.6420031 0.87173319 28 22
4.8824744 -5.7269864 0.87988311 65 22
4.8862839 -5.8032093 0.8866933 58 22
4.8931518 -5.8842773 0.89417332 39 22
4.904253 -5.9717903 0.90254647 33 22
4.9069514 -6.0503969 0.90957999 27 22
4.9088683 -6.1292591 0.91661346 33 22
4.91185 -6.2107096 0.92398185 34 22
4.894444 -6.2673616 0.92777765 30 22
4.8898764 -6.3413463 0.93402964 21 22
4.9104676 -6.4495091 0.94508225 44 22
4.9155836 -6.5390954 0.95345539 57 22
4.8972793 -6.5986605 0.95758617 73 22
4.9171896 -6.711154 0.96908534 490 22
4.9708433 -6.8724508 0.98728305 703 22
4.9499454 -6.9327469 0.99141383 632 22
4.9628406 -7.0417829 1.0022432 120 22
4.9899025 -7.1732621 1.0160868 36 22
4.9013624 -7.1390219 1.007267 100 22
4.9516649 -7.3079996 1.0261346 51 22
4.9702487 -7.433248 1.0389735 33 22
4.9934993 -7.5681205 1.0530404 38 22
5.0179901 -7.7077184 1.0676656 25 22
5.0081944 -7.7968931 1.0754806 19 22
4.9900451 -7.8744836 1.0817325 24 22
4.9948339 -7.9900632 1.0930084 56 22
5.005692 -8.117837 1.1058472 45 22
5.0213642 -8.2562304 1.1200259 39 22
5.0094566 -8.351655 1.1285107 21 22
5.0107303 -8.4711905 1.1401215 28 22
5.0212369 -8.6090803 1.1540768 34 22
5.0262747 -8.7405214 1.1671389 42 22
5.0053835 -8.8291197 1.174619 58 22
5.0252814 -8.9923935 1.1917002 23 22
5.0313754 -9.1344767 1.2059904 21 22
5.0288024 -9.2638693 1.2186061 16 22
5.0468574 -9.4347553 1.2364688 29 22
5.0792179 -9.6369753 1.2582392 63 22
5.060287 -9.7455721 1.2680637 31 22
5.0714345 -9.9153442 1.2855915 35 22
5.0480523 -10.020826 1.2949694 27 22
5.0562429 -10.19227 1.312609 47 22
5.074729 -10.389189 1.3333744 71 22
5.089694 -10.584024 1.3538049 27 22
5.1118088 -10.79919 1.3766917 32 22
5.1088123 -10.966373 1.3935497 58 22
5.0927739 -11.109531 1.4073933 52 22
5.1270528 -11.367949 1.4354155 18 22
0 -0 0 39 22
0 -0 0 233 22
5.120667 -11.935289 1.4934696 173 22
5.1821127 -12.286044 1.5324328 30 22
5.1401181 -12.398394 1.5422573 33 22
5.1393032 -12.614682 1.5646974 57 22
5.1928906 -12.973501 1.6043304 18 22
5.1808167 -13.177141 1.625096 25 22
5.1535521 -13.34774 1.6418424 30 22
5.2001128 -13.718283 1.6825918 18 22
5.1709352 -13.898021 1.7003429 28 22
5.1445169 -14.090981 1.7196571 27 22
5.201025 -14.521768 1.7673284 8 22
5.1454124 -14.649042 1.7787158 17 22
4.0187984 -11.669847 1.4210137 213 22
3.9652309 -11.747955 1.4273773 410 22
3.8912003 -11.766404 1.4267075 435 22
3.8149493 -11.777768 1.4252561 401 22
3.7420096 -11.79906 1.4250329 257 22
3.7296336 -12.015412 1.4478079 172 22
3.9780715 -13.099248 1.5724007 352 22
3.8998845 -13.131032 1.5732939 367 22
3.8245044 -13.172846 1.5754151 339 22
3.7948599 -13.376755 1.5965155 163 22
3.7538345 -13.548227 1.6138201 548 22
3.6659636 -13.553739 1.6118106 498 22
3.5771523 -13.554838 1.6093544 561 22
3.4864848 -13.54766 1.6060051 626 22
3.4013584 -13.561087 1.605112 572 22
3.3098316 -13.547914 1.6012045 585 22
3.2225027 -13.550566 1.5991949 583 22
3.1379538 -13.564274 1.598525 525 22
3.0507417 -13.565821 1.5965155 539 22
2.9642651 -13.569722 1.5948409 516 22
2.8790922 -13.578905 1.5938361 469 22
2.7941186 -13.588529 1.592943 456 22
2.7058346 -13.581052 1.5901519 170 22
2.6226401 -13.598375 1.5902635 105 22
1.8314117 -9.818924 1.1565329 100 22
1.7802906 -9.8808327 1.1623383 162 22
1.7163962 -9.8729677 1.160217 137 22
1.6492181 -9.8441095 1.1557513 111 22
1.5832497 -9.819706 1.1518439 110 22
1.5205334 -9.8135233 1.1500577 105 22
1.458537 -9.810873 1.1487179 94 22
1.3945296 -9.7930746 1.1457036 108 22
1.3334761 -9.7945538 1.1449221 113 22
1.2734807 -9.8035374 1.1450337 89 22
1.2179365 -9.8486433 1.1492761 415 22
1.1572517 -9.8539572 1.1490529 333 22
1.8729273 -16.841671 1.9381412 84 22
1.7703836 -16.860752 1.9390343 170 22
1.6686529 -16.889099 1.9410439 405 22
1.2630287 -13.637573 1.5730706 203 22
1.2540044 -14.509389 1.6705344 1015 22
1.1647145 -14.513838 1.6701995 1228 22
1.0758574 -14.523685 1.6705344 896 22
1.147375 -16.896643 1.9370247 548 22
1.0440449 -16.909317 1.9376945 559 22
0.93994075 -16.909451 1.9370247 550 22
0.69365132 -14.030586 1.612592 270 22
0.6073764 -14.030607 1.6121454 293 22
0.62871814 -16.928854 1.937583 344 22
0.52526349 -16.946299 1.9391459 557 22
0.42090303 -16.934299 1.9374713 325 22
0.31719252 -16.947493 1.9386994 550 22
0.21332344 -16.959057 1.9398158 564 22
0.10920957 -16.952097 1.9389226 393 22
0.0051942212 -16.962385 1.940039 389 22
-0.09890838 -16.966074 1.9404857 556 22
-0.20300838 -16.965147 1.9404857 532 22
-0.30724484 -16.971531 1.9413788 462 22
-0.4113262 -16.967339 1.9411556 570 22
-0.51560926 -16.970455 1.9418254 575 22
-0.43901321 -12.0224 1.385958 157 22
-0.5105688 -11.967852 1.3801526 256 22
-0.8297832 -16.996799 1.9461794 111 22
-0.65739435 -11.960686 1.3801526 448 22
-0.73168117 -11.971305 1.3818272 539 22
-0.80485499 -11.962625 1.3813807 411 22
-0.87926066 -11.971335 1.3829436 491 22
-0.95356679 -11.976612 1.3841717 470 22
-1.0274608 -11.975486 1.3847299 442 22
-1.0993738 -11.952133 1.3828321 195 22
-1.2857422 -13.096348 1.5127838 24 22
-1.1171805 -10.704248 1.2435023 8 22
-1.181747 -10.687315 1.2423859 10 22
-1.2403821 -10.620641 1.2356874 67 22
-1.2965447 -10.539844 1.2274258 148 22
-1.3608093 -10.528732 1.2270908 114 22
-1.4381989 -10.61472 1.2378086 63 22
-1.4922822 -10.527967 1.2289888 22 22
-1.5705327 -10.611017 1.2394832 47 22
-1.8535593 -12.013474 1.4000249 76 22
-1.8812224 -11.715371 1.3674253 69 22
-1.9229679 -11.523253 1.3468832 44 22
-2.859354 -16.508902 1.9167058 177 22
-3.0680766 -17.089647 1.985031 359 22
-2.2749569 -12.240158 1.433071 339 22
-2.3111832 -12.023962 1.4099611 484 22
-2.3767862 -11.968616 1.4052721 961 22
-2.4513772 -11.959648 1.405942 752 22
-2.5296469 -11.967716 1.4086214 945 22
-2.6040893 -11.956824 1.4091796 932 22
-2.6811028 -11.957105 1.4110775 986 22
-2.7597814 -11.963669 1.413757 1038 22
-2.8407054 -11.978418 1.4174411 805 22
-4.1723633 -17.124241 2.0145047 111 22
-2.3934395 -9.5682364 1.1424659 50 22
-2.439502 -9.504281 1.1367722 53 22
-2.4770274 -9.4103317 1.1276175 131 22
-2.5354981 -9.3978338 1.1279525 171 22
-2.597086 -9.3964672 1.1296271 116 22
-2.659023 -9.3956537 1.1314133 101 22
-2.7196653 -9.3896608 1.1326414 101 22
-2.7862635 -9.403286 1.136214 181 22
-2.8286338 -9.3356075 1.1302969 338 22
-2.8938017 -9.3437052 1.1333113 255 22
-2.9714687 -9.3901987 1.140903 420 22
-2.3244908 -7.1922417 0.88356727 200 22
-2.3598571 -7.1514206 0.88044131 1571 22
-2.3979826 -7.1198545 0.87843174 1741 22
-2.4429162 -7.1087661 0.8788783 1426 22
-2.5206809 -7.1911726 0.8904891 860 22
-0 -0 0 993 22
-0 -0 0 1174 22
-2.5851545 -6.9618993 0.86871886 1601 22
-2.6288784 -6.9486942 0.86905378 1587 22
-2.6771832 -6.9472694 0.87084007 1677 22
-2.7248435 -6.9436622 0.87240303 1732 22
-2.7648165 -6.9203525 0.87162155 1474 22
-2.7851379 -6.8489466 0.86503464 1641 22
-0 -0 0 1379 22
-2.9279809 -6.95438 0.88211596 1780 22
-2.9803789 -6.9591203 0.88490701 1826 22
-3.0246105 -6.9443464 0.88535357 1459 22
-3.7895615 -8.5566092 1.0857517 494 22
-3.8285279 -8.503294 1.0820675 568 22
-3.8723598 -8.4615707 1.0798346 644 22
-3.9141476 -8.4160261 1.0771551 626 22
-3.9546733 -8.3684912 1.0742525 625 22
-3.781848 -7.877337 1.0160868 1054 22
-3.8401306 -7.874527 1.0186546 1549 22
-3.9024904 -7.879312 1.0222272 1435 22
-3.968179 -7.8898411 1.0265812 1403 22
-4.0314312 -7.8945498 1.0302653 1397 22
-4.092145 -7.8934846 1.0332797 1342 22
-4.1483693 -7.8831768 1.0351776 1043 22
-4.2078986 -7.8786116 1.0378571 115 22
-5.0839634 -9.3797865 1.2330079 19 22
-5.110291 -9.2918186 1.2257512 10 22
-5.1149087 -9.1665678 1.2136937 31 22
-5.1152458 -9.0364246 1.2009666 14 22
-5.159214 -8.9850473 1.1983988 22 22
-5.1372256 -8.8209801 1.1812059 21 22
-5.163456 -8.7422333 1.1750655 176 22
-5.1582761 -8.6123476 1.1622267 16 22
-5.1625314 -8.5006943 1.1517323 50 22
-5.1770763 -8.4079332 1.143694 220 22
-5.2112026 -8.3481903 1.1400099 18 22
-5.2283177 -8.2623158 1.1328647 36 22
-5.2601366 -8.2008047 1.1289573 63 22
-5.3049397 -8.1600428 1.1278408 223 22
-5.1875939 -7.8734207 1.0936782 181 22
-5.2198029 -7.8174753 1.0904406 222 22
-5.1724377 -7.6445627 1.0713497 27 22
-5.1804709 -7.5561295 1.0636464 73 22
-5.2227683 -7.5184875 1.0628649 305 22
-5.2247601 -7.4237266 1.0542685 29 22
-5.2430959 -7.3534999 1.0490212 39 22
-5.2526212 -7.2720518 1.0422111 46 22
-5.2513695 -7.1771317 1.0335031 52 22
-5.2651296 -7.1040587 1.0278093 38 22
-5.2441831 -6.9857903 1.0157518 54 22
-5.2658958 -6.9257951 1.0118444 31 22
-5.2652421 -6.8374534 1.0039178 44 22
-5.2753167 -6.7642713 0.99811238 39 22
-5.2902355 -6.6982427 0.99331176 25 22
-5.3182006 -6.6493592 0.99096727 35 22
-5.337008 -6.5895753 0.98705977 27 22
-6.5098267 -7.9374409 1.1876811 47 22
-6.4682498 -7.7887921 1.1718279 317 22
-6.4820209 -7.7086473 1.1659108 734 22
-6.517602 -7.6551099 1.1639013 686 22
-6.6591859 -7.7248631 1.1802011 874 22
-6.7489357 -7.7325206 1.1874578 719 22
-6.8304739 -7.7296858 1.1932633 860 22
-6.9195189 -7.7342863 1.2002968 573 22
-7.0615811 -7.7962675 1.2161499 80 22
-7.400785 -8.0706539 1.2646027 47 22
-7.9532142 -8.5669212 1.3476646 74 22
-8.011075 -8.5237522 1.3485578 87 22
-7.6302886 -8.0194511 1.2779998 378 22
-7.6366067 -7.9281087 1.271078 660 22
-0 -0 0 326 22
-0 -0 0 190 22
-0 -0 0 228 22
-6.0915909 -6.021244 0.99666101 91 22
-6.1006904 -5.9566793 0.99230695 67 22
-6.1263952 -5.9087863 0.99063236 56 22
-6.1495843 -5.8587465 0.98862278 64 22
-6.1912069 -5.8263512 0.9895159 64 22
-6.2363024 -5.7970481 0.99096727 58 22
-6.2820034 -5.7680826 0.99253023 63 22
-0 -0 0 96 22
-0 -0 0 732 22
-0 -0 0 274 22
-8.3889294 -7.3312979 1.286038 177 22
-2.6945271 -2.3261547 0.43431836 106 22
-2.7087493 -2.3095777 0.43431836 214 22
-2.7031045 -2.276273 0.43141568 129 22
-2.7101436 -2.253926 0.43041089 125 22
-2.7277622 -2.2404077 0.43096909 348 22
-2.713671 -2.2010951 0.42694998 118 22
-2.7154903 -2.1750853 0.42527533 136 22
-2.7163138 -2.14852 0.42348906 103 22
-2.7169137 -2.1220269 0.42170277 135 22
-2.7149305 -2.0937872 0.41958156 140 22
-2.7198198 -2.07107 0.41846517 232 22
-2.7134116 -2.0400124 0.41578573 119 22
-2.7210896 -2.0197716 0.41511589 142 22
-2.7278199 -1.9989262 0.41433439 140 22
-2.7343972 -1.9780744 0.41355288 140 22
-2.742439 -1.9583721 0.41299468 152 22
-2.7584653 -1.9443702 0.41355288 127 22
-2.7752388 -1.9308126 0.41422275 135 22
-2.8189855 -1.9356824 0.41857681 70 22
-2.8431501 -1.9267099 0.42025143 95 22
-2.8772237 -1.9241413 0.42326578 115 22
-2.9221554 -1.9283408 0.42773148 451 22
-2.9789054 -1.9396508 0.43376017 91 22
-2.998276 -1.9261693 0.43476495 293 22
-3.0553672 -1.9364581 0.44079363 89 22
-3.0924716 -1.9334761 0.44414291 81 22
-3.1245782 -1.9269819 0.44682232 78 22
-3.1499281 -1.9160352 0.44860861 66 22
-3.2221332 -1.9329618 0.45653519 18 22
-8.5173788 -5.0380483 1.1461501 34 22
-8.4167919 -4.9090948 1.1290689 535 22
-8.4717379 -4.8717232 1.1323065 82 22
-8.6233664 -4.8887486 1.148048 18 22
-8.5447636 -4.7751513 1.1340928 518 22
-8.414609 -4.6348982 1.1136622 667 22
-8.4472561 -4.5855503 1.1142204 396 22
-8.442812 -4.5162907 1.1100897 408 22
-8.459815 -4.4588418 1.10875 382 22
-8.4561453 -4.3908229 1.1048424 231 22
-8.4900064 -4.342474 1.1057357 108 22
-8.5786171 -4.3215923 1.1135505 40 22
-8.4482899 -4.1911521 1.0939015 459 22
-8.4756336 -4.1401076 1.0941248 208 22
-8.6190958 -4.1448689 1.1088616 52 22
-8.6255026 -4.0829773 1.1065171 54 22
-8.5747252 -3.9947274 1.0971391 304 22
-8.6288862 -3.9557035 1.1008234 419 22
-8.6511841 -3.901866 1.1006001 417 22
-8.6331768 -3.8301735 1.0954645 304 22
-8.4789028 -3.6996393 1.0736942 752 22
-8.5945959 -3.6875064 1.0850818 60 22
-8.6207228 -3.6362462 1.0855284 59 22
-8.6465445 -3.5848043 1.0859749 55 22
-8.634326 -3.5178108 1.0818441 18 22
-8.6520576 -3.4632883 1.0813975 23 22
-8.70644 -3.4232244 1.0854167 57 22
-8.717082 -3.3658013 1.0841886 63 22
-8.5052614 -3.2241976 1.056278 760 22
-8.7120924 -3.2415972 1.0787182 76 22
-8.5600557 -3.1253755 1.0581759 822 22
-8.5584898 -3.0654221 1.0557199 883 22
-8.5527601 -3.0042887 1.0528171 925 22
-8.5597572 -2.9478707 1.0514774 944 22
-8.5607357 -2.8895738 1.0494678 1012 22
-8.5556602 -2.829504 1.0467885 1042 22
-8.5170822 -2.7588887 1.0402015 999 22
-8.4144955 -2.6687284 1.0261346 976 22
-8.3955956 -2.6061485 1.0220039 946 22
-8.3990679 -2.5508316 1.0205525 1024 22
-8.4002714 -2.4950042 1.0188779 1123 22
-8.4001532 -2.4389815 1.0170915 1162 22
-8.4006195 -2.3833253 1.015417 1129 22
-8.409339 -2.3301432 1.014747 1118 22
-8.4100485 -2.2748687 1.0131841 1117 22
-8.405592 -2.2184052 1.0110629 527 22
-8.5653305 -2.2044299 1.0280325 380 22
-8.5999012 -2.1571505 1.0304886 1099 22
-8.6081476 -2.103163 1.0299305 1059 22
-8.5880203 -2.0424886 1.0261346 580 22
-8.6003904 -1.9897549 1.0261346 560 22
-8.6104984 -1.9365104 1.0259113 1029 22
-8.6212482 -1.8834289 1.0257996 1003 22
-8.6345863 -1.8309067 1.0260229 1096 22
-8.6427383 -1.7772911 1.0256881 719 22
-8.706109 -1.7347107 1.0317167 1053 22
-8.740983 -1.6859624 1.0345078 454 22
-8.6251421 -1.6087967 1.020106 725 22
-8.6504993 -1.5586624 1.0218922 598 22
-8.729414 -1.5176368 1.0298188 511 22
-8.7630644 -1.4681494 1.0326098 470 22
-8.7650404 -1.4132457 1.0318284 514 22
-8.7558699 -1.3566996 1.0298188 570 22
-8.762064 -1.3026569 1.0295955 569 22
-8.7630053 -1.2478889 1.0288141 550 22
-8.7695122 -1.1939627 1.0287024 599 22
-8.7747021 -1.1398755 1.0284791 601 22
-8.7746277 -1.08516 1.0276976 642 22
-8.794939 -1.0329217 1.0292606 865 22
-8.749752 -0.9732272 1.0234551 246 22
-8.6102762 -0.90427005 1.0070437 1137 22
-8.8164167 -0.87125134 1.0297072 403 22
-8.8047752 -0.81558102 1.0278093 344 22
-8.8244648 -0.7628237 1.0294839 402 22
-8.8349228 -0.70914024 1.0301538 443 22
-8.8420801 -0.65513694 1.0304886 388 22
-8.8370104 -0.60026491 1.0294839 418 22
-8.8335848 -0.5456022 1.0287024 395 22
-8.8318052 -0.49111441 1.0281441 528 22
-8.8346519 -0.43691424 1.0281441 531 22
-8.8421307 -0.38291237 1.0287024 473 22
-8.8522587 -0.32894573 1.0295955 355 22
-8.6812801 -0.26927003 1.0101697 1175 22
-8.6976709 -0.21636768 1.0118444 596 22
-6.3679085 -0.11942238 0.7499314 371 22
-8.8447475 -0.11143917 1.0281441 455 22
-8.8452644 -0.057166725 1.0281441 462 22
-8.8424673 -0.0028912826 1.0278093 441 22
-8.8542433 0.051434919 1.0291489 440 22
-8.8656855 0.10590553 1.0304886 425 22
-8.876792 0.16051847 1.0318284 152 22
-8.6718826 -0.63870043 0.90711021 1353 23
-8.6627321 -0.58460605 0.90581226 1243 23
-8.6582117 -0.53095323 0.90501356 1283 23
-8.6613064 -0.47781745 0.90501356 1264 23
-8.6720257 -0.42505443 0.90581226 1288 23
-8.6714878 -0.37170765 0.90551275 1176 23
-8.6726112 -0.31845677 0.90541291 1212 23
-8.6704235 -0.26511446 0.90501356 1116 23
-8.6738768 -0.21195762 0.90521324 1097 23
-6.3441167 -0.11576939 0.67128634 366 23
-8.6867685 -0.1056344 0.90631145 1236 23
-8.6922283 -0.052362029 0.9068107 1242 23
-8.6923857 0.00097346696 0.9068107 1233 23
-8.6932116 0.054315012 0.90691054 1182 23
-8.6956997 0.10769109 0.90721005 1218 23
-8.6759729 0.16069731 0.90531307 581 23
-8.6907387 0.21431941 0.90691054 1173 23
-8.6902552 0.26767123 0.90701038 1134 23
-8.6924257 0.32113501 0.90740973 1155 23
-8.6932745 0.37459278 0.90770924 1154 23
-8.683856 0.42758507 0.90701038 386 23
-8.6969643 0.48173851 0.90860778 762 23
-8.6422014 0.53192139 0.9034161 179 23
-8.7013178 0.58916533 0.90970606 1089 23
-8.7163925 0.64393485 0.91160303 1283 23
-8.7212048 0.69811887 0.91250157 1277 23
-8.7276611 0.75255686 0.91359985 1351 23
-8.7327871 0.80700886 0.91459823 1361 23
-8.7365828 0.86145461 0.91549683 1387 23
-8.7400389 0.9159773 0.91639537 1393 23
-8.7411766 0.97035545 0.91709429 1437 23
-8.7429647 1.0248978 0.91789299 1477 23
-8.7463865 1.0797421 0.91889143 1437 23
-8.7455168 1.1341556 0.91949046 1431 23
-8.7462807 1.1888669 0.92028916 1377 23
-8.745718 1.2434901 0.92098808 1384 23
-8.7487497 1.2987351 0.9220863 1470 23
-8.758316 1.3551283 0.92388344 1407 23
-8.7645712 1.4112134 0.92538106 1342 23
-8.7665424 1.4667701 0.92647928 1391 23
-8.7701225 1.5227441 0.92777723 1320 23
-8.7723656 1.5786409 0.92897534 1258 23
-8.768383 1.6335301 0.92957437 1373 23
-8.7708969 1.6897465 0.93087232 1362 23
-8.7710981 1.7456669 0.93197054 1441 23
-8.7777662 1.803054 0.93376768 1369 23
-8.779192 1.8595581 0.93506563 1422 23
-8.7666454 1.9131792 0.93496579 1382 23
-8.7673616 1.969768 0.93626368 1170 23
-8.6911249 2.0087466 0.92967421 135 23
-8.7909336 2.0887029 0.94125575 1407 23
-8.7866516 2.144726 0.94215429 1464 23
-8.7907 2.202951 0.94395143 1456 23
-8.794364 2.2613063 0.94574857 1354 23
-8.8043776 2.3215642 0.94824457 1356 23
-8.8014936 2.3786566 0.94944268 1263 23
-8.8011169 2.4365973 0.95094031 1155 23
-8.8003607 2.4946225 0.95243788 1231 23
-8.8049564 2.5543928 0.95453453 1278 23
-8.8053341 2.6131814 0.95623183 1263 23
-8.804369 2.6717818 0.9578293 1229 23
-8.8039656 2.7307632 0.9595266 1265 23
-8.8155003 2.793746 0.96252179 1336 23
-8.8152332 2.8532977 0.96431893 1262 23
-8.8240137 2.9160719 0.96711451 1215 23
-8.8276405 2.9774714 0.96941084 1178 23
-8.8289642 3.0383778 0.97150749 1066 23
-8.8298712 3.099412 0.97360414 1014 23
-8.8331718 3.1615772 0.97600031 1025 23
-8.8341713 3.2232175 0.9781968 1094 23
-8.8403425 3.2870686 0.98099238 1097 23
-8.8451309 3.3507643 0.98368806 1088 23
-8.8476124 3.4139256 0.98618406 1089 23
-8.8468733 3.4761522 0.98838055 1111 23
-8.8493986 3.5399756 0.99097639 766 23
-8.8911009 3.62009 0.99786544 317 23
-8.9008951 3.6879029 1.0013598 1035 23
-8.8955202 3.7497897 1.0032568 1074 23
-8.8979521 3.8152771 1.0060524 1093 23
-8.8917046 3.8773568 1.0079494 1184 23
-8.8777523 3.9362774 1.0090476 1122 23
-8.8724823 3.9992602 1.0111443 1134 23
-8.8604412 4.0594263 1.012542 1072 23
-8.8507013 4.1208544 1.0142393 1093 23
-8.8405409 4.1823153 1.0159366 1015 23
-8.8326502 4.2450991 1.0179334 990 23
-8.8270025 4.3092527 1.0202298 880 23
-8.8128767 4.3695197 1.0216275 899 23
-8.8027859 4.4320116 1.0235245 861 23
-8.7993488 4.4981666 1.0262202 917 23
-8.7883635 4.5607796 1.0281172 887 23
-8.7734194 4.6215725 1.0296148 885 23
-8.7659578 4.6865749 1.0320109 944 23
-8.7641497 4.7549801 1.0351061 927 23
-8.7539864 4.8192205 1.0373025 977 23
-8.7485762 4.886426 1.0400981 918 23
-8.7357435 4.9498229 1.0420948 878 23
-8.7293644 5.0172114 1.0448904 721 23
-8.7156076 5.0806994 1.0468873 610 23
-8.9309635 5.2798872 1.0756414 56 23
-8.9376574 5.3581166 1.0802341 839 23
-8.9207678 5.4226742 1.082131 749 23
-8.9186707 5.4966211 1.0858251 736 23
-8.9033413 5.5628386 1.0880216 702 23
-8.8934202 5.6328006 1.090917 654 23
-8.8821363 5.7023125 1.0937126 628 23
-8.8694992 5.7713547 1.0964082 648 23
-8.8571796 5.8410034 1.0992038 728 23
-8.845993 5.9118233 1.102199 707 23
-8.8334465 5.9821677 1.1050944 783 23
-8.8285732 6.0582085 1.1089882 636 23
-8.8165617 6.1298709 1.1120832 652 23
-8.8088837 6.2050509 1.1157774 615 23
-8.8006134 6.2803664 1.1194714 611 23
-8.7861052 6.3517332 1.1224667 637 23
-8.7678394 6.4208069 1.1250626 670 23
-8.7666388 6.502934 1.1298549 139 23
-8.7751017 6.5930562 1.1359452 638 23
-8.7416086 6.6521974 1.1368438 587 23
-8.7242718 6.7239294 1.1398389 246 23
-8.6993237 6.7901888 1.1419356 118 23
-8.6762314 6.8582454 1.1443318 442 23
-8.6425323 6.9181919 1.1454301 437 23
-8.5898714 6.9629469 1.1441321 337 23
-8.5608301 7.0268841 1.1459292 305 23
-8.567296 7.1206145 1.1524189 620 23
-8.5341024 7.1820168 1.1538167 598 23
-8.4232216 7.1774631 1.1450307 407 23
-7.1961226 6.2086802 0.98828071 185 23
-7.116672 6.2167201 0.98278946 145 23
-7.0366502 6.223361 0.97719842 176 23
-6.8908362 6.1701908 0.96272147 240 23
-6.8255682 6.187633 0.95902741 325 23
-6.8006701 6.2415061 0.96082449 210 23
-6.781199 6.3007236 0.96342039 245 23
-6.7677803 6.3660712 0.96691483 281 23
-6.7494898 6.4273739 0.96981019 235 23
-6.7192388 6.4776435 0.97110814 219 23
-6.6373482 6.4777522 0.96521753 173 23
-6.5281029 6.449832 0.95543313 155 23
-6.4567432 6.4581065 0.95094031 110 23
-6.4086041 6.4891081 0.9497422 87 23
-6.447886 6.6094923 0.96112406 34 23
-0 0 0 3 23
-0 0 0 4 23
-0 0 0 4 23
-1.9095994 2.0572672 0.31625265 4 23
-0 0 0 3 23
-0 0 0 3 23
-0 0 0 3 23
-0 0 0 6 23
-5.2943463 6.0635123 0.84231353 12 23
-5.2453427 6.0823226 0.84051645 24 23
-0 0 0 5 23
-0 0 0 6 23
-0 0 0 4 23
-0 0 0 5 23
-0 0 0 5 23
-2.7286158 3.4110065 0.4729028 53 23
-2.7353988 3.4628127 0.47739562 115 23
-2.7226703 3.4905131 0.47879338 114 23
-2.7133486 3.5229161 0.4807902 140 23
-2.7091541 3.5624623 0.48368558 134 23
-2.7171259 3.6187947 0.48867762 142 23
-2.7150233 3.6625707 0.49207222 128 23
-2.7136607 3.7080617 0.49566647 148 23
-2.7077613 3.748028 0.49856186 135 23
-2.707252 3.7961605 0.50245565 140 23
-2.699378 3.8346643 0.50515133 167 23
-2.6962442 3.8805668 0.50874561 177 23
-2.6977141 3.9339583 0.51323843 176 23
-2.6919351 3.9776256 0.5165332 173 23
-2.6835096 4.0180597 0.51942855 178 23
-2.6593525 4.0352807 0.51952845 128 23
-2.5531497 3.9264185 0.5045523 68 23
-2.4967601 3.8917701 0.49856186 43 23
-2.4552665 3.8792763 0.49526712 46 23
-2.4187653 3.8740156 0.49287093 46 23
-2.0603554 3.3457992 0.42887303 86 23
-2.0346193 3.3498755 0.42787462 126 23
-2.0037956 3.345228 0.42587781 49 23
-0 0 0 5 23
-0 0 0 4 23
-1.8804076 3.2745693 0.41349754 72 23
-1.8543943 3.2756569 0.41229945 145 23
-1.7619755 3.1575341 0.39742318 21 23
-1.4906765 2.7106528 0.34500679 4 23
-1.4650019 2.7031307 0.34310982 8 23
-0 0 0 28 23
-0 0 0 165 23
-0 0 0 68 23
-0 0 0 14 23
-0 0 0 73 23
-0 0 0 5 23
-0 0 0 5 23
-0 0 0 28 23
-0 0 0 23 23
-0 0 0 8 23
-0 0 0 9 23
-0 0 0 5 23
-0 0 0 19 23
-0 0 0 8 23
-0 0 0 4 23
-0 0 0 4 23
-0 0 0 17 23
-0 0 0 56 23
-0 0 0 59 23
-1.0434188 2.6593161 0.32124469 77 23
-1.0209939 2.6498868 0.31954741 76 23
-0.98850423 2.6132984 0.31495473 125 23
-0.97141063 2.6165166 0.31465521 114 23
-0.95192802 2.6130803 0.31365681 98 23
-0.93051291 2.6038828 0.31205934 81 23
-0 0 0 76 23
-0 0 0 98 23
-0.87829322 2.6083124 0.31076142 118 23
-0.86133599 2.6108179 0.31046191 98 23
-0.8431558 2.6094272 0.30976301 109 23
-0.82803029 2.6173971 0.31006253 67 23
-0.81578571 2.6347833 0.31136048 514 23
-0.79700392 2.6311698 0.31046191 98 23
-0.77886331 2.6293333 0.30976301 72 23
-0.75052077 2.5920153 0.30537003 194 23
-0.75006533 2.6511383 0.31106094 63 23
-0.75023896 2.7151458 0.31725106 27 23
-0.733046 2.717777 0.31705138 33 23
-0.70976233 2.6972082 0.31445554 16 23
-0.6879974 2.6812751 0.31235889 14 23
-0.66500419 2.6593862 0.30966318 8 23
-0.64560777 2.6508503 0.30836526 6 23
-0.62772083 2.6479852 0.30766636 8 23
-0 0 0 4 23
-0.57882667 2.5826771 0.30017829 77 23
-0.56339288 2.5881245 0.30037799 137 23
-0.54667747 2.5876389 0.29997861 110 23
-0.52998924 2.5870459 0.29957926 117 23
-0.51332891 2.5863457 0.29917988 125 23
-0.49650899 2.5845613 0.29868069 119 23
-0.47881961 2.5777774 0.29768229 153 23
-0.46299365 2.5806668 0.29768229 129 23
-0.44698012 2.5824788 0.29758245 108 23
-0.43325937 2.5979307 0.29888037 46 23
-0.41588783 2.5916989 0.2979818 11 23
-0.40073791 2.5991185 0.29848102 9 23
-0.3834683 2.5926704 0.29758245 29 23
-0.36741278 2.5939894 0.29748261 8 23
-0.35202515 2.6001389 0.29788196 6 23
-0.3382383 2.6190245 0.29957926 26 23
-0.32459831 2.6408012 0.30157608 10 23
-0 0 0 5 23
-0 0 0 3 23
-0.30639997 2.9372687 0.33092925 12 23
-0.2639842 2.691541 0.30596906 17 23
-0.23840858 2.595022 0.29608482 60 23
-0.22248134 2.5964358 0.29608482 59 23
-0.20654573 2.5977521 0.29608482 67 23
-0.19096842 2.6039321 0.29658404 44 23
-0.17492028 2.6040621 0.2964842 62 23
-0.15906082 2.6070726 0.29668388 64 23
-0.14311607 2.6089931 0.29678372 50 23
-0 0 0 43 23
-0 0 0 61 23
-0 0 0 72 23
-0 0 0 81 23
-0.062847301 2.6051924 0.29608482 163 23
-0.04684262 2.6045341 0.29598498 218 23
-0.030872848 2.6057675 0.29608482 204 23
-0.014895832 2.6078978 0.29628453 243 23
0.0011063826 2.5999801 0.29548579 166 23
0.017077791 2.6029093 0.29578531 238 23
0.032963302 2.5957911 0.29508641 270 23
0.048853569 2.5935502 0.29488674 264 23
0.064693183 2.5902176 0.29458722 312 23
0.080676742 2.5927556 0.29488674 176 23
0.09808474 2.6329792 0.29898021 56 23
0.14028679 3.2387207 0.35988307 260 23
0.15971735 3.2288547 0.3589845 181 23
0.14746591 2.6476169 0.30067751 46 23
0.16273274 2.6307721 0.29908004 85 23
0.17806676 2.6178112 0.29788196 112 23
0.19280884 2.5988078 0.29608482 87 23
0.20764151 2.5836902 0.29468706 95 23
0.22110112 2.55461 0.29189152 217 23
0.23704603 2.5561776 0.29219103 217 23
0 0 0 210 23
0 0 0 244 23
0 0 0 226 23
0 0 0 216 23
0.31863272 2.5743666 0.29488674 145 23
0.33659592 2.5891378 0.29658404 60 23
0.35194069 2.5830798 0.29618466 67 23
0.36806342 2.5828421 0.29638436 65 23
0.4117859 2.7685244 0.31545395 17 23
0.44487879 2.8701777 0.32603705 23 23
0.51052654 3.1660352 0.35638863 104 23
0.53634202 3.2011168 0.36028242 187 23
0.53182137 3.0585549 0.34610504 92 23
0.52046543 2.8877745 0.32903227 35 23
0.45586368 2.4423814 0.28390425 72 23
0.47065318 2.4385612 0.28380442 67 23
0.48618934 2.438555 0.28410393 78 23
0.50174314 2.4384499 0.28440347 89 23
0.51710784 2.4372723 0.28460315 30 23
0.53035671 2.4262762 0.28380442 62 23
0.54588807 2.425889 0.28410393 39 23
0.56121063 2.4244328 0.28430364 29 23
0.5774554 2.4267521 0.28490266 28 23
0.59233481 2.4231632 0.28490266 30 23
0.60815889 2.4233439 0.28530204 25 23
0.62499809 2.4272761 0.28610075 27 23
0.64140123 2.4291685 0.2866998 18 23
0.65395904 2.4165418 0.28580123 24 23
0.67142791 2.4220734 0.28679964 26 23
0.68844676 2.4255667 0.28759837 20 23
0.70691919 2.4337201 0.28889629 16 23
0.72947896 2.4550924 0.291592 6 23
0.74019718 2.4362876 0.29009438 20 23
0.75660533 2.4364519 0.29059359 17 23
0.78205752 2.464963 0.29408801 10 23
0.98614895 3.0442243 0.35568976 9 23
1.0431969 3.1543252 0.36797017 128 23
1.0634855 3.1506937 0.36826968 165 23
1.0643489 3.0904782 0.36257878 20 23
0 0 0 4 23
0.86153007 2.4045281 0.29089311 3 23
1.1534424 3.1591668 0.37206364 70 23
1.1721116 3.1501646 0.37186396 176 23
1.1938852 3.1494269 0.37256286 198 23
1.2156938 3.1485405 0.37326172 179 23
1.2364451 3.1447263 0.3736611 154 23
1.2568258 3.139852 0.37396061 160 23
1.2775683 3.1357677 0.37435997 159 23
1.299831 3.1352239 0.3751587 167 23
1.3225213 3.1354413 0.37605727 160 23
1.3444792 3.1336691 0.37675616 158 23
1.3644769 3.1271849 0.37695584 163 23
1.3868649 3.1260309 0.37775457 178 23
1.4088811 3.1238127 0.37845343 182 23
1.4313365 3.1223462 0.37925217 214 23
1.4529872 3.1189172 0.37985122 205 23
1.475075 3.1162395 0.38055012 206 23
1.4980463 3.1152017 0.38144866 225 23
1.5210602 3.1139989 0.38234723 181 23
1.5441157 3.1126308 0.3832458 185 23
1.5667641 3.1102078 0.38404453 210 23
1.591252 3.1111679 0.38524261 217 23
1.6144358 3.1092947 0.38614118 211 23
1.6376563 3.1072536 0.38703975 200 23
1.6623195 3.1076767 0.38823783 184 23
1.6832541 3.1009171 0.38863721 160 23
1.7041684 3.0940173 0.38903657 174 23
1.7274867 3.0913212 0.38993514 180 23
1.7518167 3.0901866 0.39103338 177 23
1.7737191 3.0845559 0.39163244 158 23
1.7991252 3.08479 0.39293036 175 23
1.8235883 3.0831151 0.3940286 170 23
1.8475868 3.0804021 0.39502701 151 23
1.8726538 3.0792112 0.39622509 166 23
1.9003854 3.0820639 0.3979224 139 23
1.924005 3.0779402 0.39882097 164 23
1.9471132 3.0728021 0.3996197 166 23
1.9713055 3.0691705 0.40061811 168 23
1.9949837 3.0645235 0.40151665 169 23
2.0186789 3.0597012 0.40241522 170 23
2.0462592 3.0604944 0.40401268 171 23
2.0761564 3.0643597 0.4060095 171 23
2.0994229 3.0581267 0.40680823 164 23
2.1204195 3.0484555 0.40720758 193 23
2.1448135 3.0435224 0.40820599 186 23
2.1698048 3.0392146 0.40930423 180 23
2.197155 3.03794 0.41080186 161 23
2.22751 3.040458 0.41279867 153 23
2.2532363 3.0363235 0.41399676 157 23
2.2760077 3.0280097 0.41469565 163 23
2.3090036 3.0329921 0.41709182 163 23
2.3378944 3.032166 0.41878912 135 23
2.363189 3.0263927 0.41988736 145 23
2.3872666 3.0188613 0.42078593 123 23
2.4144492 3.0150323 0.42218369 132 23
2.4441803 3.014075 0.42398083 151 23
2.4727275 3.0113277 0.42557827 161 23
2.5045123 3.0121696 0.42767492 196 23
2.445435 2.9046211 0.41559419 56 23
2.4580495 2.8835022 0.41479549 87 23
0 0 0 0 23
0 0 0 0 23
0 0 0 0 23
0 0 0 0 23
0 0 0 0 23
0 0 0 0 23
0 0 0 0 23
0 0 0 0 23
0 0 0 0 23
0 0 0 0 23
0 0 0 0 23
0 0 0 0 23
0 0 0 0 23
0 0 0 0 23
0 0 0 0 23
0 0 0 0 23
3.2954724 3.1360817 0.49107382 62 23
3.334223 3.1342072 0.4937695 61 23
3.364326 3.1238482 0.49526712 69 23
3.3944271 3.1132371 0.49676472 69 23
3.4274731 3.105047 0.4986617 75 23
3.4746308 3.1091778 0.50245565 55 23
3.5122776 3.1042774 0.50495166 61 23
3.5335071 3.0846317 0.50525117 51 23
3.6111336 3.1135867 0.51303875 26 23
3.6460752 3.1049216 0.51513541 14 23
3.6711488 3.0876164 0.51593417 13 23
3.6831377 3.059309 0.51503557 16 23
3.6903028 3.0271835 0.513538 10 23
3.7026241 2.9994712 0.51273924 7 23
0 0 0 4 23
0 0 0 5 23
0 0 0 3 23
3.7475348 2.8864436 0.5092448 11 23
3.7335012 2.8392947 0.50525117 5 23
3.8296099 2.8754985 0.51513541 40 23
3.8679602 2.8673575 0.51773131 142 23
3.9103682 2.8617928 0.52082634 155 23
3.9609163 2.8616438 0.52491981 156 23
4.003509 2.855202 0.5280149 179 23
4.0469847 2.8489175 0.53120977 181 23
4.1019707 2.8501577 0.53580248 174 23
4.1464567 2.8435113 0.53909719 164 23
4.1893668 2.8353097 0.54219228 143 23
4.2381225 2.8305578 0.54598624 149 23
4.285315 2.824218 0.54958051 171 23
4.3284183 2.8146918 0.55267555 166 23
4.3975224 2.8214045 0.55886567 151 23
4.4466949 2.8145978 0.56265962 148 23
4.4951048 2.8067658 0.56635374 172 23
4.5385017 2.7953131 0.56944877 226 23
4.558969 2.76948 0.56984818 74 23
4.6680474 2.7967021 0.58063096 169 23
4.7150989 2.7857277 0.5841254 195 23
4.7647696 2.7757835 0.58791935 181 23
4.8317485 2.775249 0.59371006 315 23
4.8417606 2.7416263 0.59291136 255 23
4.8541479 2.7094405 0.59241217 244 23
4.8515043 2.6690495 0.59021568 226 23
4.8555455 2.6325889 0.58881789 224 23
4.8549347 2.5938339 0.58692092 237 23
4.8452282 2.5505495 0.58402556 176 23
4.8519549 2.5161891 0.58302712 289 23
4.8557849 2.480484 0.58172923 299 23
4.8584709 2.4443793 0.58033144 265 23
4.8751607 2.4154062 0.58053112 227 23
4.9462228 2.4129434 0.58682108 286 23
4.9699035 2.386858 0.58781952 370 23
4.9772596 2.3529148 0.58702075 324 23
4.9762683 2.315192 0.58532345 288 23
4.9777155 2.2788136 0.58392572 383 23
4.9798117 2.2429135 0.58262777 365 23
4.9780164 2.2054605 0.58093047 89 23
4.9622684 2.1621499 0.5777356 495 23
4.9772706 2.1324453 0.57793528 425 23
4.9792585 2.0972281 0.57673717 500 23
4.9782443 2.0609245 0.57523954 459 23
4.9778943 2.0250878 0.57384181 530 23
4.9772921 1.9893332 0.57244402 516 23
4.9736609 1.9525709 0.57074672 459 23
4.985548 1.9220164 0.57074672 538 23
4.9879422 1.8878653 0.56974834 480 23
4.9667897 1.8450899 0.5662539 273 23
4.9985819 1.8220809 0.56845039 457 23
5.0068574 1.7903701 0.56815088 292 23
5.0027266 1.7543434 0.56655341 402 23
5.0105743 1.7226431 0.5662539 402 23
5.0144501 1.6896409 0.56555498 448 23
5.0086617 1.6535347 0.56385773 316 23
4.9761133 1.608986 0.55936486 89 23
4.9811497 1.5769203 0.55886567 98 23
4.9774265 1.5422012 0.55746788 29 23
4.9848909 1.5110536 0.5572682 30 23
4.9912071 1.4795893 0.55696869 32 23
4.9944582 1.4472731 0.55636966 38 23
4.9946284 1.4141589 0.55547106 21 23
4.9945812 1.3810972 0.55457252 35 23
4.9952769 1.348349 0.55377382 33 23
4.9938345 1.315137 0.55277538 34 23
4.9979553 1.2834798 0.55237603 15 23
5.0038066 1.2523053 0.55217636 33 23
5.0065632 1.2203996 0.55167717 34 23
5.0110526 1.1889671 0.55137759 32 23
5.0085592 1.1559577 0.55037922 19 23
5.0126452 1.1245499 0.5500797 38 23
5.006813 1.0910149 0.54878175 21 23
5.0104928 1.0596548 0.54848224 41 23
4.997407 1.0248886 0.54648542 20 23
5.0065293 0.99478823 0.54678494 29 23
5.0027685 0.96216857 0.54578656 35 23
5.0046654 0.93072546 0.54538715 42 23
5.0063648 0.89929533 0.5449878 36 23
5.010808 0.86838979 0.54488796 44 23
5.0130978 0.83713537 0.54458845 38 23
5.0161753 0.80604362 0.54438877 30 23
5.0161099 0.77448952 0.54388958 38 23
5.0168309 0.74311262 0.54349017 33 23
5.0173559 0.71175599 0.54309082 44 23
5.0176849 0.68042099 0.54269147 38 23
5.0178185 0.64910871 0.54229212 41 23
5.018744 0.61794227 0.5419926 40 23
5.0194764 0.58678895 0.54169309 43 23
5.0219936 0.55586928 0.54159325 38 23
5.0253096 0.52504444 0.54159325 39 23
5.0284367 0.49419984 0.54159325 46 23
0 0 0 49 23
5.0361056 0.43262675 0.54179293 66 23
5.034698 0.40140042 0.54139352 69 23
5.037066 0.37050053 0.54139352 74 23
5.0372591 0.33945245 0.54119384 95 23
5.0352745 0.30829388 0.54079449 153 23
5.0271363 0.2768428 0.53979611 159 23
5.0168152 0.24540552 0.538598 244 23
5.0251851 0.21491753 0.53929687 348 23
5.0293918 0.18418945 0.53959644 327 23
5.0135202 0.15280698 0.53789914 151 23
5.010385 0.12194397 0.53749973 130 23
5.0259614 0.091473572 0.53899735 95 23
5.039362 0.060792144 0.5402953 108 23
5.048595 0.029925199 0.54119384 90 23
5.0596285 -0.0010527214 0.54229212 71 23
5.0565419 -0.032079749 0.5419926 64 23
5.0522704 -0.063056752 0.54159325 56 23
5.0478086 -0.093982533 0.54119384 56 23
5.0481319 -0.12497794 0.54129368 50 23
5.0512481 -0.15607233 0.54169309 33 23
5.0531783 -0.18717308 0.5419926 41 23
5.0549169 -0.21830338 0.54229212 42 23
5.05547 -0.24941327 0.54249179 38 23
5.0607986 -0.28081262 0.54319066 34 23
5.0679188 -0.31240875 0.54408926 30 23
5.0728555 -0.34396863 0.54478812 33 23
5.0766034 -0.37552768 0.54538715 40 23
5.0751953 -0.40674931 0.54548699 32 23
5.0735955 -0.43796784 0.54558688 31 23
5.0727944 -0.46927345 0.54578656 31 23
5.0737801 -0.5007807 0.54618591 40 23
5.0745702 -0.5323177 0.54658526 44 23
5.0761533 -0.56399292 0.54708445 42 23
5.0775385 -0.5957076 0.5475837 25 23
5.0787253 -0.62746048 0.54808289 31 23
5.0807004 -0.65937811 0.54868191 35 23
5.0726147 -0.69000477 0.54828256 18 23
5.0791221 -0.72265601 0.54938078 25 23
5.0844345 -0.75526708 0.55037922 17 23
5.0797048 -0.78645039 0.55037922 20 23
5.089519 -0.81997466 0.55187684 17 23
5.0932245 -0.85266453 0.55277538 14 23
5.0878963 -0.88389993 0.55277538 26 23
5.0902119 -0.91651082 0.55357409 23 23
5.0913396 -0.94900125 0.55427301 40 23
5.0971456 -0.98248053 0.55547106 23 23
5.0959005 -1.0147079 0.55597031 36 23
5.1022496 -1.0485578 0.5572682 26 23
5.1015601 -1.0810812 0.55786729 35 23
5.1026077 -1.1140596 0.55866599 27 23
5.0995593 -1.1462196 0.55906534 42 23
5.1011558 -1.1795038 0.55996394 39 23
5.1005988 -1.2123908 0.56066281 32 23
5.1036968 -1.2462587 0.56176108 28 23
5.104641 -1.2797266 0.56265962 33 23
5.1092205 -1.3142437 0.56395757 40 23
5.1077952 -1.3473434 0.56465644 30 23
5.1205645 -1.3843673 0.56685293 57 23
5.1158099 -1.4168218 0.56725228 56 23
5.1031909 -1.4471003 0.56685293 72 23
5.0923042 -1.4778314 0.56665325 84 23
5.1060343 -1.5158405 0.56904942 147 23
5.1356759 -1.5589834 0.57314289 559 23
5.0518847 -1.5674832 0.5653553 279 23
4.9586992 -1.5720096 0.55656934 321 23
4.8694382 -1.5766776 0.54818273 252 23
4.8039298 -1.5881127 0.54229212 242 23
4.7318664 -1.5965787 0.53570265 419 23
4.7276258 -1.6275249 0.53630167 494 23
4.7344508 -1.6624322 0.53809881 447 23
4.73634 -1.6958083 0.5393967 506 23
4.7333236 -1.7275654 0.54019547 429 23
4.7366247 -1.761776 0.54169309 525 23
4.7229338 -1.789749 0.54139352 373 23
4.7397132 -1.829437 0.54438877 491 23
4.7413645 -1.8635776 0.54578656 525 23
4.7418509 -1.8974377 0.54708445 414 23
4.7522373 -1.9355 0.54948062 519 23
4.7540612 -1.9703339 0.55097824 510 23
4.7528849 -2.0041039 0.55217636 665 23
4.7002592 -2.0159812 0.54778337 85 23
4.7179003 -2.0579045 0.55107808 52 23
4.7288356 -2.0972974 0.55367398 52 23
4.7358351 -2.1352665 0.55587047 34 23
4.7380228 -2.1713283 0.55756772 68 23
4.738142 -2.2066576 0.55906534 63 23
4.7326083 -2.2395172 0.55996394 74 23
4.7403021 -2.2788558 0.56236011 66 23
4.7360663 -2.3126993 0.56345832 76 23
4.733376 -2.34746 0.56475627 78 23
4.7419915 -2.3880904 0.56735212 69 23
4.7449694 -2.4261975 0.56934893 46 23
4.7485404 -2.464889 0.57144558 36 23
4.7500544 -2.5027881 0.57334256 34 23
4.7512808 -2.5407982 0.57523954 34 23
4.7557182 -2.5808148 0.57753587 27 23
4.7563553 -2.6190622 0.57943285 24 23
4.7575703 -2.6578991 0.58142966 28 23
4.7576213 -2.6963589 0.58332664 21 23
4.7642808 -2.7388849 0.58602238 15 23
4.7645793 -2.7780864 0.58801919 16 23
4.7637181 -2.8168881 0.58991617 20 23
4.7693877 -2.8598757 0.59261185 25 23
4.7730079 -2.9020047 0.59510785 27 23
4.7788305 -2.9458513 0.59790343 21 23
4.7834506 -2.989351 0.60059911 22 23
4.7826715 -3.0298238 0.60269576 17 23
4.7840877 -3.0720117 0.60509193 17 23
4.7834969 -3.1132452 0.60728842 22 23
4.7825799 -3.1545868 0.60948491 15 23
4.7747164 -3.1916115 0.6108827 13 23
4.7764649 -3.2353525 0.61347854 9 23
4.7860608 -3.2848635 0.61707282 12 23
4.7797041 -3.3238227 0.61877012 20 23
4.7844386 -3.3708482 0.62186521 8 23
4.7952547 -3.4226794 0.62575895 19 23
4.8040009 -3.4736037 0.62945306 14 23
4.7994561 -3.5153587 0.63154972 22 23
4.7977762 -3.5595591 0.63404578 19 23
4.7909603 -3.6002851 0.63594276 24 23
4.7869921 -3.6434708 0.63823909 30 23
4.7874031 -3.6903868 0.64113444 40 23
4.7952614 -3.7435658 0.64502823 32 23
4.7971821 -3.7926607 0.64822316 35 23
4.8025637 -3.8450279 0.65191728 34 23
4.8067093 -3.8969765 0.6555115 21 23
4.8065515 -3.9459641 0.65860659 26 23
4.8075032 -3.9963672 0.6619013 23 23
4.8087773 -4.0475707 0.6652959 25 23
4.8111186 -4.1002297 0.66889018 31 23
4.8077192 -4.14852 0.67178553 28 23
4.8099027 -4.202158 0.67547965 29 23
4.8034091 -4.2487283 0.67807555 20 23
4.8232126 -4.3192677 0.68426567 25 23
4.8356943 -4.3841953 0.68955719 23 23
4.8424273 -4.4447284 0.69414991 20 23
4.848598 -4.5055075 0.69874257 19 23
