# .PCD v0.7 - Point Cloud Data file format
VERSION 0.7
FIELDS x y z intensity ring
SIZE 4 4 4 4 1
TYPE F F F F U
COUNT 1 1 1 1 1
WIDTH 1364
HEIGHT 1
VIEWPOINT 0 0 0 1 0 0 0
POINTS 1364
DATA ascii
-1.852331 2.096494 -0.16663902 41 37
-1.8459932 2.1153321 -0.16736618 42 37
-1.8434024 2.1387022 -0.16852963 40 37
-1.8386534 2.159842 -0.16947494 35 37
-1.8369249 2.1848192 -0.17078383 40 37
-0 0 -0 40 37
-1.8359174 2.2388058 -0.17376518 34 37
-0 0 -0 33 37
-1.8332344 2.2923129 -0.17667383 50 37
-1.8315033 2.3191676 -0.17812814 34 37
-1.8288974 2.3453004 -0.17950974 41 37
-1.8254306 2.3706982 -0.18081863 42 37
-0 0 -0 34 37
-0 0 -0 40 37
-0 0 -0 35 37
-0 0 -0 36 37
-0 0 -0 43 37
-1.8087673 2.5369525 -0.18983541 25 37
-1.8523198 2.6319902 -0.19732517 8 37
-2.6672952 3.8389242 -0.30349052 194 37
-2.6549749 3.871666 -0.30494484 264 37
-2.5808413 3.8135581 -0.2984004 122 37
-2.5457566 3.8119075 -0.29687336 107 37
-2.5091429 3.8074729 -0.29512817 108 37
-2.4677846 3.7952094 -0.29272854 74 37
-2.4299047 3.7876184 -0.29076523 100 37
-2.3922114 3.7797062 -0.28880188 63 37
-2.3589346 3.7782421 -0.28742027 83 37
-2.3283823 3.7807579 -0.28640226 65 37
-2.0342264 3.3492286 -0.24837179 108 37
-2.0115864 3.3582256 -0.24808092 122 37
-1.9295353 3.2666175 -0.2392823 16 37
-0 0 -0 5 37
-0 0 -0 12 37
-1.8444999 3.2581918 -0.2356465 121 37
-1.8249596 3.270319 -0.2357192 151 37
-1.8024544 3.2770863 -0.23535563 130 37
-1.5145745 2.7945163 -0.19441652 64 37
-0 0 -0 70 37
-0 0 -0 70 37
-0 0 -0 81 37
-0 0 -0 82 37
-0 0 -0 65 37
-0 0 -0 71 37
-0 0 -0 72 37
-0 0 -0 72 37
-0 0 -0 92 37
-0 0 -0 98 37
-0 0 -0 125 37
-0 0 -0 90 37
-0 0 -0 124 37
-0 0 -0 111 37
-0 0 -0 76 37
-1.1834044 2.8109548 -0.18503617 62 37
-0 0 -0 46 37
-0 0 -0 52 37
-0 0 -0 37 37
-1.0637399 2.7110457 -0.17500135 5 37
-1.0413418 2.7026334 -0.1738379 6 37
-1.0222664 2.7024431 -0.17332889 16 37
-0.99801993 2.6880982 -0.17172913 28 37
-0.97877312 2.6866755 -0.17114741 29 37
-0 0 -0 7 37
-0 0 -0 12 37
-0 0 -0 14 37
-0.91286266 2.7108316 -0.17122012 12 37
-0 0 -0 5 37
-0.87768555 2.7161362 -0.17078383 6 37
-0.85919577 2.715766 -0.17034753 5 37
-0.83867592 2.7086029 -0.16940223 14 37
-0.82348812 2.7184699 -0.1697658 12 37
-0 0 -0 5 37
-0.79395556 2.741781 -0.17078383 18 37
-0.77467006 2.7379649 -0.17012939 9 37
-0.76104802 2.7542012 -0.17100197 15 37
-0.74621522 2.7665217 -0.1715837 7 37
-0.72566712 2.7575467 -0.17056568 4 37
-0 0 -0 4 37
-0.68401772 2.7352853 -0.16823877 9 37
-0.6655665 2.7326484 -0.16772975 7 37
-0.64048994 2.7017479 -0.16511197 9 37
-0.62165517 2.6959095 -0.16438483 10 37
-0 0 -0 4 37
-0.58427405 2.6838465 -0.1629305 8 37
-0.5665558 2.6815267 -0.1624942 4 37
-0 0 -0 4 37
-0.52660125 2.6530626 -0.15987642 8 37
-0.50767219 2.6425328 -0.1588584 9 37
-0 0 -0 5 37
-0 0 -0 5 37
-0.45502359 2.6288283 -0.15718594 6 37
-0.43806234 2.6266522 -0.15682235 8 37
-0.42288801 2.6351988 -0.15725866 5 37
-0.40442455 2.6229596 -0.15616791 7 37
-0 0 -0 8 37
-0.37346911 2.6366119 -0.15682235 11 37
-0.35768688 2.6418185 -0.15704051 10 37
-0.34082934 2.6390181 -0.15667692 11 37
-0.32633975 2.6549177 -0.15769495 42 37
-0.31050745 2.6608324 -0.15798581 29 37
-0.29472482 2.667644 -0.15834939 33 37
-0.26983377 2.588064 -0.15238668 66 37
-0.24964634 2.5459988 -0.14918718 104 37
-0.23346956 2.5415239 -0.14875089 119 37
-0.21701474 2.5329719 -0.14802372 132 37
-0.20154813 2.5352499 -0.14809644 134 37
-0.18642868 2.5424068 -0.14853273 114 37
-0.17129627 2.5504682 -0.14904174 118 37
-0.15582721 2.5544577 -0.1492599 145 37
-0.14092141 2.5693076 -0.15027791 116 37
-0 0 -0 95 37
-0 0 -0 127 37
-0 0 -0 154 37
-0 0 -0 137 37
-0 0 -0 38 37
-0.045007024 2.5049448 -0.14533323 11 37
-0.029685166 2.5091631 -0.14562409 11 37
-0.014276389 2.5073032 -0.14547867 13 37
0.0011084472 2.5053489 -0.14533323 11 37
0.016413882 2.4943244 -0.14453335 15 37
0.031694025 2.492182 -0.14438792 18 37
0.047003508 2.4929378 -0.14446063 13 37
0.062201183 2.4886143 -0.14416978 14 37
0.077378146 2.4851952 -0.14395162 18 37
0.092662252 2.4856703 -0.14402434 12 37
0.10761267 2.4780798 -0.14351533 20 37
0.12252236 2.471396 -0.14307903 20 37
0.13768426 2.4705977 -0.14307903 23 37
0.15320779 2.4756794 -0.14351533 14 37
0.16792469 2.4677269 -0.14300631 18 37
0.18291651 2.4646609 -0.14286089 20 37
0.19819485 2.4654806 -0.14300631 19 37
0.21340457 2.4652116 -0.14307903 21 37
0 0 -0 13 37
0 0 -0 31 37
0 0 -0 24 37
0 0 -0 24 37
0 0 -0 23 37
0.30546233 2.4675646 -0.14395162 13 37
0.31982845 2.4597094 -0.14351533 26 37
0.33504912 2.458689 -0.14358805 27 37
0.35335514 2.4792979 -0.14526051 20 37
0.36987805 2.4859622 -0.14591496 20 37
0.38634363 2.4915311 -0.14649668 22 37
0.40368351 2.5019145 -0.147442 16 37
0.42215204 2.5180807 -0.1488236 21 37
0.54022843 3.1070123 -0.19259863 40 37
0.57516879 3.1919837 -0.19914307 312 37
0.45839077 2.455956 -0.14482422 64 37
0.47100049 2.4403653 -0.14387891 110 37
0.48830006 2.4491675 -0.1447515 69 37
0.50412089 2.4500332 -0.14504236 66 37
0.52038378 2.4527483 -0.14547867 73 37
0.54392475 2.488487 -0.1483873 195 37
0.55634308 2.4724522 -0.147442 94 37
0.5755437 2.4864836 -0.14875089 98 37
0.59148091 2.4858165 -0.14896902 113 37
0.60695881 2.4831092 -0.14904174 114 37
0.6221835 2.4793384 -0.14904174 88 37
0.63663995 2.4725761 -0.1488236 99 37
0.65154523 2.4676588 -0.14875089 90 37
0.66303307 2.4501348 -0.14773285 90 37
0.67459655 2.4335244 -0.14678755 76 37
0.67483419 2.377522 -0.14286089 45 37
0.70274228 2.4193153 -0.14635125 77 37
0.72154456 2.4283442 -0.14736928 91 37
0.73874694 2.4315066 -0.14795101 109 37
0.75247115 2.4231174 -0.14766014 87 37
0.76732492 2.4184549 -0.14766014 100 37
0.78307086 2.4165478 -0.14787829 69 37
0 0 -0 80 37
0 0 -0 183 37
0 0 -0 118 37
0 0 -0 4 37
0 0 -0 4 37
0 0 -0 5 37
1.1727786 3.1519592 -0.20786898 114 37
0 0 -0 173 37
0 0 -0 171 37
0 0 -0 171 37
0 0 -0 173 37
0 0 -0 201 37
1.2994484 3.1343 -0.21005046 193 37
1.321754 3.1336203 -0.21063219 192 37
1.3444929 3.1337013 -0.21128663 149 37
0 0 -0 180 37
0 0 -0 197 37
0 0 -0 203 37
0 0 -0 217 37
1.4593457 3.1325781 -0.21463157 218 37
1.4810977 3.1289744 -0.21506786 229 37
1.5002689 3.1198275 -0.21506786 254 37
1.5202584 3.1123559 -0.2152133 223 37
0 0 -0 161 37
0 0 -0 238 37
0 0 -0 663 37
0 0 -0 93 37
0 0 -0 55 37
1.5999361 2.9909596 -0.20997775 90 37
1.574035 2.8995535 -0.20321517 63 37
0 0 -0 65 37
0 0 -0 74 37
0 0 -0 74 37
0 0 -0 78 37
0 0 -0 80 37
0 0 -0 131 37
0 0 -0 176 37
0 0 -0 156 37
0 0 -0 160 37
0 0 -0 154 37
0 0 -0 142 37
0 0 -0 178 37
0 0 -0 148 37
0 0 -0 143 37
0 0 -0 133 37
0 0 -0 156 37
0 0 -0 137 37
0 0 -0 136 37
0 0 -0 155 37
0 0 -0 118 37
0 0 -0 145 37
0 0 -0 143 37
0 0 -0 151 37
1.9261445 2.5622525 -0.19637986 151 37
1.9539077 2.5662606 -0.19783418 148 37
1.9951847 2.5874043 -0.20088825 215 37
0 0 -0 190 37
0 0 -0 164 37
0 0 -0 170 37
0 0 -0 141 37
0 0 -0 131 37
2.119664 2.5490336 -0.20437862 144 37
0 0 -0 133 37
0 0 -0 138 37
0 0 -0 122 37
0 0 -0 121 37
2.2483878 2.5410931 -0.21005046 104 37
2.2739158 2.5383959 -0.2111412 118 37
2.2981551 2.5340025 -0.21208651 133 37
0 0 -0 110 37
0 0 -0 133 37
0 0 -0 149 37
0 0 -0 106 37
2.6523433 2.7502775 -0.24124563 57 37
2.9018037 2.9723775 -0.26553276 132 37
2.9297996 2.9644504 -0.26655078 166 37
2.9542809 2.9527647 -0.26720524 83 37
3.2107463 3.1700878 -0.29163781 39 37
3.2408445 3.1607754 -0.29272854 85 37
3.2673585 3.147752 -0.29345572 100 37
3.2996128 3.1400239 -0.29476461 75 37
3.3326216 3.1327012 -0.29614621 73 37
3.367856 3.1271274 -0.29774594 69 37
3.4038818 3.1219132 -0.29941842 82 37
3.4370141 3.1136947 -0.30080003 95 37
3.4761176 3.1105087 -0.30276334 92 37
3.5220349 3.1129055 -0.30538112 91 37
3.5681114 3.1148551 -0.3079989 107 37
3.612078 3.1144011 -0.31039855 87 37
3.6470621 3.1057622 -0.31192556 90 37
3.6797864 3.0948844 -0.31323445 91 37
3.7132809 3.0843589 -0.31461605 77 37
3.75141 3.0773349 -0.31643397 98 37
3.7888172 3.0693305 -0.31817916 93 37
3.8340533 3.0672145 -0.3206515 7 37
3.8222849 3.0195127 -0.31781557 5 37
3.8360231 2.992321 -0.31737927 5 37
3.8416715 2.9589868 -0.31621581 9 37
3.8478494 2.9263 -0.31512508 22 37
3.8641374 2.901437 -0.31497964 11 37
3.8866742 2.8812373 -0.31541595 180 37
3.9163504 2.866173 -0.31650668 172 37
3.9629619 2.8631225 -0.31912446 197 37
4.0104942 2.8601861 -0.32181495 203 37
4.0589538 2.8573477 -0.32457817 167 37
4.0903316 2.8420665 -0.32581434 179 37
4.1422338 2.8406138 -0.32886839 141 37
4.1926188 2.837512 -0.33177704 116 37
4.2422915 2.8333437 -0.33461297 144 37
4.301229 2.8347111 -0.33824876 152 37
4.3461294 2.8262146 -0.34064838 128 37
4.3936043 2.8188894 -0.34326616 127 37
4.4521055 2.8180239 -0.34682924 126 37
4.5006094 2.810205 -0.34951973 126 37
4.5474863 2.8008494 -0.35206479 118 37
4.6174278 2.8050098 -0.35657319 139 37
4.6636372 2.7940588 -0.35904554 139 37
4.7193294 2.7882283 -0.36231777 166 37
4.7716775 2.7798097 -0.36529911 144 37
4.8171806 2.7668777 -0.36769873 165 37
4.8870015 2.7672563 -0.37213442 358 37
4.8612213 2.7133904 -0.36857134 212 37
4.8725362 2.6806259 -0.36813504 227 37
4.8757424 2.6435447 -0.3670443 234 37
4.8751593 2.6046448 -0.36566269 258 37
4.8672233 2.5621338 -0.36369935 195 37
4.8925905 2.5372736 -0.36449924 349 37
4.87432 2.4899573 -0.36173603 270 37
4.8707981 2.4505849 -0.36020899 298 37
4.8759136 2.4157794 -0.35940912 268 37
4.950696 2.4151268 -0.36428109 148 37
4.995986 2.3993912 -0.36675343 306 37
5.0097127 2.3682649 -0.36668071 316 37
5.0060663 2.3290632 -0.36522639 280 37
5.0084753 2.2929032 -0.36428109 239 37
5.0160847 2.2592602 -0.36377206 278 37
5.0170879 2.2227809 -0.36275405 263 37
4.8852677 2.1285796 -0.35119221 166 37
5.005487 2.1445415 -0.35969999 290 37
5.0102797 2.110302 -0.35904554 340 37
5.0120769 2.0749395 -0.35817295 333 37
5.0127053 2.0392585 -0.35722762 338 37
5.0121593 2.0032778 -0.35620961 348 37
5.0104322 1.967016 -0.35511887 336 37
5.0251989 1.9373125 -0.35533702 431 37
5.0192699 1.8997302 -0.35395542 341 37
5.0242882 1.8664641 -0.35344639 337 37
5.0197177 1.8297905 -0.35221022 265 37
5.0261555 1.7972755 -0.35184667 346 37
5.0239134 1.7617782 -0.35082862 218 37
5.0242548 1.7273498 -0.35002875 276 37
5.0262532 1.6936209 -0.34937432 288 37
5.0318155 1.6611842 -0.34901074 270 37
4.9982638 1.6161537 -0.34566578 39 37
5.009037 1.5857557 -0.3457385 42 37
5.0139098 1.5535141 -0.34537494 13 37
5.0080771 1.5180875 -0.34421146 12 37
5.0096483 1.4850605 -0.34362975 16 37
5.011003 1.4520715 -0.34304801 16 37
5.005425 1.4172184 -0.34195727 19 37
5.0121045 1.385947 -0.34181184 11 37
5.009923 1.3523058 -0.34101197 12 37
5.0161972 1.3210316 -0.34086654 16 37
5.0184131 1.2887383 -0.34043023 18 37
5.018486 1.2559826 -0.33984852 29 37
5.0193157 1.2235112 -0.33933949 21 37
5.0189657 1.1908466 -0.33875778 30 37
5.023263 1.1593548 -0.33853963 19 37
5.0244436 1.1271995 -0.33810332 15 37
5.0185976 1.0935856 -0.33715802 25 37
5.0232615 1.0623583 -0.33701259 17 37
5.0208931 1.0297108 -0.33635816 21 37
5.0251603 0.99849457 -0.33621272 17 37
5.0262957 0.96669906 -0.33584914 21 37
5.0311518 0.9356575 -0.33577642 16 37
5.0348349 0.9044162 -0.33563098 10 37
5.0373416 0.87299442 -0.33541283 18 37
5.0376849 0.84124696 -0.33504927 13 37
5.0368438 0.80936968 -0.33461297 11 37
5.0348158 0.77738208 -0.33410394 13 37
5.0375175 0.74618167 -0.33395851 10 37
5.0390391 0.71483707 -0.33374038 12 37
5.0502481 0.68484437 -0.33424938 9 37
5.0424867 0.6523056 -0.3333768 19 37
5.0602517 0.62306267 -0.33439481 10 37
5.0431776 0.58956516 -0.33286777 17 37
5.0457087 0.55849975 -0.33279505 19 37
5.0530086 0.5279448 -0.33308592 13 37
5.0472198 0.49605021 -0.3324315 14 37
0 0 -0 30 37
5.0350409 0.43253505 -0.33112261 25 37
5.0405827 0.40187097 -0.33134073 24 37
5.0449429 0.37108174 -0.33148617 24 37
5.04812 0.34018686 -0.33155888 30 37
5.0530987 0.30938929 -0.33177704 33 37
5.0549021 0.27837825 -0.33177704 30 37
0 0 -0 39 37
0 0 -0 57 37
0 0 -0 39 37
5.0622048 0.15430214 -0.33192247 52 37
5.0640535 0.12326263 -0.33199519 36 37
5.0677061 0.092243001 -0.33221334 36 37
5.055212 0.060987011 -0.33126801 22 37
5.0594802 0.02999223 -0.33155888 24 37
5.0605664 -0.0010527009 -0.3316316 26 37
5.0604649 -0.032103732 -0.3316316 27 37
5.0541887 -0.063080251 -0.33119532 21 37
5.0557013 -0.094127662 -0.33134073 20 37
5.0669928 -0.12544054 -0.33221334 24 37
5.0601468 -0.15634523 -0.33177704 17 37
5.0620823 -0.18750083 -0.33199519 15 37
5.0638256 -0.21868606 -0.33221334 18 37
5.0763345 -0.25043783 -0.33323136 27 37
5.0727105 -0.28147087 -0.33308592 11 37
5.0748701 -0.31283566 -0.3333768 14 37
5.0798206 -0.3444393 -0.33388579 18 37
5.0835795 -0.3760421 -0.33432209 19 37
5.0861473 -0.40762451 -0.33468568 14 37
5.094481 -0.4397659 -0.33548555 18 37
5.1036043 -0.4721165 -0.33635816 22 37
5.1065664 -0.50400913 -0.33679444 18 37
5.1132975 -0.53637123 -0.33752161 23 37
5.1148663 -0.56828529 -0.33788517 24 37
5.1172266 -0.60035473 -0.33832148 17 37
5.1174059 -0.6322304 -0.33861235 10 37
5.1134305 -0.66361833 -0.33861235 23 37
5.1171684 -0.69605488 -0.33919406 17 37
5.1137886 -0.72758037 -0.33926678 17 37
5.1161342 -0.75996852 -0.3397758 16 37
5.1113744 -0.79134625 -0.3397758 17 37
5.1103616 -0.82332778 -0.34006667 17 37
5.1101317 -0.85549116 -0.34043023 15 37
5.1116652 -0.88802367 -0.34093925 21 37
5.1208444 -0.92201924 -0.34202999 12 37
5.1170516 -0.95378786 -0.34217542 22 37
5.1179585 -0.98648739 -0.34268445 21 37
5.125504 -1.0205958 -0.34370247 13 37
5.1289148 -1.0540315 -0.34442961 21 37
5.1311326 -1.0873411 -0.34508407 25 37
5.137032 -1.1215674 -0.34602937 20 37
5.1436772 -1.1561255 -0.34704739 23 37
5.1568937 -1.1923785 -0.34857443 9 37
5.1465693 -1.223307 -0.34835628 18 37
5.1476865 -1.2569901 -0.34901074 15 37
5.1485844 -1.2907329 -0.34966516 16 37
5.1434655 -1.3230444 -0.34988332 15 37
5.1420016 -1.3563584 -0.35039234 15 37
5.1403222 -1.3897042 -0.35090134 28 37
5.1413107 -1.4238783 -0.35162851 26 37
5.160305 -1.4632825 -0.35373726 38 37
5.1770921 -1.5024176 -0.35570061 59 37
5.1543899 -1.5301844 -0.35468256 184 37
5.157311 -1.5655458 -0.35562789 471 37
5.0552039 -1.5685124 -0.34857443 191 37
4.9751263 -1.5772133 -0.34319344 179 37
4.8846965 -1.5816143 -0.33701259 155 37
4.8180785 -1.5927866 -0.33264962 145 37
4.7647409 -1.6076624 -0.3293047 327 37
4.747242 -1.6342727 -0.32872295 354 37
4.7371249 -1.6633705 -0.32872295 300 37
4.7183781 -1.6893818 -0.32806852 255 37
4.7107344 -1.7193266 -0.32828668 240 37
4.7113142 -1.7523685 -0.32915926 266 37
4.7088675 -1.7844224 -0.32981372 223 37
4.7573838 -1.8362529 -0.33446753 320 37
4.7757335 -1.8770771 -0.33679444 485 37
4.7789426 -1.9122702 -0.33795789 414 37
4.7782044 -1.946069 -0.3388305 445 37
4.7717023 -1.9776409 -0.33926678 430 37
4.7613163 -2.0076568 -0.33941221 393 37
4.766325 -2.0442996 -0.34079382 72 37
4.7664914 -2.0790863 -0.34181184 59 37
4.7618508 -2.1119311 -0.34246629 34 37
4.7569861 -2.1447971 -0.34312072 33 37
4.7591515 -2.1810055 -0.34435689 38 37
4.7655721 -2.219425 -0.34595665 22 37
4.7698965 -2.2571523 -0.34741098 26 37
4.7703404 -2.293288 -0.34857443 32 37
4.7821722 -2.3352008 -0.35068321 23 37
4.7829447 -2.3720295 -0.35191938 22 37
4.7861176 -2.4103005 -0.35337368 17 37
4.7818956 -2.4450684 -0.35424629 17 37
4.7898207 -2.4863055 -0.35613689 15 37
4.780652 -2.5189013 -0.35664591 19 37
4.7888556 -2.5608811 -0.35860923 15 37
4.790586 -2.5997272 -0.36006355 29 37
4.7928929 -2.6391714 -0.36159059 18 37
4.7966375 -2.6797137 -0.36326307 24 37
4.7974606 -2.7189264 -0.36471739 21 37
4.8014417 -2.7602372 -0.36646256 18 37
4.7973404 -2.7971792 -0.36755329 27 37
4.8015518 -2.8392491 -0.36937121 18 37
4.8020048 -2.8794246 -0.37089825 27 37
4.7987356 -2.9176402 -0.37213442 33 37
4.7875361 -2.9512153 -0.37271616 42 37
4.7997894 -2.9995573 -0.37533391 39 37
4.8149996 -3.0502942 -0.37824255 31 37
4.8037467 -3.0846295 -0.37889701 33 37
4.8073015 -3.128731 -0.38086033 32 37
4.8146591 -3.1757367 -0.38318723 27 37
4.8100095 -3.2151926 -0.38449612 33 37
4.8232255 -3.2670121 -0.38740477 22 37
4.8261166 -3.3123434 -0.38944083 25 37
4.8286319 -3.3578327 -0.39147687 19 37
4.8283234 -3.4017539 -0.39329478 24 37
4.8268452 -3.4452181 -0.39503995 18 37
4.8250146 -3.4887917 -0.39678514 18 37
4.8188066 -3.5295262 -0.39816675 27 37
4.820291 -3.5762565 -0.4002755 21 37
4.8261671 -3.6267312 -0.40282056 23 37
4.8220787 -3.6701653 -0.40449303 17 37
4.824749 -3.7191639 -0.40681994 13 37
4.8269987 -3.7683327 -0.40914685 10 37
4.8256955 -3.8151948 -0.41118291 13 37
4.8278918 -3.865298 -0.41358253 13 37
4.8428259 -3.9262464 -0.41721833 14 37
4.8517962 -3.9830935 -0.42034513 17 37
4.8571811 -4.0376477 -0.42318106 21 37
4.8979464 -4.1225963 -0.42943463 12 37
4.8649664 -4.1461043 -0.42870745 29 37
4.8794613 -4.210403 -0.4325614 25 37
4.87532 -4.2592888 -0.43467018 20 37
4.8789806 -4.3155489 -0.4375788 14 37
4.8702431 -4.3613696 -0.43932399 22 37
4.876646 -4.4213099 -0.44259623 14 37
4.8780856 -4.4774466 -0.44543213 20 37
4.8775578 -4.5324087 -0.44812262 20 37
4.8794441 -4.5902648 -0.45110399 26 37
4.8836927 -4.6510649 -0.45437619 31 37
4.8830686 -4.7079358 -0.45721212 32 37
4.8862128 -4.7691522 -0.46048436 29 37
4.8824019 -4.824275 -0.46310213 36 37
4.8865609 -4.8879929 -0.46659249 23 37
4.8859153 -4.9476843 -0.46964657 29 37
4.8819332 -5.0046959 -0.47240978 14 37
4.8919702 -5.0769234 -0.47670001 26 37
4.8958006 -5.1436825 -0.48040852 17 37
4.8921623 -5.203413 -0.48338988 18 37
4.8872952 -5.2625608 -0.48629853 12 37
4.8994179 -5.34095 -0.49109778 18 37
4.8980346 -5.4056435 -0.49451545 18 37
4.9153333 -5.4920688 -0.50004184 12 37
4.9264679 -5.5729308 -0.50498652 15 37
4.9295769 -5.6458712 -0.50913137 22 37
4.9274149 -5.7137718 -0.51276714 22 37
4.9239569 -5.7810979 -0.51633024 24 37
4.923068 -5.8524108 -0.52025688 32 37
4.9233999 -5.92623 -0.52440172 25 37
4.9362979 -6.0164618 -0.53007358 43 37
4.9382238 -6.094676 -0.53458196 60 37
4.9524622 -6.1894898 -0.54061735 56 37
4.9527335 -6.2682743 -0.54512578 36 37
4.9473143 -6.3410029 -0.54905242 33 37
4.9460583 -6.4202194 -0.55356079 37 37
4.9216695 -6.4702902 -0.55537874 30 37
4.8986492 -6.5226946 -0.55741477 18 37
4.9856806 -6.7240577 -0.57297599 338 37
4.9655399 -6.7834916 -0.57559377 154 37
4.9507003 -6.8510137 -0.57893872 243 37
4.9450655 -6.9324098 -0.58351982 204 37
5.0316539 -7.1460881 -0.59988093 41 37
5.0138988 -7.2144976 -0.60322583 37 37
5.0321689 -7.336412 -0.61129731 25 37
5.025084 -7.4233079 -0.61624199 31 37
5.0365152 -7.5394149 -0.62373173 51 37
5.0258455 -7.6242981 -0.62845832 54 37
5.0268321 -7.72856 -0.6348573 65 37
5.0310369 -7.8398328 -0.64183801 52 37
5.0426011 -7.9649272 -0.64998221 37 37
5.0591583 -8.100605 -0.65899903 25 37
5.0768542 -8.2410278 -0.66837937 27 37
5.0774746 -8.3563995 -0.67557824 33 37
5.0681515 -8.4575434 -0.68154097 26 37
5.0704641 -8.5803499 -0.68932158 29 37
5.074472 -8.7086697 -0.6975385 28 37
5.0920019 -8.8632994 -0.70793688 54 37
5.0542364 -8.9238806 -0.71040922 84 37
5.0912919 -9.1193008 -0.72415257 44 37
5.1054564 -9.277935 -0.73476911 31 37
5.1054988 -9.4142885 -0.74349499 32 37
5.1125207 -9.5668192 -0.75352979 20 37
5.0774264 -9.643014 -0.75723833 18 37
5.1077337 -9.8466158 -0.77141792 35 37
5.1252904 -10.030521 -0.78392512 40 37
5.1246357 -10.182936 -0.79381448 66 37
0 -0 -0 283 37
5.1777792 -10.610742 -0.82348257 30 37
5.1566358 -10.734005 -0.8308996 16 37
5.1303353 -10.849291 -0.83766222 18 37
5.1916232 -11.155438 -0.85976785 41 37
5.203239 -11.362087 -0.87380207 77 37
5.1539135 -11.439263 -0.87743789 64 37
5.2093291 -11.754236 -0.90005255 130 37
5.2228045 -11.982541 -0.91568649 115 37
5.2643223 -12.282947 -0.93699229 47 37
5.208611 -12.361889 -0.94070077 96 37
5.2036562 -12.565001 -0.95422596 54 37
5.2971783 -13.016076 -0.987239 16 37
5.2727666 -13.18724 -0.99814641 14 37
5.3230314 -13.553531 -1.0243242 46 37
5.2806897 -13.692016 -1.0326138 34 37
5.3071442 -14.016095 -1.0553739 19 37
5.3645673 -14.434488 -1.0854056 6 37
5.3486958 -14.666706 -1.1008941 37 37
5.3170691 -14.862643 -1.1135467 27 37
0 -0 -0 5 37
5.3961282 -15.687852 -1.1722285 31 37
5.3609538 -15.90212 -1.18619 30 37
5.4494381 -16.498184 -1.2294559 20 37
5.4279389 -16.778027 -1.2483622 243 37
5.3269973 -16.817673 -1.2488712 483 37
0 -0 -0 6 37
5.0840254 -16.762476 -1.2397816 7 37
5.5316911 -18.649261 -1.3809234 38 37
5.4010448 -18.627295 -1.3767059 138 37
5.3160157 -18.763718 -1.3845592 33 37
5.5192184 -19.946562 -1.4716003 60 37
5.8555851 -21.67849 -1.5998713 10 37
4.4379249 -16.840841 -1.2324374 18 37
4.3330183 -16.861959 -1.2320011 14 37
4.2185674 -16.844692 -1.2287288 343 37
4.1118212 -16.856695 -1.2277108 469 37
4.0034733 -16.861231 -1.2261838 473 37
3.8952246 -16.86507 -1.2246567 446 37
3.7890465 -16.876976 -1.2237841 404 37
3.6828692 -16.888214 -1.2229116 326 37
3.5719452 -16.876345 -1.2203665 411 37
3.4723387 -16.917482 -1.2218208 316 37
1.6675129 -8.3881588 -0.58621031 54 37
1.6101664 -8.3678722 -0.58395612 389 37
1.5566009 -8.3658285 -0.58308351 550 37
1.5064757 -8.3820934 -0.58359253 50 37
1.456039 -8.3970757 -0.58402884 22 37
1.4020207 -8.3910961 -0.58293808 31 37
0 -0 -0 6 37
1.485346 -9.6131039 -0.67186975 22 37
0 -0 -0 4 37
0 -0 -0 5 37
2.4603817 -18.121193 -1.2959912 9 37
2.344147 -18.097374 -1.2931552 34 37
2.2317162 -18.100529 -1.2923553 47 37
0.97316796 -8.3180351 -0.57326686 8 37
0.92409033 -8.3416929 -0.57457572 10 37
0 -0 -0 5 37
0.82419759 -8.378211 -0.57646638 9 37
0.86226112 -9.3524046 -0.64743716 10 37
0 -0 -0 6 37
0.74154532 -9.2887125 -0.64205617 9 37
1.3157773 -17.848061 -1.2674865 9 37
1.2053642 -17.842863 -1.2665411 12 37
1.095615 -17.845942 -1.2662503 10 37
0 -0 -0 5 37
0.87536037 -17.834135 -1.2645051 12 37
0.76510161 -17.820238 -1.2631235 12 37
0 -0 -0 4 37
0.25622064 -8.380827 -0.57399404 6 37
0.20481651 -8.3832388 -0.57406676 5 37
0.15331893 -8.3813457 -0.57384861 7 37
0.10177872 -8.3731537 -0.57319415 13 37
0 -0 -0 5 37
0 -0 -0 6 37
-0 -0 -0 4 37
-0.10331181 -8.3382254 -0.57064909 310 37
-0.15425222 -8.3254681 -0.56977648 319 37
-0.2055535 -8.3333378 -0.57043093 247 37
-0.2570489 -8.3438826 -0.57130355 113 37
-0.30974537 -8.3830118 -0.57428485 71 37
-0.36143357 -8.3869324 -0.57472116 37 37
-0.41323042 -8.39153 -0.57523018 60 37
-0.4637216 -8.3709116 -0.57392132 12 37
-0.51403648 -8.3509855 -0.57268512 5 37
-0.56661236 -8.3675756 -0.57413948 8 37
-0.61603713 -8.3380804 -0.57224882 5 37
-1.34545 -16.821486 -1.1930252 53 37
-1.4488105 -16.814899 -1.1931707 390 37
-1.5523241 -16.809666 -1.1934615 592 37
-1.6546551 -16.791885 -1.1928798 663 37
-1.756515 -16.770504 -1.19208 600 37
-1.8819151 -16.962624 -1.2069868 283 37
-1.9752893 -16.859623 -1.2002969 157 37
-2.0767479 -16.831348 -1.1991334 666 37
-2.1822903 -16.836092 -1.2004423 644 37
-2.287164 -16.834244 -1.2013149 663 37
-2.3946218 -16.849516 -1.2034963 546 37
-2.499573 -16.845358 -1.2042962 586 37
-2.6057823 -16.848431 -1.2056779 552 37
-2.7105389 -16.840988 -1.2063323 558 37
-2.8172758 -16.844696 -1.2078594 571 37
-2.9231372 -16.841833 -1.20895 524 37
-3.0280104 -16.832415 -1.2096045 137 37
-2.2401044 -12.026684 -0.85460502 511 37
-0 -0 -0 1156 37
-2.3663156 -11.891665 -0.84667897 448 37
-2.4516711 -11.937495 -0.85118741 665 37
-2.5335467 -11.963208 -0.85424143 827 37
-2.611367 -11.9679 -0.8557685 838 37
-2.6889029 -11.970141 -0.85715008 825 37
-2.7665646 -11.971881 -0.85853171 864 37
-5.9244432 -24.944044 -1.831908 95 37
-6.1024408 -25.00993 -1.8396159 116 37
-6.2608728 -24.992332 -1.8411429 182 37
-6.4245315 -24.994017 -1.844197 149 37
-6.7142601 -25.472019 -1.8832455 49 37
-5.989007 -22.167263 -1.636811 210 37
-6.1342192 -22.16374 -1.639356 160 37
-6.3040829 -22.245632 -1.6484456 57 37
-6.4446273 -22.220901 -1.6495363 59 37
-6.5785818 -22.17329 -1.6489545 243 37
-6.7162476 -22.138233 -1.6493908 255 37
-6.8445749 -22.07279 -1.647573 30 37
-7.4223242 -23.427086 -1.7543927 22 37
-2.3175266 -7.159265 -0.51131284 726 37
-2.3557806 -7.1278634 -0.51000392 1337 37
-2.399472 -7.1132746 -0.51000392 1339 37
-2.4554012 -7.1342559 -0.51276714 955 37
-2.497479 -7.1143503 -0.51240355 810 37
-2.5118546 -7.0171938 -0.50607729 770 37
-2.5388026 -6.9576111 -0.50265962 1592 37
-2.5810986 -6.9409676 -0.5025869 1513 37
-2.6282306 -6.9371252 -0.50353223 1396 37
-2.6779249 -6.9394784 -0.50498652 1413 37
-2.7241006 -6.9321995 -0.5057137 1376 37
-2.7384408 -6.844974 -0.50018728 1425 37
-2.7747493 -6.8141861 -0.49909654 1424 37
-2.8749006 -6.9380126 -0.51022208 1200 37
-2.9305854 -6.9514909 -0.51269442 1458 37
-2.9763272 -6.940712 -0.51327616 1395 37
-3.0563219 -7.0082593 -0.52011144 309 37
-5.3867474 -12.150153 -0.93168402 23 37
-5.4185853 -12.022305 -0.92412156 28 37
-5.4810376 -11.964348 -0.92215818 39 37
-5.4891124 -11.790339 -0.91088724 35 37
-5.4995246 -11.625704 -0.90034342 25 37
-5.4994874 -11.443411 -0.88834524 44 37
-5.5311046 -11.330576 -0.88194627 7 37
-5.6005239 -11.296425 -0.88194627 48 37
-5.66749 -11.257393 -0.88158268 49 37
-5.7101336 -11.170897 -0.87736517 122 37
-5.7771912 -11.132994 -0.87714702 94 37
-5.7668552 -10.948199 -0.86485797 27 37
-5.7648144 -10.783308 -0.85416877 12 37
-5.8104239 -10.710034 -0.85104197 203 37
-5.8106289 -10.555349 -0.84115261 26 37
-5.8242307 -10.428063 -0.83351737 26 37
-5.8364911 -10.301012 -0.8258822 28 37
-5.8608298 -10.197555 -0.8202104 27 37
-5.8670454 -10.064892 -0.8120662 23 37
-5.892662 -9.967742 -0.80690336 19 37
-5.9060287 -9.8518391 -0.80014074 11 37
-5.5561414 -9.1403875 -0.74254972 46 37
-5.58073 -9.0551767 -0.73818672 77 37
-5.5875754 -8.9429426 -0.73149687 61 37
-5.5964565 -8.8360233 -0.72524327 66 37
-5.5950794 -8.715066 -0.71775353 56 37
-5.6038523 -8.6120176 -0.7117908 66 37
-5.6274929 -8.5333395 -0.70793688 75 37
-5.649826 -8.4538679 -0.70401019 85 37
-5.6825805 -8.3909626 -0.70153785 332 37
-5.7424226 -8.3682737 -0.70262861 708 37
-5.7851224 -8.3205967 -0.70153785 36 37
-5.8228598 -8.2661886 -0.6998654 44 37
-5.9939561 -8.3991785 -0.71499032 739 37
-6.0652437 -8.3897257 -0.71746266 609 37
-6.1325154 -8.3740797 -0.71942598 698 37
-6.2033882 -8.3627291 -0.72182566 113 37
-5.8226986 -7.7495589 -0.66939741 18 37
-6.4003553 -8.4105921 -0.73324203 636 37
-0 -0 -0 603 37
-0 -0 -0 627 37
-0 -0 -0 591 37
-0 -0 -0 552 37
-0 -0 -0 576 37
-0 -0 -0 129 37
-0 -0 -0 85 37
-7.1495051 -8.4954624 -0.77221781 90 37
-7.2461257 -8.5038185 -0.77723521 68 37
-7.3287849 -8.4946928 -0.78065288 90 37
-7.4312849 -8.5074072 -0.78625202 90 37
-7.5243058 -8.5079737 -0.7907604 115 37
-7.6289201 -8.5203505 -0.79650497 95 37
-7.7011495 -8.4955492 -0.79868644 82 37
-7.8252807 -8.5267687 -0.80646706 374 37
-7.8747377 -8.4756699 -0.80617619 570 37
-7.9867215 -8.4911289 -0.81257522 331 37
-8.0792456 -8.484581 -0.81686544 395 37
-8.0301046 -8.3300037 -0.8062489 35 37
-8.0727081 -8.2720089 -0.80537629 540 37
-8.0980806 -8.1967764 -0.80275851 504 37
-8.1087303 -8.107439 -0.79868644 582 37
-8.1412945 -8.0407104 -0.79694128 563 37
-8.2111788 -8.0108042 -0.79905003 163 37
-8.3197784 -8.0177193 -0.80508542 93 37
-8.4735537 -8.0662403 -0.81562924 546 37
-8.5788298 -8.0667086 -0.82122838 514 37
-8.6836977 -8.0655079 -0.82675481 575 37
-8.7969551 -8.0707397 -0.83308113 571 37
-8.9024734 -8.0675154 -0.83860755 487 37
-9.006794 -8.0619669 -0.84398848 231 37
-9.0919542 -8.0382633 -0.84747887 122 37
-2.7050071 -2.3610172 -0.22444823 59 37
-2.6892357 -2.3183169 -0.22153959 111 37
-2.7072058 -2.3050065 -0.22190318 378 37
-2.685431 -2.2581711 -0.21848552 120 37
-2.7138104 -2.2537627 -0.21986713 346 37
-2.7067726 -2.219985 -0.21790379 144 37
-2.7110453 -2.1957989 -0.2170312 116 37
-2.7112303 -2.1685281 -0.21579503 127 37
-2.7049234 -2.1363907 -0.21397713 101 37
-2.7014699 -2.1068673 -0.21245009 121 37
-2.7096066 -2.0865991 -0.2120138 295 37
-2.7064843 -2.0578554 -0.21055947 117 37
-2.7118835 -2.0358186 -0.20990503 124 37
-2.7211199 -2.0167639 -0.20961417 82 37
-2.7229822 -1.9923697 -0.20866886 104 37
-2.7270727 -1.9697816 -0.2079417 108 37
-2.7366722 -1.9512737 -0.20772356 126 37
-2.7526705 -1.9373165 -0.20808713 113 37
-2.7841599 -1.9340529 -0.20983231 74 37
-2.8099554 -1.9265255 -0.21106848 69 37
-2.8423693 -1.9232275 -0.21288639 82 37
-2.9088473 -1.9423226 -0.21768564 130 37
-2.9107189 -1.9178495 -0.21681306 318 37
-2.9842954 -1.9402021 -0.22219403 132 37
-2.9827149 -1.9132341 -0.22103058 210 37
-3.0668623 -1.9407861 -0.22728415 60 37
-3.090555 -1.9293295 -0.22830218 59 37
-3.1167696 -1.9192246 -0.22953835 71 37
-3.1361575 -1.9047264 -0.2301928 43 37
-10.481531 -6.2813425 -0.85358703 238 37
-10.478663 -6.1925507 -0.85009664 474 37
-10.451838 -6.0904713 -0.84464294 174 37
-10.449233 -6.0033669 -0.84129798 5 37
-10.425996 -5.9052172 -0.83628058 408 37
-10.414141 -5.8143883 -0.83228123 558 37
-10.428651 -5.7388363 -0.83053607 517 37
-10.162969 -5.5116239 -0.80559444 43 37
-10.355799 -5.5342617 -0.81875604 149 37
-10.364853 -5.457602 -0.81672001 577 37
-10.355652 -5.3718534 -0.81322962 606 37
-10.343126 -5.2850623 -0.80952114 631 37
-10.33438 -5.2008705 -0.80617619 600 37
-10.32678 -5.1178713 -0.80297667 594 37
-10.314967 -5.0334125 -0.79948634 614 37
-10.297113 -4.9467001 -0.79555964 687 37
-10.298421 -4.8697786 -0.79323274 661 37
-10.285611 -4.786715 -0.78981507 655 37
-10.272171 -4.7039919 -0.78639746 593 37
-10.25083 -4.6183372 -0.78239805 633 37
-10.236121 -4.5363555 -0.77898043 678 37
-10.237249 -4.4619031 -0.77687162 724 37
-10.236935 -4.3872156 -0.77469015 750 37
-10.22506 -4.3080521 -0.77163607 709 37
-10.212602 -4.2292004 -0.76858205 721 37
-10.201409 -4.1514163 -0.7656734 762 37
-10.187797 -4.0731883 -0.76261932 817 37
-10.168967 -3.9934614 -0.75920165 820 37
-10.156989 -3.916991 -0.75636572 807 37
-10.078236 -3.8157382 -0.74836695 789 37
-10.038824 -3.7305439 -0.74349499 810 37
-9.950963 -3.6285472 -0.73491454 58 37
-1.6390229 -0.58525681 -0.089560062 11 37
-1.6472887 -0.57684022 -0.089923643 18 37
-1.6517402 -0.56704623 -0.08999636 12 37
-1.6429025 -0.55275786 -0.089051053 13 37
-1.6481572 -0.54329252 -0.089196481 12 37
-1.6581022 -0.53531879 -0.089705497 9 37
-1.6432909 -0.5194115 -0.088323891 14 37
-1.6359683 -0.50606942 -0.087524012 13 37
-1.5321498 -0.46359363 -0.079379819 80 37
-1.5139301 -0.44794294 -0.077780068 141 37
-1.5137764 -0.43781179 -0.077561922 179 37
-1.5116364 -0.42715558 -0.077198341 154 37
-1.5123066 -0.41734028 -0.077052914 186 37
-1.5109875 -0.40701258 -0.076762043 169 37
-1.5095987 -0.39671683 -0.07647118 174 37
-1.5071747 -0.38620517 -0.076107599 157 37
-1.5066137 -0.376223 -0.075889453 160 37
-1.5040492 -0.36578941 -0.075525872 160 37
-1.5023839 -0.35563198 -0.075235009 198 37
-1.5016224 -0.34573331 -0.075016864 164 37
-1.5017693 -0.33607593 -0.074871428 170 37
-1.5008799 -0.3262172 -0.074653283 159 37
-1.5009018 -0.31658867 -0.074507847 163 37
-1.4979312 -0.30637038 -0.074144274 155 37
-1.4978266 -0.29678431 -0.073998839 176 37
-1.4947226 -0.28664526 -0.073635258 164 37
-1.4925313 -0.27673814 -0.073344395 174 37
-1.4902748 -0.26686868 -0.073053531 182 37
-1.4889362 -0.25720793 -0.072835386 177 37
-1.4885191 -0.24773814 -0.07268995 183 37
-1.4890264 -0.23844163 -0.072617233 205 37
-1.4904615 -0.22930065 -0.072617233 170 37
-1.4908538 -0.22000468 -0.072544515 170 37
-1.4902008 -0.21057221 -0.072399087 200 37
-1.4914647 -0.20142454 -0.072399087 208 37
-1.4906944 -0.19201294 -0.072253652 174 37
-1.4898648 -0.18261838 -0.072108224 151 37
-1.4889761 -0.17324124 -0.071962789 166 37
-1.4900111 -0.16410179 -0.071962789 180 37
-1.4880142 -0.15464456 -0.071744643 174 37
-1.4859574 -0.14521803 -0.071526498 171 37
-1.4858273 -0.13600594 -0.07145378 160 37
-1.4846466 -0.12671533 -0.071308345 170 37
-1.4824135 -0.11736485 -0.071090199 178 37
-1.4712344 0.036078252 -0.088376597 81 38
-1.473973 0.045197304 -0.08863233 87 38
-1.4686896 0.054056022 -0.088206112 73 38
-1.472312 0.0632388 -0.088547088 79 38
-1.4738865 0.072369799 -0.088717572 93 38
-1.4734147 0.081412032 -0.088717572 88 38
-1.471893 0.09038987 -0.08863233 105 38
-1.4723047 0.099486969 -0.088717572 104 38
-1.470673 0.10844545 -0.08863233 109 38
-1.4838842 0.11858212 -0.089825727 153 38
-1.4831287 0.12768483 -0.089825727 142 38
-1.4852937 0.13705817 -0.090081461 150 38
-1.4814501 0.14587548 -0.089825727 184 38
-1.4795363 0.15485877 -0.089740485 186 38
-1.4785582 0.16393411 -0.089740485 212 38
-1.4745557 0.1726549 -0.089484759 230 38
-1.4724798 0.18157715 -0.089399517 232 38
-1.472326 0.19073696 -0.089484759 245 38
-1.4731025 0.20003605 -0.089655243 239 38
-1.4748067 0.20949222 -0.089910977 246 38
-1.4754645 0.21883039 -0.090081461 250 38
-1.4800018 0.22879441 -0.090592921 248 38
-1.481521 0.23834677 -0.090848647 235 38
-1.4800307 0.24743272 -0.090848647 250 38
-1.4833928 0.25736225 -0.091274865 247 38
-1.4827664 0.26663592 -0.091360107 244 38
-1.4840409 0.2762768 -0.091615833 231 38
-1.4823177 0.2853775 -0.091615833 219 38
-1.481516 0.29466209 -0.091701075 217 38
-1.481632 0.30414817 -0.091871567 214 38
-1.4816873 0.31364673 -0.092042051 213 38
-1.4836286 0.32358259 -0.09238302 203 38
-1.4845315 0.33333546 -0.092638753 219 38
-1.4853704 0.3431116 -0.09289448 214 38
-1.4871145 0.35314101 -0.093235455 173 38
-1.4907272 0.36367747 -0.093746908 219 38
-1.491367 0.37354454 -0.094002642 191 38
-1.4929066 0.38368139 -0.09434361 201 38
-1.4943779 0.39385113 -0.094684586 195 38
-1.497704 0.4045735 -0.095196038 195 38
-1.4990343 0.41481951 -0.095537014 183 38
-1.5012535 0.42536891 -0.095963232 187 38
-1.5043564 0.43623883 -0.096474685 193 38
-1.512158 0.4485808 -0.097412363 150 38
-1.5131906 0.4590086 -0.097753331 162 38
-1.5151037 0.46976122 -0.098179549 169 38
-1.5188411 0.48115683 -0.098776251 162 38
-1.5234435 0.49292287 -0.099458195 150 38
-1.5260662 0.50413787 -0.099969648 139 38
-1.5248322 0.51412928 -0.10014014 152 38
-1.5367223 0.52866542 -0.10150403 104 38
-1.5992552 0.56119353 -0.10747103 39 38
-1.5901535 0.56898046 -0.10695958 11 38
-1.5941199 0.58145982 -0.10764153 11 38
-1.5951914 0.59296709 -0.10806774 5 38
-1.5896596 0.60203767 -0.10789725 7 38
-0 0 -0 5 38
-4.7182527 1.8542551 -0.39618918 383 38
-4.725287 1.8905746 -0.39789402 555 38
-4.7172885 1.9210362 -0.39823499 525 38
-4.709094 1.9514709 -0.39857596 560 38
-4.7080483 1.9849744 -0.3995989 521 38
-4.707684 2.0189312 -0.40070704 522 38
-4.7052531 2.0521612 -0.40164474 537 38
-4.6971269 2.0830135 -0.40207094 511 38
-4.6878901 2.1134336 -0.40241191 544 38
-4.6811748 2.1450639 -0.40300861 444 38
-4.6769567 2.1779535 -0.40386105 458 38
-4.6698089 2.2095933 -0.40445775 415 38
-8.8146372 4.2375603 -0.79921818 818 38
-8.8010044 4.2976875 -0.80041158 777 38
-8.7941055 4.3613486 -0.80228692 823 38
-8.7858667 4.4246378 -0.80407703 920 38
-8.7762938 4.4875364 -0.8057819 954 38
-8.7653952 4.5500245 -0.80740154 923 38
-8.745245 4.607903 -0.80816871 931 38
-8.7352571 4.6713438 -0.80995882 942 38
-8.7309494 4.738162 -0.81234562 958 38
-8.7156773 4.799335 -0.8137095 668 38
-8.4964485 4.7467785 -0.79512656 68 38
-8.7063999 4.9344244 -0.81865358 675 38
-8.6811419 4.9907331 -0.81916505 729 38
-8.6589622 5.0489244 -0.82001752 163 38
-7.8431053 4.6378865 -0.74202013 221 38
-8.5715723 5.1399426 -0.81754547 434 38
-8.6045732 5.2317829 -0.8240239 472 38
-8.6528826 5.3341551 -0.83212203 231 38
-8.6385775 5.3987656 -0.83399737 131 38
-0 0 -0 3 38
-2.7165511 1.7441361 -0.23866005 9 38
-2.720829 1.7705555 -0.24019442 37 38
-2.7132406 1.7894114 -0.24053541 39 38
-2.7113214 1.8121171 -0.24147308 55 38
-2.710875 1.835984 -0.24258123 40 38
-2.7151661 1.8632966 -0.24420086 46 38
-2.7159517 1.8884549 -0.24547949 32 38
-2.7214172 1.9171362 -0.2472696 35 38
-2.7209556 1.941903 -0.248463 39 38
-2.7186775 1.9655682 -0.24948592 33 38
-2.7113886 1.9857455 -0.24999738 24 38
-2.7031538 2.0053134 -0.25042358 35 38
-2.6844268 2.0170729 -0.24974164 28 38
-2.6624861 2.0262644 -0.24871874 25 38
-2.6381669 2.0334377 -0.24744008 35 38
-2.613075 2.0397761 -0.2460762 34 38
-2.5786266 2.0384674 -0.24368939 40 38
-2.5489597 2.0405502 -0.24181405 35 38
-2.5154955 2.0392087 -0.23951249 45 38
-2.4898453 2.0438564 -0.23806335 32 38
-2.455039 2.0406229 -0.23559131 36 38
-2.4272273 2.042815 -0.23388645 32 38
-2.3934155 2.0395722 -0.23149964 36 38
-2.3642612 2.0398982 -0.2296243 20 38
-2.3344436 2.0392878 -0.22766371 30 38
-2.3069618 2.0403697 -0.22595884 22 38
-2.2736175 2.0358737 -0.22357205 29 38
-2.2544401 2.0437622 -0.22280486 36 38
-2.2301137 2.0467758 -0.22144097 30 38
-2.2065656 2.0502465 -0.22016232 30 38
-2.177254 2.0480435 -0.21820173 35 38
-2.1552677 2.0524309 -0.21709357 30 38
-2.1268549 2.050401 -0.21521822 25 38
-2.1006875 2.0501885 -0.21359861 38 38
-2.0753121 2.0504329 -0.21206424 49 38
-2.0570569 2.0574906 -0.21138228 39 38
-2.0282931 2.0537665 -0.20942169 32 38
-1.9954791 2.0454876 -0.20694965 31 38
-1.9725215 2.0469298 -0.205671 13 38
-0 0 -0 4 38
-1.9001673 2.0208893 -0.19978924 37 38
-1.8775624 2.0215583 -0.19851059 36 38
-1.8637761 2.0315721 -0.1983401 33 38
-1.8552891 2.0474002 -0.19885156 35 38
-1.8493356 2.0661705 -0.19970399 30 38
-1.84784 2.0901706 -0.20115313 44 38
-1.8467743 2.1149802 -0.2026875 37 38
-1.8448228 2.1391003 -0.20413662 36 38
-1.8426442 2.1632757 -0.20558576 27 38
-1.8408794 2.188267 -0.20712014 42 38
-1.8395135 2.2140839 -0.20873976 38 38
-1.8372676 2.2391953 -0.21027413 45 38
-1.8366641 2.266685 -0.21206424 43 38
-1.8301901 2.2872484 -0.21308714 43 38
-1.8309441 2.3171995 -0.21513298 33 38
-1.8264964 2.3409605 -0.21649687 39 38
-1.8279054 2.372647 -0.21871319 42 38
-1.8265812 2.4012661 -0.22058854 32 38
-1.826769 2.4323478 -0.22271961 28 38
-1.8266435 2.4635215 -0.22485068 24 38
-1.8144352 2.4787035 -0.2252769 30 38
-1.8050268 2.4978666 -0.22612932 32 38
-1.8075999 2.5340426 -0.22877187 25 38
-1.8723096 2.6591506 -0.24070589 5 38
-2.4250336 3.4896574 -0.32603416 29 38
-2.4080834 3.5110452 -0.3267161 41 38
-2.3943126 3.537307 -0.3279095 28 38
-2.3808634 3.5643604 -0.32918814 51 38
-2.3688166 3.5938773 -0.33072251 33 38
-2.356497 3.6233797 -0.33225691 40 38
-2.3514361 3.6646066 -0.33498469 49 38
-2.3917823 3.7783108 -0.34504336 196 38
-2.3601112 3.7793927 -0.34367946 115 38
-2.3306072 3.7836225 -0.34265655 124 38
-2.0326817 3.3456669 -0.29739249 104 38
-2.0136509 3.3606405 -0.29764822 130 38
-1.9894451 3.3669276 -0.29705152 18 38
-0 0 -0 10 38
-1.5271945 2.6584077 -0.22476543 5 38
-1.8500632 3.2668517 -0.28366837 84 38
-1.8265845 3.2720516 -0.28307167 112 38
-1.804072 3.2788327 -0.28264546 105 38
-0 0 -0 63 38
-0 0 -0 84 38
-0 0 -0 88 38
-0 0 -0 89 38
-0 0 -0 88 38
-0 0 -0 111 38
-0 0 -0 122 38
-0 0 -0 101 38
-0 0 -0 111 38
-0 0 -0 104 38
-0 0 -0 91 38
-0 0 -0 81 38
-0 0 -0 76 38
-0 0 -0 100 38
-0 0 -0 93 38
-1.207213 2.8170877 -0.2246802 50 38
-1.1922253 2.8299515 -0.22519165 53 38
-0 0 -0 41 38
-0 0 -0 59 38
-0 0 -0 56 38
-0 0 -0 18 38
-0 0 -0 17 38
-0 0 -0 8 38
-0 0 -0 4 38
-0 0 -0 6 38
-0 0 -0 12 38
-0 0 -0 45 38
-0 0 -0 33 38
-0 0 -0 34 38
-0 0 -0 30 38
-0 0 -0 51 38
-0 0 -0 95 38
-0 0 -0 49 38
-0 0 -0 25 38
-0 0 -0 11 38
-0 0 -0 18 38
-0.77550679 2.7379472 -0.20592673 8 38
-0.75869244 2.7426541 -0.20592673 17 38
-0.74081111 2.7434101 -0.20558576 21 38
-0.72599357 2.7556121 -0.2062677 29 38
-0 0 -0 4 38
-0 0 -0 5 38
-0 0 -0 4 38
-0 0 -0 8 38
-0 0 -0 5 38
-0.60662955 2.7026904 -0.19944826 6 38
-0 0 -0 6 38
-0 0 -0 4 38
-0.55137539 2.6870451 -0.1971467 12 38
-0.53390688 2.6854913 -0.19672048 7 38
-0.51911223 2.6975226 -0.19748767 5 38
-0.50309724 2.7035959 -0.1977434 5 38
-0.48632267 2.7056513 -0.19765817 6 38
-0.46869132 2.7026939 -0.1971467 12 38
-0.45127869 2.7006052 -0.19672048 7 38
-0 0 -0 5 38
-0.41658407 2.6960926 -0.19586806 6 38
-0.4016389 2.7094398 -0.19680573 5 38
-0.3848666 2.7108667 -0.19672048 12 38
-0.36715496 2.7052786 -0.19603854 6 38
-0.35144332 2.7143974 -0.19663525 9 38
-0.33368593 2.7076025 -0.19586806 19 38
-0.31267112 2.6719933 -0.19262882 37 38
-0.2916677 2.6322684 -0.18904862 47 38
-0.26826558 2.5646405 -0.1830816 70 38
-0.25154996 2.5563223 -0.18222918 69 38
-0.23467255 2.5449197 -0.18112101 93 38
-0.21879706 2.5433335 -0.18086529 96 38
-0.20279156 2.5396621 -0.18043907 100 38
-0.18727773 2.5418522 -0.1805243 96 38
-0.17207944 2.5489182 -0.18103577 74 38
-0.15686235 2.5568876 -0.18163247 78 38
-0.14171819 2.5677505 -0.18248489 103 38
-0.12649526 2.5795186 -0.18342258 114 38
-0.11126085 2.5941825 -0.18461597 91 38
-0.095669061 2.6037776 -0.18538317 107 38
-0.080145642 2.6192541 -0.18666181 63 38
-0.061554551 2.5161057 -0.17779653 20 38
-0.045318428 2.4726033 -0.17404585 4 38
-0.030337771 2.4887755 -0.17540973 15 38
-0.015054612 2.4869223 -0.17523925 23 38
0.00020442141 2.4839787 -0.17498352 13 38
0.015401355 2.4769564 -0.17438681 17 38
0.030636782 2.479804 -0.17464255 14 38
0.045814838 2.477577 -0.17447205 19 38
0.061114866 2.4812334 -0.17481303 25 38
0.076399885 2.4828033 -0.17498352 11 38
0.091632642 2.4822879 -0.17498352 13 38
0.10673288 2.4786928 -0.17472778 9 38
0 0 -0 25 38
0 0 -0 16 38
0 0 -0 13 38
0 0 -0 12 38
0 0 -0 12 38
0.19757584 2.4691119 -0.17438681 13 38
0.21280801 2.4688458 -0.17447205 16 38
0.22841163 2.4724541 -0.17489827 29 38
0.24318643 2.4670398 -0.1745573 24 38
0.25821534 2.4645104 -0.17447205 29 38
0.27300227 2.4599087 -0.17421633 31 38
0.28867149 2.4631352 -0.17464255 25 38
0.30231315 2.4494514 -0.17361963 41 38
0.31785008 2.4515028 -0.1739606 38 38
0.33449817 2.4613535 -0.17498352 20 38
0.35057715 2.4661596 -0.17558022 31 38
0.36965629 2.4905717 -0.17788178 13 38
0.38569358 2.4931798 -0.178308 14 38
0.39955753 2.4819133 -0.17754081 7 38
0.4146142 2.4784322 -0.17745556 7 38
0.44226578 2.547502 -0.1836783 23 38
0.46053755 2.5594492 -0.18495695 29 38
0.46582466 2.5007446 -0.1800981 58 38
0.4753131 2.4675107 -0.17745556 90 38
0 0 -0 113 38
0 0 -0 78 38
0 0 -0 64 38
0 0 -0 202 38
0.55624324 2.4760718 -0.17958663 103 38
0.57299715 2.4794073 -0.18018334 104 38
0.59096515 2.4874768 -0.18120626 87 38
0.60716248 2.4876757 -0.18154722 99 38
0.62265742 2.4848697 -0.18163247 102 38
0.63863736 2.4838972 -0.18188819 101 38
0.65107036 2.4693346 -0.18095052 85 38
0.66386896 2.4566367 -0.18018334 79 38
0.67573845 2.4409947 -0.17916042 76 38
0.68635368 2.4214656 -0.17779653 77 38
0.70036536 2.4143381 -0.17754081 74 38
0.72424155 2.4405599 -0.18026859 147 38
0.73862398 2.4341633 -0.1800981 104 38
0.75265992 2.4267306 -0.17984237 96 38
0.76874042 2.4258657 -0.18018334 109 38
0.78391773 2.422051 -0.18026859 93 38
0.79876441 2.4171953 -0.18026859 105 38
0.8142181 2.4141369 -0.18043907 97 38
0.83063745 2.413806 -0.18086529 67 38
0.86193895 2.4556677 -0.18512744 10 38
0.89311308 2.4953585 -0.1892191 6 38
0 0 -0 3 38
1.172388 3.152843 -0.25025311 84 38
1.1994796 3.1660874 -0.25212845 170 38
1.2174485 3.1549499 -0.25178748 192 38
1.238242 3.1511295 -0.25212845 184 38
0 0 -0 207 38
1.2783214 3.1393881 -0.25246942 172 38
1.3013754 3.1406896 -0.25332186 181 38
1.3244933 3.1418262 -0.25417429 193 38
1.3461028 3.1391339 -0.25468573 224 38
1.3669325 3.1344683 -0.25502673 181 38
0 0 -0 193 38
0 0 -0 188 38
0 0 -0 178 38
0 0 -0 187 38
1.4828967 3.1342916 -0.25911838 229 38
1.5025322 3.1260316 -0.25920361 228 38
1.5251827 3.1239159 -0.25988558 194 38
0 0 -0 190 38
0 0 -0 218 38
0 0 -0 629 38
0 0 -0 133 38
0 0 -0 98 38
1.6038901 2.9997663 -0.25349236 116 38
1.6032552 2.9548407 -0.25008261 87 38
0 0 -0 74 38
0 0 -0 73 38
0 0 -0 70 38
0 0 -0 64 38
0 0 -0 78 38
0 0 -0 139 38
0 0 -0 133 38
0 0 -0 168 38
0 0 -0 146 38
0 0 -0 146 38
0 0 -0 150 38
0 0 -0 158 38
0 0 -0 152 38
0 0 -0 161 38
0 0 -0 128 38
0 0 -0 158 38
0 0 -0 126 38
0 0 -0 136 38
0 0 -0 135 38
0 0 -0 126 38
0 0 -0 168 38
0 0 -0 139 38
0 0 -0 123 38
1.9302729 2.5689366 -0.23738141 149 38
0 0 -0 137 38
0 0 -0 178 38
0 0 -0 182 38
0 0 -0 157 38
0 0 -0 153 38
0 0 -0 130 38
0 0 -0 125 38
2.1215196 2.5523403 -0.24641716 135 38
2.1461239 2.5499461 -0.24761057 138 38
2.1733637 2.5503786 -0.24914494 119 38
2.1987364 2.5483096 -0.25042358 145 38
2.2202315 2.541523 -0.25119078 143 38
2.243046 2.5360608 -0.25212845 145 38
2.2678714 2.5326407 -0.25332186 153 38
2.2947466 2.5312252 -0.25477099 127 38
2.3237109 2.5317767 -0.25647584 130 38
2.3534462 2.5327973 -0.25826594 128 38
2.3716738 2.5212116 -0.25860691 103 38
2.3877864 2.5073333 -0.25869218 125 38
2.4923446 2.5851557 -0.26968852 66 38
2.9020991 2.9733491 -0.31793606 157 38
2.9279926 2.9632816 -0.31887373 160 38
2.9524622 2.9515991 -0.31964093 142 38
3.211581 3.1714368 -0.34862357 23 38
3.2316933 3.1523669 -0.34870881 87 38
3.2646084 3.1456125 -0.35032842 105 38
3.3040578 3.1447539 -0.35271522 103 38
3.3421669 3.1421642 -0.35493153 102 38
3.3803678 3.1392245 -0.35714787 129 38
3.4054406 3.1238115 -0.35782981 122 38
3.4356198 3.1128914 -0.35910845 113 38
3.4791582 3.1136773 -0.36192146 129 38
3.525821 3.1166844 -0.36507547 109 38
3.5718999 3.1185801 -0.36814421 97 38
3.6113424 3.1141713 -0.37044579 89 38
3.6440372 3.1035814 -0.37198016 104 38
3.6805501 3.0959136 -0.37394074 91 38
3.7217042 3.0917337 -0.37641278 90 38
3.7583227 3.0833733 -0.37837338 89 38
3.7880101 3.0690348 -0.37956679 61 38
0 0 -0 4 38
0 0 -0 3 38
0 0 -0 4 38
0 0 -0 3 38
3.8684733 2.9423473 -0.37828812 18 38
3.8888447 2.9203501 -0.37854385 11 38
3.9002869 2.8916869 -0.37786192 120 38
3.9251931 2.8729966 -0.37862912 163 38
3.9589005 2.8605275 -0.38033396 173 38
4.0072041 2.8581655 -0.3835732 143 38
4.0539966 2.8541706 -0.38664195 154 38
4.1066179 2.8536878 -0.3903074 146 38
4.1503458 2.8464675 -0.39303517 165 38
4.1949639 2.8393757 -0.39584818 174 38
4.2504215 2.8390365 -0.39976937 163 38
4.2952161 2.8309953 -0.40258241 198 38
4.3434119 2.8246834 -0.40573639 172 38
4.4051089 2.8264937 -0.41025427 184 38
4.4535198 2.8191266 -0.41340825 150 38
4.5053854 2.8133819 -0.41690323 160 38
4.5573468 2.807106 -0.42039818 174 38
4.6332436 2.8147807 -0.42627996 164 38
4.6914544 2.8108759 -0.43037161 166 38
4.7326331 2.7962265 -0.43275842 157 38
4.7858615 2.788198 -0.43633863 188 38
4.8348475 2.7771397 -0.43949261 221 38
4.8717384 2.7587118 -0.44145322 290 38
4.8737836 2.7205129 -0.44000408 263 38
4.8764167 2.6828732 -0.43864021 270 38
4.8708882 2.6410303 -0.43650913 269 38
4.8729405 2.6035817 -0.43514523 219 38
4.8747172 2.5662079 -0.43378136 164 38
4.8850641 2.5334969 -0.43326989 283 38
4.8818836 2.4939575 -0.43147978 198 38
4.8873038 2.4590306 -0.43054211 187 38
4.8978357 2.4267848 -0.43011591 203 38
4.9493499 2.4145956 -0.43361086 121 38
4.9820361 2.3928075 -0.43531573 274 38
4.9948225 2.3613417 -0.43514523 272 38
5.0028939 2.327708 -0.43454853 236 38
5.0071168 2.2924054 -0.43361086 228 38
5.014729 2.258775 -0.43301415 261 38
5.0248499 2.2263486 -0.43267319 281 38
4.8785644 2.1258335 -0.41775566 167 38
5.0169897 2.1496096 -0.42943394 282 38
5.026412 2.1172385 -0.42909297 291 38
5.0254993 2.080641 -0.42781433 283 38
5.028019 2.0456364 -0.42687666 290 38
5.0284486 2.0099399 -0.42576849 259 38
5.0110078 1.9673983 -0.42304072 281 38
5.020196 1.9355391 -0.42278498 339 38
5.029182 1.9036415 -0.42252925 295 38
5.0379658 1.8717064 -0.42227355 331 38
5.0119109 1.8271111 -0.4188638 229 38
5.0183363 1.7946471 -0.4184376 301 38
5.0170307 1.7595356 -0.41732943 241 38
5.0324435 1.730338 -0.41775566 341 38
5.0354123 1.696882 -0.4170737 336 38
5.055191 1.6690766 -0.41792613 144 38
4.9970779 1.6159589 -0.41178864 48 38
5.0068989 1.5852671 -0.41178864 58 38
5.0022559 1.5500928 -0.41051 10 38
5.0145335 1.5202373 -0.41076574 18 38
5.023767 1.4894401 -0.41076574 14 38
5.0222845 1.4555367 -0.40982807 21 38
5.0330381 1.425236 -0.40999854 14 38
5.0330458 1.3919374 -0.40923136 20 38
5.0405297 1.3607694 -0.4091461 17 38
5.0410762 1.3277861 -0.40846416 14 38
5.0346527 1.2931128 -0.40718552 24 38
5.0357261 1.2605033 -0.40658882 20 38
5.0298133 1.2262779 -0.40539542 15 38
5.0294876 1.1935526 -0.40471348 11 38
5.0211825 1.1590853 -0.40334958 16 38
5.0184784 1.1260734 -0.40249714 17 38
5.0126371 1.0925021 -0.401389 20 38
5.012423 1.0602816 -0.4007923 11 38
5.0159059 1.0289056 -0.40053657 24 38
5.0172386 0.9971385 -0.40011033 27 38
5.0252194 0.96671087 -0.40028083 16 38
5.0320358 0.93604064 -0.40036607 17 38
5.0357232 0.90479475 -0.4001956 17 38
5.0411801 0.87387913 -0.4001956 24 38
5.0464473 0.84293056 -0.4001956 19 38
5.0466056 0.81116003 -0.39976937 27 38
5.0573959 0.78109139 -0.40028083 10 38
5.0571656 0.74931532 -0.39985463 24 38
5.0636411 0.71855086 -0.4000251 23 38
5.0649929 0.68706584 -0.39976937 20 38
5.0651608 0.65546352 -0.3994284 23 38
5.0631537 0.62364155 -0.39891696 31 38
5.0559993 0.59129065 -0.39797926 20 38
