# .PCD v0.7 - Point Cloud Data file format
VERSION 0.7
FIELDS x y z intensity ring
SIZE 4 4 4 4 1
TYPE F F F F U
COUNT 1 1 1 1 1
WIDTH 394
HEIGHT 1
VIEWPOINT 0 0 0 1 0 0 0
POINTS 394
DATA ascii
3.767699 -1.4257691 -1.251379 53 57
3.7148139 -1.5109922 -1.245574 62 57
3.7089922 -1.535213 -1.246796 100 57
3.6986248 -1.5575727 -1.2464905 85 57
3.6872475 -1.5794884 -1.2458794 33 57
3.7653639 -1.4789329 -1.3058493 109 58
3.7403622 -1.4956666 -1.3001617 132 58
3.8115122 -1.4686099 -1.219452 14 56
3.8059874 -1.4933656 -1.2206315 11 56
3.8797295 -1.746583 -1.2719396 6 56
3.8272994 -1.47521 -1.2749047 6 57
3.7991807 -1.5181818 -1.2715439 4 57
3.4761052 -1.803973 -0.92477852 107 51
3.4783595 -1.8037789 -0.97451264 125 52
3.7422071 -1.4161309 -0.84736848 87 49
3.7115817 -1.4306452 -0.84217393 17 49
3.7027335 -1.4533921 -0.84217393 4 49
3.6901193 -1.4746362 -0.84130818 5 49
3.6900463 -1.5009264 -0.8434726 8 49
3.6861804 -1.5257785 -0.84477121 60 49
3.6749492 -1.5476105 -0.84433836 10 49
3.6662815 -1.5705146 -0.84455478 10 49
3.661947 -1.5953189 -0.84585339 10 49
3.6404836 -1.6126212 -0.84303969 7 49
3.5913465 -1.6173012 -0.83351636 142 49
3.5884581 -1.6425555 -0.83524787 139 49
3.5800824 -1.6653659 -0.83568078 24 49
3.5609686 -1.6831322 -0.83351636 9 49
3.5444126 -1.7019937 -0.83200127 21 49
3.5303924 -1.7219988 -0.83113551 113 49
3.4987607 -1.7332337 -0.82594097 52 49
3.7512298 -1.4197481 -0.89939344 175 50
3.7342715 -1.4395857 -0.89734131 175 50
3.7226493 -1.461404 -0.89665729 99 50
3.6973386 -1.4777124 -0.89255309 141 50
3.6809871 -1.4974351 -0.89072901 142 50
3.6708302 -1.5196205 -0.89050096 166 50
3.6605396 -1.5417377 -0.89027297 145 50
3.6250572 -1.5530474 -0.88366067 38 50
3.6422369 -1.5869311 -0.89050096 6 50
3.605726 -1.5974154 -0.88366067 89 50
3.5825408 -1.6135108 -0.8802405 148 50
3.5734582 -1.635868 -0.88046849 133 50
3.5916016 -1.6709087 -0.88776487 15 50
3.564683 -1.7119062 -0.88616878 10 50
3.4867332 -1.70087 -0.86861193 60 50
3.522469 -1.7451456 -0.88069654 178 50
3.5082157 -1.7649754 -0.87978446 173 50
3.4695747 -1.7722923 -0.87248814 59 50
3.7754607 -1.4037782 -0.95228785 80 51
3.7640519 -1.4258864 -0.95157021 111 51
3.7271469 -1.438128 -0.94415462 12 51
3.6938496 -1.4513901 -0.93769592 9 51
3.6785631 -1.4715053 -0.93602145 13 51
3.6955473 -1.5046595 -0.94295859 100 51
3.6754797 -1.5228499 -0.94008803 112 51
3.6589079 -1.5423584 -0.93817437 128 51
3.62974 -1.5563676 -0.93291169 14 51
3.6388149 -1.5867548 -0.93793511 31 51
3.6236839 -1.6066926 -0.93649989 120 51
3.598707 -1.6221182 -0.93243331 173 51
3.5851545 -1.6425523 -0.93147641 133 51
3.568846 -1.6616523 -0.92980194 147 51
3.5471714 -1.6781245 -0.92669219 102 51
3.5315564 -1.6973358 -0.92525697 156 51
3.5245659 -1.7206759 -0.9262138 120 51
3.5122015 -1.7414078 -0.92573535 143 51
3.5023177 -1.7633619 -0.92597455 111 51
3.4931614 -1.7857019 -0.92645299 135 51
3.7891543 -1.4075857 -1.0066046 215 52
3.7722981 -1.4277242 -1.004348 201 52
3.7155955 -1.4323838 -0.99106002 57 52
3.6905172 -1.4487863 -0.98654711 6 52
3.6797602 -1.4706849 -0.98604566 11 52
3.705637 -1.5074656 -0.99582368 70 52
3.6829016 -1.5246191 -0.99206287 153 52
3.6627719 -1.5426781 -0.98905426 15 52
3.6576862 -1.5670301 -0.99030787 9 52
3.6409028 -1.5863496 -0.98830211 4 52
3.6167483 -1.6289215 -0.98704851 29 52
3.6022847 -1.6490676 -0.98579496 18 52
3.5833216 -1.6670555 -0.98328775 8 52
3.550271 -1.6782521 -0.97676909 6 52
3.5486326 -1.7041962 -0.9792763 12 52
3.5389791 -1.7263626 -0.979527 131 52
3.5187783 -1.7433167 -0.97676909 158 52
3.5080154 -1.7648746 -0.97676909 163 52
3.4919479 -1.7837235 -0.97526479 157 52
3.771101 -1.4014125 -1.0510815 164 53
3.7579176 -1.4228177 -1.0497723 125 53
3.7455144 -1.4444611 -1.0487249 141 53
3.7455652 -1.4709412 -1.0513434 42 53
3.7149594 -1.4853032 -1.045059 126 53
3.7039876 -1.5073427 -1.0445353 153 53
3.694669 -1.5300416 -1.0445353 123 53
3.6807637 -1.5508105 -1.043226 127 53
3.662307 -1.5695668 -1.0406075 89 53
3.6490681 -1.5904675 -1.0395601 81 53
3.6401229 -1.6132185 -1.039822 141 53
3.6195955 -1.6307694 -1.0366797 152 53
3.6042554 -1.6505387 -1.0351086 141 53
3.5756826 -1.6640769 -1.0296097 28 53
3.5601692 -1.6835116 -1.0280386 4 53
3.5628233 -1.7115897 -1.0319663 52 53
3.5314345 -1.7232667 -1.0256819 127 53
3.5173349 -1.7431896 -1.0246345 122 53
3.5177815 -1.7703755 -1.0280386 33 53
3.7836709 -1.4055482 -1.104539 101 54
3.7902703 -1.4345284 -1.1091793 41 54
3.6971624 -1.4513956 -1.0862513 5 54
3.6721079 -1.4676256 -1.0813382 6 54
3.712043 -1.5100722 -1.0963506 62 54
3.693819 -1.52914 -1.093621 125 54
3.6391523 -1.5327274 -1.0797005 9 54
3.6137626 -1.5482072 -1.0747874 6 54
3.6306522 -1.5818822 -1.0829759 10 54
3.6314321 -1.6088068 -1.0862513 93 54
3.6214924 -1.6310586 -1.0862513 142 54
3.6026692 -1.6492437 -1.0835218 151 54
3.5846319 -1.6676652 -1.0810652 139 54
3.5630257 -1.6842829 -1.0775168 146 54
3.5439522 -1.7019479 -1.0747874 110 54
3.7919574 -1.4091561 -1.1559011 124 55
3.7832394 -1.4323967 -1.1559011 136 55
3.7770636 -1.4566175 -1.1567521 83 55
3.6832521 -1.4464908 -1.1298025 8 55
3.7455468 -1.4975222 -1.1524969 87 55
3.7096388 -1.5096406 -1.1439865 134 55
3.6949897 -1.5301743 -1.1422844 100 55
3.6722744 -1.5472366 -1.1380292 16 55
3.6609232 -1.5956304 -1.1405823 7 55
3.6572013 -1.6207813 -1.1425681 60 55
3.6253276 -1.6333499 -1.1354761 126 55
3.6126213 -1.6543667 -1.1346251 132 55
3.5980549 -1.6744806 -1.1332066 38 55
3.787385 -1.4326832 -1.2085416 80 56
3.7364147 -1.4925809 -1.20058 81 56
3.7183347 -1.5118791 -1.1976312 151 56
3.7081051 -1.5343004 -1.1973364 123 56
3.6906953 -1.5536866 -1.1946825 117 56
3.6705523 -1.5717884 -1.191144 138 56
3.6582108 -1.5931361 -1.1902595 134 56
3.6326406 -1.6085869 -1.1849517 68 56
3.6837888 -1.4214127 -0.44600359 170 41
3.6694541 -1.441813 -0.44527343 124 41
3.7017927 -1.4017677 -0.49546689 174 42
3.6921973 -1.4240984 -0.49533322 147 42
3.6760106 -1.4438274 -0.49426413 174 42
3.6588008 -1.4630433 -0.49306136 168 42
3.6534264 -1.4869605 -0.4935959 81 42
3.6931794 -1.4242955 -0.54530114 137 43
3.7009475 -1.4534341 -0.5479275 23 43
3.700228 -1.4794183 -0.54924071 6 43
3.6507576 -1.4856988 -0.54282063 51 43
3.6498001 -1.5114757 -0.54413384 152 43
3.6286037 -1.528852 -0.54223698 42 43
3.7319467 -1.4131896 -0.59904951 154 44
3.7167563 -1.4335737 -0.5979448 106 44
3.7032948 -1.4545469 -0.59715575 7 44
3.6668749 -1.4924357 -0.59399945 6 44
3.6576483 -1.514907 -0.59399945 77 44
3.6428246 -1.5350202 -0.59305257 163 44
3.6242616 -1.5534521 -0.59147447 142 44
3.7223763 -1.6226274 -0.61025423 20 44
3.7324677 -1.4146742 -0.64770269 137 45
3.7044077 -1.4301015 -0.64414275 146 45
3.6854727 -1.4488411 -0.64227796 143 45
3.6664476 -1.4674023 -0.64041322 122 45
3.6537235 -1.4883854 -0.63973516 166 45
3.6472538 -1.5119077 -0.64024371 159 45
3.6324589 -1.531962 -0.63922662 174 45
3.6084976 -1.5480093 -0.63651425 168 45
3.6061587 -1.573272 -0.63787043 195 45
3.6036453 -1.5985643 -0.63922662 101 45
3.7433512 -1.4175096 -0.6991592 54 46
3.7229285 -1.4622606 -0.69861507 8 46
3.7157123 -1.4858071 -0.69897783 6 46
3.6901307 -1.5019035 -0.69571304 14 46
3.6663094 -1.5184952 -0.69281095 124 46
3.6397052 -1.5337054 -0.68936479 134 46
3.6464951 -1.5629846 -0.69262958 8 46
3.6440477 -1.588474 -0.69408059 9 46
3.5883825 -1.5904762 -0.68483037 41 46
3.5812457 -1.6136763 -0.6853745 177 46
3.5677006 -1.6339818 -0.68464899 53 46
3.7289603 -1.4133459 -0.74526614 122 47
3.7247951 -1.4379653 -0.74623132 143 47
3.730514 -1.4665326 -0.74931991 18 47
3.7168901 -1.4875734 -0.74835473 7 47
3.7086015 -1.5107217 -0.74854773 82 47
3.6611886 -1.5176793 -0.74044025 139 47
3.650903 -1.5397344 -0.74024719 129 47
3.6125281 -1.5497369 -0.73407006 11 47
3.5930572 -1.5675608 -0.73194665 8 47
3.5744009 -1.5856018 -0.73001629 9 47
3.5824959 -1.615566 -0.733877 36 47
3.5698392 -1.6362916 -0.73329794 174 47
3.5535049 -1.6552666 -0.73194665 134 47
3.734108 -1.4147506 -0.79472715 156 48
3.7280965 -1.4386935 -0.7953406 147 48
3.7082665 -1.4572444 -0.79288667 20 48
3.7056167 -1.4825163 -0.79431814 28 48
3.6792262 -1.4982097 -0.79043269 138 48
3.6690598 -1.5203819 -0.79022819 138 48
3.656054 -1.5413449 -0.78941023 157 48
3.6447284 -1.5629772 -0.78900123 129 48
3.6287889 -1.5825716 -0.78756976 91 48
3.6091676 -1.6004419 -0.78532034 132 48
3.5912483 -1.6189358 -0.78347987 165 48
3.5714588 -1.6364546 -0.78123039 164 48
3.5507023 -1.6533782 -0.77877647 175 48
3.5369515 -1.6734589 -0.77795845 158 48
3.5301454 -1.6968263 -0.77877647 143 48
3.7996874 -1.410748 -1.2097211 171 56
3.9866645 -1.7964027 -0.66012329 10 44
3.7896547 -1.3287073 -0.85061508 28 49
3.7654707 -1.3985771 -0.85083151 46 49
3.7711139 -1.3746085 -0.90007746 172 50
3.7635212 -1.3980608 -0.90030545 175 50
3.7814426 -1.3789078 -1.0516053 74 53
3.7884545 -1.2777735 -0.45208839 168 41
3.7730339 -1.2984133 -0.45111483 146 41
3.7481363 -1.3156275 -0.4489243 106 41
3.7680314 -1.3486269 -0.45257518 9 41
3.7540903 -1.3696821 -0.45184502 6 41
3.7456155 -1.392691 -0.45184502 7 41
3.6887279 -1.3973773 -0.44551682 85 41
3.787503 -1.2769164 -0.50067884 141 42
3.773037 -1.2978748 -0.49974337 154 42
3.7659373 -1.3213296 -0.49987701 160 42
3.7493613 -1.3414067 -0.49867424 126 42
3.73175 -1.3609905 -0.49733785 121 42
3.7121818 -1.3797183 -0.49573416 155 42
3.760339 -1.3191725 -0.54924071 10 43
3.7363369 -1.3365607 -0.5467602 5 43
3.7307832 -1.3864429 -0.54851115 17 43
3.6972227 -1.3998576 -0.54457158 144 43
3.7897296 -1.32968 -0.60315263 140 44
3.7796402 -1.3522428 -0.60283703 39 44
3.7527184 -1.3686403 -0.59968072 10 44
3.7599847 -1.3974906 -0.60236359 91 44
3.7846603 -1.3291746 -0.65109313 138 45
3.7736495 -1.3513758 -0.65058452 26 45
3.7532504 -1.3701153 -0.64838076 42 45
3.7447729 -1.393119 -0.64838076 121 45
3.7678554 -1.3741624 -0.70061022 4 46
3.7565873 -1.3962276 -0.70006609 9 46
3.7829826 -1.354715 -0.75125027 60 47
3.7736771 -1.3775653 -0.75105721 76 47
3.7403212 -1.3914644 -0.74584526 134 47
3.7704737 -1.3236579 -0.7953406 14 48
3.7641242 -1.3474282 -0.7957496 6 48
3.751188 -1.3688208 -0.79472715 14 48
3.7436359 -1.3921531 -0.79493165 124 48
3.9615328 -1.096921 -0.81926668 114 48
3.9829793 -1.1292204 -0.82540154 20 48
3.9797359 -1.1547296 -0.8262195 6 48
3.9425478 -1.1702112 -0.81967562 6 48
3.9278836 -1.1118865 -0.86533296 38 49
3.932241 -1.1392235 -0.86793023 154 49
3.9233046 -1.1627755 -0.86749738 152 49
3.916096 -1.1868266 -0.86749738 163 49
3.8975482 -1.2073694 -0.86490011 138 49
3.8695874 -1.2247862 -0.86013842 112 49
3.8090439 -1.2314038 -0.84780139 6 49
3.8422127 -1.268205 -0.85732472 75 49
3.8362093 -1.2923795 -0.85775757 104 49
3.8300538 -1.3165278 -0.85819048 127 49
3.929522 -1.1648569 -0.91991442 99 50
3.9167099 -1.1872509 -0.91854632 167 50
3.9019113 -1.208955 -0.91672224 177 50
3.9148407 -1.2393408 -0.92173851 15 50
3.9182794 -1.2669342 -0.92447466 14 50
3.8503363 -1.2711067 -0.9096539 91 50
3.837851 -1.2931532 -0.90851384 165 50
3.8261614 -1.3154109 -0.90760183 168 50
3.8125055 -1.3369293 -0.90623373 150 50
3.8005633 -1.3589855 -0.90532172 37 50
3.9121101 -1.2133667 -0.96903265 98 51
3.9305105 -1.2455537 -0.97573054 14 51
3.9181745 -1.2681538 -0.97453451 11 51
3.9075534 -1.2912581 -0.97381687 11 51
3.8645918 -1.3034284 -0.96472681 65 51
3.8583579 -1.3277479 -0.96520525 33 51
3.8483057 -1.3507547 -0.96472681 9 51
3.8381166 -1.3736882 -0.96424842 8 51
3.7985992 -1.3859065 -0.95611519 5 51
3.9068902 -1.2632504 -1.0231519 150 52
3.8889539 -1.2838596 -1.020394 182 52
3.8699949 -1.3039873 -1.0173854 151 52
3.8399503 -1.3201529 -1.0113682 179 52
3.8171618 -1.3385626 -1.0073566 168 52
3.8125229 -1.3632632 -1.0083596 20 52
3.8095431 -1.3886205 -1.0098639 159 52
3.8934486 -1.2858508 -1.0720297 129 53
3.8708513 -1.3047881 -1.0678401 154 53
3.8655105 -1.3294555 -1.0686257 114 53
3.8454401 -1.348999 -1.0652217 9 53
3.8334551 -1.3712696 -1.0641742 8 53
3.8197544 -1.3132075 -1.105358 114 54
3.8679082 -1.3563633 -1.122281 6 54
3.8604188 -1.3803948 -1.1225539 9 54
3.8265691 -1.3948284 -1.1149113 21 54
3.8143821 -1.3644532 -1.1576031 118 55
3.8041363 -1.3871756 -1.1570358 135 55
3.8064766 -1.3867527 -1.2091314 127 56
3.8180158 -1.2357677 -0.45391384 125 41
3.8018787 -1.2563709 -0.45281857 138 41
3.8751516 -1.175385 -0.50776178 98 42
3.8707063 -1.200021 -0.50816268 160 42
3.8519335 -1.2201563 -0.50655901 150 42
3.8094876 -1.2324778 -0.50161433 37 42
3.8027947 -1.2561401 -0.50174797 31 42
3.929096 -1.1390537 -0.56485313 103 43
3.9153931 -1.1611737 -0.56383175 107 43
3.8996732 -1.1825948 -0.56251854 125 43
3.8857284 -1.204452 -0.56149715 108 43
3.8188424 -1.209471 -0.5523048 6 43
3.8113492 -1.2328802 -0.5523048 4 43
3.7971363 -1.2540731 -0.55128342 7 43
3.8057868 -1.308934 -0.55507714 53 43
4.0126443 -1.0838649 -0.62556213 55 44
3.9488175 -1.0926596 -0.61609334 143 44
3.9372885 -1.1155223 -0.61530429 164 44
3.9265761 -1.1385596 -0.61467302 99 44
3.899636 -1.1567322 -0.61135894 170 44
3.8896303 -1.179778 -0.6108855 166 44
3.8738296 -1.2009896 -0.60946518 168 44
3.8626223 -1.2235432 -0.60883391 171 44
3.8381312 -1.2417479 -0.60599327 92 44
3.8201258 -1.2618668 -0.60425735 78 44
3.8235397 -1.2890697 -0.6061511 140 44
3.8043532 -1.3086506 -0.60425735 151 44
4.0069218 -1.0309587 -0.67279184 84 45
3.9852724 -1.0515068 -0.67007953 175 45
3.973037 -1.0743982 -0.66906238 156 45
3.9578214 -1.0963905 -0.66753668 54 45
3.9273145 -1.1139382 -0.66329867 6 45
3.9204056 -1.1380148 -0.66329867 9 45
3.9199629 -1.1640104 -0.66448528 7 45
3.8872831 -1.1803173 -0.65990824 43 45
3.8639653 -1.1991856 -0.65702635 109 45
3.8875384 -1.2326932 -0.66262054 20 45
3.8977172 -1.2622876 -0.66584146 4 45
3.857146 -1.2753605 -0.65990824 10 45
3.8165622 -1.2879835 -0.65397495 105 45
3.8002 -1.3084919 -0.65244925 144 45
4.0263171 -1.0347154 -0.72763544 169 46
4.0094323 -1.0566432 -0.7256403 172 46
3.9762914 -1.0740418 -0.72056174 216 46
3.9724696 -1.0992068 -0.72110587 172 46
3.957135 -1.1211473 -0.71947348 181 46
3.9473479 -1.1445848 -0.71892935 27 46
3.937422 -1.1679444 -0.71838516 79 46
3.8972449 -1.1820884 -0.71203697 194 46
3.8861613 -1.204814 -0.71131146 181 46
3.8618209 -1.2232894 -0.70804667 61 46
3.8757617 -1.2539265 -0.71221834 13 46
3.8530548 -1.2727475 -0.70931631 3 46
3.8405137 -1.2947941 -0.70840943 68 46
3.8138986 -1.3119352 -0.70478189 135 46
3.8076327 -1.3359635 -0.70514464 16 46
4.001966 -1.0559063 -0.77499366 74 47
3.9897282 -1.0789068 -0.77383542 157 47
3.9745221 -1.1010119 -0.77209812 140 47
3.9742999 -1.1272507 -0.77344936 84 47
4.0068879 -1.1630923 -0.78155684 13 47
3.9319472 -1.1675655 -0.76765829 64 47
3.890907 -1.1814165 -0.76070899 148 47
3.8854592 -1.2058495 -0.76109505 120 47
3.8695686 -1.2270008 -0.75935775 115 47
3.8554323 -1.2486067 -0.75800651 53 47
3.8495617 -1.2728552 -0.75839257 95 47
3.8323812 -1.293317 -0.75646222 137 47
3.8132396 -1.3129776 -0.7541458 96 47
3.8032598 -1.3357008 -0.75375974 112 47
3.8875241 -1.179877 -0.80924636 44 48
3.8839509 -1.2048687 -0.81006432 42 48
3.8606222 -1.2236481 -0.80658787 4 48
3.8306913 -1.2400757 -0.80167997 7 48
3.8072107 -1.2583334 -0.79820359 13 48
3.8402274 -1.2954412 -0.80720139 69 48
3.8183231 -1.3142 -0.80413395 105 48
3.748878 -1.3158876 -0.35044718 89 39
3.7266762 -1.3338388 -0.34898865 168 39
3.7109411 -1.3539534 -0.34821078 178 39
3.6997647 -1.375658 -0.34791908 75 39
3.7673059 -1.2959028 -0.4012081 166 40
3.7564697 -1.3180066 -0.40087941 138 40
3.7455044 -1.3400264 -0.40055072 15 40
3.7316089 -1.3609391 -0.39989337 12 40
3.7110765 -1.3793073 -0.39846906 72 40
3.6941774 -1.3988832 -0.39748302 194 40
3.8090935 -1.2841977 -0.40515229 102 40
