# .PCD v0.7 - Point Cloud Data file format
VERSION 0.7
FIELDS x y z intensity ring
SIZE 4 4 4 4 1
TYPE F F F F U
COUNT 1 1 1 1 1
WIDTH 1415
HEIGHT 1
VIEWPOINT 0 0 0 1 0 0 0
POINTS 1415
DATA ascii
-2.1463747 2.0443246 0.18605477 45 27
-2.1230023 2.0470622 0.18529326 34 27
-2.0996776 2.0495899 0.18453175 36 27
-2.0813768 2.0568211 0.18412562 29 27
-2.0581222 2.0589626 0.18336411 35 27
-2.0300062 2.0559239 0.18224722 37 27
-1.9929365 2.0433276 0.18047036 32 27
-0 0 0 5 27
-1.9291393 2.0271323 0.1776274 12 27
-1.8920283 2.0127449 0.17579979 46 27
-1.8721642 2.016269 0.17524134 50 27
-1.8644849 2.0328686 0.17559671 29 27
-1.8613682 2.0546286 0.17630745 52 27
-1.8587204 2.0771706 0.17706896 31 27
-1.8578509 2.1020012 0.17798278 46 27
-1.8547748 2.1246424 0.17874429 39 27
-1.8475757 2.1427882 0.17920119 69 27
-1.8512366 2.1738467 0.18052113 40 27
-1.8513694 2.2012098 0.18158725 42 27
-1.8480434 2.2248161 0.18239953 43 27
-1.847032 2.2515514 0.18341488 39 27
-1.8445035 2.2768059 0.18432868 46 27
-1.8436069 2.3044524 0.18539479 38 27
-1.839343 2.3282559 0.18620707 50 27
-1.8373142 2.3552423 0.18722242 34 27
-1.8338037 2.3807089 0.18813622 42 27
-1.8348885 2.4125781 0.18945618 46 27
-0 0 0 47 27
-0 0 0 41 27
-0 0 0 46 27
-0 0 0 35 27
-1.8337082 2.5709624 0.19590361 17 27
-2.6945429 3.826386 0.2732729 43 27
-2.6949625 3.8772845 0.27540514 178 27
-2.6762078 3.9011581 0.27586204 136 27
-2.6135733 3.8604517 0.2723591 79 27
-2.5981622 3.88887 0.27312061 55 27
-2.6105459 3.9597616 0.27647123 94 27
-2.6690075 4.1029348 0.28418785 156 27
-2.6556542 4.137722 0.28530473 109 27
-2.6494567 4.1843109 0.28713235 126 27
-2.6533723 4.2479162 0.28997532 112 27
-2.0691123 3.3587027 0.23590821 60 27
-2.0354934 3.3500016 0.23463902 115 27
-2.0143862 3.3615716 0.23458825 71 27
-0 0 0 4 27
-0 0 0 5 27
-1.8919411 3.2933147 0.22844543 49 27
-1.850031 3.2666314 0.22621167 189 27
-1.8284912 3.2753057 0.22605936 145 27
-1.6778101 3.0493803 0.21230143 11 27
-1.5023464 2.7708263 0.195599 4 27
-0 0 0 16 27
-0 0 0 11 27
-0 0 0 21 27
-0 0 0 6 27
-0 0 0 8 27
-0 0 0 4 27
-0 0 0 10 27
-0 0 0 5 27
-0 0 0 6 27
-0 0 0 7 27
-0 0 0 9 27
-0 0 0 4 27
-0 0 0 26 27
-0 0 0 12 27
-0 0 0 4 27
-0 0 0 7 27
-0 0 0 5 27
-0 0 0 27 27
-0 0 0 65 27
-1.0455601 2.6634088 0.18082574 78 27
-1.0248827 2.6585934 0.18021654 90 27
-1.0021805 2.6480215 0.17930272 55 27
-0.98208404 2.6438241 0.17874429 67 27
-0.96241927 2.6404185 0.1782366 71 27
-0.94249684 2.6359313 0.17767817 70 27
-0 0 0 84 27
-0 0 0 79 27
-0.88711351 2.6329606 0.17661206 70 27
-0.86937392 2.6336131 0.17635822 85 27
-0.85165983 2.6341472 0.17610438 100 27
-0.83397192 2.6345632 0.17585056 78 27
-0.82282215 2.6558461 0.17671359 317 27
-0.80041862 2.6407764 0.17564748 73 27
-0.78476852 2.6475527 0.17574902 65 27
-0.76739526 2.6484816 0.17554595 96 27
-0.76802248 2.7127116 0.17869352 38 27
-0.75802708 2.7414351 0.17996269 29 27
-0.74379814 2.7556756 0.18047036 22 27
-0.72840399 2.7659817 0.18077497 25 27
-0.71390647 2.7800713 0.18128264 27 27
-0.68979198 2.7563062 0.17981039 15 27
-0.66362721 2.7226489 0.17783047 9 27
-0.6411351 2.7023785 0.1765613 4 27
-0.62409157 2.7043154 0.17645976 6 27
-0.60463929 2.6954267 0.17579979 5 27
-0.57765079 2.6512754 0.17331219 6 27
-0.56054384 2.6508617 0.17310911 9 27
-0.53944302 2.6307728 0.17189071 10 27
-0.52192551 2.627177 0.17153533 5 27
-0.50296038 2.6156201 0.17077382 7 27
-0.48635277 2.6157115 0.17062153 6 27
-0.47029391 2.6186464 0.17062153 6 27
-0.45267895 2.612627 0.17016461 11 27
-0.43367156 2.5976255 0.1692508 6 27
-0.41677156 2.5943215 0.16894621 5 27
-0.39992851 2.5909083 0.1686416 6 27
-0.38299632 2.5863984 0.16828623 13 27
-0.36557189 2.5778234 0.16772778 5 27
-0.35217062 2.5978305 0.1686416 6 27
-0.33532429 2.5930097 0.16828623 8 27
-0 0 0 5 27
-0 0 0 4 27
-0 0 0 4 27
-0 0 0 4 27
-0 0 0 8 27
-0.23983955 2.6055839 0.16838777 16 27
-0.22444865 2.6139717 0.16874313 45 27
-0.20728855 2.6013625 0.16803239 40 27
-0.18911304 2.5727055 0.16650937 21 27
-0.17278323 2.5658462 0.16610324 24 27
-0.15697479 2.5658612 0.16605248 26 27
-0 0 0 20 27
-0 0 0 15 27
-0 0 0 18 27
-0 0 0 32 27
-0 0 0 21 27
-0 0 0 21 27
-0.045894675 2.529295 0.16397101 19 27
-0.030200025 2.515548 0.16326027 23 27
-0.01474537 2.5126901 0.16310798 19 27
0.00067424745 2.5037448 0.16265106 16 27
0.015989469 2.4957039 0.16224493 25 27
0.031242222 2.4905658 0.16199109 26 27
0.046505269 2.4893286 0.16194032 31 27
0.061681371 2.4850028 0.16173725 32 27
0.077049658 2.4885705 0.16194032 29 27
0.092464045 2.492043 0.16214339 52 27
0.10796662 2.4964178 0.16239724 45 27
0.12391683 2.5086761 0.16305721 56 27
0.13996659 2.5198348 0.16366641 57 27
0.15591374 2.5269032 0.16407254 37 27
0.17081113 2.5169311 0.16361564 72 27
0.18691099 2.5247996 0.16407254 67 27
0.20192304 2.517632 0.16376795 87 27
0.2188205 2.5332613 0.16463099 67 27
0.23362741 2.5239151 0.16422485 89 27
0 0 0 123 27
0 0 0 184 27
0 0 0 183 27
0 0 0 147 27
0.30727631 2.4858241 0.16270183 115 27
0.32572672 2.5086534 0.16397101 69 27
0.34084496 2.5046282 0.16386949 64 27
0.3559261 2.5005121 0.16376795 64 27
0.3708232 2.4953172 0.16361564 69 27
0.38566998 2.4900339 0.16346334 64 27
0.40173358 2.4925508 0.16371718 42 27
0.41603297 2.4841285 0.16341257 39 27
0.42990309 2.4736567 0.16300644 49 27
0.44366041 2.4631085 0.16260029 34 27
0.45803496 2.4564123 0.16239724 43 27
0.47234407 2.4496329 0.16219416 41 27
0.48697656 2.4447293 0.16209263 33 27
0.5021686 2.4426737 0.16214339 22 27
0.51797372 2.4434547 0.16234647 31 27
0.53508317 2.4499886 0.16285414 20 27
0.55098045 2.4505572 0.16305721 22 27
0.56780326 2.4549153 0.16346334 22 27
0.58354735 2.4543004 0.16361564 12 27
0.60025138 2.4574656 0.16397101 12 27
0.61459136 2.45083 0.16381872 13 27
0.63110828 2.4528167 0.16412331 7 27
0.64716399 2.4527612 0.16432638 23 27
0 0 0 5 27
0.67748058 2.4455974 0.16437715 25 27
0.68893671 2.4289021 0.16371718 8 27
0.70438313 2.4265478 0.16381872 7 27
0.72067815 2.4269676 0.16407254 7 27
0.73381788 2.4167655 0.16376795 8 27
0 0 0 5 27
0.76733863 2.4199562 0.16442792 5 27
0.78309453 2.4180532 0.16458023 6 27
0.80010831 2.4198411 0.16493559 7 27
0.82418936 2.4423325 0.16640784 16 27
0.83851027 2.4353406 0.1663063 32 27
0 0 0 5 27
0 0 0 4 27
1.1609271 3.1814055 0.20752931 52 27
1.1731224 3.1545622 0.2064632 204 27
0 0 0 207 27
0 0 0 163 27
0 0 0 186 27
0 0 0 170 27
0 0 0 184 27
1.2987524 3.1341598 0.20783392 174 27
1.318734 3.1279726 0.20793545 137 27
1.3406553 3.1262481 0.20829082 155 27
0 0 0 182 27
0 0 0 210 27
0 0 0 189 27
0 0 0 211 27
1.4523513 3.1189675 0.21027075 206 27
1.4735957 3.114512 0.21052457 191 27
1.4965695 3.1135139 0.21098149 226 27
1.5204622 3.1141462 0.21153992 192 27
1.5435319 3.1128123 0.21199684 222 27
0 0 0 197 27
0 0 0 203 27
1.6079234 3.0980589 0.2128091 209 27
1.6301589 3.0943208 0.21316448 249 27
1.6528795 3.0913069 0.21357061 210 27
1.6761004 3.0890086 0.21402752 204 27
1.7036877 3.0944169 0.21494134 163 27
1.6744543 2.9975705 0.20991537 75 27
0 0 0 30 27
0 0 0 37 27
0 0 0 36 27
0 0 0 42 27
0 0 0 44 27
0 0 0 30 27
0 0 0 52 27
0 0 0 47 27
0 0 0 37 27
0 0 0 50 27
0 0 0 52 27
0 0 0 54 27
0 0 0 42 27
1.7883183 2.6402173 0.1974774 53 27
1.8106979 2.6382546 0.19803584 69 27
0 0 0 181 27
0 0 0 86 27
0 0 0 63 27
0 0 0 112 27
0 0 0 114 27
0 0 0 95 27
1.9432991 2.586025 0.1998127 82 27
1.9814992 2.6034648 0.20169108 64 27
1.9931704 2.5857193 0.20133571 78 27
0 0 0 88 27
0 0 0 82 27
0 0 0 76 27
0 0 0 96 27
0 0 0 122 27
2.1240056 2.5551617 0.20428021 63 27
0 0 0 55 27
0 0 0 39 27
0 0 0 0 27
0 0 0 0 27
0 0 0 0 27
0 0 0 0 27
0 0 0 0 27
0 0 0 0 27
0 0 0 0 27
0 0 0 0 27
0 0 0 0 27
0 0 0 0 27
0 0 0 0 27
0 0 0 0 27
0 0 0 0 27
0 0 0 0 27
0 0 0 0 27
0 0 0 0 27
3.3049877 3.1462371 0.26733312 60 27
3.3416877 3.1423233 0.26855156 77 27
3.3791952 3.1387565 0.26982072 70 27
3.4131052 3.1314704 0.27083609 74 27
3.4463129 3.123215 0.27180064 82 27
3.4854987 3.1199996 0.27317137 92 27
3.5247741 3.1164205 0.27454209 89 27
3.5633841 3.111819 0.27586204 84 27
3.60585 3.1101227 0.27743581 87 27
3.6446278 3.1047826 0.27875575 70 27
3.6872954 3.1022987 0.28032956 56 27
3.7200851 3.0911076 0.28124335 79 27
3.751332 3.0783632 0.28205565 71 27
3.7779076 3.0615773 0.2825633 48 27
3.7553027 3.0052559 0.27987266 5 27
0 0 0 4 27
0 0 0 4 27
3.8012829 2.9289165 0.27931419 14 27
3.8207722 2.9067469 0.27941573 4 27
3.8457212 2.8886485 0.27987266 32 27
3.8721957 2.8715432 0.28043109 158 27
3.9114962 2.8636639 0.28180179 146 27
3.9581282 2.8606768 0.28362942 151 27
3.9999926 2.8537431 0.28515244 180 27
4.0476351 2.8504293 0.28703082 130 27
4.1011257 2.8506289 0.28926459 96 27
4.1481829 2.845757 0.29109222 94 27
4.1978135 2.8420947 0.29307213 112 27
4.2425728 2.8345993 0.29474744 106 27
4.2923994 2.8299606 0.29672736 103 27
4.3465123 2.8275402 0.29896113 142 27
4.4015965 2.8251011 0.30124566 136 27
4.4593439 2.8236949 0.30368248 140 27
4.5079217 2.8158634 0.30556086 126 27
4.5557203 2.8070171 0.30738848 160 27
4.6121125 2.8028784 0.30972379 154 27
4.664341 2.795584 0.31180525 153 27
4.7157931 2.7872453 0.31383592 143 27
4.7699051 2.7798889 0.31601891 128 27
4.8388224 2.7804341 0.31906494 256 27
4.8531847 2.7492142 0.31891266 231 27
4.8551407 2.7111032 0.31804961 200 27
4.855937 2.6725903 0.31713581 225 27
4.8555665 2.6336937 0.31617123 193 27
4.8531404 2.5939608 0.31510511 191 27
4.851294 2.5548227 0.31408978 231 27
4.866879 2.5250075 0.31408978 278 27
4.860939 2.4841855 0.31287137 226 27
4.8528986 2.4426332 0.31155139 201 27
4.8669004 2.4123664 0.31150064 180 27
4.9193029 2.4008639 0.31363288 199 27
4.963645 2.3849139 0.31530818 264 27
4.9836016 2.3569758 0.31561279 302 27
4.9825792 2.3191848 0.31474975 220 27
4.9740176 2.2781668 0.31348056 311 27
4.9715147 2.2402151 0.31256676 306 27
4.9824276 2.2084537 0.31241444 293 27
4.9830689 2.1722503 0.31170371 303 27
4.9862075 2.1373036 0.31114528 332 27
4.9900255 2.1027884 0.31063759 319 27
4.9871492 2.0656302 0.30977455 339 27
4.9821563 2.0278335 0.30880997 342 27
4.982451 1.9924021 0.30814999 362 27
4.9908643 1.9603316 0.30794692 376 27
4.9925499 1.9257154 0.30738848 398 27
4.9996023 1.8932761 0.30713466 392 27
4.9708743 1.8475928 0.30495167 263 27
4.9990044 1.8232206 0.30586547 348 27
5.0016351 1.7894832 0.30540857 278 27
5.0096941 1.7577674 0.30525628 326 27
5.0118866 1.7240698 0.30479935 344 27
5.0129075 1.6900922 0.3042917 315 27
5.0013738 1.6520921 0.30312404 199 27
4.9525075 1.6022996 0.29997647 44 27
4.967958 1.5736922 0.30028108 52 27
4.954628 1.5360768 0.29906267 17 27
4.9649158 1.505937 0.29911342 14 27
4.9568291 1.4703283 0.29819962 11 27
4.9839811 1.4451748 0.29916421 14 27
4.9975591 1.4159287 0.29941803 20 27
4.9984531 1.3831052 0.29901189 13 27
5.003953 1.3516272 0.2988596 12 27
5.0169806 1.3221718 0.29911342 31 27
5.0133924 1.2883776 0.29850423 17 27
5.0212035 1.2575918 0.29850423 23 27
5.0181532 1.2241527 0.2979458 22 27
5.0177965 1.1914912 0.29753965 21 27
5.0201478 1.1595552 0.2972858 16 27
5.0232706 1.1278543 0.29708275 23 27
5.0213151 1.0950936 0.29662582 17 27
5.0298939 1.0646769 0.29672736 25 27
5.0333972 1.0331908 0.29657507 19 27
5.0396419 1.002287 0.29657507 19 27
5.039813 0.97021145 0.29627046 23 27
5.0446892 0.93908644 0.29621971 20 27
5.0454421 0.90723032 0.29596585 27 27
5.0489459 0.87591308 0.29586431 19 27
5.0443749 0.84326792 0.29535666 26 27
5.0445242 0.81150615 0.2951028 21 27
5.0454607 0.77992707 0.29489976 23 27
5.0402727 0.74748665 0.29439208 26 27
5.0408092 0.71598339 0.29418901 15 27
5.0342221 0.68355942 0.29363057 26 27
5.0343599 0.65214306 0.2934275 30 27
5.0343018 0.62075073 0.29322442 21 27
5.0330563 0.58926737 0.2929706 32 27
5.03757 0.55848426 0.29302135 25 27
5.0399089 0.52745962 0.2929706 35 27
5.0420566 0.49642733 0.29291981 27 27
0 0 0 36 27
5.0408034 0.43391496 0.29256445 49 27
5.0443668 0.4030568 0.29261523 48 27
5.0467448 0.37209755 0.29261523 54 27
5.048933 0.3411243 0.29261523 62 27
5.050931 0.31013823 0.29261523 70 27
5.0527387 0.27914044 0.29261523 106 27
5.0543566 0.24813217 0.29261523 109 27
5.0497971 0.21685608 0.29231063 138 27
5.0480385 0.18575615 0.29215831 114 27
5.0460887 0.15468597 0.29200602 93 27
5.0529332 0.12386908 0.29231063 87 27
5.0595894 0.092974007 0.29261523 61 27
5.0660563 0.06200191 0.29291981 50 27
5.0643444 0.030903356 0.29281828 35 27
5.0644383 -0.0001714564 0.29281828 41 27
5.0633435 -0.031240331 0.29276752 50 27
5.062058 -0.062295776 0.29271677 50 27
5.0635772 -0.09339118 0.29281828 32 27
5.0599136 -0.12438601 0.29266599 36 27
5.0580568 -0.15540028 0.29261523 34 27
5.0600023 -0.18654269 0.29276752 33 27
5.0667448 -0.21792826 0.29317367 24 27
5.068305 -0.24915956 0.29332596 29 27
5.0696721 -0.28041819 0.29347825 29 27
5.0618753 -0.31115356 0.29317367 20 27
5.0618634 -0.3423411 0.29327521 20 27
5.0626559 -0.37361348 0.2934275 23 27
5.0622592 -0.40482908 0.29352903 24 27
5.0736103 -0.43707979 0.29423976 12 27
5.0688438 -0.46801946 0.29413825 29 27
5.0698528 -0.49950328 0.2943413 29 27
5.0716586 -0.53112084 0.29459515 24 27
5.0712824 -0.5625596 0.29474744 26 27
5.0667434 -0.59354985 0.29469669 15 27
5.0639973 -0.62474972 0.29474744 14 27
5.078887 -0.65824467 0.29571202 16 27
5.0866284 -0.6910063 0.29632124 22 27
5.1080017 -0.7258516 0.29764119 9 27
5.130126 -0.76113141 0.29901189 9 27
5.1510215 -0.79655755 0.30033183 11 27
5.1440649 -0.82783169 0.30023032 15 27
5.1546497 -0.86201161 0.30104259 8 27
5.1512313 -0.89396483 0.30114412 7 27
5.1250067 -0.92184711 0.300078 13 27
5.1231813 -0.95400661 0.30028108 9 27
5.1093855 -0.98391485 0.29987493 12 27
5.1012926 -1.0148576 0.2997734 12 27
5.0930128 -1.0457382 0.29967186 6 27
5.1021342 -1.0802751 0.30048415 16 27
5.1090713 -1.1145378 0.30119488 10 27
5.104085 -1.1463028 0.30129641 11 27
5.1037674 -1.1791716 0.30165181 9 27
5.1071253 -1.2130017 0.30221024 9 27
5.1199622 -1.2492827 0.30327633 20 27
5.1180134 -1.2821295 0.30358094 19 27
5.1013441 -1.3112732 0.30312404 10 27
5.1076889 -1.346365 0.30388555 27 27
5.0993319 -1.3776798 0.30388555 22 27
5.0946326 -1.4100075 0.30408862 20 27
5.1243229 -1.4521244 0.30611932 55 27
5.1421752 -1.4913224 0.3075408 75 27
5.1310124 -1.5222784 0.30743927 175 27
5.1340003 -1.5574995 0.30809924 532 27
5.0566154 -1.5679855 0.30449477 230 27
4.9497814 -1.5682369 0.2993165 190 27
4.8744969 -1.5773774 0.29581356 175 27
4.8315339 -1.5962988 0.29403672 173 27
4.7440414 -1.5997643 0.28987378 349 27
4.7454696 -1.6327397 0.290483 431 27
4.7485561 -1.6664535 0.29119375 397 27
4.742003 -1.6969038 0.2913968 454 27
4.7568364 -1.7352031 0.29276752 359 27
4.7517171 -1.7664446 0.29307213 464 27
4.744525 -1.7969815 0.29327521 419 27
4.7417965 -1.8292927 0.29373211 366 27
4.760231 -1.8700321 0.29535666 467 27
4.7588687 -1.9032823 0.2959151 377 27
4.7545013 -1.9354571 0.29632124 432 27
4.7720647 -1.976818 0.2979458 344 27
4.758925 -2.0056739 0.29789501 525 27
4.7226605 -2.0246105 0.29657507 76 27
4.7486029 -2.0703051 0.29870731 29 27
4.7485938 -2.1050665 0.29941803 29 27
4.7446942 -2.1382651 0.29992571 38 27
4.7523704 -2.1768992 0.30109334 24 27
4.7506952 -2.2114949 0.30175331 24 27
4.7523861 -2.247859 0.30261636 27 27
4.7502074 -2.2825973 0.30327633 30 27
4.7513714 -2.319145 0.30413938 27 27
4.7486858 -2.3540192 0.30479935 26 27
4.7466426 -2.3893962 0.3055101 25 27
4.747901 -2.4266539 0.3064239 22 27
4.7497673 -2.4644763 0.30738848 23 27
4.7425098 -2.4977608 0.30784538 16 27
4.7508783 -2.53952 0.30921611 22 27
4.7518883 -2.5776672 0.31018069 11 27
4.7526078 -2.6159222 0.31114528 19 27
4.753037 -2.6542826 0.31210986 21 27
4.7531734 -2.6927464 0.31307441 20 27
4.759944 -2.7352908 0.31444514 22 27
4.7672338 -2.778522 0.31586662 10 27
4.7715917 -2.820421 0.31713581 13 27
4.7764711 -2.8629909 0.31845576 23 27
4.7784457 -2.9041708 0.31962341 16 27
4.7809448 -2.9460061 0.32084182 25 27
4.7822623 -2.9874518 0.32200944 28 27
4.7815633 -3.027956 0.32307556 19 27
4.7830677 -3.0701816 0.32429397 24 27
4.7833962 -3.1119947 0.32546163 22 27
4.7925639 -3.1599724 0.32718772 11 27
4.7888637 -3.1998587 0.3281523 19 27
4.7931252 -3.2454157 0.32962453 22 27
4.7978306 -3.2917099 0.33114755 21 27
4.8046079 -3.3398931 0.33282289 29 27
4.8085237 -3.3865578 0.33434591 21 27
4.8112335 -3.432816 0.33581814 27 27
4.8103175 -3.4768946 0.33708733 17 27
4.8058176 -3.5187314 0.33815345 23 27
4.7969732 -3.5576694 0.33896571 23 27
4.7958179 -3.602628 0.34028566 17 27
4.7919054 -3.6458919 0.34145331 18 27
4.8003016 -3.6989939 0.34343323 12 27
4.8003507 -3.7461927 0.3449055 20 27
4.8109717 -3.8021982 0.34708849 8 27
4.8117266 -3.850987 0.34866226 16 27
4.8143911 -3.9018135 0.35038835 14 27
4.8235617 -3.958518 0.35257134 20 27
4.8222289 -4.0071845 0.35409436 10 27
4.8327088 -4.0662689 0.35642967 13 27
4.8213539 -4.107501 0.35734347 12 27
4.8308525 -4.1670074 0.35967875 16 27
4.8330297 -4.2208724 0.36155716 31 27
4.8347273 -4.27492 0.36343554 22 27
4.8404078 -4.3331428 0.36561853 13 27
4.8307519 -4.3781838 0.36678618 15 27
4.8398609 -4.4408212 0.36927378 25 27
4.8520408 -4.5071316 0.37201521 12 27
4.8643155 -4.5744419 0.37480739 24 27
4.873775 -4.6400051 0.37744731 17 27
4.873981 -4.6975398 0.37947798 15 27
4.8893924 -4.7705927 0.38262555 10 27
4.8756628 -4.8159409 0.38374242 13 27
4.8792186 -4.8789515 0.38612849 16 27
4.8758659 -4.9357924 0.38805765 9 27
4.8685098 -4.9892011 0.38973296 20 27
4.8662271 -5.0484562 0.39181444 29 27
4.8592663 -5.1035314 0.39359128 11 27
4.8730268 -5.1812587 0.39694193 20 27
4.8744569 -5.2469087 0.3994295 27 27
4.859055 -5.2951126 0.40069869 16 27
4.8848362 -5.3891954 0.40511546 22 27
4.8903213 -5.4622169 0.40805995 35 27
4.885829 -5.5250344 0.4102937 36 27
4.8998046 -5.6098118 0.41399971 33 27
4.9018302 -5.6821127 0.41684267 35 27
4.912869 -5.7660494 0.42044714 30 27
4.9121265 -5.8373446 0.4231886 35 27
4.9298468 -5.9318857 0.42745304 16 27
4.9237757 -5.9990735 0.42988986 18 27
4.9296436 -6.0819244 0.43334204 18 27
4.922195 -6.1494789 0.43577886 22 27
4.9122434 -6.214819 0.43806338 22 27
4.9053617 -6.2849908 0.44065252 24 27
4.8801198 -6.3323722 0.44176939 14 27
4.8611345 -6.388422 0.44344473 14 27
4.8650446 -6.4756126 0.44709995 20 27
4.9370956 -6.6561289 0.45664421 66 27
4.9669805 -6.78298 0.46273628 286 27
4.9603796 -6.8618865 0.46578231 385 27
4.9529958 -6.9409661 0.46882835 471 27
4.9954472 -7.0920563 0.4763419 63 27
4.9712238 -7.1504521 0.47806799 59 27
4.9566445 -7.2236381 0.48070788 53 27
5.0292888 -7.4267306 0.49131823 23 27
4.9997201 -7.4815283 0.49279049 32 27
5.0219092 -7.6154413 0.49908563 20 27
5.0295658 -7.7298155 0.50416237 20 27
5.025753 -7.8286004 0.5082745 19 27
5.0198464 -7.9259396 0.51228511 18 27
5.0028763 -8.0074072 0.51533115 18 27
5.0081539 -8.1263695 0.52061093 17 27
5.0012622 -8.2277737 0.52482462 20 27
4.9974217 -8.3362494 0.52944446 17 27
5.031579 -8.511179 0.53797334 42 27
5.0184989 -8.6091871 0.54193318 38 27
5.0307856 -8.7532415 0.54858369 38 27
5.0286875 -8.8751764 0.55391425 50 27
5.08568 -9.1055241 0.56553996 24 27
5.0961928 -9.2572861 0.57254583 31 27
5.108367 -9.4156609 0.57990706 17 27
5.0990067 -9.5375385 0.58513612 22 27
5.0743747 -9.6331463 0.58884209 31 27
5.0786676 -9.7864246 0.59584802 19 27
5.0621719 -9.9027672 0.60072166 16 27
5.0713906 -10.072791 0.60864133 21 27
5.0906916 -10.267453 0.61793172 39 27
5.1060381 -10.459136 0.62701911 59 27
5.133934 -10.681991 0.63783252 32 27
5.1404872 -10.865854 0.64641219 26 27
5.1584673 -11.079165 0.65661639 21 27
5.1423988 -11.224097 0.66296232 21 27
5.080821 -11.271828 0.66387612 17 27
5.1200752 -11.547462 0.67748171 43 27
5.1756997 -11.868848 0.69357497 245 27
5.1460791 -12.001346 0.69915932 142 27
5.186811 -12.304169 0.71413571 71 27
5.2205744 -12.59963 0.7286551 34 27
5.2441225 -12.879311 0.74226075 14 27
5.2069235 -13.016023 0.74799746 15 27
5.2277899 -13.304268 0.7620092 22 27
5.2366805 -13.570888 0.77480257 23 27
5.2226753 -13.78581 0.78475291 45 27
5.2514868 -14.122752 0.80130303 20 27
5.3229227 -14.588148 0.82475752 10 27
5.3161244 -14.851839 0.83724624 14 27
5.3009939 -15.100911 0.84892273 17 27
5.3129115 -15.437225 0.86526978 31 27
5.3062105 -15.730713 0.87928152 25 27
5.311151 -16.070206 0.89573014 9 27
5.405951 -16.700134 0.92766273 56 27
5.3115277 -16.758696 0.92903346 341 27
5.2124457 -16.803371 0.9296934 527 27
5.1019917 -16.811146 0.92842424 455 27
4.9910703 -16.816284 0.92705351 434 27
4.8513298 -16.720945 0.920403 405 27
4.7366529 -16.708122 0.91816926 374 27
4.6313787 -16.727245 0.91766161 373 27
4.5247455 -16.740887 0.9169001 286 27
4.4379878 -16.829174 0.92009842 510 27
4.3304129 -16.839645 0.91923535 531 27
4.220448 -16.839743 0.91786468 510 27
4.1125407 -16.846888 0.9169001 500 27
4.0053973 -16.856258 0.91608781 440 27
3.8989692 -16.867868 0.9154278 479 27
3.7897024 -16.86614 0.91410786 515 27
3.683799 -16.878344 0.91354942 373 27
3.573334 -16.868387 0.91187412 461 27
3.4669497 -16.876299 0.91116339 557 27
3.3590426 -16.875706 0.91004652 541 27
3.2531638 -16.884232 0.9094373 491 27
3.2285573 -17.328012 0.93136877 123 27
3.2761369 -18.202625 0.97553623 165 27
3.1669502 -18.237144 0.97629774 382 27
3.0518565 -18.237518 0.97533315 409 27
2.9341772 -18.220404 0.97350556 471 27
2.8146839 -18.188717 0.97096717 455 27
2.6959839 -18.158228 0.96853036 467 27
2.5797336 -18.14081 0.96680427 451 27
2.4640677 -18.12463 0.96517974 469 27
2.3494692 -18.113659 0.9638598 474 27
2.2336285 -18.090069 0.96193063 502 27
2.1174679 -18.05979 0.95969689 560 27
2.0031967 -18.041672 0.95812309 536 27
1.8896445 -18.026804 0.95675236 550 27
1.7752713 -18.000292 0.9548232 533 27
1.6614786 -17.975046 0.9529956 498 27
1.548664 -17.956047 0.95152336 487 27
1.4359856 -17.934351 0.94994956 485 27
1.3235581 -17.910952 0.94832498 529 27
1.2116747 -17.889839 0.94685274 508 27
1.1002231 -17.870024 0.94548202 544 27
0.98922628 -17.852505 0.94426364 555 27
0.87814152 -17.827316 0.94268984 539 27
0.76748931 -17.803434 0.9412176 525 27
0.65786552 -17.797827 0.94070995 528 27
0.54790777 -17.777571 0.93949151 510 27
0.43819869 -17.755638 0.93822235 568 27
0.3287794 -17.73303 0.93695313 551 27
0.21964164 -17.708748 0.93563318 626 27
0.11080792 -17.682798 0.93426245 602 27
0.0023026913 -17.665169 0.93334866 634 27
-0.10592863 -17.637886 0.93197793 593 27
-0.21376476 -17.604948 0.9303534 590 27
-0.32136437 -17.580338 0.92918575 598 27
-0.42874297 -17.558067 0.92817038 577 27
-0.53607345 -17.542128 0.92751044 505 27
-0.64329761 -17.527531 0.926952 534 27
-0.75023478 -17.509283 0.92624128 606 27
-0.85663068 -17.483402 0.92517513 582 27
-0.96312165 -17.463858 0.9244644 611 27
-1.0695883 -17.446653 0.92390597 639 27
-1.1761487 -17.432787 0.92355061 584 27
-1.2819197 -17.409306 0.92273831 701 27
-1.3878438 -17.390162 0.92217988 670 27
-1.0081617 -11.720509 0.63336498 190 27
-1.0805163 -11.719075 0.63361883 303 27
-1.7039922 -17.3239 0.92025071 458 27
-1.81005 -17.311132 0.92014921 636 27
-1.9159055 -17.296722 0.91999686 643 27
-2.0187528 -17.256866 0.91857541 464 27
-2.0728483 -16.823875 0.89705008 563 27
-2.17732 -16.820744 0.89755774 656 27
-2.2841129 -16.833788 0.89892846 684 27
-2.3907268 -16.843187 0.9001469 663 27
-2.4973958 -16.850924 0.90131456 574 27
-2.5995247 -16.827387 0.90090841 218 27
-2.0357699 -12.660796 0.68722904 59 27
-2.1152263 -12.658902 0.68778747 24 27
-2.199682 -12.685046 0.6898182 103 27
-2.2795935 -12.683106 0.69042736 109 27
-2.28725 -12.291841 0.67093277 393 27
-0 -0 0 601 27
-2.3769934 -11.956245 0.65504259 1089 27
-2.4529192 -11.954154 0.65570259 872 27
-2.5342817 -11.976985 0.65768248 1059 27
-2.6092119 -11.96804 0.6580379 938 27
-2.6865327 -11.969345 0.6589517 923 27
-2.76262 -11.964314 0.65956092 873 27
-2.8417437 -11.971431 0.66083008 527 27
-3.0785861 -12.624244 0.69591027 21 27
-6.2885447 -25.121407 1.3517723 30 27
-6.4492755 -25.108465 1.3531431 178 27
-6.610847 -25.097393 1.3546661 178 27
-6.7792926 -25.110353 1.357509 159 27
-6.9611878 -25.169355 1.3628396 176 27
-7.1326342 -25.186707 1.366038 172 27
-6.6691108 -23.010063 1.2531823 19 27
-0 -0 0 11 27
-5.3039036 -17.492975 0.96457052 99 27
-5.3224645 -17.173912 0.94934034 81 27
-5.4123683 -17.092371 0.94675124 183 27
-2.3197322 -7.1703458 0.41846722 267 27
-2.3561709 -7.1332164 0.41724882 1342 27
-2.3989384 -7.1157856 0.41709653 1435 27
-2.4548936 -7.1368213 0.41902566 1108 27
-2.5164847 -7.1725159 0.42176712 905 27
-2.520431 -7.045033 0.4157258 698 27
-2.5369322 -6.9562469 0.41176596 1422 27
-2.5833929 -6.9508476 0.4123244 1665 27
-2.6295292 -6.9442058 0.41283208 1641 27
-2.6792734 -6.946578 0.41384742 1592 27
-2.7276857 -6.9448814 0.41465968 1483 27
-2.7609811 -6.9048295 0.41339052 1286 27
-2.7773287 -6.8239274 0.40988755 1698 27
-2.8275516 -6.8270583 0.41100445 1197 27
-2.9333529 -6.9614463 0.41938105 1595 27
-2.9803386 -6.9534149 0.41993949 1620 27
-3.0313253 -6.9542241 0.42100561 1087 27
-5.4295721 -12.252535 0.71662331 27 27
-5.4611754 -12.122464 0.71124196 29 27
-5.4834905 -11.975217 0.70489603 35 27
-5.5054698 -11.830873 0.69870245 50 27
-5.5011306 -11.634346 0.68956435 36 27
-5.5300426 -11.512147 0.68458915 40 27
-5.5370841 -11.347846 0.67722791 29 27
-5.568922 -11.237591 0.67291266 59 27
-5.6283441 -11.184474 0.67184657 31 27
-5.6573386 -11.072351 0.6674298 20 27
-5.692987 -10.975369 0.66387612 25 27
-5.7383585 -10.898695 0.66149002 6 27
-5.7495914 -10.759336 0.65549952 12 27
-5.7845602 -10.666787 0.65219963 9 27
-5.8007998 -10.54184 0.64702141 8 27
-0 -0 0 4 27
-5.8613267 -10.349061 0.63996476 7 27
-0 -0 0 5 27
-5.7259674 -9.8267536 0.61351502 4 27
-0 -0 0 4 27
-10.771993 -17.977722 1.1007283 6 27
-5.6502457 -9.2988882 0.58848673 11 27
-5.5762601 -9.0514536 0.57579494 56 27
-5.6105356 -8.9831829 0.57376426 68 27
-5.6367059 -8.9030199 0.57102281 56 27
-5.643229 -8.7934542 0.56650454 55 27
-5.6355548 -8.664053 0.56076783 63 27
-5.6429949 -8.5600977 0.55655414 63 27
-5.6582479 -8.4696684 0.55315274 76 27
-5.6994748 -8.419076 0.55218816 156 27
-5.7623229 -8.4004183 0.55320352 142 27
-5.7881136 -8.3279963 0.550919 50 27
-5.8816471 -8.3527565 0.55467576 54 27
-5.9351077 -8.3197622 0.55487883 36 27
-5.7708077 -7.9852824 0.53619647 17 27
-5.8202858 -7.9505291 0.53624725 7 27
-5.8517113 -7.8914003 0.53477502 7 27
-5.8418527 -7.7778802 0.5298506 18 27
-5.8900714 -7.7426834 0.52990133 21 27
-5.9264984 -7.6921554 0.52898753 34 27
-5.9797282 -7.6635208 0.52949518 54 27
-6.0755472 -7.6885953 0.5335058 17 27
-6.1656585 -7.7049813 0.53700876 16 27
-6.2511683 -7.7143412 0.54010558 9 27
-6.328156 -7.7121301 0.54249161 36 27
-6.4161987 -7.7223234 0.54574072 28 27
-6.5071754 -7.7347817 0.54919291 41 27
-6.5901265 -7.7365279 0.55198509 44 27
-6.7574744 -7.8351164 0.56132627 7 27
-6.7929435 -7.779211 0.56036168 16 27
-6.920579 -7.8279285 0.56650454 309 27
-6.9331822 -7.745873 0.56381387 349 27
-6.9530869 -7.6728406 0.56173241 306 27
-7.0061116 -7.6366572 0.56218934 166 27
-7.0881753 -7.6315804 0.56482923 214 27
-7.186173 -7.642519 0.56863678 178 27
-7.2763071 -7.6438589 0.5718351 136 27
-7.5094719 -7.7925358 0.58549148 325 27
-7.6017737 -7.7920685 0.58874059 465 27
-7.6929479 -7.7893386 0.59188813 495 27
-7.7914338 -7.7928448 0.59554338 496 27
-7.8774633 -7.7827983 0.59828484 503 27
-7.9851017 -7.7929163 0.60254925 288 27
-8.076623 -7.7860603 0.60564607 16 27
-9.0376196 -8.6063023 0.66976511 61 27
-9.1338997 -8.5917473 0.67281115 59 27
-9.260335 -8.604208 0.67793864 71 27
-9.3372345 -8.5695124 0.67961395 63 27
-8.3419924 -7.5621519 0.60772753 618 27
-8.3659172 -7.4908352 0.60620451 657 27
-8.3488874 -7.3837786 0.6019401 345 27
-2.7037492 -2.3607466 0.21783507 56 27
-2.699281 -2.3278003 0.21656588 133 27
-2.7279549 -2.3235028 0.21753046 346 27
-2.6970811 -2.2687747 0.21453519 142 27
-2.7025034 -2.2451599 0.21397676 250 27
-2.7115972 -2.2247331 0.21367215 168 27
-2.7073543 -2.1935866 0.21250451 113 27
-2.710628 -2.1688187 0.21184453 110 27
-2.7121334 -2.1428547 0.21108302 122 27
-2.7024016 -2.1083498 0.20961078 141 27
-2.7144964 -2.0911186 0.20956001 284 27
-2.7105875 -2.0617208 0.20849389 151 27
-2.7104127 -2.0354502 0.20768161 143 27
-2.7140284 -2.0122352 0.20712318 107 27
-2.7247128 -1.9943639 0.20702164 101 27
-2.732043 -1.9740967 0.20671704 128 27
-2.7400401 -1.9543949 0.2064632 135 27
-2.749531 -1.9358199 0.2063109 127 27
-2.7802157 -1.9320273 0.20747855 94 27
-2.8126035 -1.9290609 0.20874773 70 27
-2.8417513 -1.923529 0.20981383 81 27
-2.8825603 -1.9254817 0.21159069 123 27
-2.9301689 -1.9314046 0.21377368 392 27
-2.9821422 -1.9395388 0.21621051 99 27
-2.9998696 -1.9249817 0.21656588 334 27
-3.0622439 -1.938607 0.21961191 78 27
-3.0986421 -1.9351302 0.22108416 91 27
-3.1359622 -1.9318033 0.22260718 82 27
-3.1904242 -1.9384677 0.22514555 80 27
-3.4566455 -2.0713968 0.24022342 49 27
-3.5002377 -2.0684485 0.24205104 42 27
-3.5465114 -2.0665519 0.24403097 52 27
-3.5902946 -2.0626712 0.24585858 75 27
-3.6298182 -2.0558681 0.24743237 76 27
-3.6711364 -2.0496314 0.24910769 41 27
-3.7011404 -2.0367017 0.25012302 39 27
-8.4825745 -4.6019998 0.52594149 273 27
-8.4947996 -4.541388 0.52502769 348 27
-8.5119028 -4.4835925 0.52441847 362 27
-8.5303898 -4.4266791 0.52391082 334 27
-8.5529442 -4.3719807 0.52365696 294 27
-8.5769329 -4.3180709 0.52350467 261 27
-8.5925303 -4.2600379 0.52289546 221 27
-8.5870981 -4.1918969 0.52111858 230 27
-8.6036558 -4.1348014 0.52061093 221 27
-8.6342812 -4.084496 0.52091557 233 27
-8.6401682 -4.0225859 0.51984942 229 27
-8.6401739 -3.958261 0.51847869 197 27
-8.6506424 -3.899014 0.51771718 235 27
-8.6625347 -3.8405976 0.51705724 220 27
-8.6923456 -3.790168 0.5174126 222 27
-8.704423 -3.7320373 0.51680338 202 27
-8.7336006 -3.6812739 0.51715875 217 27
-8.7763214 -3.6360285 0.51827562 220 27
-8.7753429 -3.5726919 0.51700646 207 27
-8.7952452 -3.5180383 0.51690495 194 27
-8.8185244 -3.464736 0.51700646 230 27
-8.8368225 -3.4094825 0.51685417 262 27
-8.8603783 -3.3562582 0.51700646 264 27
-8.9023342 -3.3098364 0.51817411 310 27
-8.9149704 -3.2524111 0.51776797 279 27
-8.8971481 -3.1841831 0.5157373 375 27
-8.9165192 -3.1295311 0.5157373 406 27
-8.9327202 -3.0737863 0.51558501 382 27
-8.9258623 -3.0102978 0.51421428 287 27
-8.94701 -2.9564135 0.51436657 355 27
-8.885169 -2.8756185 0.51010209 239 27
-8.34762 -2.6450944 0.48050481 916 27
-8.3474779 -2.5887933 0.47964177 950 27
-8.3565159 -2.5354948 0.4792864 985 27
-8.3680859 -2.4830356 0.47908333 980 27
-8.3754911 -2.4294164 0.47867718 939 27
-8.3739061 -2.3733478 0.47781414 964 27
-8.3815737 -2.320056 0.47745878 979 27
-8.3898668 -2.26702 0.47715417 918 27
-8.4016876 -2.2149887 0.47705263 716 27
-6.2156525 -1.5976318 0.36160791 253 27
-8.7111063 -2.1826344 0.49187666 251 27
-8.7408285 -2.1331704 0.49273971 170 27
-6.3275676 -1.5028131 0.36597389 232 27
-8.6972618 -2.0097725 0.48913524 167 27
-8.6967621 -1.9535222 0.48847526 210 27
-8.6929741 -1.8967146 0.487663 215 27
-8.6849079 -1.8391991 0.48664764 230 27
-8.6823339 -1.7830603 0.48593691 259 27
-8.6950693 -1.7301431 0.48603845 242 27
-8.7065029 -1.6769476 0.4860892 249 27
-8.7274284 -1.6255069 0.48664764 259 27
-8.7283916 -1.570333 0.48619074 239 27
-8.7654142 -1.5215333 0.48761222 222 27
-8.7883749 -1.4700296 0.48832297 204 27
-8.8189211 -1.4195721 0.48943985 185 27
-9.04953 -1.3998121 0.50086248 173 27
-9.0974636 -1.3501283 0.50289315 202 27
-9.1085434 -1.2947038 0.50304544 242 27
-9.1173058 -1.2389251 0.50309622 230 27
-9.1257257 -1.1830876 0.50314701 227 27
-9.1347961 -1.1273159 0.50324851 246 27
-9.1266623 -1.0694991 0.502487 300 27
-9.1062527 -1.0105014 0.50111634 261 27
-8.6295567 -0.90397483 0.47644344 399 27
-8.9450321 -0.88161063 0.49228281 95 27
-9.1143599 -0.84188598 0.50065941 383 27
-9.1193542 -0.78594548 0.50065941 392 27
-9.1259956 -0.73013496 0.50076091 340 27
-9.5811501 0.23377198 0.40208074 1088 28
-9.5146132 0.29057109 0.3995969 1245 28
-9.5006676 0.34850612 0.39913833 1232 28
-9.4983511 0.40679458 0.39913833 1168 28
-9.4737186 0.46399137 0.39829764 399 28
-9.4856596 0.52293801 0.39887083 1195 28
-9.469306 0.58033586 0.39837405 1206 28
-9.4625759 0.63822567 0.39825943 1159 28
-9.4853888 0.69825679 0.39929119 1014 28
-9.5586214 0.76264709 0.40227184 1060 28
-9.5657091 0.82231086 0.40273038 1029 28
-9.5545139 0.88043904 0.40250111 1075 28
-9.5479364 0.93895006 0.4024629 1080 28
-9.5350389 0.99678987 0.40219539 1063 28
-9.5227842 1.0546168 0.40196612 1077 28
-9.5250664 1.1140728 0.40231004 1063 28
-9.5051584 1.1709077 0.40181327 1082 28
-9.505723 1.2302346 0.40211898 1058 28
-9.4999752 1.2888062 0.40219539 1064 28
-9.4859524 1.34623 0.40196612 1083 28
-9.4785023 1.4045559 0.40200433 1124 28
-9.4657555 1.4620782 0.40185148 1132 28
-9.457593 1.52029 0.40188968 1215 28
-9.4461155 1.5779628 0.40181327 1162 28
-9.4431467 1.6370884 0.40208074 1241 28
-9.4398088 1.6962371 0.40234825 1192 28
-9.4292231 1.7541267 0.40234825 1142 28
-9.4202452 1.812328 0.40242469 1165 28
-9.4118881 1.8706799 0.40253931 1131 28
-9.4031687 1.9289975 0.40265396 1166 28
-9.3940887 1.9872785 0.40276861 1124 28
-9.3875761 2.0461593 0.40299788 1166 28
-9.3845949 2.1059101 0.40338001 1175 28
-9.3734436 2.163903 0.40345645 1274 28
-9.3599901 2.2213767 0.40345645 1202 28
-9.3461838 2.2787666 0.40345645 1183 28
-9.3407497 2.3382549 0.40380037 1222 28
-9.3388081 2.3987572 0.40429714 1287 28
-9.3384085 2.4598324 0.40487033 1305 28
-9.3192806 2.5160434 0.40471748 1216 28
-9.3084822 2.5745103 0.40490854 1210 28
-9.2953949 2.6323946 0.40502319 1273 28
-9.2598724 2.6838162 0.40425894 721 28
-8.4844675 2.5155797 0.3739939 35 28
-8.4650478 2.5664322 0.37384105 33 28
-8.4300508 2.6124079 0.3730768 50 28
-8.4033842 2.6607659 0.37265643 61 28
-8.4002104 2.7165833 0.37319142 42 28
-8.3995142 2.773402 0.37384105 48 28
-8.6455851 2.9136162 0.38446438 144 28
-8.4130411 2.8928416 0.37578994 72 28
-9.1881447 3.222579 0.40792742 140 28
-9.1851349 3.2849534 0.40861526 986 28
-9.1704388 3.3433044 0.40884453 215 28
-8.4163218 3.1269777 0.37892345 23 28
-8.3960419 3.1782064 0.37888521 29 28
-8.3773155 3.2300234 0.37892345 20 28
-8.5108089 3.3416302 0.38522863 185 28
-8.5012798 3.3982399 0.3856872 347 28
-8.5015564 3.4590013 0.3865661 229 28
-8.7968464 3.6422307 0.39967331 354 28
-8.9106226 3.753557 0.4053289 1135 28
-8.891098 3.8097353 0.40548176 1063 28
-8.2199049 3.5819609 0.37846488 337 28
-8.1986847 3.6327348 0.37850308 863 28
-8.1807966 3.6850247 0.37869415 906 28
-8.1716595 3.7413921 0.37926736 805 28
-8.159421 3.7965212 0.3797259 772 28
-8.143199 3.8499322 0.38003162 816 28
-8.1770706 3.9275169 0.38247728 456 28
-8.2704639 4.0350204 0.38748324 314 28
-8.1748161 4.0506387 0.38446438 332 28
-8.1230297 4.0872469 0.38331798 538 28
-8.1342821 4.1556525 0.38488472 634 28
-8.1175003 4.2100863 0.38526687 594 28
-8.2480192 4.342216 0.39203063 308 28
-8.2194576 4.3918009 0.39195421 327 28
-8.2169514 4.4554901 0.39302418 275 28
-8.1807032 4.5010071 0.39264205 303 28
-8.1712542 4.561347 0.39344454 381 28
-8.1570244 4.6192784 0.39405593 322 28
-8.1241951 4.6667528 0.39386487 290 28
-8.1230364 4.7326126 0.39508772 216 28
-8.803587 5.2017665 0.42661378 768 28
-8.9232206 5.3465996 0.43337753 852 28
-8.9081802 5.4121475 0.43418002 871 28
-8.8875666 5.4745665 0.43475321 865 28
-8.875844 5.5427589 0.43574676 413 28
-2.6546752 1.6801918 0.15571894 3 28
-2.7292566 1.7509571 0.1595785 26 28
-2.7218122 1.7698499 0.15973134 38 28
-2.7234161 1.7947668 0.16030455 40 28
-2.7248163 1.8197697 0.16087775 44 28
-2.7243567 1.8437366 0.16137452 32 28
-2.7286494 1.8711576 0.16210058 34 28
-2.7302458 1.8969895 0.16271199 33 28
-2.7299933 1.9217604 0.16324699 43 28
-2.7279122 1.9454389 0.16370554 40 28
-2.7232134 1.9674079 0.16404946 42 28
-2.7143157 1.9864411 0.16420232 35 28
-2.7093 2.008415 0.16454624 58 28
-2.6777492 2.0105991 0.16362911 12 28
-2.6597948 2.0227566 0.16336162 28 28
-2.6394174 2.0329404 0.16297948 37 28
-2.6119249 2.0374179 0.16225344 30 28
-2.5829093 2.0403962 0.16145095 43 28
-2.5586374 2.0468414 0.16087775 45 28
-2.5312786 2.0505495 0.16015169 47 28
-2.4993362 2.0501964 0.15919636 40 28
-2.4682627 2.0501678 0.15827924 49 28
-2.4349904 2.0479057 0.15724748 34 28
-2.4026003 2.0459609 0.15625393 35 28
-2.3718398 2.0450017 0.15533681 36 28
-2.3419349 2.0444 0.1544579 32 28
-2.3113787 2.0428469 0.15354078 35 28
-2.2868872 2.0463281 0.15292937 27 28
-2.2579975 2.0455599 0.15208867 32 28
-2.2277312 2.0431638 0.15117155 32 28
-2.2019732 2.044554 0.15048371 41 28
-2.1755545 2.0450208 0.14975765 41 28
-2.1477659 2.0438633 0.14895517 37 28
-2.1207933 2.0431354 0.1481909 41 28
-2.0996337 2.0477364 0.14773235 34 28
-2.0777864 2.0514529 0.14723557 47 28
-2.0573866 2.0563917 0.14681523 43 28
-2.0285769 2.0526278 0.14593631 34 28
-2.0040789 2.0528789 0.14528668 31 28
-1.9005908 1.9708955 0.14028072 4 28
-1.8884618 1.9825202 0.14028072 6 28
-1.8974862 2.016634 0.14146534 39 28
-1.8762343 2.0187221 0.14096856 51 28
-1.8631366 2.0294602 0.14093035 38 28
-1.8587029 2.0497382 0.14138891 38 28
-1.8554232 2.0715265 0.1419239 41 28
-1.8539319 2.095597 0.14257354 34 28
-1.8522146 2.1197267 0.14322315 48 28
-1.85484 2.1492097 0.14414027 37 28
-1.8552284 2.1765225 0.14494276 38 28
-1.8514903 2.199333 0.14551596 28 28
-1.8520129 2.2275584 0.14635666 27 28
-1.8509902 2.2543278 0.14712092 45 28
-1.8471913 2.2780628 0.14773235 43 28
-1.8437948 2.3026159 0.14838196 34 28
-1.840786 2.3279963 0.14906982 28 28
-1.8399942 2.3565767 0.14991051 40 28
-1.8377002 2.3836517 0.15067478 32 28
-1.8375636 2.4139671 0.1515919 41 28
-1.8353227 2.4419734 0.15239437 40 28
-1.8298302 2.4660299 0.15300579 42 28
-1.8205686 2.4852729 0.15338792 27 28
-1.8099687 2.5028753 0.15369363 28 28
-1.7998016 2.5212543 0.15403755 10 28
-2.7090886 3.8450487 0.21544649 22 28
-2.6917198 3.8706238 0.21586683 156 28
-2.6662233 3.8845952 0.2157522 107 28
-2.6103981 3.8537211 0.21357404 68 28
-2.5939214 3.880466 0.21407081 44 28
-2.6789916 4.0614791 0.22163707 162 28
-2.6671007 4.0979419 0.22255419 166 28
-2.6667399 4.1529102 0.22431201 183 28
-2.6695471 4.2139363 0.22633731 149 28
-2.6642914 4.2632875 0.22782764 146 28
-2.0644987 3.3489153 0.18602218 80 28
-2.033011 3.3435884 0.18521969 153 28
-2.0129704 3.3568568 0.1852579 79 28
-0 0 0 4 28
-0 0 0 6 28
-1.8801306 3.2703173 0.17983159 38 28
-1.8555954 3.2739675 0.17948768 113 28
-1.8369335 3.2879088 0.17960232 116 28
-1.8114235 3.289489 0.17918198 40 28
-0 0 0 5 28
-0 0 0 13 28
-0 0 0 6 28
-0 0 0 14 28
-0 0 0 7 28
-0 0 0 3 28
-0 0 0 5 28
-0 0 0 3 28
-0 0 0 7 28
-0 0 0 5 28
-0 0 0 4 28
-0 0 0 10 28
-0 0 0 7 28
-0 0 0 5 28
-0 0 0 5 28
-1.1864966 2.7660737 0.15067478 6 28
-0 0 0 5 28
-0 0 0 6 28
-0 0 0 20 28
-0 0 0 27 28
-0 0 0 22 28
-0 0 0 21 28
-0 0 0 13 28
-0 0 0 14 28
-0 0 0 12 28
-0 0 0 7 28
-0 0 0 20 28
-0 0 0 33 28
-0 0 0 3 28
-0 0 0 4 28
-0 0 0 6 28
-0 0 0 5 28
-0 0 0 6 28
-0 0 0 4 28
-0 0 0 4 28
-0 0 0 11 28
-0 0 0 4 28
-0 0 0 4 28
-0 0 0 3 28
-0 0 0 5 28
-0 0 0 5 28
-0 0 0 4 28
-0 0 0 5 28
-0 0 0 5 28
-0 0 0 8 28
-0 0 0 4 28
-0 0 0 4 28
-0 0 0 5 28
-0 0 0 4 28
-0 0 0 8 28
-0 0 0 4 28
-0 0 0 4 28
-0 0 0 4 28
-0 0 0 4 28
-0 0 0 4 28
-0 0 0 5 28
-0 0 0 4 28
-0 0 0 4 28
-0 0 0 8 28
-0 0 0 4 28
-0 0 0 4 28
-0 0 0 4 28
-0 0 0 4 28
-0.28185293 2.5355246 0.13313483 4 28
-0.26493594 2.5242865 0.13263805 4 28
-0.25150135 2.5467482 0.13344052 5 28
-0.23476665 2.536303 0.13298197 9 28
-0.21902809 2.5357046 0.13290554 5 28
-0.20322597 2.5340126 0.13279089 4 28
-0.1882627 2.5431843 0.13309661 10 28
-0.17231695 2.5393066 0.13290554 10 28
-0.15654866 2.537324 0.13279089 11 28
-0.14114277 2.54123 0.13290554 4 28
-0.12549828 2.54105 0.13286732 9 28
-0.10968925 2.5367806 0.13267626 11 28
-0.094380021 2.5443959 0.13294375 14 28
-0.07845851 2.5349393 0.13256162 11 28
-0.062976837 2.5383699 0.13267626 26 28
-0.047419008 2.5397074 0.13271447 26 28
-0.031785276 2.535954 0.13256162 26 28
-0.016143231 2.5231109 0.13206485 44 28
-0.00066053733 2.5151684 0.13175914 55 28
0.014742146 2.5101287 0.13156807 57 28
0.030070808 2.5039959 0.13133879 60 28
0.045416187 2.5027652 0.13130058 52 28
0.060796425 2.5034385 0.13133879 85 28
0.076186635 2.5040171 0.131377 86 28
0.091659576 2.5064981 0.13149165 98 28
0.10648106 2.4929099 0.13099487 131 28
0 0 0 159 28
0 0 0 196 28
0 0 0 239 28
0 0 0 359 28
0.18370789 2.4994328 0.13141522 478 28
0.19904067 2.4982586 0.13141522 598 28
0.21256781 2.4760828 0.13061273 785 28
0.22803196 2.4777172 0.13072738 908 28
0.24313281 2.4752767 0.13068916 904 28
0.25893986 2.4797015 0.13091844 721 28
0.27371004 2.4740932 0.13076559 601 28
0.28923401 2.4753447 0.13088022 505 28
0.30576134 2.4844327 0.13130058 313 28
0.32022998 2.4765639 0.1310713 265 28
0.334748 2.4696014 0.13088022 164 28
0.35045668 2.4714584 0.13103308 157 28
0.36634725 2.4742038 0.13122416 123 28
0.38091147 2.4679592 0.1310713 105 28
0.39588878 2.4645889 0.13103308 94 28
0.41133311 2.4640846 0.13110951 67 28
0.42593253 2.4585605 0.13099487 59 28
0.44030288 2.4519668 0.13084202 56 28
0.454974 2.4472542 0.13076559 58 28
0 0 0 41 28
0 0 0 39 28
0 0 0 34 28
0 0 0 30 28
0 0 0 41 28
0.55502754 2.4746752 0.13256162 28 28
0.57649618 2.4984853 0.13363159 24 28
0.59227735 2.4968455 0.13370802 20 28
0.61374187 2.5184057 0.13470156 17 28
0.62748408 2.5078068 0.13443407 11 28
0.66225386 2.5794013 0.13741472 10 28
0.66763073 2.5356708 0.13584797 12 28
0.6732778 2.4948673 0.13439587 12 28
0.68564284 2.4800951 0.13397552 5 28
0 0 0 3 28
0.72047716 2.4868505 0.13458693 10 28
0 0 0 6 28
0.76253915 2.516073 0.13611546 5 28
0 0 0 5 28
0 0 0 7 28
0.93603635 2.895231 0.15193582 11 28
0.96600413 2.926439 0.15342614 10 28
0.83936036 2.4914982 0.13611546 4 28
0.86828083 2.5259891 0.13772044 10 28
0.86722553 2.4734669 0.13580976 24 28
0.89012659 2.4897397 0.13668866 13 28
1.115906 3.0615995 0.16018991 16 28
1.1729574 3.1577308 0.16439338 185 28
1.1930184 3.1523433 0.16446981 187 28
1.214136 3.1496255 0.16466087 206 28
1.2359957 3.1486273 0.16492838 184 28
0 0 0 187 28
1.278684 3.143404 0.16534872 182 28
1.3002414 3.1410384 0.16557799 181 28
1.3222057 3.1394475 0.1658455 190 28
1.3422313 3.1331124 0.16592193 172 28
1.3630273 3.1284819 0.16607477 188 28
0 0 0 190 28
0 0 0 200 28
0 0 0 196 28
0 0 0 184 28
1.4750102 3.1204307 0.16756509 210 28
1.4975904 3.1185274 0.1678708 222 28
1.5219555 3.1200564 0.16832936 202 28
0 0 0 188 28
0 0 0 236 28
0 0 0 622 28
0 0 0 41 28
0 0 0 47 28
1.5778371 2.9535198 0.16362911 36 28
1.6006935 2.9525671 0.16401125 65 28
0 0 0 27 28
0 0 0 57 28
0 0 0 42 28
0 0 0 43 28
0 0 0 76 28
0 0 0 77 28
0 0 0 80 28
0 0 0 83 28
0 0 0 83 28
0 0 0 93 28
0 0 0 79 28
0 0 0 82 28
0 0 0 91 28
1.7386703 2.6383162 0.15640679 78 28
0 0 0 91 28
1.7770774 2.6258838 0.15682714 95 28
0 0 0 87 28
0 0 0 444 28
0 0 0 177 28
0 0 0 163 28
0 0 0 132 28
0 0 0 156 28
0 0 0 120 28
0 0 0 134 28
0 0 0 103 28
0 0 0 127 28
0 0 0 96 28
0 0 0 115 28
0 0 0 126 28
0 0 0 137 28
0 0 0 121 28
2.1306281 2.5651078 0.16309413 66 28
2.2055087 2.6223366 0.16660976 33 28
2.2338688 2.623208 0.16733582 54 28
2.4437485 2.8341999 0.1786852 70 28
2.4637218 2.8221629 0.17883804 91 28
2.5015092 2.8302011 0.18002267 45 28
2.538821 2.8371365 0.18116906 38 28
2.7192314 3.0014424 0.19045493 113 28
2.7463784 2.9942737 0.1909517 152 28
2.7762597 2.9898131 0.19160132 122 28
2.8089273 2.9880102 0.19240381 124 28
2.8409877 2.9851947 0.19316807 122 28
2.8724253 2.9813778 0.19389413 131 28
2.8983402 2.971565 0.19431448 142 28
2.9235406 2.960835 0.19469662 234 28
2.9395332 2.9407208 0.19458197 11 28
3.2056036 3.1677382 0.20791845 62 28
3.2328465 3.1556866 0.2083388 61 28
3.2622204 3.1455007 0.20887379 85 28
0 0 0 0 28
0 0 0 0 28
0 0 0 0 28
0 0 0 0 28
0 0 0 0 28
0 0 0 0 28
0 0 0 0 28
0 0 0 0 28
0 0 0 0 28
0 0 0 0 28
0 0 0 0 28
0 0 0 0 28
0 0 0 0 28
0 0 0 0 28
0 0 0 0 28
0 0 0 0 28
0 0 0 4 28
3.8272774 2.9503827 0.22037601 7 28
3.8484893 2.9292641 0.22052887 7 28
3.8655915 2.904995 0.22049066 30 28
3.8857512 2.8830075 0.2206053 127 28
3.9162669 2.8685572 0.22121672 105 28
3.9605179 2.8637936 0.22247776 131 28
4.007297 2.8603356 0.22385344 113 28
4.0435615 2.8489294 0.22473235 112 28
4.1077309 2.856581 0.22691052 90 28
4.1466036 2.8460231 0.22790407 100 28
4.1896372 2.8378971 0.22908868 106 28
4.2451882 2.8376782 0.23084649 139 28
4.3092346 2.8423851 0.23298645 142 28
4.3550706 2.8344212 0.2342857 137 28
4.4076977 2.8303201 0.23589066 135 28
4.4646573 2.8283527 0.23768669 103 28
4.5124359 2.819967 0.23906238 129 28
4.5551744 2.8079553 0.24020877 116 28
4.6226964 2.8105774 0.24246337 129 28
4.6741366 2.8027129 0.24399191 113 28
4.7256532 2.7943225 0.24552044 114 28
4.767745 2.7798684 0.24662863 115 28
4.8418918 2.783427 0.24915071 236 28
4.8580103 2.7531726 0.2491125 242 28
4.8591084 2.7145414 0.24842466 234 28
4.8616672 2.6769645 0.24781324 245 28
4.8613133 2.6380291 0.2470872 205 28
4.8677149 2.6029685 0.24666685 211 28
4.8570719 2.5590796 0.24552044 137 28
4.8664737 2.5260069 0.24525295 181 28
4.8658662 2.4879119 0.2445651 246 28
4.8703299 2.4526162 0.24410655 234 28
4.8879728 2.4240179 0.24422118 194 28
4.9341831 2.4093242 0.24555865 195 28
4.9722905 2.3902578 0.2465522 256 28
4.9886699 2.3605583 0.24662863 256 28
4.9731655 2.3159847 0.24536759 140 28
4.981832 2.2829292 0.2451383 220 28
4.9520183 2.2326074 0.24330406 157 28
4.9765859 2.2070408 0.24376263 175 28
4.9909506 2.176863 0.24380083 218 28
4.9931927 2.1414723 0.24334228 307 28
4.997951 2.107301 0.24299836 304 28
4.9978628 2.0712395 0.24246337 347 28
5.0002975 2.0363889 0.24204302 325 28
4.9987817 2.000102 0.24146982 348 28
4.9942188 1.9628145 0.24078198 355 28
5.0033717 1.9310544 0.24066734 414 28
5.0011091 1.8950078 0.24009414 359 28
4.9901638 1.8559276 0.23917702 324 28
4.9995804 1.8245885 0.23910059 338 28
5.004096 1.7915201 0.2388331 369 28
5.0131087 1.7601199 0.23875667 312 28
5.0190897 1.7277009 0.23856561 306 28
5.0258088 1.6955944 0.23841275 347 28
5.0095515 1.6559452 0.23734277 226 28
4.9616251 1.6064045 0.23501176 39 28
4.976151 1.5774398 0.23520282 55 28
4.9790554 1.5448047 0.23493533 27 28
4.9788785 1.511323 0.23455319 29 28
4.9861422 1.4801761 0.23447677 21 28
4.9922514 1.4487185 0.23436213 16 28
4.9952784 1.4164243 0.23413284 22 28
5.0019493 1.3852139 0.23405641 18 28
5.006496 1.3534536 0.23390357 20 28
5.0089087 1.3211801 0.23367429 19 28
5.0111146 1.288928 0.233445 18 28
5.0160208 1.2574275 0.23333037 25 28
5.014905 1.2244934 0.23298645 20 28
5.0106573 1.1909275 0.23252788 19 28
5.0100818 1.1583601 0.23222217 13 28
5.0112453 1.1262827 0.2319929 18 28
5.0151329 1.0948739 0.23187825 15 28
5.0178461 1.0632528 0.23172541 16 28
5.0272121 1.0330471 0.23184004 32 28
5.0305157 1.0015961 0.23172541 25 28
5.0326419 0.96995437 0.23157255 25 28
5.0345693 0.93832433 0.2314197 16 28
5.0343313 0.90635324 0.23119041 22 28
5.0348749 0.87459141 0.23099935 18 28
5.0342331 0.84269214 0.23077007 25 28
5.0333896 0.81083369 0.23054078 27 28
5.0343199 0.77932292 0.23038794 22 28
5.0360417 0.74797809 0.23027329 25 28
5.0316324 0.71579742 0.22992937 25 28
5.0319691 0.68437213 0.22977652 35 28
5.030128 0.65271258 0.22954723 30 28
5.0320549 0.62159115 0.22947082 30 28
5.0318041 0.59023798 0.22931796 36 28
5.0333447 0.5591318 0.22924154 33 28
5.0366807 0.52823722 0.22924154 46 28
5.0418158 0.4975189 0.22931796 57 28
5.0427837 0.46638963 0.22924154 39 28
5.0415683 0.43509555 0.22908868 52 28
5.0411549 0.40391368 0.22897404 44 28
5.037559 0.3725324 0.22874476 71 28
5.038753 0.341548 0.22870654 64 28
5.0447431 0.3108699 0.22885939 71 28
5.0515447 0.28018641 0.22905046 113 28
5.0391955 0.24849747 0.22851548 162 28
5.0436206 0.21770193 0.22863011 190 28
5.0488558 0.18689831 0.22878297 145 28
5.0559006 0.15610015 0.22901225 138 28
5.0527673 0.12497627 0.22885939 85 28
5.057435 0.09404473 0.22901225 87 28
5.0589161 0.063023493 0.22905046 57 28
5.0592079 0.031981379 0.22905046 59 28
5.0633059 0.00093849597 0.22920331 74 28
0 -0 0 73 28
5.0649343 -0.061220434 0.22927974 51 28
5.06846 -0.092370272 0.2294326 49 28
5.0707946 -0.12354126 0.22954723 42 28
5.0729375 -0.15474437 0.22966188 43 28
5.0738897 -0.18594177 0.22973831 45 28
5.0726533 -0.21707107 0.22973831 36 28
5.0632415 -0.24780081 0.2294326 53 28
0 -0 0 36 28
5.0658035 -0.31028292 0.22966188 50 28
5.0717802 -0.34189856 0.22996758 37 28
5.0765629 -0.3735258 0.23023508 37 28
5.080152 -0.40514505 0.23046435 32 28
5.0825486 -0.43673679 0.23065543 26 28
5.0937037 -0.46919876 0.23119041 19 28
5.086751 -0.50005299 0.23103756 23 28
5.0925317 -0.53219068 0.23138148 18 28
5.0842042 -0.56287771 0.23119041 22 28
