# .PCD v0.7 - Point Cloud Data file format
VERSION 0.7
FIELDS x y z intensity ring
SIZE 4 4 4 4 1
TYPE F F F F U
COUNT 1 1 1 1 1
WIDTH 1301
HEIGHT 1
VIEWPOINT 0 0 0 1 0 0 0
POINTS 1301
DATA ascii
4.7116981 -2.1221962 1.2559063 65 12
4.7145133 -2.1583591 1.2600533 64 12
4.7152972 -2.193815 1.2637396 74 12
4.7140636 -2.2285297 1.266965 69 12
4.7090721 -2.261626 1.2692689 80 12
4.7056012 -2.2955985 1.2720336 95 12
4.722816 -2.3399832 1.2803276 77 12
4.7361846 -2.3829153 1.2877001 63 12
4.737072 -2.4199007 1.2918471 40 12
4.7342281 -2.455194 1.2950726 34 12
4.7319899 -2.4909966 1.2985283 44 12
4.7294898 -2.5268641 1.3019842 40 12
4.7327156 -2.5660412 1.3070527 40 12
4.7322273 -2.6034765 1.3111998 40 12
4.7331572 -2.6419508 1.3158076 46 12
4.7354851 -2.6814933 1.3208761 34 12
4.7459435 -2.7260106 1.3282486 27 12
4.7434211 -2.7634082 1.3321652 27 12
4.7381043 -2.7993917 1.3353907 32 12
4.7350287 -2.8369148 1.3393073 34 12
4.7341652 -2.8760207 1.3439151 36 12
4.7271996 -2.9116499 1.3469101 61 12
4.7373071 -2.9581263 1.3547434 42 12
4.7437329 -3.0027537 1.3616551 36 12
4.7465124 -3.0454686 1.3676451 36 12
4.750577 -3.089391 1.3740962 43 12
4.7469683 -3.1286576 1.3784735 34 12
4.7471013 -3.1706984 1.3840028 36 12
4.7452855 -3.2117672 1.3890715 31 12
4.7559829 -3.2617395 1.3978262 25 12
4.7798285 -3.3214037 1.4104977 11 12
4.7697024 -3.3579528 1.4134927 16 12
4.7656446 -3.3990231 1.4183309 22 12
4.7644167 -3.4424493 1.4240906 35 12
4.7612643 -3.4848385 1.4293896 42 12
4.7601156 -3.5290568 1.4353796 41 12
4.7624927 -3.5763135 1.4425218 32 12
4.7451062 -3.6090031 1.443904 17 12
4.7637281 -3.6695261 1.4561148 38 12
4.7641387 -3.7166445 1.4630264 33 12
4.761096 -3.7614925 1.4690166 23 12
4.7736368 -3.8192096 1.4798448 40 12
4.7795987 -3.8723204 1.4888301 26 12
4.7805738 -3.9219437 1.4964329 39 12
4.7826161 -3.9729676 1.5044965 31 12
4.780488 -4.0210314 1.5114082 60 12
4.7831349 -4.0736346 1.5199326 35 12
4.7772093 -4.1194301 1.5259228 29 12
4.7789636 -4.1723461 1.5344472 38 12
4.7751441 -4.2209263 1.5413588 42 12
4.7730832 -4.2715631 1.5489616 32 12
4.7792325 -4.330173 1.5593292 42 12
4.7891436 -4.3929658 1.571079 39 12
4.7941842 -4.4520683 1.5814465 54 12
4.7965522 -4.509397 1.591123 53 12
4.8040347 -4.572289 1.6026424 43 12
4.8067203 -4.6313901 1.6127795 48 12
4.8025913 -4.6845794 1.6208432 39 12
4.8000669 -4.7399426 1.629598 38 12
4.798419 -4.7968264 1.6388135 35 12
4.8017244 -4.859405 1.6498722 37 12
4.8024025 -4.9201145 1.6602398 46 12
4.8038654 -4.9824152 1.6710681 53 12
4.8208494 -5.0618305 1.6874257 35 12
4.8303704 -5.134552 1.7014794 20 12
4.8292432 -5.1968861 1.7120774 48 12
4.8281903 -5.2601151 1.7229056 30 12
4.8232737 -5.319921 1.7325821 42 12
4.8223481 -5.3849382 1.7438711 30 12
4.8266072 -5.4567032 1.7572337 35 12
4.8192825 -5.516263 1.7666796 46 12
4.8241215 -5.590673 1.7807335 30 12
4.8421121 -5.6816421 1.7998557 19 12
4.8328495 -5.7417712 1.8093017 24 12
4.8317385 -5.8124757 1.8219731 24 12
3.7210732 -4.5325236 1.4208652 90 12
3.6588762 -4.512939 1.4079634 259 12
3.6566582 -4.5672102 1.4176397 169 12
3.641238 -4.6055923 1.4224778 172 12
3.6111138 -4.6255465 1.4217867 210 12
3.5684068 -4.6291194 1.4162574 252 12
3.5340428 -4.6431837 1.4139534 223 12
3.5212691 -4.6857858 1.420174 254 12
3.502887 -4.7213717 1.4243209 303 12
3.4566026 -4.7192235 1.4174093 241 12
3.4247303 -4.7364011 1.4162574 206 12
3.4289551 -4.8040581 1.4298503 318 12
3.4195881 -4.8536463 1.4381443 289 12
3.4175179 -4.914485 1.4496639 323 12
3.6229558 -5.2787662 1.5482705 177 12
3.6276031 -5.3556852 1.5639369 240 12
3.5995393 -5.3851242 1.5660105 343 12
3.5573215 -5.3932996 1.5620939 232 12
3.5315921 -5.4264441 1.5653193 332 12
3.497704 -5.4471922 1.565089 279 12
3.4761908 -5.4874587 1.5703878 177 12
3.4625649 -5.5408697 1.5793731 207 12
3.4530089 -5.6017742 1.5904318 211 12
3.4458678 -5.667758 1.6028728 150 12
4.0184674 -6.7019987 1.8825656 387 12
3.9569647 -6.6921859 1.8731196 483 12
3.9065161 -6.7003665 1.8687422 422 12
3.8561165 -6.7081804 1.8643647 509 12
3.8057685 -6.7156291 1.8599874 425 12
3.755949 -6.7235622 1.8558404 425 12
3.6967897 -6.7140884 1.8470856 504 12
3.6425292 -6.7126966 1.8406347 415 12
3.5865905 -6.7074594 1.8332622 585 12
3.5353889 -6.7103996 1.8281937 640 12
3.4851835 -6.7146916 1.8235859 680 12
3.4337296 -6.7160215 1.8182869 667 12
3.3823912 -6.7169738 1.8129879 670 12
3.3316031 -6.7184215 1.8079194 664 12
3.2817786 -6.7212481 1.8033116 642 12
3.2366822 -6.7333646 1.8012381 571 12
3.1882317 -6.7381444 1.7973214 660 12
3.1361477 -6.7346439 1.7913313 711 12
3.0870645 -6.7369514 1.7869539 747 12
3.0392711 -6.7415724 1.7832677 789 12
2.9895651 -6.7414131 1.7784295 804 12
2.9423099 -6.7462502 1.7749738 778 12
2.894341 -6.7489729 1.7710571 861 12
2.8460715 -6.7504649 1.7669101 893 12
2.7982657 -6.7525182 1.7629935 881 12
2.7534776 -6.7614498 1.7609199 792 12
1.9193294 -4.7968674 1.2556759 339 12
1.8891485 -4.8067422 1.2552152 412 12
2.6068356 -6.7546997 1.7466358 419 12
2.5694773 -6.7814875 1.7494005 796 12
2.5156093 -6.7642908 1.7411065 107 12
1.7589422 -4.8196616 1.2471515 74 12
1.7260569 -4.8212013 1.2448477 82 12
1.690963 -4.8160925 1.240931 75 12
1.6686634 -4.8475409 1.24623 63 12
1.6339118 -4.8429351 1.2425437 73 12
1.6044707 -4.8537936 1.2427741 82 12
1.5845473 -4.8940988 1.2503769 251 12
1.5559578 -4.9083672 1.251529 279 12
1.5252347 -4.9159632 1.2510681 327 12
1.4922165 -4.9159179 1.2487643 338 12
1.457872 -4.9109879 1.2453084 356 12
1.4263557 -4.9151678 1.2441565 346 12
1.3953737 -4.9210186 1.2434653 329 12
1.3648931 -4.9285502 1.2432349 372 12
1.3323414 -4.9283776 1.2411613 407 12
1.299099 -4.9251685 1.2383968 401 12
1.2661886 -4.9226804 1.2358625 455 12
1.2333578 -4.9199739 1.2333281 471 12
1.1985312 -4.9085422 1.2287204 430 12
1.1665908 -4.9082298 1.2268772 492 12
1.1390821 -4.9266725 1.2296419 272 12
1.1523465 -5.1272531 1.2766414 36 12
1.1009464 -5.0429578 1.254524 48 12
1.4482661 -6.8355274 1.6867346 257 12
1.4057094 -6.8414259 1.6860434 298 12
1.3633249 -6.8480134 1.6855826 353 12
1.3192556 -6.8457389 1.6830484 354 12
1.2749093 -6.8412685 1.6800532 495 12
1.2334251 -6.8518357 1.6807444 210 12
0.88472694 -5.0932498 1.2563671 26 12
0.854101 -5.1024213 1.2572887 27 12
0.82339585 -5.1114092 1.2582102 26 12
0.79142213 -5.1125183 1.2572887 11 12
0.76089478 -5.1230536 1.258671 11 12
0.97326934 -6.8424945 1.6687641 281 12
0.7219547 -5.3084598 1.3008323 81 12
0.69687784 -5.3706903 1.3146557 87 12
0.84667963 -6.8553867 1.6678426 478 12
0.80448651 -6.8594861 1.6676122 500 12
0.76313388 -6.8710637 1.669225 531 12
0.72177088 -6.883359 1.6710681 507 12
0.67761207 -6.8682899 1.6664603 607 12
0.63491905 -6.8665047 1.6650779 658 12
0.59327656 -6.8760881 1.6664603 591 12
0.55076391 -6.8757191 1.6655387 661 12
0.50791973 -6.870235 1.6634653 668 12
0.46588665 -6.875164 1.663926 748 12
0.42393178 -6.8817782 1.6648475 787 12
0.38094458 -6.8706474 1.661622 853 12
0.33892345 -6.875771 1.6623132 849 12
0.29693758 -6.8825822 1.6634653 846 12
0.25444981 -6.8774676 1.6618525 860 12
0.21218576 -6.8769541 1.6613917 922 12
0.16972171 -6.8674259 1.6588575 980 12
0.12758078 -6.8683381 1.6588575 1042 12
0.085410953 -6.8670454 1.6583966 1071 12
0.0432861 -6.8693867 1.6588575 1142 12
0.0011359483 -6.873415 1.659779 1165 12
-0.041044421 -6.8742657 1.6600094 1240 12
-0.083258852 -6.8768039 1.6607006 1263 12
-0.1255772 -6.8829737 1.6623132 1244 12
-0.1678793 -6.8849921 1.6630044 1224 12
-0.21041909 -6.893559 1.6653084 1243 12
-0.25260606 -6.8892207 1.6646172 1237 12
-0.29478943 -6.8855968 1.6641564 1276 12
-0.33765244 -6.8962936 1.6671515 1310 12
-0.37996095 -6.8940916 1.6671515 1224 12
-0.42207646 -6.8887167 1.6664603 1243 12
-0.46459898 -6.8898807 1.6673819 1259 12
-0.50743759 -6.8946643 1.669225 1311 12
-0.55050725 -6.9011211 1.6715288 1431 12
-0.5930081 -6.8995523 1.6719897 1338 12
-0.63542116 -6.8967528 1.67222 1354 12
-0.67810798 -6.8965979 1.6731416 1289 12
-0.720918 -6.8971462 1.6742935 1237 12
-0.76418889 -6.9012976 1.676367 1280 12
-0.80742472 -6.9042106 1.6782101 1232 12
-0.85048705 -6.9049211 1.6795925 1241 12
-0.89333856 -6.9034328 1.680514 1252 12
-0.93672729 -6.9055357 1.6823572 1186 12
-0.98113275 -6.9141097 1.685813 1148 12
-1.0253932 -6.9204726 1.6888081 1170 12
-1.0691744 -6.9227061 1.6908816 1101 12
-1.1130215 -6.9246621 1.692955 1062 12
-1.1567725 -6.9253807 1.6947982 1091 12
-1.2005742 -6.9258227 1.6966413 1103 12
-1.2442526 -6.9250302 1.698254 1063 12
-1.2888564 -6.9287453 1.7010187 1073 12
-1.3322656 -6.9254847 1.7021706 1082 12
-1.3762524 -6.9248152 1.7040137 1135 12
-1.4218458 -6.9314919 1.7077 1125 12
-1.4675728 -6.9378695 1.7113862 1152 12
-1.5121878 -6.9382415 1.7136902 1097 12
-1.5564365 -6.9364281 1.7155333 1132 12
-1.6015954 -6.9381256 1.718298 1114 12
-1.6484069 -6.9461565 1.7226753 1086 12
-1.6937631 -6.9472561 1.72544 1099 12
-1.7410856 -6.9556117 1.7300477 873 12
-1.463396 -5.6978784 1.4252425 49 12
-1.4953551 -5.6775002 1.4224778 50 12
-1.5248363 -5.6484895 1.4176397 57 12
-1.5563529 -5.6277723 1.414875 60 12
-1.5908549 -5.6181169 1.414875 81 12
-1.6271935 -5.6147923 1.4164877 54 12
-1.6632745 -5.6103001 1.41787 77 12
-1.704162 -5.621407 1.423169 84 12
-1.7478409 -5.6405878 1.4305415 15 12
-2.2116311 -6.985116 1.7671405 1011 12
-2.256845 -6.9788213 1.7689836 1155 12
-2.3042009 -6.9787025 1.7724394 1101 12
-2.3522618 -6.9801087 1.776356 1110 12
-2.4007428 -6.9821081 1.780503 1098 12
-2.4486926 -6.9819379 1.7841892 1104 12
-0 -0 0 860 12
-0 -0 0 975 12
-2.5944176 -6.9831147 1.7961695 963 12
-2.6499643 -7.0007367 1.8046939 740 12
-2.1214836 -5.5025997 1.4286984 305 12
-2.1260412 -5.415206 1.4098065 148 12
-2.102154 -5.2592955 1.373405 80 12
-2.11678 -5.2030339 1.3623463 39 12
-2.1367521 -5.1611776 1.3549738 54 12
-2.149868 -5.1040277 1.3436847 19 12
-2.1550813 -5.0299191 1.3280182 107 12
-2.1909578 -5.0281982 1.3310133 48 12
-2.2174323 -5.0048738 1.3284789 23 12
-3.1633995 -7.0229149 1.8560708 106 12
-3.2116983 -7.0148745 1.8590659 946 12
-3.2169096 -6.9138684 1.83787 561 12
-3.2272429 -6.826262 1.82013 362 12
-3.2652752 -6.7984371 1.8180565 307 12
-3.4396386 -7.0502572 1.8897077 1143 12
-3.4906108 -7.0447135 1.8938546 1164 12
-3.5425191 -7.0405478 1.8984624 1099 12
-3.6007059 -7.0481415 1.9062957 875 12
-2.8736775 -5.5410261 1.5102563 499 12
-2.8749816 -5.4612942 1.4936682 482 12
-2.8804615 -5.3911977 1.4796145 573 12
-2.8944678 -5.3383503 1.4701685 535 12
-2.9032438 -5.2770095 1.4584186 584 12
-2.9104283 -5.2140641 1.446208 737 12
-2.9145527 -5.1469975 1.4328454 389 12
-2.9494722 -5.1349235 1.4344581 309 12
-2.8628581 -4.9141002 1.3789343 190 12
-4.1761274 -7.0679216 1.9761037 195 12
-3.0920074 -5.1607304 1.4568059 335 12
-4.3049917 -7.0859985 1.9954563 1024 12
-4.3524728 -7.0660782 1.9972996 643 12
-4.3529639 -6.9707336 1.9781772 433 12
-4.3691072 -6.9019618 1.9664273 276 12
-4.402966 -6.8619204 1.9627411 263 12
-4.6062794 -7.0827579 2.0327795 399 12
-4.6785717 -7.0982337 2.0452206 899 12
-4.7301455 -7.0815306 2.0486763 378 12
-3.4299636 -5.0676169 1.4812272 193 12
-3.4582412 -5.0424633 1.4800752 388 12
-3.5007782 -5.0379295 1.4849135 505 12
-3.5445099 -5.0346541 1.4902123 597 12
-3.5888977 -5.0318236 1.4957417 250 12
-4.960804 -6.8655586 2.037848 339 12
-5.0057111 -6.8389163 2.039 314 12
-3.7319129 -5.0336976 1.516016 516 12
-3.7305882 -4.9679093 1.5033445 807 12
-3.7409699 -4.9185925 1.4955113 665 12
-3.7485118 -4.8662529 1.4867566 254 12
-4.8821135 -6.257885 1.9115946 212 12
-4.9246421 -6.2331557 1.9132074 227 12
-4.9542837 -6.1921844 1.9099818 186 12
-4.9787078 -6.1450357 1.9049133 211 12
-5.0274296 -6.127912 1.9090604 230 12
-5.0413046 -6.0685067 1.9003055 206 12
-5.0828304 -6.0426722 1.9019183 231 12
-5.1223359 -6.0143342 1.9028398 228 12
-5.1451612 -5.966579 1.8977712 235 12
-5.1797547 -5.9326973 1.8970801 274 12
-5.1947904 -5.8767447 1.8894773 235 12
-5.2197189 -5.8324327 1.8855606 239 12
-3.9675281 -4.3790278 1.4314631 277 12
-3.9765613 -4.3352404 1.4252425 795 12
-3.9958026 -4.3029156 1.4227083 805 12
-3.9508059 -4.2024603 1.3980566 570 12
-3.9161351 -4.1147041 1.3773216 439 12
-3.9500868 -4.0997066 1.3803166 644 12
-3.9758472 -4.0760889 1.380547 663 12
-4.0206122 -4.0716958 1.3872283 468 12
-4.046896 -4.0483251 1.3876891 337 12
-4.0654302 -4.0172625 1.3856156 435 12
-4.0906992 -3.9929214 1.3858459 479 12
-4.0955067 -3.9488356 1.379395 391 12
-4.1175451 -3.9216185 1.3787038 420 12
-4.1252279 -3.880945 1.373405 86 12
-3.5408831 -3.2905588 1.1768827 40 12
-3.5481021 -3.2569268 1.1727357 27 12
-3.5600891 -3.2279055 1.1702014 12 12
-3.5754786 -3.2021055 1.1688191 34 12
-3.6008904 -3.1852639 1.1706623 31 12
-2.729948 -2.3852777 0.89073908 40 12
-2.7054837 -2.3347909 0.87852842 128 12
-2.7227213 -2.3206711 0.87945002 159 12
-2.7287197 -2.2970285 0.87691569 284 12
-2.7143254 -2.2566059 0.8681609 132 12
-2.7386508 -2.2485523 0.87138635 291 12
-2.7297184 -2.2133224 0.86447471 140 12
-2.7341318 -2.1892338 0.86171001 116 12
-2.731482 -2.1597438 0.85687184 88 12
-2.7324095 -2.1333628 0.85318559 108 12
-2.7331164 -2.1070521 0.84949934 125 12
-2.7552857 -2.0973141 0.85226405 277 12
-2.741652 -2.0604939 0.8444308 129 12
-2.7409573 -2.0337768 0.84051418 99 12
-2.7423935 -2.0088708 0.83728874 95 12
-2.7475708 -1.9868749 0.83521521 104 12
-2.7533736 -1.9654566 0.83337212 110 12
-2.7637906 -1.9474044 0.83291131 110 12
-2.7780845 -1.932076 0.83360249 106 12
-2.8043294 -1.9249045 0.83774948 77 12
-2.8402588 -1.9240311 0.84466118 75 12
-2.8787096 -1.9244109 0.85226405 77 12
-2.9400163 -1.9393914 0.86631781 273 12
-2.9632795 -1.9287456 0.86954325 100 12
-3.0119069 -1.9341848 0.87991077 304 12
-3.0459142 -1.9297265 0.88613129 100 12
-3.0948334 -1.9342046 0.8964988 76 12
-3.1364655 -1.9335591 0.90479285 75 12
-3.1640694 -1.9238818 0.90917021 81 12
-3.2150407 -1.9279482 0.91999853 43 12
-4.3601561 -2.5782354 1.2317154 102 12
-4.3414259 -2.5313399 1.2222694 99 12
-4.3383155 -2.4939857 1.2172009 116 12
-6.9569178 -3.9424918 1.9256483 116 12
-6.9427476 -3.878377 1.9152808 213 12
-6.9689717 -3.8371119 1.915972 114 12
-4.0663524 -2.2067094 1.1278098 193 12
-4.0643692 -2.1734586 1.1236628 217 12
-4.0586882 -2.1385014 1.1185942 238 12
-4.0596414 -2.1072822 1.1153687 205 12
-4.0646968 -2.0783465 1.1132953 248 12
-4.0652046 -2.0472403 1.1100699 210 12
-4.0672283 -2.017071 1.1073052 143 12
-4.0690346 -1.986954 1.1045405 135 12
-4.0697479 -1.9564694 1.1015455 161 12
-4.0728798 -1.9272996 1.0992415 142 12
-4.0811 -1.9006296 1.09832 190 12
-4.0820694 -1.8706888 1.0955553 176 12
-4.0837126 -1.8412077 1.093021 145 12
-4.0895953 -1.8137492 1.0916387 191 12
-4.0810242 -1.7800645 1.0865701 48 12
-4.0766654 -1.7484709 1.0826535 67 12
-4.0783505 -1.7196441 1.0803496 227 12
-4.1023102 -1.7001747 1.0838054 134 12
-4.1315913 -1.6826776 1.0886436 119 12
-4.149066 -1.6601864 1.0904868 52 12
-4.1582689 -1.6343411 1.0902563 53 12
-4.1627717 -1.6066939 1.088874 33 12
-4.1716418 -1.5807766 1.0886436 56 12
-4.1839991 -1.5561675 1.0893347 37 12
-4.1943827 -1.5307993 1.0895652 53 12
-4.2055292 -1.50569 1.0900259 41 12
-4.2018342 -1.4753449 1.0868005 32 12
-4.2292104 -1.4558682 1.0914083 62 12
-4.2380638 -1.429891 1.0914083 50 12
-4.2301264 -1.3983636 1.0872613 38 12
-4.2275171 -1.3687856 1.0844966 38 12
-4.236764 -1.3431143 1.0847269 59 12
-4.071125 -1.2631834 1.0416441 22 12
-0 -0 0 4 12
-0 -0 0 5 12
-3.9665856 -1.1511596 1.0103112 13 12
-3.9511054 -1.1204301 1.0047818 18 12
-3.9560301 -1.0956463 1.0043211 32 12
-3.9701936 -1.073383 1.0061642 31 12
-3.9861143 -1.0514832 1.008468 55 12
-4.0085125 -1.0311247 1.0123847 90 12
-4.0232592 -1.0086385 1.0144582 120 12
-4.0416617 -0.98693299 1.0174533 152 12
-4.0457478 -0.96166539 1.0169924 143 12
-4.0449357 -0.93528908 1.0153798 123 12
-4.0505981 -0.91045225 1.0153798 84 12
-4.0466013 -0.8835063 1.0130758 68 12
-4.0671778 -0.86188644 1.0167621 28 12
-4.0590448 -0.83417332 1.0135367 26 12
-4.0554976 -0.80754226 1.0114632 19 12
-4.0259771 -0.77601588 1.0031691 5 12
-0 -0 0 5 12
-4.3004837 -0.77429265 1.066987 49 12
-4.3118653 -0.74905604 1.0685997 87 12
-4.3307767 -0.72499359 1.0720556 74 12
-4.3409081 -0.69933492 1.0734379 92 12
-4.348002 -0.67313284 1.0741291 75 12
-4.354938 -0.64686996 1.0748203 75 12
-4.3385935 -0.6172598 1.0699821 84 12
-4.3432636 -0.59075814 1.0702125 69 12
-4.405673 -0.57173121 1.0842662 155 12
-4.2970691 -0.53085786 1.057541 87 12
-4.3331056 -0.50833362 1.0653743 117 12
-4.3670921 -0.48517221 1.0727468 151 12
-4.3409529 -0.45532429 1.065835 89 12
-4.3959589 -0.4338364 1.078276 127 12
-4.4421415 -0.41088453 1.0886436 243 12
-4.3602328 -0.37634754 1.0685997 91 12
-4.4371495 -0.35556522 1.0863397 195 12
-4.3557887 -0.32216722 1.0665262 117 12
-4.3081689 -0.29208204 1.0547763 76 12
-4.4643102 -0.27514666 1.0914083 299 12
-4.3668103 -0.24225973 1.0679085 121 12
-4.3954287 -0.21680082 1.0743594 81 12
-4.3684821 -0.18861212 1.0676782 170 12
-4.3890061 -0.16252252 1.0722859 72 12
-4.3772764 -0.13519961 1.0692909 70 12
-4.4558477 -0.11025757 1.0877221 198 12
-4.3756871 -0.081419453 1.0685997 69 12
-4.36832 -0.05447283 1.0667566 86 12
-4.3763566 -0.027716912 1.0685997 111 12
-4.343359 -0.00085996196 1.0607665 76 12
-4.4590793 0.0264883 1.0881828 213 12
-4.3702874 0.052771188 1.0672174 112 12
-4.3552871 0.079318695 1.0637616 90 12
-7.9934168 -0.59143883 1.8301457 201 13
-8.0037098 -0.54284424 1.8316776 217 13
-8.0059156 -0.49366397 1.8314587 218 13
-8.0058718 -0.44436866 1.8308022 272 13
-8.004549 -0.39504421 1.829927 209 13
-8.0136461 -0.3462176 1.8314587 182 13
-8.0214701 -0.29725793 1.8327717 233 13
-8.0163164 -0.24782147 1.8312399 198 13
-6.3681808 -0.15752439 1.4612076 156 13
-6.3719544 -0.11850197 1.4618641 129 13
-7.9795165 -0.099719539 1.8222681 198 13
-7.9848571 -0.050788015 1.8233622 178 13
-7.9889216 -0.0017943432 1.8242375 179 13
-7.9975638 0.04727542 1.8262069 190 13
-8.0059042 0.096451171 1.8281764 192 13
-8.0080891 0.14562546 1.8288329 90 13
-8.0138731 0.19492452 1.8303646 204 13
-8.0027723 0.24379735 1.8281764 160 13
-7.9972258 0.29275462 1.827301 182 13
-8.0011282 0.3420684 1.828614 184 13
-7.9881577 0.39063326 1.8262069 102 13
-7.9797649 0.43931934 1.824894 182 13
-7.9837365 0.48869032 1.8264258 171 13
-7.9912972 0.53838831 1.8288329 179 13
-7.9946551 0.58791184 1.8303646 186 13
-7.9918699 0.63703245 1.8305835 160 13
-7.9907274 0.68630773 1.8312399 154 13
-7.9785924 0.73461038 1.8294892 186 13
-7.9535418 0.78155136 1.824894 185 13
-7.9427733 0.82973123 1.823581 182 13
-7.9520807 0.88005942 1.8268634 159 13
-7.9552536 0.92985421 1.8288329 171 13
-7.9552093 0.97936374 1.8301457 193 13
-7.9461474 1.0277824 1.8294892 118 13
-4.3591275 0.59157324 1.0191821 26 13
-4.2897196 0.60900062 1.004302 41 13
-4.2569447 0.63102591 0.99773735 53 13
-4.2510638 0.65683669 0.99729967 95 13
-4.237319 0.68136185 0.99511147 96 13
-4.2369084 0.70799094 0.99598676 110 13
-4.2036409 0.72898096 0.98942202 173 13
-7.9091949 1.42058 1.8347411 182 13
-7.8945737 1.4680136 1.8334281 181 13
-7.8777514 1.5149531 1.8316776 155 13
-7.8788357 1.5653517 1.8340846 120 13
-4.4823222 0.91967654 1.0587894 235 13
-4.4775496 0.94736397 1.0590082 212 13
-4.4964414 0.98021722 1.0646976 288 13
-4.5008154 1.0101362 1.0671047 324 13
-4.4555497 1.0287434 1.0581329 223 13
-4.5146651 1.0715951 1.0732318 359 13
-4.5089531 1.0995073 1.0734506 283 13
-4.4566846 1.1157895 1.062947 144 13
-4.4535346 1.1440843 1.0638224 199 13
-4.4690781 1.1773493 1.0690742 266 13
-4.4570594 1.2034783 1.0679801 151 13
-4.4966168 1.2437986 1.0789212 255 13
-4.4335051 1.2556916 1.0660106 158 13
-4.4472737 1.2891142 1.0710435 226 13
-4.4738965 1.3266331 1.0791401 233 13
-4.4096408 1.3370852 1.0660106 156 13
-4.4526191 1.3799917 1.078046 218 13
-4.3938313 1.391392 1.0662295 189 13
-4.3805685 1.4168257 1.0651352 128 13
-4.3995914 1.4528496 1.0717 196 13
-4.3850455 1.4779493 1.0703871 210 13
-4.3851228 1.5079983 1.0725753 143 13
-4.3757873 1.5348766 1.0725753 134 13
-4.3488288 1.5554577 1.0684177 218 13
-4.0989976 1.4946002 1.0110856 9 13
-4.0714545 1.5129303 1.0067091 7 13
-0 0 0 6 13
-0 0 0 8 13
-4.0565419 1.5929624 1.0099915 5 13
-0 0 0 8 13
-4.067421 1.6551186 1.0174315 6 13
-4.1058769 1.7001907 1.0292481 20 13
-4.1151524 1.7336811 1.0340621 47 13
-4.1017461 1.7577462 1.0334058 71 13
-4.0980406 1.7859979 1.0351564 60 13
-4.0852203 1.8103192 1.0347186 32 13
-4.0669174 1.832147 1.032968 15 13
-4.0343041 1.8473225 1.0277163 7 13
-0 0 0 6 13
-4.0254469 1.9033604 1.0312175 4 13
-4.0048957 1.9238015 1.0290293 5 13
-3.993016 1.9483389 1.0290293 15 13
-0 0 0 4 13
-4.2573519 2.1423001 1.1014601 333 13
-4.2571621 2.1750383 1.1047425 377 13
-4.2567306 2.2078547 1.1080248 358 13
-4.267282 2.2466543 1.114152 319 13
-4.2551379 2.2737148 1.1145896 316 13
-4.2556906 2.3076847 1.1183096 263 13
-5.8702493 3.2294478 1.5351703 259 13
-5.8375416 3.2582748 1.531888 229 13
-4.5572591 2.580766 1.2071524 164 13
-4.5481076 2.6125669 1.208903 146 13
-4.5522285 2.6522088 1.2141547 128 13
-4.5367093 2.6805871 1.2143736 107 13
-4.5201764 2.7083733 1.2143736 112 13
-4.5209875 2.7466934 1.2189689 150 13
-4.4799528 2.7595463 1.212623 136 13
-4.4919076 2.8050659 1.2202818 82 13
-4.4721379 2.8310096 1.2196254 101 13
-4.452219 2.8568165 1.2189689 119 13
-4.4215164 2.8755722 1.2154677 136 13
-4.4241595 2.9160686 1.2209383 159 13
-4.4053721 2.9426179 1.2207195 109 13
-4.4211769 2.9925578 1.2299101 102 13
-4.3697348 2.9970088 1.2209383 173 13
-4.3825183 3.0454738 1.2294725 115 13
-4.3581629 3.0683763 1.2279407 139 13
-4.3019114 3.0684369 1.217656 215 13
-4.2782569 3.0913472 1.216343 159 13
-4.2434578 3.1060169 1.2119665 108 13
-4.3019319 3.189512 1.2336302 191 13
-4.3049111 3.2328355 1.239976 202 13
-4.2989755 3.269819 1.243915 180 13
-4.3012524 3.3133991 1.2502608 216 13
-4.3016162 3.3559299 1.2561691 246 13
-4.2954931 3.3937509 1.2603267 267 13
-4.3614612 3.4895191 1.2852727 97 13
-4.6000605 3.7268503 1.3603295 193 13
-4.5952148 3.7698553 1.3655813 206 13
-4.5674925 3.7942398 1.3642684 245 13
-4.5530877 3.8297293 1.3668942 194 13
-4.5458493 3.87151 1.3717084 163 13
-4.533834 3.909523 1.3752096 188 13
-4.4906459 3.9205871 1.3695202 171 13
-4.450418 3.9338534 1.364706 208 13
-4.4276509 3.9623878 1.3651437 202 13
-4.424952 4.009131 1.3717084 112 13
-4.4053035 4.040823 1.3732402 125 13
-4.3696995 4.0578194 1.3699578 201 13
-4.3461409 4.0858917 1.3703954 118 13
-4.3478527 4.1380396 1.3787107 286 13
-4.3322196 4.1741161 1.3817743 264 13
-4.3149095 4.2087936 1.3844002 218 13
-4.272337 4.218739 1.3791485 208 13
-4.3478341 4.3462625 1.4113157 292 13
-4.3478374 4.3999219 1.4198498 139 13
-6.2077298 6.3589454 2.0255561 202 13
-6.1624985 6.390595 2.0235865 215 13
-6.1272092 6.4325256 2.0248995 200 13
-6.1023369 6.4856329 2.0297136 172 13
-6.0630913 6.5236688 2.0299325 206 13
-6.0005097 6.5363121 2.0224924 204 13
-5.958324 6.5708389 2.021836 227 13
-5.9055228 6.5934668 2.0176783 163 13
-4.0796022 4.6120028 1.4135039 19 13
-5.7978387 6.6353173 2.0087066 77 13
-4.0093088 4.6462073 1.4089086 32 13
-4.0465641 4.7479429 1.4316664 47 13
-4.1700821 4.9540553 1.4848406 401 13
-4.1633143 5.0080581 1.4931561 302 13
-5.6727014 6.9088225 2.0373726 122 13
-5.6123776 6.9215226 2.0310266 420 13
-5.5149026 6.8872862 2.0113325 573 13
-5.4598274 6.9049234 2.0067372 635 13
-5.3759151 6.885232 1.9916382 519 13
-5.310328 6.8879538 1.9831041 371 13
-5.2319055 6.8730516 1.9697558 507 13
-4.8278575 6.4238 1.8347411 291 13
-5.0709853 6.8340955 1.9410897 618 13
-5.0053105 6.8328118 1.9321179 608 13
-4.9455624 6.8388863 1.9253345 646 13
-4.8842273 6.842104 1.9178944 709 13
-4.7550201 6.748322 1.8839766 531 13
-4.6154485 6.6363959 1.8454635 472 13
-4.6613555 6.7908816 1.8798189 668 13
-4.4942513 6.6343751 1.8297081 385 13
-4.5277686 6.7729497 1.8596871 758 13
-4.4662409 6.7704701 1.8515905 811 13
-4.4065123 6.7699447 1.8441505 864 13
-4.3374653 6.7541652 1.8327717 724 13
-4.2818379 6.758399 1.8268634 717 13
-4.1849408 6.6960158 1.8034492 732 13
-2.0576508 3.3388109 0.91217697 128 13
-2.0345902 3.3472054 0.9110828 141 13
-2.0125079 3.357116 0.91042638 9 13
-0 0 0 6 13
-0 0 0 4 13
-1.8890786 3.2870135 0.88285446 5 13
-1.898713 3.3511698 0.89642161 29 13
-1.8528842 3.3176138 0.88482392 23 13
-1.7952985 3.2614019 0.86753672 55 13
-1.7645451 3.2526331 0.86250377 70 13
-1.7597437 3.2917912 0.86972499 138 13
-1.5220209 2.8899245 0.76512688 18 13
-1.4786272 2.8498495 0.7526539 22 13
-1.4722224 2.8805861 0.75812447 21 13
-1.4527637 2.8860795 0.75724918 20 13
-1.4259204 2.8765833 0.7526539 24 13
-1.4052449 2.8791413 0.75112212 11 13
-1.3892441 2.891227 0.75199741 21 13
-1.36772 2.8917594 0.75002801 21 13
-1.3441814 2.8877146 0.74696445 22 13
-1.3130174 2.8666375 0.73974323 21 13
-1.2962058 2.8764191 0.74018091 21 13
-1.2769489 2.8807507 0.73930562 19 13
-1.2440284 2.8536532 0.73077142 12 13
-0 0 0 23 13
-1.1311663 2.6844013 0.68591243 45 13
-0 0 0 51 13
-0 0 0 57 13
-0 0 0 68 13
-1.0388796 2.6450634 0.66993821 62 13
-1.0170062 2.6368239 0.66643703 75 13
-0.98697102 2.606519 0.65768403 122 13
-0.97061884 2.6116114 0.65746522 129 13
-0.95256782 2.6120183 0.65615231 144 13
-0.93356127 2.6095467 0.65418285 131 13
-0 0 0 121 13
-0 0 0 116 13
-0.87819153 2.6050248 0.64914989 82 13
-0.86065876 2.6057322 0.64805579 79 13
-0.84254897 2.6044662 0.64652401 49 13
-0.82448721 2.6030762 0.64499223 40 13
-0.81081402 2.6155412 0.64674282 110 13
-0.79191417 2.6111307 0.64455456 66 13
-0.77837843 2.6243589 0.64652401 52 13
-0.76579851 2.6412673 0.6493687 44 13
-0.75383937 2.6609356 0.65286994 32 13
-0.74114639 2.6786757 0.65593344 22 13
-0.72214812 2.6737537 0.65374523 26 13
-0.69676334 2.6441703 0.64586753 39 13
-0.67760694 2.6370561 0.64324164 40 13
-0.65927655 2.6326463 0.64127219 40 13
-0.63963604 2.6224239 0.63798982 42 13
-0.62217826 2.6206036 0.63667691 36 13
-0.60388702 2.6148655 0.63448864 41 13
-0.5867604 2.6137619 0.63339454 138 13
-0.5725863 2.6258924 0.63536394 67 13
-0.55747557 2.6341288 0.6364581 93 13
-0.53835362 2.6231635 0.63317573 48 13
-0.52015013 2.615891 0.63076866 36 13
-0.50353503 2.6161592 0.63011217 39 13
-0.48622036 2.6124849 0.62858039 31 13
-0.46845061 2.6058164 0.62639213 31 13
-0.45027953 2.5961442 0.62354743 34 13
-0.43692178 2.6142557 0.62704861 93 13
-0.41698864 2.5928044 0.62157798 66 13
-0.39927822 2.5837433 0.6189521 38 13
-0.38298658 2.5832491 0.61829561 40 13
-0.36712885 2.5855505 0.61829561 33 13
-0.35086226 2.5848539 0.61763918 51 13
-0.34128243 2.6353395 0.62858039 23 13
-0.33085641 2.6838663 0.63908398 8 13
-0.31301597 2.6742167 0.6364581 9 13
-0.29703304 2.6799662 0.63733339 15 13
-0.28231677 2.6982355 0.64105338 5 13
-0.26239535 2.6659307 0.63339454 6 13
-0 0 0 9 13
-0 0 0 3 13
-0 0 0 5 13
-0 0 0 4 13
-0 0 0 4 13
-0 0 0 7 13
-0 0 0 5 13
-0 0 0 4 13
-0 0 0 5 13
-0 0 0 4 13
-0 0 0 4 13
-0 0 0 9 13
-0.047997139 2.6178756 0.61982739 10 13
-0.03188391 2.614218 0.6189521 6 13
-0 0 0 4 13
-0 0 0 5 13
0 0 0 4 13
0.032281816 2.6142132 0.6189521 4 13
0.048990473 2.6510389 0.62726742 4 13
0 0 0 4 13
0 0 0 5 13
0 0 0 5 13
0.12483484 2.9025068 0.68416184 11 13
0.14359228 2.9211783 0.68853831 7 13
0.15664543 2.8315814 0.6686253 23 13
0.16372785 2.6620736 0.63076866 62 13
0.18012439 2.6619923 0.63098747 90 13
0.19624043 2.6579175 0.63033098 141 13
0.21293235 2.6615269 0.63142508 103 13
0.23025945 2.6718366 0.63405102 97 13
0.25647452 2.777257 0.65812171 60 13
0.28065673 2.8484635 0.67453355 47 13
0.33690354 3.2183886 0.75834334 67 13
0.35750237 3.2240198 0.76009393 139 13
0.37739101 3.2227347 0.76031274 123 13
0.39739639 3.2222953 0.76075041 143 13
0.4179107 3.2256026 0.76206332 138 13
0.43848053 3.2287791 0.7633763 174 13
0.45910501 3.2318246 0.76468921 137 13
0.47878367 3.2279816 0.7644704 144 13
0.49768877 3.2191968 0.76315749 170 13
0.51665878 3.2112653 0.76206332 170 13
0.53667408 3.2099595 0.762501 144 13
0.55735874 3.2123749 0.76381391 138 13
0.57757604 3.2117758 0.7644704 150 13
0.59727228 3.2081714 0.7644704 136 13
0.61584121 3.1986969 0.76315749 100 13
0.63564646 3.1958151 0.7633763 122 13
0.65524364 3.1918545 0.7633763 125 13
0.67602658 3.1935022 0.76468921 124 13
0.6962316 3.1921542 0.76534569 134 13
0.71665895 3.1916306 0.76622099 126 13
0.73732531 3.1919272 0.76731515 108 13
0.75757205 3.1901915 0.76797158 125 13
0.77782524 3.1883271 0.76862806 104 13
0.79832071 3.1872809 0.76950336 129 13
0.81761998 3.1813774 0.76928455 120 13
0.8373735 3.1772442 0.76950336 139 13
0.85685289 3.1720464 0.76950336 107 13
0.87863916 3.1751938 0.77147281 124 13
0.89916795 3.1734984 0.77234811 136 13
0 0 0 110 13
0.91753352 3.092993 0.75615507 28 13
0.93564582 3.0845034 0.75549859 16 13
0.95368844 3.0759079 0.7548421 8 13
0.97960812 3.0923257 0.76009393 27 13
1.0210671 3.1558933 0.77650577 102 13
0 0 0 0 13
0 0 0 0 13
0 0 0 0 13
0 0 0 0 13
0 0 0 0 13
0 0 0 0 13
0 0 0 0 13
0 0 0 0 13
0 0 0 0 13
0 0 0 0 13
0 0 0 0 13
0 0 0 0 13
0 0 0 0 13
0 0 0 0 13
0 0 0 0 13
0 0 0 0 13
0 0 0 154 13
0 0 0 151 13
0 0 0 166 13
1.4429049 3.1000717 0.79948235 134 13
1.469403 3.1070399 0.8034212 149 13
1.4922403 3.1058824 0.8053906 144 13
1.5168291 3.1080694 0.80823529 150 13
1.5432329 3.1135688 0.81195533 158 13
0 0 0 138 13
0 0 0 148 13
1.6110594 3.1054265 0.8172071 151 13
1.6341729 3.1032543 0.81917655 142 13
1.6568606 3.1000547 0.82092714 108 13
1.6805003 3.0984087 0.82311535 116 13
1.7041819 3.0965893 0.82530361 124 13
1.7255272 3.0903349 0.82639772 121 13
1.7458986 3.0822365 0.8270542 112 13
1.7686646 3.0782356 0.82880479 118 13
1.7875191 3.0673254 0.82880479 116 13
1.8097795 3.062181 0.83033657 113 13
1.8345506 3.0610642 0.83296245 141 13
1.8603889 3.0614264 0.83602601 135 13
1.887835 3.0640793 0.83974606 125 13
1.9133168 3.0631988 0.84259075 153 13
1.9346849 3.0555241 0.84368485 128 13
1.9555039 3.046881 0.84456021 125 13
1.9805441 3.0446422 0.84718609 127 13
2.0109982 3.0503588 0.85200024 138 13
2.0361788 3.0477002 0.85462612 149 13
2.0597618 3.0424228 0.85659552 133 13
2.0833564 3.0369704 0.85856497 136 13
2.1064048 3.0305412 0.86031556 126 13
2.1311374 3.0263371 0.86272264 124 13
2.1660933 3.0362449 0.8690685 150 13
2.1995366 3.0434635 0.87475795 121 13
2.2262356 3.0409353 0.87782151 104 13
2.2477574 3.0311377 0.87891561 114 13
2.2698286 3.021971 0.88022858 100 13
2.2954147 3.017308 0.88285446 126 13
2.3222196 3.0139906 0.88591802 123 13
2.3532703 3.0158436 0.8905133 132 13
2.3771734 3.0082395 0.89248276 119 13
2.408385 3.0095997 0.89707804 108 13
2.4403164 3.0114477 0.90189219 100 13
2.4686482 3.0084896 0.90539342 101 13
2.5032687 3.0128038 0.9110828 91 13
2.533639 3.0115774 0.91524047 119 13
2.5577626 3.0026615 0.91720992 117 13
2.5844202 2.9965191 0.92005461 138 13
2.6123817 2.9916325 0.92333698 207 13
2.6468413 2.9938276 0.92880762 132 13
2.6781723 2.9920752 0.93318409 133 13
2.7089264 2.9893274 0.93734175 129 13
2.7357903 2.9819992 0.9401865 148 13
2.7613382 2.9730232 0.94259357 158 13
2.7955656 2.9730892 0.94784534 158 13
2.8258617 2.968605 0.95178419 141 13
2.8548539 2.9624548 0.95528537 130 13
2.8886447 2.9609506 0.96031833 107 13
2.9177258 2.9542816 0.96381956 122 13
2.959938 2.9604812 0.9714784 144 13
3.0030291 2.9669588 0.97935605 97 13
3.0309513 2.9580207 0.98241961 105 13
3.0525558 2.9427545 0.98351371 128 13
3.0910418 2.9434886 0.98985964 106 13
3.1303613 2.9445293 0.99642438 121 13
3.1640921 2.9398825 1.0012386 108 13
3.1964455 2.9336121 1.005615 144 13
3.2295635 2.9277103 1.0102103 156 13
3.2736301 2.9312787 1.018088 161 13
3.3105536 2.9279494 1.0237775 231 13
3.3269875 2.906297 1.0233397 161 13
3.3514051 2.8915668 1.0253092 200 13
3.4232883 2.9171627 1.0412834 117 13
3.4493334 2.9030166 1.0436904 148 13
3.4850867 2.896771 1.0489423 138 13
3.5457761 2.9106324 1.0614153 175 13
3.5847878 2.9060316 1.0675423 143 13
3.6139753 2.893131 1.0708247 143 13
3.6569147 2.890877 1.078046 153 13
3.6915023 2.8815975 1.0828601 158 13
3.7330673 2.8773649 1.0896436 145 13
3.7591918 2.8609073 1.0920507 159 13
3.793834 2.8506873 1.0968648 181 13
3.8723691 2.8727162 1.1139332 255 13
3.9119611 2.8650501 1.1200602 259 13
3.9523945 2.8575778 1.1264062 279 13
3.9936769 2.8502836 1.1329709 262 13
4.039803 2.8459625 1.1408485 257 13
4.0780153 2.8356094 1.146538 242 13
4.1234913 2.829865 1.1541969 267 13
4.1787429 2.8302372 1.1644816 289 13
4.215497 2.8175614 1.1697334 265 13
4.2677264 2.8147514 1.1791428 292 13
4.3241673 2.8140681 1.1896465 236 13
4.375833 2.8096325 1.198837 257 13
4.4333754 2.8083246 1.2095594 304 13
4.4927197 2.8074498 1.2207195 304 13
4.5331159 2.7941713 1.2268466 306 13
4.614367 2.8053491 1.2436961 214 13
4.6524124 2.7895319 1.2491667 195 13
4.697155 2.7773273 1.2563879 246 13
4.736865 2.7617283 1.2622962 243 13
4.7993975 2.7588809 1.2741127 468 13
4.8162355 2.7293804 1.2741127 496 13
4.8124495 2.6883519 1.2688609 342 13
4.8211627 2.6545353 1.2668915 411 13
4.8167787 2.6137297 1.2616397 430 13
4.8249822 2.5799828 1.2596703 387 13
4.8303638 2.5448685 1.2570443 365 13
4.8398261 2.5120342 1.2555126 400 13
4.8429866 2.476069 1.252449 404 13
4.8493743 2.441916 1.2502608 361 13
4.8389177 2.399538 1.243915 257 13
4.9184284 2.4014969 1.2601079 498 13
4.9339504 2.3716958 1.2603267 480 13
4.9440002 2.3392892 1.2592326 378 13
4.9564919 2.3080852 1.258795 433 13
4.955482 2.270716 1.255075 523 13
4.9613166 2.236656 1.2531055 532 13
4.9562168 2.1978612 1.2485102 276 13
4.9615607 2.1638966 1.2465408 608 13
4.9666743 2.1299493 1.2445713 640 13
4.9697604 2.0952623 1.2421643 686 13
4.9735098 2.0609915 1.239976 680 13
4.9679894 2.0230718 1.2355995 742 13
4.9612861 1.9849349 1.2310042 659 13
4.9588428 1.9487422 1.2275031 736 13
4.9670658 1.9168726 1.2266278 814 13
4.9586616 1.878749 1.2218137 526 13
4.9664378 1.8469266 1.2209383 567 13
4.9703445 1.8137407 1.2191877 666 13
4.985054 1.7845254 1.2200631 460 13
4.9719744 1.7454951 1.2143736 653 13
4.9770551 1.7130481 1.2130606 621 13
4.9810014 1.6802926 1.2115289 156 13
4.9532351 1.6371348 1.2025571 111 13
4.9511194 1.6028019 1.1997124 141 13
4.9459796 1.5676718 1.1962112 139 13
4.9666882 1.5407661 1.198837 62 13
4.9713802 1.5088441 1.1977429 67 13
4.9693203 1.4749775 1.195117 70 13
4.96141 1.4395605 1.1911782 111 13
4.9785981 1.4114881 1.1931477 74 13
4.9655375 1.3749195 1.1881146 94 13
4.9588103 1.3403486 1.1846135 90 13
4.956563 1.3071573 1.1822064 83 13
4.9663801 1.2772062 1.182644 69 13
4.9779096 1.2476588 1.1835194 50 13
4.9722009 1.2138486 1.1804558 40 13
4.9757581 1.1824137 1.1795805 41 13
4.9819689 1.1516408 1.1793617 50 13
4.9813256 1.1193371 1.1776111 43 13
4.9823804 1.0875014 1.1762981 40 13
4.9908686 1.0573145 1.1767358 51 13
4.9791026 1.0229361 1.1725781 35 13
4.9871998 0.99274707 1.1730157 51 13
4.9845743 0.96046394 1.1710464 49 13
4.9826999 0.92842942 1.1692958 46 13
4.9854221 0.89731944 1.1686393 45 13
4.9841046 0.86554235 1.1671075 36 13
4.9835477 0.83397651 1.1657946 34 13
4.9885712 0.80338234 1.1657946 52 13
4.9924421 0.77260846 1.1655757 39 13
4.989368 0.7408126 1.1638252 32 13
5.0054116 0.7118358 1.166451 44 13
5.0125856 0.68150479 1.1671075 48 13
5.0108671 0.64998084 1.1657946 44 13
5.0031404 0.61778486 1.1631687 52 13
5.0000534 0.58627754 1.1616369 42 13
5.0045261 0.5556947 1.1618557 54 13
5.0097823 0.52518094 1.1622933 52 13
5.0051422 0.49366358 1.1605427 43 13
5.0032191 0.46249312 1.1594486 59 13
5.0020742 0.43144891 1.1585734 61 13
5.0085182 0.40106109 1.1594486 53 13
5.0099115 0.37024972 1.1592299 67 13
5.0120888 0.33950248 1.1592299 54 13
5.013104 0.30868232 1.159011 80 13
5.0236716 0.27840465 1.1609805 70 13
5.0291839 0.24776769 1.1618557 78 13
5.0276847 0.21677776 1.1611992 76 13
5.0191693 0.18556161 1.159011 79 13
5.0182629 0.15470049 1.1585734 57 13
5.0230198 0.12400333 1.1594486 55 13
5.0324664 0.093345225 1.1614181 52 13
5.0300174 0.06242783 1.1607616 47 13
5.0312815 0.031569399 1.1609805 33 13
5.0352836 0.0006988906 1.1618557 53 13
5.035193 -0.030197041 1.1618557 45 13
5.0349126 -0.061091833 1.1618557 42 13
5.0344429 -0.091984332 1.1618557 52 13
5.0367103 -0.12294411 1.1625122 40 13
5.0339108 -0.15378733 1.1620746 68 13
5.0299468 -0.18456528 1.1614181 41 13
5.0335941 -0.21563265 1.1625122 62 13
5.0195065 -0.24589643 1.1596675 44 13
5.0188775 -0.2767444 1.1598862 48 13
5.0258503 -0.30806971 1.1618557 50 13
5.0374956 -0.33981821 1.1649193 63 13
5.0333691 -0.37057847 1.1644816 61 13
5.0358639 -0.40184262 1.1655757 58 13
5.0333037 -0.43273455 1.1655757 60 13
5.0315251 -0.46369949 1.1657946 49 13
5.0334411 -0.49504003 1.1668887 53 13
5.0332203 -0.52621901 1.1675452 72 13
1.1087579 -0.1237184 0.28283766 92 13
1.1099162 -0.13074556 0.28327531 102 13
1.1100615 -0.1376725 0.28349414 125 13
1.1111314 -0.14473116 0.28393179 101 13
1.1082885 -0.15128429 0.28349414 128 13
1.1063733 -0.15794489 0.28327531 145 13
1.1092443 -0.16530176 0.28415063 120 13
1.1082093 -0.17210484 0.28415063 224 13
1.1061689 -0.17874679 0.28393179 139 13
0 -0 0 3 13
1.1423506 -0.19896621 0.29268476 8 13
5.0884385 -0.91436398 1.1920534 50 13
5.084651 -0.94592535 1.1924912 38 13
5.0825839 -0.97784287 1.1933664 46 13
5.0793595 -1.0095806 1.1940229 51 13
1.162475 -0.23939849 0.29881185 68 13
1.1390265 -0.24188682 0.2937789 125 13
1.1375208 -0.24887121 0.2937789 126 13
1.1369245 -0.25605965 0.29399773 140 13
1.135332 -0.26303089 0.29399773 145 13
1.1336967 -0.26999217 0.29399773 119 13
1.1490835 -0.28110003 0.29793656 226 13
1.1066328 -0.27796555 0.2885271 54 13
1.1124675 -0.28669083 0.29027769 17 13
5.1494379 -1.3564017 1.2268466 14 13
5.1429024 -1.3884807 1.2272842 23 13
1.1145262 -0.30919835 0.29202831 150 13
1.112608 -0.31603116 0.29202831 155 13
1.1078361 -0.32203776 0.29137182 193 13
1.1049037 -0.3285521 0.29115301 152 13
1.1009992 -0.33475965 0.29071537 187 13
1.0914677 -0.33919993 0.28896475 257 13
1.0912265 -0.34647936 0.2894024 227 13
1.085366 -0.35196829 0.2885271 237 13
1.0813327 -0.35800987 0.28808945 237 13
1.0957608 -0.37024355 0.29202831 131 13
1.0934684 -0.37696004 0.29202831 138 13
1.0929766 -0.38430783 0.29246596 161 13
1.0970299 -0.39330566 0.29399773 90 13
1.1221004 -0.41005 0.30056244 11 13
4.7200112 -1.7537317 1.1618557 120 13
4.7036858 -1.7805886 1.1605427 530 13
4.7154346 -1.8181872 1.1660134 561 13
4.7123647 -1.8502941 1.1679828 586 13
4.7154207 -1.8849655 1.171484 621 13
4.7308831 -1.9248894 1.1780487 634 13
4.7442288 -1.9643275 1.1841758 570 13
4.7401805 -1.9968078 1.1861452 645 13
4.7000327 -2.013948 1.1793617 100 13
4.7126355 -2.053658 1.1854888 60 13
4.7186823 -2.0908325 1.1900841 21 13
4.7137718 -2.1233513 1.1920534 56 13
4.7157383 -2.1591368 1.1957735 59 13
4.7130189 -2.1929686 1.1983994 71 13
4.7188835 -2.2310169 1.2032136 33 13
4.7191801 -2.2666857 1.2067147 30 13
4.718339 -2.3020144 1.2099971 25 13
4.7216134 -2.3395829 1.2143736 23 13
4.723732 -2.3768396 1.2185313 27 13
4.7299161 -2.4164286 1.223783 29 13
4.7340584 -2.4552846 1.2285972 23 13
4.735311 -2.492919 1.2327548 23 13
4.7405825 -2.532959 1.2380066 28 13
4.7378197 -2.5689728 1.241289 29 13
4.739923 -2.6078689 1.2458843 19 13
4.7221279 -2.6359527 1.2454467 14 13
4.7296419 -2.6783354 1.2515738 16 13
4.7393517 -2.7223666 1.2583573 35 13
4.7453251 -2.764653 1.2642655 31 13
4.7459164 -2.8041375 1.2688609 23 13
4.7436891 -2.8422291 1.2727997 28 13
4.7428412 -2.8814116 1.2771763 30 13
4.7516608 -2.9268291 1.2841786 21 13
4.7427182 -2.9616127 1.2865857 26 13
4.7343516 -2.9969184 1.2892116 15 13
4.746264 -3.0454023 1.2973081 18 13
4.741396 -3.083508 1.3010281 21 13
4.7443871 -3.1270368 1.3069364 23 13
4.7421527 -3.1674669 1.3115317 15 13
4.7557635 -3.2189221 1.3205035 14 13
4.7737489 -3.2739735 1.3307883 9 13
4.763989 -3.3104393 1.3336329 19 13
4.7627382 -3.3530858 1.3388847 25 13
4.7619371 -3.3964074 1.3443553 23 13
4.7599921 -3.4392734 1.3496071 40 13
4.7569122 -3.4816668 1.3546401 36 13
4.7519226 -3.5229895 1.3592354 16 13
4.759871 -3.5743399 1.3675507 29 13
4.7650366 -3.6241477 1.3752096 31 13
4.7628107 -3.6687951 1.3808991 26 13
4.7640634 -3.7165513 1.3876826 29 13
4.7618451 -3.7620411 1.3935908 37 13
4.7615333 -3.8094714 1.4001555 16 13
4.7608175 -3.8570387 1.4067203 21 13
4.7679963 -3.9115462 1.4156921 26 13
4.7701802 -3.9625461 1.423351 22 13
4.7719164 -4.0137191 1.4310099 37 13
4.7761755 -4.0675917 1.439544 49 13
4.7755175 -4.1178446 1.4467652 30 13
4.7766271 -4.1701665 1.4546429 22 13
4.7794671 -4.2245941 1.4631771 22 13
4.7992716 -4.2948265 1.476963 30 13
4.8075442 -4.3556342 1.4874666 24 13
4.7720976 -4.3771372 1.4848406 9 13
4.8087978 -4.4654179 1.5043161 23 13
4.8040619 -4.516223 1.5113184 40 13
4.7953482 -4.5637746 1.5172267 27 13
4.7855277 -4.6107116 1.5229162 28 13
4.7843938 -4.6665545 1.5314503 29 13
4.7778926 -4.7177582 1.5384527 16 13
4.7992415 -4.7973351 1.5544269 29 13
4.7902946 -4.8475103 1.5609916 19 13
4.8170428 -4.9347568 1.579154 20 13
4.8063178 -4.9845872 1.5855 40 13
4.8160281 -5.0563712 1.5986295 32 13
4.8203554 -5.1234865 1.6102271 29 13
4.8386555 -5.2065659 1.626639 20 13
4.8283963 -5.2598748 1.6338602 35 13
4.8340535 -5.3313217 1.646552 30 13
4.8344564 -5.3979473 1.6577121 23 13
4.8309894 -5.4611235 1.667778 29 13
4.8339915 -5.5325408 1.680251 26 13
4.8407607 -5.6093693 1.6942557 20 13
4.8448687 -5.6842594 1.7076041 16 13
4.8545237 -5.7668738 1.7231406 22 13
4.8358927 -5.8168082 1.7290488 13 13
4.8521314 -5.9097114 1.7474301 24 13
4.8483558 -5.979537 1.7590278 23 13
4.8359747 -6.0396371 1.7677808 20 13
4.8248539 -6.1021051 1.7771902 18 13
4.8119459 -6.1631246 1.786162 19 13
4.8109837 -6.2404408 1.7997291 15 13
3.7996123 -4.9920039 1.439544 48 13
3.7073436 -4.9333301 1.4165674 160 13
3.6787481 -4.9583354 1.4172239 226 13
3.6459482 -4.9776664 1.4163486 233 13
3.6159091 -5.0007343 1.4165674 220 13
3.583456 -5.0204444 1.415911 262 13
3.542465 -5.0279818 1.4119722 225 13
3.4887002 -5.0167823 1.4030004 248 13
3.4473579 -5.0228105 1.3988427 279 13
3.4082632 -5.0317521 1.3955603 171 13
3.3805792 -5.0574365 1.3968732 125 13
3.3682933 -5.1065893 1.4045321 122 13
3.4391196 -5.2841616 1.4465464 119 13
3.433001 -5.3462124 1.4574876 87 13
3.6743598 -5.7998729 1.5723705 98 13
3.6226678 -5.7966604 1.5655869 100 13
3.603934 -5.8461871 1.5728081 180 13
3.5608957 -5.8565192 1.5697446 194 13
3.5093331 -5.8523188 1.562961 184 13
3.4837909 -5.8913779 1.5675564 120 13
3.4682257 -5.9480429 1.5767469 191 13
3.4569602 -6.0131955 1.5881258 183 13
3.758811 -6.6318641 1.7421783 237 13
3.7485151 -6.7093153 1.756183 407 13
3.6973898 -6.714242 1.7515877 474 13
3.6305165 -6.6896377 1.7395524 319 13
3.5963056 -6.7246938 1.7428348 459 13
3.542691 -6.7233276 1.7369266 442 13
3.4941754 -6.7310834 1.7334254 396 13
3.4492536 -6.7454467 1.7316747 365 13
3.4064822 -6.7638698 1.7310183 286 13
3.3540738 -6.7627921 1.7255477 238 13
3.3078034 -6.7736011 1.7231406 200 13
3.2687166 -6.7990456 1.7244536 153 13
3.2256844 -6.8163285 1.7237971 172 13
3.1837995 -6.8359923 1.7237971 200 13
3.1442347 -6.8607211 1.7251099 200 13
3.1020789 -6.8798847 1.7251099 219 13
3.0550573 -6.8880863 1.7224841 254 13
3.0010271 -6.8798728 1.7159194 354 13
2.9668369 -6.9169874 1.7205147 275 13
2.9209259 -6.92697 1.7185453 243 13
2.8772464 -6.9420581 1.7178888 236 13
2.8312829 -6.9514494 1.7159194 160 13
1.9192945 -4.7973237 1.1913971 365 13
1.8848233 -4.7962971 1.1883335 276 13
2.7039042 -7.0051169 1.7165759 214 13
2.66433 -7.0306997 1.7187641 289 13
2.6197789 -7.0432577 1.7178888 316 13
2.5718272 -7.0463676 1.7148253 328 13
2.518342 -7.0335388 1.7080417 369 13
2.4699628 -7.0341291 1.7045405 362 13
2.4286625 -7.0546875 1.7058535 396 13
2.3809605 -7.0565138 1.7027899 340 13
2.3339407 -7.0598731 1.700164 279 13
2.2902775 -7.073133 1.6999452 313 13
2.2438841 -7.0777516 1.6977569 377 13
2.1986778 -7.0857954 1.696444 324 13
2.1594126 -7.1131573 1.6997263 287 13
2.1196165 -7.1393685 1.7027899 154 13
1.6025586 -5.5227051 1.3222541 21 13
1.5734363 -5.5493307 1.326193 9 13
1.5398778 -5.5607615 1.3266306 10 13
1.490694 -5.514533 1.3137199 24 13
1.4610631 -5.5396147 1.3174399 17 13
1.4131802 -5.4946122 1.3049669 32 13
1.3834759 -5.5192695 1.308687 28 13
1.3463414 -5.5143843 1.3056234 28 13
1.3043512 -5.4883676 1.2977457 37 13
1.27923 -5.5333424 1.3062799 27 13
1.263242 -5.6210537 1.3246611 5 13
1.229978 -5.6344185 1.3259741 5 13
1.1806041 -5.5721788 1.3099999 37 13
1.9170055 -9.3258829 2.1677921 88 13
1.8627985 -9.3527803 2.1712933 150 13
1.8046364 -9.3602018 2.1704178 159 13
1.7491379 -9.38165 2.1728249 152 13
1.6946555 -9.4094915 2.1767638 147 13
1.6360521 -9.4149055 2.1756697 162 13
1.576156 -9.4122562 2.1728249 172 13
0.86040145 -5.3421078 1.2461032 163 13
0.82670999 -5.3415012 1.2447902 235 13
0.79262781 -5.3377867 1.2428207 208 13
0.75972325 -5.3415837 1.242602 242 13
0.72574848 -5.3374434 1.2406325 170 13
0.712475 -5.4917784 1.2745503 61 13
1.1640872 -9.4189606 2.1610084 266 13
1.1042221 -9.4084826 2.1570697 206 13
1.0474432 -9.4238091 2.159039 224 13
0.98970199 -9.4310284 2.1592579 205 13
0.88391078 -8.9523802 2.0500643 184 13
0.82851315 -8.9527769 2.0489702 212 13
0.77196687 -8.9392214 2.0448127 162 13
0.71554005 -8.9243374 2.040436 152 13
0.66011858 -8.9198017 2.0384667 148 13
0.60477978 -8.9149227 2.0364974 147 13
0.54964608 -8.9116488 2.0349655 152 13
0.49435845 -8.9041367 2.0325584 138 13
0.43981087 -8.9089508 2.0329962 133 13
0.38475797 -8.9027081 2.0310266 88 13
0.26656774 -7.1965446 1.6476461 116 13
0.22252673 -7.2019458 1.6485214 153 13
0.17862393 -7.2148814 1.6511474 147 13
0.13433257 -7.2148662 1.6509285 175 13
0.090048119 -7.2145786 1.6507096 199 13
0.045765903 -7.2130437 1.650272 233 13
0.0015077234 -7.2161164 1.6509285 279 13
-0.042820189 -7.2247715 1.652898 319 13
-0.087114908 -7.2214456 1.6522415 332 13
-0.13121204 -7.2090678 1.6496155 376 13
-0.17499547 -7.1895928 1.6454579 490 13
-0.21922497 -7.1922851 1.6463332 499 13
-0.2625697 -7.1693521 1.6415191 431 13
-0.30659661 -7.168581 1.6417378 454 13
-0.35029131 -7.160717 1.640425 471 13
-0.39411506 -7.1564841 1.6399872 515 13
-0.43784058 -7.1510096 1.6393307 444 13
-0.48131743 -7.1423469 1.6380179 406 13
-0.52506155 -7.1382861 1.637799 334 13
-0.56869662 -7.1329846 1.6373614 347 13
-0.61211962 -7.1254721 1.6364861 326 13
-0.65440005 -7.1060352 1.6329849 300 13
-0.6972273 -7.0941172 1.6312343 292 13
-0.73973048 -7.0800009 1.6290461 297 13
-0.78326577 -7.0762982 1.6292648 298 13
-0.8261047 -7.0665131 1.6281707 318 13
-0.86813855 -7.0506582 1.6257637 282 13
-0.91100913 -7.0422955 1.6251072 338 13
-0.95367885 -7.0327053 1.6242319 381 13
-0.99708652 -7.0286536 1.6246696 409 13
-1.0386238 -7.0117855 1.6222625 367 13
-1.0804379 -6.9975657 1.6205119 349 13
-1.1235085 -6.9917679 1.6207308 316 13
-1.1663879 -6.9847426 1.6207308 355 13
-1.2090571 -6.9764929 1.6205119 394 13
-1.2504624 -6.9612594 1.6187613 439 13
-1.2935089 -6.9553742 1.6191989 556 13
-1.336346 -6.9482651 1.6194178 594 13
-1.3799046 -6.9447198 1.6205119 667 13
-0 -0 0 739 13
-1.4710753 -6.955904 1.6270766 757 13
-1.5145586 -6.9505601 1.6279519 801 13
-1.5590988 -6.9497056 1.6299213 796 13
-1.6041242 -6.9504671 1.6323284 818 13
-1.6487672 -6.9490385 1.6342978 840 13
-1.6888344 -6.9283624 1.6318908 646 13
-1.4244988 -5.6910634 1.3482941 64 13
-1.4528431 -5.6566968 1.3423859 55 13
-1.4788327 -5.6146488 1.334727 37 13
-1.5102062 -5.5941644 1.3321012 43 13
-1.5421638 -5.5763278 1.3301318 38 13
-1.5750221 -5.5620656 1.3290377 33 13
-1.6088493 -5.5513597 1.3288188 41 13
-1.6431587 -5.5423188 1.3290377 38 13
-1.6816612 -5.5470738 1.3325388 54 13
-1.7381787 -5.609355 1.3496071 96 13
-1.7787455 -5.6181207 1.3542025 109 13
-2.2575498 -6.9821906 1.6782815 936 13
-2.3015721 -6.9719138 1.6791569 965 13
-2.3467991 -6.9650583 1.6809075 988 13
-2.3958333 -6.9689837 1.6852839 1030 13
-2.4430676 -6.9670439 1.6883475 1011 13
-2.102546 -5.8796277 1.4329792 286 13
-2.0974991 -5.7538481 1.4060639 149 13
-2.0899706 -5.6256113 1.378492 47 13
-2.106842 -5.5661368 1.367332 40 13
-2.1276238 -5.5185051 1.3590165 49 13
-2.1240211 -5.4099708 1.33604 20 13
-2.1492124 -5.3769011 1.3312259 64 13
-2.171138 -5.3364954 1.3246611 22 13
-2.1855605 -5.2788935 1.3139387 38 13
-2.9463358 -6.995677 1.7349571 745 13
-3.002265 -7.0079646 1.7423972 1145 13
-2.9372871 -6.7416048 1.6817827 354 13
-2.882591 -6.5066504 1.6286083 441 13
-3.1519794 -6.9986725 1.7539948 725 13
-3.2070434 -7.0058193 1.7605596 899 13
-3.2684848 -7.0258241 1.7704067 1105 13
-3.3186197 -7.0206347 1.7741266 919 13
-2.8540649 -5.9427881 1.5110996 312 13
