# .PCD v0.7 - Point Cloud Data file format
VERSION 0.7
FIELDS x y z intensity ring
SIZE 4 4 4 4 1
TYPE F F F F U
COUNT 1 1 1 1 1
WIDTH 1292
HEIGHT 1
VIEWPOINT 0 0 0 1 0 0 0
POINTS 1292
DATA ascii
0.87271351 -9.465621 -0.65572679 18 37
0.78286254 -9.1021452 -0.62874913 5 37
0 -0 -0 6 37
1.3185662 -17.885859 -1.2702496 8 37
1.208123 -17.883661 -1.2695225 8 37
1.0975116 -17.876801 -1.2685045 4 37
0.98636913 -17.857307 -1.2666138 9 37
0.8758989 -17.845093 -1.2653049 11 37
0 -0 -0 5 37
0.65578103 -17.825594 -1.2631962 10 37
0.54587239 -17.812334 -1.26196 7 37
0 -0 -0 5 37
0.15159123 -8.287611 -0.56701326 5 37
0.10104308 -8.3133173 -0.56883121 10 37
0 -0 -0 5 37
-0.00098135369 -8.3308859 -0.57006735 3 37
-0.052080397 -8.3277311 -0.56984919 6 37
-0.10358059 -8.3601646 -0.57224882 343 37
-0.15456393 -8.3424196 -0.57101268 430 37
-0.20577359 -8.3423119 -0.57108539 363 37
-0.2575992 -8.3618269 -0.5726124 187 37
-0.30846128 -8.3481283 -0.57173979 118 37
-0.36121956 -8.3819504 -0.57435757 66 37
-0.41381741 -8.4034834 -0.57610279 72 37
-0.4661428 -8.4147282 -0.57712078 14 37
-0.51825494 -8.419673 -0.57770252 8 37
-0 -0 -0 5 37
-0 -0 -0 8 37
-1.3435432 -16.797625 -1.1912801 49 37
-1.4488105 -16.814899 -1.1931707 411 37
-1.5519575 -16.805695 -1.1931707 612 37
-1.6534823 -16.779974 -1.1920073 616 37
-1.7559959 -16.765545 -1.1917164 578 37
-1.879607 -16.941807 -1.2054597 264 37
-1.9758693 -16.864576 -1.2006605 167 37
-2.0755272 -16.821449 -1.1984062 648 37
-2.1799839 -16.818289 -1.1991334 673 37
-2.2863588 -16.828314 -1.2008786 637 37
-2.393079 -16.838654 -1.2026966 620 37
-2.499573 -16.845358 -1.2042962 611 37
-2.6053252 -16.845474 -1.2054597 611 37
-2.7114894 -16.846895 -1.2067686 563 37
-2.8167825 -16.841745 -1.2076412 569 37
-2.9221144 -16.835938 -1.2085137 588 37
-3.0285399 -16.83536 -1.2098227 159 37
-2.2397394 -12.024722 -0.85445958 555 37
-0 -0 -0 1147 37
-2.3628135 -11.874058 -0.84537011 380 37
-2.4482617 -11.920886 -0.84995121 612 37
-2.534786 -11.969062 -0.85467774 901 37
-2.6109419 -11.965952 -0.85562307 901 37
-2.6873734 -11.963329 -0.85664111 846 37
-2.7640953 -11.961191 -0.85773182 869 37
-5.9246736 -24.945013 -1.8319807 125 37
-6.1057501 -25.023495 -1.8406339 120 37
-6.2669306 -25.016518 -1.8429608 159 37
-6.4215527 -24.982424 -1.8433244 177 37
-6.6898599 -25.379435 -1.8762648 56 37
-5.9910874 -22.174965 -1.6373928 242 37
-6.1302295 -22.149323 -1.6382653 211 37
-6.2964702 -22.218763 -1.6464095 91 37
-6.4454603 -22.223774 -1.6497544 63 37
-6.5785818 -22.17329 -1.6489545 278 37
-6.7107472 -22.1201 -1.6480093 269 37
-6.8705654 -22.156622 -1.6539719 44 37
-7.4048553 -23.371941 -1.7501752 25 37
-2.3166056 -7.1564178 -0.51109469 682 37
-2.3554678 -7.1269164 -0.50993121 1329 37
-2.3985159 -7.1104393 -0.50978577 1337 37
-2.4541035 -7.1304836 -0.51247627 931 37
-2.4921956 -7.0992928 -0.51124012 816 37
-2.5081589 -7.0068641 -0.5052774 834 37
-2.5343602 -6.9454308 -0.50171429 1620 37
-2.5797086 -6.9372282 -0.50229603 1579 37
-2.6257582 -6.9305959 -0.50302321 1457 37
-2.6743357 -6.9301734 -0.50425941 1535 37
-2.7306638 -6.9489093 -0.50702256 1332 37
-2.7362187 -6.8394175 -0.49975097 1464 37
-2.7762532 -6.8178811 -0.49938741 1484 37
-2.8764272 -6.9416986 -0.51051295 1245 37
-2.9286489 -6.9468956 -0.51233083 1429 37
-2.9763272 -6.940712 -0.51327616 1387 37
-3.0515394 -6.9972882 -0.51923889 334 37
-5.3843226 -12.144682 -0.93124771 31 37
-5.4222732 -12.030488 -0.92477596 27 37
-5.4710703 -11.942585 -0.92041302 41 37
-5.4705944 -11.750554 -0.90768772 37 37
-5.4931288 -11.61218 -0.89925265 24 37
-5.5184922 -11.482965 -0.89154476 33 37
-5.523231 -11.314443 -0.88063735 8 37
-5.5952086 -11.285701 -0.88107365 61 37
-5.6594186 -11.241358 -0.88027376 71 37
-5.7074103 -11.165567 -0.87692887 143 37
-5.784081 -11.146273 -0.87823772 94 37
-5.7394361 -10.896133 -0.86056775 16 37
-5.7770376 -10.806177 -0.85605937 19 37
-5.8232627 -10.733706 -0.85300529 188 37
-5.823132 -10.578067 -0.84304321 27 37
-5.832983 -10.443738 -0.83482629 25 37
-5.8369827 -10.30188 -0.82595491 35 37
-5.860333 -10.196691 -0.82013768 27 37
-5.8635302 -10.05886 -0.81155717 19 37
-5.8738861 -9.9359741 -0.80421287 15 37
-5.907567 -9.8544054 -0.80035889 16 37
-5.5437102 -9.1199322 -0.74080449 42 37
-5.5697432 -9.0373459 -0.73665971 64 37
-5.5933876 -8.9522467 -0.73229676 64 37
-5.6081948 -8.8545609 -0.72684306 55 37
-5.6010056 -8.7242985 -0.71855342 54 37
-5.6082029 -8.6187057 -0.71237254 67 37
-5.6088276 -8.5050287 -0.70546454 69 37
-5.6348658 -8.4314775 -0.70204687 99 37
-5.6803436 -8.3876591 -0.70124704 340 37
-5.7407298 -8.3658066 -0.70241046 692 37
-5.7765837 -8.3083134 -0.70044714 34 37
-5.8274536 -8.2727118 -0.70044714 47 37
-5.9858465 -8.3878117 -0.71397233 754 37
-6.0564799 -8.3776007 -0.71637195 686 37
-6.1307483 -8.371665 -0.71920788 704 37
-6.1825943 -8.334691 -0.7192806 121 37
-5.8155103 -7.7399898 -0.6685248 23 37
-6.4003553 -8.4105921 -0.73324203 633 37
-0 -0 -0 620 37
-0 -0 -0 572 37
-0 -0 -0 608 37
-0 -0 -0 528 37
-0 -0 -0 539 37
-0 -0 -0 120 37
-7.0456128 -8.4770374 -0.7663278 97 37
-7.1475787 -8.4931726 -0.77199966 95 37
-7.2403045 -8.4969854 -0.77658075 84 37
-7.3405104 -8.5082865 -0.78196174 73 37
-7.4437499 -8.5216799 -0.7876336 96 37
-7.5328941 -8.5176868 -0.79170573 111 37
-7.6322465 -8.524066 -0.79686856 88 37
-7.7125354 -8.5081129 -0.79992259 74 37
-7.8219094 -8.5230942 -0.80610347 344 37
-7.8815255 -8.4829769 -0.80690336 592 37
-7.9846716 -8.4889488 -0.81235707 335 37
-8.0758076 -8.4809694 -0.81650186 417 37
-8.030797 -8.3307219 -0.80632162 30 37
-8.0699215 -8.2691536 -0.80508542 549 37
-8.1008835 -8.1996145 -0.80304939 511 37
-8.1080246 -8.1067333 -0.79861373 609 37
-8.1441326 -8.0435133 -0.79723209 577 37
-8.2297382 -8.0289145 -0.80094063 140 37
-8.2889013 -7.987957 -0.80195868 100 37
-8.4634409 -8.056612 -0.81461126 554 37
-8.5715647 -8.0598755 -0.82050121 557 37
-8.6888123 -8.07026 -0.82726383 547 37
-8.789607 -8.0639963 -0.83235395 545 37
-8.9032116 -8.0681849 -0.83868021 526 37
-9.0186834 -8.0726118 -0.84515196 222 37
-9.0852299 -8.0323172 -0.84682441 111 37
-2.6892323 -2.3472395 -0.22292119 78 37
-2.6922565 -2.3209226 -0.22183046 135 37
-2.7034099 -2.3017724 -0.22153959 366 37
-2.685431 -2.2581711 -0.21848552 125 37
-2.709208 -2.249938 -0.21943083 346 37
-2.6952083 -2.210494 -0.21681306 122 37
-2.6986482 -2.185751 -0.21586774 107 37
-2.7057796 -2.1641655 -0.21528602 105 37
-2.7096181 -2.1401012 -0.21441342 119 37
-2.7093325 -2.1130035 -0.21317725 121 37
-2.7143466 -2.0902517 -0.21245009 348 37
-2.7191839 -2.0675182 -0.21172293 166 37
-2.7015173 -2.0280311 -0.20895973 96 37
-2.7099049 -2.008446 -0.20859614 94 37
-2.7189586 -1.9894236 -0.20830528 109 37
-2.7262645 -1.9691974 -0.20786898 133 37
-2.7326128 -1.9483771 -0.20735997 122 37
-2.7404394 -1.928702 -0.2069964 121 37
-2.7849789 -1.9346222 -0.20990503 73 37
-2.8107777 -1.9270897 -0.2111412 67 37
-2.8374143 -1.9198724 -0.21245009 72 37
-2.8839698 -1.9256991 -0.21550417 102 37
-2.9107189 -1.9178495 -0.21681306 316 37
-2.9659035 -1.9282364 -0.22059429 119 37
-2.9818757 -1.9126954 -0.22095786 229 37
-3.0643344 -1.9391853 -0.22706601 79 37
-3.0964761 -1.9330285 -0.22881119 58 37
-3.1176186 -1.9197478 -0.22961107 54 37
-3.1387143 -1.9062804 -0.23041095 57 37
-10.481531 -6.2813425 -0.85358703 225 37
-10.476088 -6.1910281 -0.84987849 489 37
-10.475102 -6.1040316 -0.84660625 208 37
-10.463069 -6.0113177 -0.84246147 5 37
-10.426864 -5.9057088 -0.8363533 337 37
-10.415011 -5.8148742 -0.83235395 576 37
-10.421661 -5.7349892 -0.82995433 542 37
-10.139298 -5.4987836 -0.80363113 31 37
-10.365475 -5.5394335 -0.81955594 137 37
-10.350734 -5.4501657 -0.81555653 596 37
-10.354767 -5.3713942 -0.8131569 584 37
-10.344014 -5.2855163 -0.80959386 597 37
-10.335272 -5.2013187 -0.8062489 525 37
-10.330355 -5.1196432 -0.80326754 543 37
-10.312278 -5.0321002 -0.79926819 621 37
-10.298911 -4.9475641 -0.79570508 690 37
-10.291208 -4.8663673 -0.792651 621 37
-10.275665 -4.7820849 -0.78901523 612 37
-10.268544 -4.7023306 -0.78610659 527 37
-10.259923 -4.6224346 -0.78312522 619 37
-10.244327 -4.5399928 -0.77963483 678 37
-10.23085 -4.4591131 -0.77636266 684 37
-10.225935 -4.3825002 -0.7738176 735 37
-10.217708 -4.3049536 -0.77105439 705 37
-10.203387 -4.2253833 -0.76785487 720 37
-10.194019 -4.1484079 -0.76509166 740 37
-10.18224 -4.0709662 -0.76218301 809 37
-10.170824 -3.9941907 -0.75934708 823 37
-10.156059 -3.9166322 -0.756293 796 37
-10.089428 -3.819977 -0.74923956 712 37
-10.023866 -3.7249835 -0.74233156 799 37
-9.9846935 -3.640851 -0.73753232 64 37
-1.6230593 -0.57954448 -0.088323891 7 37
-1.6247026 -0.56891418 -0.088178456 17 37
-1.6281627 -0.55893451 -0.088178456 13 37
-1.6306165 -0.5486151 -0.088105738 20 37
-0 -0 -0 8 37
-1.6343794 -0.52764243 -0.087887593 5 37
-1.6413893 -0.51880902 -0.088178456 6 37
-1.6293001 -0.50400168 -0.087015003 18 37
-1.5359675 -0.46475178 -0.079670683 74 37
-1.5120177 -0.4473756 -0.07763464 132 37
-1.5109028 -0.43697837 -0.077343777 141 37
-1.505879 -0.42552406 -0.076762043 167 37
-1.5046167 -0.41521204 -0.07647118 175 37
-1.5032848 -0.40493158 -0.076180317 180 37
-1.5009191 -0.39442891 -0.075816736 166 37
-1.4984812 -0.38397056 -0.075453155 208 37
-1.500809 -0.37476882 -0.075453155 176 37
-1.5001734 -0.36484373 -0.075235009 151 37
-1.4985025 -0.3547101 -0.074944146 171 37
-1.4987072 -0.34505978 -0.074798718 174 37
-1.4969038 -0.3349832 -0.074507847 166 37
-1.4960077 -0.32515436 -0.074289702 182 37
-1.4950475 -0.31534916 -0.074071556 181 37
-1.4940233 -0.30556801 -0.073853403 194 37
-1.4919574 -0.29561672 -0.07356254 191 37
-1.4917845 -0.2860795 -0.073417112 192 37
-1.4915508 -0.27655554 -0.073271677 211 37
-1.48733 -0.266339 -0.072835386 155 37
-1.4899189 -0.25737846 -0.072908096 213 37
-1.4885191 -0.24773814 -0.07268995 195 37
-1.4870571 -0.23812471 -0.072471805 197 37
-1.4875045 -0.22884341 -0.072399087 197 37
-1.4849344 -0.21912649 -0.072108224 168 37
-1.4852636 -0.20987067 -0.072035506 177 37
-1.4855351 -0.20061907 -0.071962789 216 37
-1.485749 -0.19137204 -0.071890071 180 37
-1.4849156 -0.18200783 -0.071744643 184 37
-1.4840232 -0.17266108 -0.071599208 162 37
-1.4840635 -0.16344208 -0.071526498 175 37
-1.4830545 -0.15412523 -0.071381062 190 37
-1.4829798 -0.14492469 -0.071308345 162 37
-1.4838411 -0.13582256 -0.071308345 161 37
-1.4806719 -0.12637296 -0.071017481 191 37
-1.4804252 -0.11720587 -0.070944764 163 37
-1.4732265 0.036127634 -0.088547088 77 38
-1.4719813 0.045135699 -0.088461839 64 38
-1.4756593 0.054314408 -0.088802814 80 38
-1.4762937 0.063410878 -0.088888057 85 38
-1.4758768 0.072468057 -0.088888057 89 38
-1.483363 0.081964366 -0.089570001 111 38
-1.4808432 0.090941891 -0.089399517 115 38
-1.475287 0.099689282 -0.088973299 137 38
-1.4756411 0.10881313 -0.089058541 127 38
-1.4719661 0.11762656 -0.088802814 163 38
-1.4712167 0.12665616 -0.088802814 145 38
-1.4733882 0.13595642 -0.089058541 170 38
-1.4725263 0.14499441 -0.089058541 164 38
-1.4716089 0.15402693 -0.089058541 207 38
-1.4726167 0.16327377 -0.089229032 256 38
-1.4745557 0.1726549 -0.089484759 228 38
-1.4744575 0.18182155 -0.089570001 219 38
-1.4743022 0.1909935 -0.089655243 215 38
-1.4721153 0.19990173 -0.089570001 270 38
-1.475793 0.20963261 -0.089996219 263 38
-1.4794067 0.21941611 -0.090422429 290 38
-1.4770479 0.22833697 -0.090337187 272 38
-1.481521 0.23834677 -0.090848647 236 38
-1.4810134 0.24759728 -0.090933889 258 38
-1.4784846 0.25650936 -0.090848647 267 38
-1.4798247 0.26610613 -0.091104373 255 38
-1.4801229 0.27554637 -0.091274865 248 38
-1.483296 0.28556612 -0.091701075 227 38
-1.4864018 0.29563516 -0.092127293 225 38
-1.4855359 0.30495059 -0.092212535 209 38
-1.4885103 0.31509289 -0.092638753 218 38
-1.4884957 0.32464543 -0.092809238 215 38
-1.4874477 0.33399108 -0.09289448 186 38
-1.4863411 0.34333611 -0.092979722 198 38
-1.4861453 0.35291055 -0.093150206 209 38
-1.4868555 0.3627319 -0.09340594 217 38
-1.4884677 0.37281758 -0.093746908 224 38
-1.4929066 0.38368139 -0.09434361 191 38
-1.4934145 0.39359698 -0.094599344 183 38
-1.497704 0.4045735 -0.095196038 198 38
-1.4980741 0.41455355 -0.095451772 182 38
-1.5012535 0.42536891 -0.095963232 203 38
-1.5014858 0.43540564 -0.096218958 192 38
-1.5016514 0.44546118 -0.096474685 191 38
-1.50175 0.45553511 -0.096730419 192 38
-1.5065393 0.46710351 -0.097412363 173 38
-1.5045947 0.47663981 -0.097497605 192 38
-1.5101728 0.48862547 -0.098264791 183 38
-1.5156603 0.50069743 -0.099031977 143 38
-1.5153917 0.51094359 -0.099287704 143 38
-1.5207069 0.52315146 -0.1000549 114 38
-1.596435 0.56020314 -0.10721531 29 38
-1.6154804 0.57804942 -0.10926114 21 38
-1.6090952 0.58692604 -0.10900541 6 38
-1.6325451 0.60686207 -0.11147746 8 38
-1.6222689 0.6143961 -0.11088075 9 38
-4.7546377 1.8349574 -0.39849073 9 38
-4.7182527 1.8542551 -0.39618918 381 38
-4.726212 1.8909447 -0.39797926 566 38
-4.7145205 1.9199086 -0.39797926 580 38
-4.7081738 1.9510893 -0.39849073 591 38
-4.7089663 1.9853616 -0.39968413 553 38
-4.6985273 2.0150034 -0.39985463 564 38
-4.6897278 2.0453887 -0.4001956 501 38
-4.683465 2.0769536 -0.4007923 515 38
-4.6824408 2.1109762 -0.40190044 614 38
-4.6757398 2.1425731 -0.40249714 482 38
-4.6697311 2.1745882 -0.40317911 512 38
-4.6689086 2.209167 -0.40437251 386 38
-8.8065557 4.233675 -0.79845101 895 38
-8.7992134 4.296813 -0.80024111 787 38
-8.7923203 4.3604631 -0.80211645 800 38
-8.7840862 4.4237413 -0.80390656 903 38
-8.7691975 4.4839072 -0.80509996 993 38
-8.7547836 4.5445156 -0.8063786 983 38
-8.7443638 4.6074386 -0.80808347 1009 38
-8.7335005 4.670404 -0.80978835 961 38
-8.7204418 4.7324586 -0.81132269 907 38
-8.7060766 4.7940483 -0.81277186 707 38
-8.4573069 4.7249093 -0.79129058 59 38
-8.7003326 4.9309855 -0.81805688 654 38
-8.6880512 4.9947057 -0.81984699 697 38
-8.6778984 5.0599666 -0.82189286 172 38
-7.8439627 4.6383939 -0.74210536 248 38
-8.5596094 5.1327686 -0.81635207 409 38
-8.6037226 5.2312651 -0.82393867 479 38
-8.642705 5.3278804 -0.83109909 236 38
-8.6056261 5.3781705 -0.83067286 118 38
-0 0 -0 5 38
-2.7090058 1.7392905 -0.23789287 15 38
-2.7199938 1.7700119 -0.24010919 42 38
-2.7115772 1.7883141 -0.24036491 41 38
-2.7080081 1.8099021 -0.24113211 42 38
-2.7100501 1.8354251 -0.242496 44 38
-2.7085946 1.8587856 -0.2435189 39 38
-2.7102258 1.8844726 -0.24488279 34 38
-2.710829 1.9096755 -0.24616145 38 38
-2.7079806 1.9326407 -0.24709912 27 38
-2.7073743 1.9573941 -0.24829252 45 38
-2.7017434 1.9786799 -0.24897446 48 38
-2.6927521 1.9975951 -0.24931544 47 38
-2.6740725 2.0092909 -0.24863349 36 38
-2.6529727 2.0190225 -0.24769582 15 38
-2.6263309 2.0243125 -0.24616145 25 38
-2.5997245 2.0293519 -0.24462707 23 38
-2.569248 2.0310516 -0.24266648 34 38
-2.535738 2.0299633 -0.24036491 44 38
-2.5054348 2.0310507 -0.23840433 28 38
-2.4782946 2.0343723 -0.23678471 42 38
-2.4473774 2.0342531 -0.23473887 26 38
-2.4188428 2.0357566 -0.23294878 38 38
-2.3918989 2.0382795 -0.23132916 42 38
-2.3604896 2.0366433 -0.22919808 28 38
-2.3314424 2.0366654 -0.22732273 36 38
-2.299499 2.0337679 -0.22510642 19 38
-2.2780707 2.0398622 -0.2240835 30 38
-2.2500114 2.0397465 -0.22229339 26 38
-2.224242 2.0413854 -0.22075902 26 38
-2.1948884 2.0393937 -0.21879843 30 38
-2.1641924 2.0357537 -0.21666735 34 38
-2.137953 2.0359378 -0.21504773 48 38
-2.1125107 2.0365686 -0.21351336 35 38
-2.0899932 2.0397484 -0.21231996 40 38
-2.0689342 2.0441296 -0.21129705 49 38
-2.0500133 2.0504434 -0.21052986 44 38
-2.0198929 2.0452583 -0.20839877 31 38
-1.999653 2.0497673 -0.2074611 25 38
-1.9669913 2.0411894 -0.20498906 11 38
-0 0 -0 4 38
-1.9049442 2.0259712 -0.20038594 30 38
-1.8660372 2.0091455 -0.19706146 62 38
-1.857715 2.0249634 -0.19757292 51 38
-1.8606406 2.0533075 -0.19953351 31 38
-1.8499999 2.0669131 -0.19978924 45 38
-1.8511391 2.0939035 -0.20157933 52 38
-1.8533267 2.1224864 -0.20353992 35 38
-1.8532807 2.1489103 -0.20524479 35 38
-1.8529798 2.1754131 -0.20694965 26 38
-1.8511403 2.2004673 -0.20848402 37 38
-1.8471528 2.2232814 -0.20976266 47 38
-1.8467462 2.2507505 -0.21155277 31 38
-1.8423085 2.2736528 -0.21283142 43 38
-1.8420157 2.3020313 -0.21470676 36 38
-1.8371202 2.3250182 -0.21598542 47 38
-1.8387525 2.3566728 -0.21820173 52 38
-1.8321612 2.3781726 -0.21930988 45 38
-1.8314062 2.4076109 -0.22127047 40 38
-1.8237778 2.428364 -0.22229339 43 38
-1.8213034 2.4563177 -0.2240835 34 38
-1.8132584 2.4770954 -0.22510642 39 38
-1.8073606 2.5010972 -0.22647031 34 38
-1.7948728 2.5161958 -0.22689652 36 38
-1.8000464 2.5564926 -0.22996527 5 38
-2.4346981 3.5035677 -0.3274833 24 38
-2.4154086 3.5217276 -0.32782426 32 38
-2.3993385 3.5447335 -0.3286767 38 38
-2.3847368 3.5701604 -0.32978484 29 38
-2.3737509 3.6013649 -0.33148971 38 38
-2.367903 3.6409211 -0.33404699 55 38
-2.3670382 3.6889267 -0.33745673 63 38
-2.4029722 3.7959907 -0.34683347 156 38
-2.370137 3.7954509 -0.34529909 124 38
-2.3326972 3.7870159 -0.34299752 117 38
-2.0419924 3.3609953 -0.29892689 126 38
-2.0177472 3.3674784 -0.29833019 110 38
-1.9549845 3.3085935 -0.291255 21 38
-0 0 -0 12 38
-1.557463 2.7111123 -0.22996527 6 38
-1.8593903 3.2833252 -0.28528798 84 38
-1.8290123 3.2764018 -0.2834979 125 38
-1.8064731 3.2831976 -0.28307167 132 38
-0 0 -0 75 38
-0 0 -0 97 38
-0 0 -0 112 38
-0 0 -0 100 38
-0 0 -0 84 38
-0 0 -0 110 38
-0 0 -0 119 38
-0 0 -0 110 38
-0 0 -0 118 38
-0 0 -0 114 38
-0 0 -0 73 38
-0 0 -0 101 38
-0 0 -0 99 38
-0 0 -0 104 38
-0 0 -0 84 38
-1.2044667 2.8106766 -0.2240835 58 38
-1.1879715 2.8198507 -0.22425398 75 38
-0 0 -0 57 38
-0 0 -0 58 38
-0 0 -0 45 38
-0 0 -0 19 38
-0 0 -0 9 38
-0 0 -0 8 38
-0 0 -0 8 38
-0 0 -0 10 38
-0 0 -0 29 38
-0 0 -0 48 38
-0 0 -0 50 38
-0 0 -0 34 38
-0 0 -0 31 38
-0 0 -0 36 38
-0 0 -0 121 38
-0.83096689 2.6809731 -0.20260225 59 38
-0 0 -0 29 38
-0 0 -0 11 38
-0 0 -0 23 38
-0 0 -0 5 38
-0.75391322 2.7253683 -0.20439236 5 38
-0.74029189 2.7414861 -0.20541528 21 38
-0.72650099 2.757539 -0.2064382 34 38
-0.69742566 2.7146571 -0.20226128 4 38
-0.68389994 2.7314506 -0.20336944 6 38
-0 0 -0 9 38
-0 0 -0 5 38
-0.62163335 2.6921213 -0.19885156 10 38
-0.6055392 2.6978292 -0.19902205 9 38
-0.58642906 2.6898117 -0.19799913 9 38
-0.57011974 2.6943343 -0.19808437 8 38
-0.54797304 2.6704521 -0.19569758 6 38
-0 0 -0 4 38
-0 0 -0 4 38
-0.49981871 2.6859636 -0.19620903 8 38
-0.47751644 2.6566179 -0.193396 7 38
-0 0 -0 6 38
-0.44848937 2.6838982 -0.19527136 7 38
-0 0 -0 7 38
-0.41308796 2.6734447 -0.19390747 8 38
-0 0 -0 5 38
-0.38136888 2.6862044 -0.19458941 7 38
-0.36407632 2.68257 -0.19407795 10 38
-0.34990981 2.7025397 -0.19561233 6 38
-0.32808647 2.6621134 -0.19194688 24 38
-0.30758217 2.6284499 -0.18887813 40 38
-0.29133895 2.6292973 -0.18879288 40 38
-0.26940411 2.5755413 -0.18401928 74 38
-0.25262159 2.56723 -0.18316685 71 38
-0.23622526 2.5617864 -0.18257014 74 38
-0.21956427 2.552268 -0.18163247 89 38
-0.20374142 2.5515807 -0.18146199 102 38
-0.18822749 2.5547702 -0.18163247 91 38
-0.17294993 2.5618417 -0.18214393 79 38
-0.15747094 2.5668325 -0.18248489 81 38
-0.14210148 2.5747144 -0.1830816 75 38
-0.12654391 2.5805137 -0.18350782 109 38
-0.11096305 2.5872145 -0.18401928 104 38
-0.095268279 2.5928249 -0.18444549 84 38
-0.079539157 2.5993361 -0.18495695 78 38
-0.062450428 2.5529602 -0.18095052 19 38
-0.046386369 2.531379 -0.17907518 9 38
-0.030781319 2.5256381 -0.17856373 10 38
-0.015248469 2.5198014 -0.17805226 20 38
0.00021302934 2.5198476 -0.17805226 23 38
0.015598288 2.5078428 -0.17702934 19 38
0.030861169 2.4977372 -0.17617692 14 38
0.046037782 2.4895313 -0.17549497 18 38
0.061312392 2.4892018 -0.17549497 15 38
0.076307476 2.4798157 -0.17472778 26 38
0.09118969 2.4703398 -0.1739606 11 38
0 0 -0 19 38
0 0 -0 27 38
0 0 -0 20 38
0 0 -0 9 38
0 0 -0 14 38
0 0 -0 12 38
0.19470912 2.4333577 -0.17131807 7 38
0.2101506 2.4380732 -0.17182952 17 38
0.22556545 2.4416983 -0.17225574 45 38
0.24083687 2.443243 -0.17251147 17 38
0.25603175 2.443701 -0.17268196 18 38
0.27146143 2.4460452 -0.17302293 31 38
0.28634885 2.4433439 -0.17293768 32 38
0.30170214 2.4445074 -0.17319341 35 38
0.3169522 2.4445863 -0.17336389 37 38
0.33328921 2.4524682 -0.17421633 26 38
0.35001561 2.462214 -0.17523925 23 38
0.37199923 2.5063405 -0.17924567 10 38
0.38386387 2.4813643 -0.17728508 27 38
0.40589818 2.52126 -0.18095052 8 38
0.4226771 2.5265834 -0.18163247 7 38
0.44431266 2.5592818 -0.18470122 23 38
0.46671838 2.5937696 -0.18794045 36 38
0.46326813 2.4870319 -0.1789047 69 38
0.47587895 2.4704456 -0.17771129 84 38
0 0 -0 112 38
0 0 -0 109 38
0 0 -0 71 38
0 0 -0 187 38
0.55624324 2.4760718 -0.17958663 95 38
0.57142568 2.4726121 -0.17958663 106 38
0.58704746 2.470998 -0.17975712 115 38
0.6047985 2.4779966 -0.1806948 108 38
0.62168813 2.481004 -0.18129151 86 38
0.63863736 2.4838972 -0.18188819 110 38
0.65107036 2.4693346 -0.18095052 81 38
0.66646975 2.4662549 -0.18103577 85 38
0.6789301 2.452517 -0.18018334 96 38
0.68961596 2.4329681 -0.17881945 71 38
0.7031427 2.4239068 -0.17839323 71 38
0.72537595 2.4443805 -0.18060955 120 38
0.74007124 2.4389303 -0.1805243 106 38
0.75502235 2.4343433 -0.1805243 113 38
0.77024609 2.4306145 -0.18060955 112 38
0.78668034 2.430582 -0.18103577 81 38
0.79845166 2.4162495 -0.18018334 111 38
0.81389958 2.4131927 -0.18035382 108 38
0.83647579 2.4307635 -0.18239966 57 38
0.86259919 2.4575479 -0.18529792 10 38
1.0996847 3.0722511 -0.24164356 4 38
0 0 -0 4 38
1.1814197 3.1771231 -0.25246942 91 38
1.19383 3.1511803 -0.25076458 168 38
1.2142192 3.1465843 -0.25102028 159 38
1.2364194 3.146493 -0.25170225 179 38
0 0 -0 225 38
1.2764421 3.1347744 -0.25204322 214 38
1.2964157 3.1287241 -0.25221369 193 38
1.3182988 3.1271369 -0.25281039 178 38
1.3437462 3.1336401 -0.25417429 192 38
1.3689244 3.1390347 -0.25545293 204 38
0 0 -0 207 38
0 0 -0 182 38
0 0 -0 210 38
0 0 -0 214 38
1.4799132 3.1279874 -0.25852168 192 38
1.5008053 3.1224399 -0.25886264 222 38
1.5229965 3.1194394 -0.25945935 220 38
0 0 -0 226 38
0 0 -0 229 38
0 0 -0 624 38
0 0 -0 121 38
0 0 -0 103 38
1.6048299 3.0015237 -0.25366282 94 38
1.6127607 2.9723547 -0.25178748 110 38
1.5973237 2.9013095 -0.24582046 76 38
0 0 -0 81 38
0 0 -0 64 38
0 0 -0 88 38
0 0 -0 74 38
0 0 -0 137 38
0 0 -0 144 38
0 0 -0 170 38
0 0 -0 150 38
0 0 -0 160 38
0 0 -0 151 38
0 0 -0 132 38
0 0 -0 140 38
0 0 -0 155 38
0 0 -0 147 38
0 0 -0 169 38
0 0 -0 148 38
0 0 -0 157 38
0 0 -0 160 38
0 0 -0 166 38
0 0 -0 139 38
0 0 -0 145 38
0 0 -0 173 38
1.9260825 2.5633612 -0.23678471 159 38
0 0 -0 132 38
0 0 -0 165 38
0 0 -0 196 38
0 0 -0 142 38
0 0 -0 125 38
0 0 -0 122 38
0 0 -0 137 38
2.1266155 2.5584695 -0.24709912 120 38
2.1486907 2.552995 -0.24795155 112 38
2.1688395 2.5450706 -0.24854824 138 38
2.1902738 2.5385036 -0.24931544 126 38
2.2143312 2.5347703 -0.25042358 134 38
2.2397451 2.5323296 -0.25170225 132 38
2.2658772 2.5304141 -0.25306612 132 38
2.290731 2.5267966 -0.25425953 129 38
2.3122561 2.519299 -0.25502673 141 38
2.337167 2.5152814 -0.25622013 138 38
2.3641634 2.5132296 -0.25766924 130 38
2.3864119 2.5058904 -0.25852168 133 38
2.4439316 2.5349507 -0.2637215 78 38
2.9069712 2.9783397 -0.31853276 163 38
2.9300938 2.9654076 -0.31912947 170 38
2.9425964 2.9417381 -0.31844753 134 38
3.1988187 3.1588364 -0.34708917 27 38
3.2395396 3.1600192 -0.34964648 82 38
3.2646084 3.1456125 -0.35032842 76 38
3.2975619 3.1385722 -0.35194805 91 38
3.3334551 3.1339753 -0.35390863 118 38
3.3664949 3.1263435 -0.35552824 126 38
3.4003005 3.1190975 -0.35723311 130 38
3.4400504 3.116905 -0.35961992 137 38
3.4806433 3.1150062 -0.36209196 125 38
3.5228348 3.1140451 -0.3647345 115 38
3.5703988 3.1172698 -0.36797372 100 38
3.6143608 3.1167738 -0.37078676 89 38
3.6501057 3.1087492 -0.3726621 107 38
3.6897006 3.1036093 -0.37496364 90 38
3.7255366 3.0949168 -0.37683901 80 38
3.763715 3.0877964 -0.37897009 77 38
3.7973006 3.0765607 -0.38058969 72 38
0 0 -0 5 38
0 0 -0 5 38
0 0 -0 5 38
3.844821 2.9617727 -0.37769142 5 38
3.8494394 2.9278727 -0.37624231 15 38
3.8745029 2.9095819 -0.37700948 11 38
3.8842785 2.8798201 -0.37615705 156 38
3.9179566 2.8677008 -0.37786192 139 38
3.9524393 2.8558595 -0.37965202 136 38
4.0023365 2.8546944 -0.38306174 151 38
4.0572557 2.8564646 -0.38698292 138 38
4.1049814 2.8525507 -0.39013693 138 38
4.1503458 2.8464675 -0.39303517 151 38
4.1957889 2.8399341 -0.39593345 170 38
4.2529073 2.8406966 -0.4000251 178 38
4.2952161 2.8309953 -0.40258241 211 38
4.3383999 2.8214245 -0.40522492 180 38
4.394207 2.8194997 -0.4091461 170 38
4.4434166 2.8127325 -0.41238534 156 38
4.4910173 2.8044114 -0.41545409 170 38
4.56074 2.8091958 -0.42073917 187 38
4.6102509 2.8008146 -0.42397839 183 38
4.6632481 2.7939792 -0.4275586 194 38
4.7249126 2.7916656 -0.43199125 152 38
4.7781129 2.7836845 -0.43557146 183 38
4.8339834 2.7766433 -0.43940738 236 38
4.8639355 2.7542937 -0.44068602 325 38
4.8685632 2.7175994 -0.43949261 265 38
4.8746705 2.6819127 -0.43846971 277 38
4.8682609 2.6396055 -0.4362534 250 38
4.8790922 2.606868 -0.43574193 237 38
4.8773623 2.5676 -0.43403706 168 38
4.8797569 2.530745 -0.43275842 277 38
4.873898 2.4898787 -0.43071258 213 38
4.879293 2.4550006 -0.42977491 223 38
4.8880148 2.4219196 -0.42917821 202 38
4.9368129 2.4084804 -0.43241745 120 38
4.9919157 2.3975518 -0.4362534 283 38
5.0074339 2.3673027 -0.43633863 311 38
4.9965701 2.3247662 -0.43395182 239 38
5.0007749 2.2895024 -0.43301415 267 38
5.0074611 2.255502 -0.43233222 259 38
5.0184731 2.2235239 -0.43207648 267 38
4.9534664 2.1584654 -0.42474559 137 38
4.9840188 2.1354854 -0.4263652 290 38
5.0126381 2.1114378 -0.42781433 303 38
5.0264201 2.0810223 -0.42789957 309 38
5.0335565 2.047889 -0.42738813 296 38
5.0321493 2.0114191 -0.42610946 276 38
4.9952407 1.9612093 -0.42159158 253 38
5.022985 1.9366143 -0.42304072 352 38
5.029182 1.9036415 -0.42252925 284 38
5.0314279 1.8692778 -0.42167684 345 38
5.0109749 1.8267699 -0.41877857 226 38
5.0314713 1.7993432 -0.419631 334 38
5.0160904 1.7592059 -0.4172442 247 38
5.0286746 1.7290424 -0.4174147 338 38
5.0420218 1.6991088 -0.4176704 328 38
5.0192375 1.6572087 -0.41468692 182 38
5.0103502 1.62025 -0.41298205 50 38
5.0182981 1.5888752 -0.41281155 61 38
5.0136766 1.5536309 -0.41153291 18 38
5.0221615 1.5225493 -0.41144767 23 38
5.0294986 1.4911389 -0.41127717 26 38
5.0395103 1.4605278 -0.41136244 22 38
5.0445423 1.4284928 -0.41102144 18 38
5.0484109 1.3961856 -0.41059524 20 38
5.0472631 1.3625867 -0.4097428 15 38
5.0497479 1.3300694 -0.40923136 12 38
5.0375476 1.2938561 -0.40744126 16 38
5.0308933 1.259294 -0.40616259 23 38
5.0327177 1.2269857 -0.40565115 17 38
5.0323958 1.1942426 -0.40496922 15 38
5.0357456 1.1624458 -0.40462822 25 38
5.0369501 1.1302167 -0.40411678 13 38
5.039896 1.0984409 -0.40377581 20 38
5.0387425 1.065847 -0.40309384 21 38
5.0354271 1.0329084 -0.40224144 20 38
5.03092 0.99985653 -0.40130374 17 38
5.0330467 0.968216 -0.40096277 16 38
5.030077 0.93567634 -0.4001956 21 38
5.033762 0.90444249 -0.4000251 18 38
5.0362716 0.87302858 -0.39976937 21 38
5.0405507 0.84194607 -0.39968413 30 38
5.0436544 0.81068593 -0.39951366 22 38
5.0436106 0.77896333 -0.39908743 23 38
5.0433669 0.7472719 -0.39866123 30 38
5.0458841 0.71603245 -0.39849073 26 38
5.0452461 0.68438876 -0.39806452 22 38
5.0315642 0.65111858 -0.39653015 11 38
5.0463424 0.6215722 -0.39746782 25 38
5.046103 0.59013408 -0.39712685 16 38
5.0525999 0.55948943 -0.39738256 27 38
5.0519738 0.5280627 -0.39704159 27 38
5.0571017 0.49724928 -0.39721209 29 38
5.0570812 0.46593612 -0.39695635 46 38
5.0548816 0.43447146 -0.39653015 30 38
5.0534792 0.40313047 -0.39618918 31 38
5.0638075 0.3726998 -0.39687112 35 38
5.0640106 0.34148791 -0.39670062 41 38
5.0600433 0.31004417 -0.39618918 52 38
5.0698094 0.27942851 -0.39687112 37 38
5.0614767 0.24782899 -0.39601868 76 38
5.0718613 0.21715057 -0.39678586 99 38
5.0800681 0.18628117 -0.39738256 85 38
5.07514 0.154925 -0.39687112 73 38
5.0680265 0.12358791 -0.39618918 50 38
5.0686893 0.092488758 -0.39618918 48 38
5.0731468 0.061434075 -0.39653015 57 38
5.0784101 0.030334046 -0.39695635 54 38
5.0785003 -0.00082706194 -0.39695635 36 38
0 -0 -0 35 38
5.0900636 -0.063297607 -0.39797926 54 38
5.0955563 -0.094639927 -0.39849073 48 38
5.0948796 -0.12590389 -0.39849073 57 38
5.0880361 -0.15697831 -0.39797926 27 38
5.0839901 -0.18808421 -0.39772356 30 38
5.0817447 -0.21923243 -0.39763829 32 38
5.0812988 -0.25045842 -0.39772356 35 38
0 -0 -0 33 38
5.0907712 -0.31359228 -0.3988317 28 38
5.0907393 -0.34495765 -0.39900219 19 38
5.0915074 -0.37640795 -0.39925793 32 38
5.1000271 -0.40851769 -0.4001956 21 38
5.1013951 -0.44014609 -0.40053657 16 38
5.1015749 -0.47171479 -0.4007923 22 38
5.1015592 -0.50330228 -0.40104803 19 38
5.1023383 -0.53501129 -0.401389 23 38
5.1009402 -0.56652874 -0.40155947 29 38
5.1052847 -0.59874588 -0.40224144 21 38
5.1064587 -0.63067108 -0.40266764 18 38
5.1113853 -0.66314626 -0.40343481 23 38
5.1151185 -0.69557124 -0.40411678 26 38
5.1176591 -0.72792661 -0.40471348 33 38
5.1180239 -0.76004648 -0.40513968 32 38
5.1201563 -0.79250312 -0.40573639 29 38
5.1210995 -0.82485598 -0.40624785 19 38
5.117907 -0.856592 -0.40641832 25 38
5.1213899 -0.88951397 -0.40718552 20 38
5.1295633 -0.92339379 -0.40837893 13 38
5.1159654 -0.95338994 -0.40769699 18 38
5.1217589 -0.98702633 -0.4087199 16 38
5.1195149 -1.0192127 -0.40906087 9 38
5.1317081 -1.0544178 -0.41068047 17 38
5.1261163 -1.0860921 -0.41076574 12 38
5.1290898 -1.1196507 -0.41161814 9 38
5.1415653 -1.1554718 -0.41332301 17 38
5.1402035 -1.1883451 -0.41383448 17 38
5.1386309 -1.2212452 -0.41434592 24 38
5.1358805 -1.2539341 -0.41477215 17 38
5.1319556 -1.286393 -0.41511312 19 38
5.1403694 -1.3220782 -0.41656226 33 38
5.1340876 -1.3541024 -0.41673273 23 38
5.1304913 -1.3868794 -0.41715896 18 38
5.154532 -1.4273765 -0.42005721 34 38
5.1485524 -1.4597929 -0.42031294 32 38
5.1500239 -1.4944113 -0.42125061 51 38
5.1722775 -1.535342 -0.42406365 163 38
5.1665726 -1.5682075 -0.42440462 411 38
5.0493231 -1.5665103 -0.41477215 211 38
4.963635 -1.5733721 -0.4079527 150 38
4.8941698 -1.5844606 -0.40258241 188 38
4.8162441 -1.5919416 -0.39644489 175 38
4.7648468 -1.6074467 -0.39269421 334 38
4.7567782 -1.6373017 -0.3928647 407 38
4.7494626 -1.6674483 -0.39312041 321 38
4.7335134 -1.6945437 -0.39260897 243 38
4.7211552 -1.7228729 -0.39243847 239 38
4.7179656 -1.7545878 -0.39312041 298 38
4.7154961 -1.7866815 -0.39388761 279 38
4.7630033 -1.8381866 -0.39925793 396 38
4.7785263 -1.8779478 -0.40172997 579 38
4.7576632 -1.9035311 -0.40087754 395 38
4.7569666 -1.937198 -0.40190044 361 38
4.7606382 -1.9728354 -0.40334958 340 38
4.773231 -2.0124621 -0.40565115 233 38
4.771781 -2.0464256 -0.40667406 45 38
4.7691803 -2.0800486 -0.40761173 39 38
4.7818298 -2.120584 -0.40999854 21 38
4.7769027 -2.1535709 -0.41076574 23 38
4.7708449 -2.186162 -0.41144767 22 38
4.7763081 -2.2242284 -0.41323778 27 38
4.7796817 -2.2615917 -0.41485739 28 38
4.7809801 -2.2982161 -0.41630653 29 38
4.7793231 -2.3336296 -0.41749993 43 38
4.7774105 -2.3691092 -0.41869333 45 38
4.7841406 -2.4091346 -0.42073917 34 38
4.7870107 -2.4475172 -0.42244402 28 38
4.7895885 -2.4860251 -0.42414889 32 38
4.7909923 -2.5241919 -0.42576849 30 38
4.7868357 -2.5596499 -0.42687666 23 38
4.7832999 -2.5956271 -0.42807007 30 38
4.7795019 -2.6316569 -0.42926347 24 38
4.7780509 -2.6691957 -0.43071258 28 38
4.7875872 -2.7132022 -0.43326989 18 38
4.7838058 -2.7499766 -0.43454853 24 38
4.7909422 -2.7933314 -0.43693534 22 38
4.7951527 -2.835355 -0.43906641 27 38
4.799027 -2.8775351 -0.44119748 21 38
4.801712 -2.9193511 -0.44324332 17 38
4.8066087 -2.9628768 -0.44554487 19 38
4.8162203 -3.0097404 -0.44835791 14 38
4.8220701 -3.0546999 -0.45082995 22 38
4.8258715 -3.098767 -0.4531315 20 38
4.8326535 -3.1451695 -0.45577404 23 38
4.8307295 -3.1862845 -0.45756415 36 38
4.8334522 -3.2308166 -0.45986572 30 38
4.8374596 -3.276619 -0.46233776 30 38
4.8378 -3.3203361 -0.46446884 32 38
4.836967 -3.3636115 -0.46651468 23 38
4.8341556 -3.405853 -0.46839002 16 38
4.8366838 -3.4522388 -0.47086206 24 38
4.8355942 -3.4964476 -0.47299314 16 38
4.8341436 -3.5407724 -0.47512421 24 38
4.8347311 -3.5869918 -0.47751102 20 38
4.8436933 -3.639936 -0.4808355 22 38
4.8418808 -3.6852787 -0.48305181 14 38
4.837326 -3.7289107 -0.48501241 17 38
4.8332024 -3.7732379 -0.48705822 15 38
4.8279352 -3.8170366 -0.48901883 14 38
4.8440886 -3.8783498 -0.49336621 22 38
4.8395476 -3.9236879 -0.49549729 11 38
4.8508034 -3.9823933 -0.49941847 19 38
4.8661165 -4.0452056 -0.50385112 22 38
4.8663578 -4.0961623 -0.50666416 19 38
4.8714633 -4.1517982 -0.51007384 21 38
4.8700342 -4.2024417 -0.51280165 18 38
4.8704171 -4.2551904 -0.51578516 25 38
4.8718271 -4.3094215 -0.51893914 27 38
4.8838873 -4.3738003 -0.52337176 25 38
4.8820534 -4.4264407 -0.52627003 19 38
4.88416 -4.4832654 -0.52967978 22 38
4.882833 -4.5375686 -0.53274852 41 38
4.883925 -4.5947542 -0.5361582 41 38
4.8873839 -4.6548719 -0.53990889 38 38
4.8845501 -4.709671 -0.54297769 42 38
4.8855042 -4.7687855 -0.54655784 37 38
4.9093022 -4.8512001 -0.5529511 16 38
4.8970523 -4.8988495 -0.55508214 28 38
4.8984027 -4.9607105 -0.55891812 31 38
4.9089165 -5.0327573 -0.56394744 10 38
4.904212 -5.0900497 -0.56718665 21 38
4.9092908 -5.1582999 -0.57170457 30 38
4.9157629 -5.2289805 -0.57647818 19 38
4.924263 -5.3028536 -0.58159274 30 38
4.9212646 -5.3652773 -0.58534342 42 38
4.9277186 -5.4389391 -0.5903728 27 38
4.9221578 -5.500258 -0.59395301 36 38
4.9252663 -5.5721641 -0.59872663 21 38
4.9316077 -5.6488175 -0.60401165 38 38
4.9280839 -5.7151918 -0.60810333 44 38
4.947185 -5.8090439 -0.61526376 55 38
4.9601874 -5.8972425 -0.62174219 60 38
4.9410982 -5.9482613 -0.62404376 45 38
4.9348383 -6.0154438 -0.62813544 42 38
4.9523983 -6.1129665 -0.63555157 32 38
4.9421821 -6.1774726 -0.63930225 26 38
4.9461827 -6.2608471 -0.64509881 30 38
4.9070606 -6.2902927 -0.64501357 19 38
4.9388967 -6.4118505 -0.65490174 33 38
4.9398704 -6.4951706 -0.66061306 50 38
4.9609437 -6.6066294 -0.66930783 81 38
4.9529467 -6.6809683 -0.67399621 95 38
5.0095367 -6.8447061 -0.68814653 349 38
5.0036197 -6.9253893 -0.69343162 454 38
4.9893789 -6.9957099 -0.69760853 200 38
5.0157557 -7.1247768 -0.70792294 49 38
5.0026436 -7.199604 -0.71252602 72 38
5.004015 -7.2967238 -0.71943074 50 38
5.0278349 -7.4287858 -0.72991562 38 38
5.0568604 -7.5713539 -0.74142343 18 38
5.042655 -7.6513252 -0.74645275 25 38
5.0243988 -7.7263937 -0.75097066 17 38
5.0237026 -7.8300371 -0.75838679 17 38
5.0368414 -7.9575338 -0.76818973 19 38
5.0454364 -8.0804119 -0.7774812 41 38
5.0699525 -8.2316885 -0.78958571 59 38
5.050384 -8.313736 -0.79470032 55 38
5.0596962 -8.4454269 -0.80475903 35 38
5.0873437 -8.6109962 -0.81814218 25 38
5.0885739 -8.7350321 -0.82734841 17 38
5.092937 -8.8671799 -0.83732182 18 38
5.0757413 -8.9641571 -0.84380031 20 38
5.0857086 -9.1117172 -0.85522288 29 38
5.1070199 -9.2833033 -0.86894697 51 38
5.0945988 -9.3968019 -0.87695986 33 38
5.0997539 -9.5456476 -0.88838243 31 38
5.1617451 -9.8059978 -0.91054559 13 38
5.1322088 -9.8967485 -0.9162569 15 38
5.10991 -10.003474 -0.9235025 20 38
5.1164937 -10.169932 -0.93645948 26 38
5.151742 -10.398446 -0.95529819 57 38
5.1424422 -10.5418 -0.96595359 29 38
5.1673727 -10.759974 -0.98368412 15 38
5.1451092 -10.88426 -0.99246413 16 38
5.1358018 -11.039391 -1.0041424 26 38
5.2044034 -11.368756 -1.0321873 75 38
5.1521406 -11.439541 -1.0358528 56 38
5.191617 -11.718724 -1.059039 245 38
0 -0 -0 997 38
5.2604589 -12.278865 -1.1053259 63 38
5.2140217 -12.37978 -1.1117191 47 38
5.2762909 -12.74572 -1.1426624 24 38
5.2644334 -12.941214 -1.1577504 16 38
5.2973309 -13.254538 -1.1836642 47 38
5.2453914 -13.361917 -1.1905689 32 38
5.2317529 -13.57142 -1.2068504 19 38
0 -0 -0 583 38
5.2979512 -14.262254 -1.2641337 51 38
5.3376031 -14.643666 -1.2959293 15 38
5.3647189 -15.003573 -1.3256792 17 38
5.3493724 -15.255283 -1.3455408 36 38
5.3379374 -15.527149 -1.3671925 10 38
5.4051199 -16.042103 -1.4107517 31 38
5.3815408 -16.30204 -1.43121 23 38
5.427 -16.785076 -1.4717004 212 38
5.3275146 -16.829458 -1.4727234 358 38
5.2005634 -16.785692 -1.4659039 7 38
5.1055622 -16.843985 -1.4682907 7 38
5.5250788 -18.6394 -1.6257346 39 38
5.3989601 -18.632757 -1.6221544 127 38
5.6267638 -19.874435 -1.7296458 36 38
5.5214381 -19.969088 -1.7350161 51 38
5.8533902 -21.686953 -1.8842766 16 38
0 -0 -0 8 38
4.3310175 -16.866243 -1.452265 16 38
4.218256 -16.855772 -1.4490258 365 38
4.1093254 -16.859072 -1.4470652 490 38
4.0028129 -16.871367 -1.4459571 513 38
3.8931677 -16.869396 -1.4436555 418 38
1.8747092 -8.3560514 -0.69513649 51 38
1.8155544 -8.331377 -0.69198245 466 38
1.762957 -8.335536 -0.69138575 571 38
1.7049732 -8.3130112 -0.68848753 23 38
1.6545159 -8.3262482 -0.68874323 32 38
1.5979396 -8.307868 -0.68627119 8 38
1.8050238 -9.7055683 -0.80706054 34 38
1.7426195 -9.7007704 -0.80569667 15 38
1.4338616 -8.2730427 -0.68081564 5 38
0 -0 -0 4 38
2.9166203 -18.152067 -1.535377 14 38
2.8044264 -18.164698 -1.5349507 40 38
2.6859109 -18.134254 -1.5308591 11 38
2.3491964 -16.561161 -1.3935326 9 38
0 -0 -0 3 38
2.3393955 -18.08576 -1.5226758 14 38
1.0225435 -8.3037672 -0.67825836 8 38
0.97400218 -8.3306665 -0.68004847 9 38
0.92385411 -8.3453989 -0.68081564 10 38
0.87656349 -8.3885679 -0.68405485 10 38
0.83209014 -8.4651823 -0.69019234 16 38
0.78570461 -8.5306511 -0.69539219 11 38
0.74340582 -8.6524506 -0.70545089 8 38
0.71563071 -8.9746771 -0.73272866 8 38
0 -0 -0 5 38
1.2012527 -17.828352 -1.4912211 4 38
0 -0 -0 6 38
0 -0 -0 5 38
0.87089282 -17.806641 -1.4877261 8 38
0.76144671 -17.807669 -1.4873852 7 38
0 -0 -0 5 38
0.54222512 -17.794758 -1.4855951 5 38
0 -0 -0 6 38
0 -0 -0 4 38
0.1004543 -8.3160648 -0.67399621 21 38
0.049420122 -8.3155279 -0.67391098 14 38
-0.0019009018 -9.553154 -0.77978277 10 38
-0 -0 -0 5 38
-0 -0 -0 4 38
-0 -0 -0 4 38
-0.20849508 -8.4266806 -0.68362868 6 38
-0.25671566 -8.3127079 -0.67399621 720 38
-0.30753207 -8.3059978 -0.67356998 1038 38
-0.35866302 -8.3079367 -0.67391098 946 38
-0.4096328 -8.3055792 -0.67391098 920 38
-0.46091858 -8.3088789 -0.67442238 883 38
-0.51219893 -8.3108664 -0.67484862 898 38
-0.56534177 -8.3393774 -0.67757642 704 38
-0.61907429 -8.3705292 -0.68055993 31 38
-0.67066216 -8.3695526 -0.68081564 6 38
-0.72766185 -8.4307957 -0.68644166 20 38
-1.5563879 -16.822493 -1.4078534 140 38
-1.6576215 -16.792795 -1.4061486 520 38
-1.7596931 -16.77339 -1.4053813 451 38
-1.8766671 -16.88903 -1.4162924 198 38
-1.9772415 -16.851469 -1.4140762 198 38
-2.081214 -16.843964 -1.4145024 513 38
-2.1860666 -16.842733 -1.4155253 486 38
-2.2909825 -16.840849 -1.4165483 549 38
-2.3973613 -16.848177 -1.4184235 570 38
-2.5034769 -16.851875 -1.4200431 557 38
-2.608813 -16.848997 -1.4211513 560 38
-2.7140496 -16.844477 -1.4221742 483 38
-2.8213034 -16.851089 -1.4242201 497 38
-2.927717 -16.851131 -1.4257544 507 38
-3.0347672 -16.853443 -1.4275446 367 38
-2.2597728 -12.123189 -1.0175256 313 38
-2.3062017 -11.9643 -1.0049096 708 38
-2.3817105 -11.960673 -1.0058473 688 38
-2.4580641 -11.960474 -1.007126 711 38
-2.5289268 -11.93347 -1.006103 329 38
-2.6137929 -11.971266 -1.0107914 678 38
-2.6909132 -11.971528 -1.0122405 771 38
-2.7670124 -11.966441 -1.0132635 763 38
-5.3884678 -22.667267 -1.9557956 46 38
-6.0673718 -24.844486 -2.1504908 54 38
-5.7391648 -22.890335 -1.9814538 50 38
-5.8003163 -22.546873 -1.9542612 49 38
-5.9141521 -22.418373 -1.9460778 47 38
-6.2102432 -22.968372 -1.9980761 50 38
-6.2398815 -22.528469 -1.9624445 70 38
-6.3480916 -22.384315 -1.9530678 50 38
-6.4955959 -22.380348 -1.9562218 119 38
-6.932847 -23.350615 -2.0464089 53 38
-6.9605002 -22.927235 -2.0123971 77 38
-7.251061 -23.367504 -2.0557003 56 38
-7.2196465 -22.771709 -2.0062594 85 38
-2.3159382 -7.1530118 -0.60571653 768 38
-2.3547804 -7.1235309 -0.60435265 1517 38
-2.3984451 -7.1089478 -0.60435265 1478 38
-2.4608321 -7.1487389 -0.60929674 834 38
-2.4967268 -7.1109428 -0.60725093 752 38
-0 -0 -0 833 38
-0 -0 -0 1347 38
-2.583771 -6.947051 -0.59659553 1226 38
-2.6302328 -6.9413152 -0.59753323 1214 38
-2.6838975 -6.9538603 -0.60017574 1419 38
-2.7192249 -6.9187155 -0.59847087 1237 38
-2.7375638 -6.841773 -0.59293008 1350 38
-2.7802444 -6.8266926 -0.59310055 1325 38
-0 -0 -0 1238 38
-2.9307864 -6.9508862 -0.60784763 1337 38
-2.9800582 -6.948339 -0.60929674 1310 38
-3.0927529 -7.0906544 -0.62429953 972 38
-3.1410499 -7.0824733 -0.6253224 155 38
-5.4071612 -11.992353 -1.0879363 27 38
-5.4453573 -11.88196 -1.0806906 21 38
-5.470624 -11.746264 -1.0710582 21 38
-5.4807935 -11.581888 -1.0586979 28 38
-5.5318956 -11.506735 -1.0547768 22 38
-5.589716 -11.446611 -1.0523047 14 38
-5.608933 -11.309449 -1.0425018 42 38
-5.6674643 -11.253464 -1.0404559 41 38
-5.7223449 -11.190977 -1.0378134 66 38
-0 -0 -0 42 38
-5.7867837 -10.982404 -1.0245155 15 38
-0 -0 -0 14 38
-0 -0 -0 86 38
-0 -0 -0 16 38
-5.8271217 -10.430015 -0.98462176 9 38
-0 -0 -0 28 38
-5.8414454 -10.160782 -0.96518636 14 38
-0 -0 -0 7 38
-0 -0 -0 13 38
-5.9229455 -9.877224 -0.94779682 15 38
-5.5485969 -9.1255836 -0.87619263 53 38
-5.5799103 -9.0515041 -0.87218624 64 38
-5.592042 -8.947814 -0.86519629 69 38
-5.5951138 -8.8316927 -0.85692775 61 38
-5.6061263 -8.7301264 -0.85010827 63 38
-5.6248012 -8.6421213 -0.84465271 48 38
-5.6190166 -8.5184546 -0.83553171 66 38
-5.634078 -8.428319 -0.82982045 91 38
-5.6834517 -8.3902912 -0.82947946 361 38
-5.7393374 -8.3618317 -0.83016139 673 38
-5.7410426 -8.2552948 -0.82274526 37 38
-5.9086652 -8.3860645 -0.84013486 404 38
-5.9935856 -8.3966866 -0.84507895 700 38
-6.0654292 -8.38801 -0.84806246 740 38
-6.1350355 -8.3755522 -0.85070497 745 38
-6.1964049 -8.3513527 -0.85215414 107 38
-6.3241549 -8.4151249 -0.86306524 23 38
-6.3943782 -8.4007397 -0.86570776 650 38
-6.4713545 -8.3944874 -0.86928797 662 38
-6.5675025 -8.4119511 -0.87551069 626 38
-6.657927 -8.4207325 -0.88088101 571 38
-6.7480822 -8.4279423 -0.8861661 574 38
-6.8291621 -8.4227524 -0.89017248 588 38
-6.9780841 -8.4992771 -0.90329993 119 38
-7.0549455 -8.4861803 -0.90662444 103 38
-7.1383247 -8.4800816 -0.91080135 102 38
-7.2361131 -8.4899597 -0.91685355 99 38
-7.3336387 -8.4982004 -0.92282057 88 38
-7.434814 -8.5093136 -0.92921382 86 38
-7.5357399 -8.5187569 -0.93552178 101 38
-7.6257586 -8.5146627 -0.94038063 81 38
-7.7019548 -8.4942837 -0.94344938 90 38
-7.8172679 -8.5158587 -0.95146227 437 38
-7.8890433 -8.4888973 -0.95393431 632 38
-8.0044794 -8.5078163 -0.96186191 286 38
-8.0695877 -8.472249 -0.96348149 271 38
-8.0557175 -8.3544407 -0.95538342 43 38
-8.0845556 -8.2820396 -0.95265567 241 38
-8.0791912 -8.1755838 -0.94583619 595 38
-8.1059484 -8.1026125 -0.9430232 569 38
-8.1441689 -8.041523 -0.94165927 497 38
-8.1940708 -7.9920955 -0.94174457 85 38
-8.3706779 -8.0647135 -0.95691782 161 38
-8.4813557 -8.0715828 -0.96416348 463 38
-8.6062241 -8.0903616 -0.97302872 562 38
-8.6922112 -8.0713005 -0.97729087 498 38
-8.8069239 -8.0777512 -0.98487753 437 38
-8.9050579 -8.0677109 -0.99050355 478 38
-9.0182486 -8.0700569 -0.99783444 135 38
-9.0705814 -8.0172091 -0.99817544 91 38
-2.6884406 -2.3473718 -0.26781318 73 38
-2.6899648 -2.3197713 -0.26636404 108 38
-2.7124925 -2.310328 -0.26730171 298 38
-2.6923032 -2.2647822 -0.26346576 121 38
-2.7184124 -2.2584057 -0.26482967 309 38
-2.7037156 -2.218303 -0.26167569 127 38
-2.6971464 -2.1853654 -0.25945935 124 38
-2.698056 -2.1588166 -0.25809547 123 38
-2.6995239 -2.1329567 -0.25681683 121 38
-2.7031331 -2.108999 -0.2557939 93 38
-2.7136548 -2.0905492 -0.25553817 284 38
-2.7113624 -2.0623999 -0.25391856 153 38
-2.7152014 -2.0391438 -0.25298089 125 38
-2.7196581 -2.0165119 -0.25212845 104 38
-2.7263515 -1.9956676 -0.25153175 103 38
-2.7280459 -1.9713163 -0.25042358 150 38
-2.7376568 -1.9528047 -0.25016788 132 38
-2.7512169 -1.937117 -0.25033835 132 38
-2.8006907 -1.9463507 -0.25425953 69 38
-2.8175108 -1.9325103 -0.25477099 92 38
-2.8474691 -1.9274712 -0.25664634 70 38
-2.8981853 -1.9359707 -0.26065275 111 38
-2.9199932 -1.9247303 -0.26167569 325 38
-2.9793603 -1.9377363 -0.26653454 131 38
-2.991194 -1.9194188 -0.26653454 169 38
-3.0736351 -1.9457883 -0.27369493 68 38
-3.099884 -1.9358627 -0.27514407 71 38
-3.1252782 -1.9251653 -0.27650797 76 38
-3.1515086 -1.9147462 -0.27795708 51 38
-10.462588 -6.2680783 -1.0059326 250 38
-10.489699 -6.197175 -1.0048244 334 38
-0 -0 -0 6 38
-10.462141 -6.008935 -0.99468046 33 38
-10.421648 -5.9009376 -0.98709381 347 38
-10.435908 -5.8247414 -0.98496276 389 38
-10.405105 -5.7241015 -0.97848427 77 38
-10.351562 -5.6121888 -0.96987474 137 38
-10.369105 -5.5396476 -0.9682551 173 38
-10.363225 -5.4550366 -0.96441919 464 38
-10.359351 -5.3720827 -0.96083897 498 38
-10.344204 -5.2839446 -0.95623583 565 38
-10.317685 -5.1908216 -0.9506098 549 38
-10.32345 -5.1145897 -0.94813776 540 38
-10.318818 -5.0336776 -0.94472802 509 38
-10.301008 -4.9469776 -0.94012493 567 38
-10.286129 -4.8623896 -0.93586278 567 38
-10.269697 -4.777751 -0.9315154 617 38
-10.255333 -4.6947417 -0.92742372 622 38
-10.253058 -4.6178174 -0.92452544 533 38
-10.241117 -4.5370626 -0.92077476 600 38
-10.226745 -4.4558334 -0.91685355 599 38
-10.216342 -4.3769135 -0.91335863 667 38
-10.20903 -4.2998366 -0.91020465 641 38
-10.20208 -4.2233953 -0.90713584 674 38
-10.196423 -4.147953 -0.90423763 637 38
-10.193 -4.0738492 -0.90159506 585 38
-10.175141 -3.9944825 -0.8976739 703 38
-10.180866 -3.9248066 -0.89596903 677 38
-10.090137 -3.8188879 -0.88548416 183 38
-1.6465737 -0.61201668 -0.1127561 11 38
-1.6474895 -0.60087842 -0.11250038 24 38
-1.6398871 -0.58673304 -0.11147746 10 38
-1.6415758 -0.57600051 -0.11130697 5 38
-1.5263566 -0.52510571 -0.10056635 57 38
-1.5201076 -0.51254916 -0.099713922 126 38
-1.5137625 -0.50008917 -0.098861493 152 38
-1.5139583 -0.48987198 -0.098605759 146 38
-1.5112362 -0.47876921 -0.098094307 176 38
-1.5103385 -0.46830806 -0.097753331 187 38
-1.5084159 -0.45758697 -0.097327121 190 38
-1.5054636 -0.44662404 -0.096815661 178 38
-1.5005196 -0.43516007 -0.096133716 215 38
-1.5012441 -0.42540208 -0.095963232 196 38
-1.4951831 -0.413793 -0.095196038 204 38
-1.4919223 -0.40305325 -0.094684586 210 38
-1.4905132 -0.39287657 -0.09434361 197 38
-1.4890356 -0.38273239 -0.094002642 235 38
-1.4884562 -0.37286305 -0.093746908 237 38
-1.4868439 -0.36277932 -0.09340594 194 38
-1.4851642 -0.35272947 -0.093064964 224 38
-1.484388 -0.34293792 -0.092809238 211 38
-1.4816033 -0.33273309 -0.09238302 235 38
-1.4826434 -0.32342377 -0.092297778 242 38
-1.4826504 -0.3139081 -0.092127293 247 38
-1.4835725 -0.30460468 -0.092042051 205 38
-1.4834591 -0.29510763 -0.091871567 205 38
-1.4813281 -0.28524718 -0.091530591 232 38
-1.4820709 -0.2759704 -0.091445349 217 38
-1.4798137 -0.2661669 -0.091104373 206 38
-1.4794556 -0.2567417 -0.090933889 232 38
-1.4780548 -0.24716687 -0.090678163 223 38
-1.4765923 -0.23761891 -0.090422429 246 38
-1.4770378 -0.22840223 -0.090337187 245 38
-1.4764402 -0.21904308 -0.090166703 234 38
-1.4767699 -0.20983978 -0.090081461 254 38
-1.4780297 -0.20077454 -0.090081461 230 38
-1.4792339 -0.19170174 -0.090081461 227 38
-1.4774156 -0.18225653 -0.089825727 238 38
-1.4765269 -0.17295654 -0.089655243 228 38
-1.473599 -0.16345516 -0.089314274 247 38
-1.4745742 -0.15441024 -0.089314274 221 38
-1.4754939 -0.14535952 -0.089314274 213 38
-1.4763581 -0.13630332 -0.089314274 191 38
-1.4761739 -0.12715675 -0.089229032 193 38
-1.4789127 -0.11825503 -0.089399517 151 38
-1.4607306 -0.10779025 -0.087779894 97 38
-1.4613645 -0.09882535 -0.087779894 97 38
-1.4917784 -0.091682494 -0.090337187 54 38
-1.4515238 -0.080282412 -0.086842224 23 38
-1.4509939 -0.071325868 -0.086756982 20 38
-1.457377 -0.062676653 -0.087268442 9 38
-1.4457858 -0.053295963 -0.086245522 7 38
-1.4470814 -0.044454109 -0.086330764 8 38
-1.4552954 -0.03576785 -0.087012708 21 38
-1.447518 -0.026692847 -0.086330764 12 38
-1.452636 -0.01787048 -0.086756982 15 38
-1.4487329 -0.0089334389 -0.086416006 17 38
-1.4497569 -4.377402e-05 -0.086501256 11 38
-1.4497298 0.0088517675 -0.086501256 12 38
-1.4556259 0.017821772 -0.087012708 45 38
-1.4764091 0.027143143 -0.088802814 66 38
-1.4472561 -0.1058727 -0.10405245 14 39
-1.4399346 -0.096451953 -0.10327456 13 39
-1.4454662 -0.087920994 -0.10376074 14 39
-1.4439909 -0.07893987 -0.10356627 9 39
-1.440472 -0.069882095 -0.10317732 9 39
-1.447834 -0.061342724 -0.10385797 10 39
-1.4621073 -0.052973419 -0.10521927 12 39
-1.4594204 -0.043908928 -0.10492756 11 39
-1.4556825 -0.034854785 -0.10453863 17 39
