# .PCD v0.7 - Point Cloud Data file format
VERSION 0.7
FIELDS x y z intensity ring
SIZE 4 4 4 4 1
TYPE F F F F U
COUNT 1 1 1 1 1
WIDTH 416
HEIGHT 1
VIEWPOINT 0 0 0 1 0 0 0
POINTS 416
DATA ascii
3.675139 -1.4166105 -0.83351636 149 49
3.6591065 -1.4362825 -0.83178484 144 49
3.6352501 -1.4014013 -0.87248814 76 50
3.668272 -1.440051 -0.88297665 17 50
3.6349566 -1.4527731 -0.87682033 143 50
3.6465151 -1.4070431 -0.92286485 6 51
3.6314864 -1.4269075 -0.92119032 6 51
3.6325805 -1.453127 -0.92382169 25 51
3.6226964 -1.4750228 -0.92358243 117 51
3.6460466 -1.4055645 -0.97175473 31 52
3.6373537 -1.4279099 -0.97175473 127 52
3.633018 -1.4519981 -0.97300833 158 52
3.6195571 -1.4724382 -0.97175473 162 52
3.6050878 -1.4923975 -0.97025043 133 52
3.6029997 -1.5174966 -0.97225618 29 52
3.6332624 -1.4268758 -1.0186119 131 53
3.6208539 -1.4477102 -1.0175645 139 53
3.6074326 -1.4680824 -1.0162553 153 53
3.5947897 -1.4887136 -1.0152078 147 53
3.5873663 -1.5114917 -1.0157316 140 53
3.6674013 -1.4137994 -1.0745144 10 54
3.63448 -1.4267814 -1.0671446 82 54
3.6220839 -1.4476268 -1.0660529 148 54
3.6051135 -1.466561 -1.0635962 159 54
3.5978246 -1.48939 -1.0641422 132 54
3.5868449 -1.5106908 -1.0635962 130 54
3.5536332 -1.5224396 -1.0562266 78 54
3.6428447 -1.4049008 -1.1142 129 55
3.6252294 -1.4237238 -1.1113632 115 55
3.5790246 -1.4310002 -1.0994486 59 55
3.707485 -1.4039239 -0.69208544 92 46
3.7005146 -1.4025739 -0.73928201 77 47
3.6872616 -1.4234879 -0.73831683 79 47
3.6815238 -1.4207156 -0.78491133 165 48
3.6754701 -1.4443526 -0.78552479 68 48
3.7769051 -1.1446863 -1.2251035 108 57
3.7643526 -1.1661505 -1.2232703 109 57
3.7471397 -1.1860684 -1.2199095 101 57
3.7905886 -1.0991143 -1.2729875 128 58
3.7819541 -1.1218125 -1.2723554 103 58
3.7886178 -1.149129 -1.2770952 65 58
3.869889 -1.0189395 -1.2428242 21 57
3.853451 -1.0399394 -1.2394633 75 57
3.866272 -1.0688869 -1.2458794 6 57
3.8559754 -1.0915533 -1.2446574 5 57
3.8428028 -1.1133398 -1.2425187 6 57
3.8030307 -1.1271666 -1.2315196 59 57
3.822993 -1.0578305 -1.279623 125 58
3.8082149 -1.0789396 -1.2767792 93 58
4.1549726 -1.3442891 -1.4129667 23 58
3.7865813 -1.2498606 -0.84433836 21 49
3.7510822 -1.2637285 -0.83784515 142 49
3.7395639 -1.2854525 -0.83697939 117 49
3.7067285 -1.2996594 -0.83113551 66 49
3.7014422 -1.3233643 -0.83178484 14 49
3.7152696 -1.3540678 -0.83697939 123 49
3.7096372 -1.3778578 -0.83762872 142 49
3.6947205 -1.3981769 -0.83611363 161 49
3.7811716 -1.2225876 -0.89072901 183 50
3.7615795 -1.2417963 -0.88776487 132 50
3.7501986 -1.2636095 -0.8868528 132 50
3.7368503 -1.2846967 -0.88548476 13 50
3.7107191 -1.3268498 -0.88297665 7 50
3.7061667 -1.3509275 -0.88388866 26 50
3.6996334 -1.374321 -0.8843447 149 50
3.6856675 -1.3949271 -0.88297665 161 50
3.7931085 -1.1510319 -0.93649989 4 51
3.786902 -1.1745716 -0.93673909 5 51
3.7879548 -1.200423 -0.93889201 60 51
3.7805178 -1.2236428 -0.93889201 146 51
3.7655623 -1.2443815 -0.93697828 121 51
3.751415 -1.2652929 -0.93530381 141 51
3.7353168 -1.285446 -0.93315089 101 51
3.7346892 -1.3109119 -0.93506461 21 51
3.7110329 -1.328245 -0.93099803 109 51
3.6936905 -1.3476652 -0.92860591 143 51
3.6726091 -1.3655701 -0.92525697 114 51
3.6668854 -1.3891102 -0.92597455 12 51
3.7807024 -1.2224358 -0.98880357 51 52
3.7648573 -1.2428787 -0.98654711 20 52
3.7681684 -1.2696664 -0.98955572 5 52
3.7548144 -1.2908746 -0.98805141 7 52
3.7267263 -1.3068399 -0.9825356 73 52
3.6958499 -1.3215313 -0.97626764 151 52
3.6876717 -1.3441838 -0.97626764 176 52
3.6820767 -1.3677971 -0.97701985 178 52
3.671804 -1.3896787 -0.97651839 147 52
3.7846227 -1.1731443 -1.0345849 153 53
3.7755127 -1.1957619 -1.0340612 127 53
3.7635128 -1.2174218 -1.0327519 157 53
3.7642207 -1.2432128 -1.0351086 43 53
3.7318263 -1.2579699 -1.0280386 6 53
3.7243054 -1.3065434 -1.0303953 7 53
3.7044039 -1.3251483 -1.0269911 91 53
3.6952963 -1.3475227 -1.0267293 21 53
3.6311424 -1.4003917 -1.0154697 61 53
3.7773757 -1.1703564 -1.0813382 124 54
3.7673719 -1.1926407 -1.0805193 147 54
3.7544911 -1.213958 -1.0788816 120 54
3.7625012 -1.2421007 -1.0835218 57 54
3.7365763 -1.2590182 -1.0780628 114 54
3.7242322 -1.2803574 -1.0766979 152 54
3.7126749 -1.301911 -1.0756062 143 54
3.6991816 -1.322723 -1.0739685 167 54
3.6873806 -1.3440777 -1.0728767 68 54
3.6844747 -1.3686882 -1.0745144 5 54
3.6751075 -1.3909293 -1.0742414 7 54
3.7858827 -1.1481229 -1.1295187 118 55
3.7732706 -1.1696291 -1.1278167 98 55
3.7605374 -1.1910239 -1.1261146 16 55
3.7549834 -1.2146654 -1.1266819 14 55
3.7429066 -1.2361804 -1.1252636 8 55
3.7297986 -1.2572869 -1.1235615 15 55
3.7138519 -1.2773445 -1.1210084 105 55
3.7032294 -1.2991567 -1.1201574 146 55
3.6924794 -1.3208866 -1.1193062 141 55
3.6861069 -1.3441749 -1.1198736 130 55
3.6813858 -1.3681022 -1.1210084 121 55
3.6675406 -1.3886293 -1.1193062 138 55
3.7793679 -1.1448877 -1.1775799 154 56
3.7677081 -1.1666422 -1.1761055 127 56
3.7604787 -1.1897385 -1.1761055 113 56
3.7619288 -1.2411864 -1.1814132 30 56
3.7207372 -1.2529593 -1.1705028 97 56
3.7102683 -1.2748339 -1.1696182 127 56
3.6987691 -1.2963113 -1.1684387 141 56
3.6907456 -1.318982 -1.1684387 131 56
3.6825829 -1.3416032 -1.1684387 101 56
3.735261 -1.2075748 -1.2183819 117 57
3.7277811 -1.2304713 -1.2183819 102 57
3.7129414 -1.2508914 -1.2159376 59 57
3.7833588 -1.3019631 -0.45245349 168 41
3.7899048 -1.303679 -0.50214887 137 42
3.7743535 -1.3242834 -0.50107974 159 42
3.7762442 -1.2729281 -0.54924071 59 43
3.767808 -1.3217903 -0.55040801 43 43
3.7559004 -1.3435525 -0.54982436 131 43
3.7489593 -1.3412627 -0.59762919 52 44
3.7350929 -1.3622102 -0.59668231 114 44
3.7729247 -1.2475396 -0.64465129 163 45
3.7437198 -1.2634246 -0.64075232 79 45
3.7517397 -1.2918217 -0.64363414 144 45
3.7428129 -1.3144914 -0.64346462 157 45
3.7318931 -1.3364362 -0.64295608 167 45
3.7217708 -1.3586341 -0.64261705 155 45
3.7124405 -1.3811015 -0.64244753 113 45
3.7655437 -1.2952964 -0.69535023 96 46
3.7473178 -1.3147945 -0.69335508 165 46
3.7382541 -1.3374316 -0.69317371 161 46
3.7299774 -1.3603439 -0.69317371 141 46
3.7187948 -1.3821769 -0.69262958 141 46
3.7877524 -1.2782702 -0.7471965 11 47
3.7640648 -1.2960615 -0.7439149 68 47
3.7162297 -1.3051641 -0.73561436 41 47
3.7072275 -1.3276113 -0.7354213 8 47
3.6861064 -1.3456267 -0.73271883 12 47
3.6658242 -1.3637749 -0.73020935 5 47
3.7811878 -1.2497296 -0.79247767 151 48
3.7660284 -1.2704033 -0.7908417 127 48
3.7516837 -1.2912567 -0.78941023 159 48
3.741843 -1.3136036 -0.78900123 172 48
3.7180457 -1.3309286 -0.78552479 43 48
3.6886601 -1.3459973 -0.78082138 8 48
3.6830842 -1.369629 -0.78143489 12 48
3.6920025 -1.3987932 -0.78532034 87 48
3.9199426 -1.0064261 -0.85754114 145 49
3.9061399 -1.028473 -0.85580963 146 49
3.9006984 -1.0526754 -0.85602605 151 49
3.8998122 -1.0781491 -0.85732472 152 49
3.8264217 -1.0831966 -0.84195751 53 49
3.8553402 -1.1169682 -0.85018224 133 49
3.8399889 -1.1381086 -0.84823424 128 49
3.827327 -1.1599516 -0.84693563 131 49
3.832262 -1.1871659 -0.84974933 13 49
3.8146181 -1.2332041 -0.84909999 5 49
3.9122093 -1.0046545 -0.90600574 118 50
3.8899651 -1.0244236 -0.90212953 16 50
3.8901861 -1.0500494 -0.90372562 9 50
3.8902388 -1.0757165 -0.90532172 14 50
3.878881 -1.0982397 -0.90418166 40 50
3.8412089 -1.1130737 -0.89665729 167 50
3.8240387 -1.133577 -0.89414918 177 50
3.8086252 -1.1544766 -0.89209706 157 50
3.80054 -1.177536 -0.89186907 114 50
3.7960279 -1.2017154 -0.89255309 47 50
3.8973415 -1.0020748 -0.95133096 135 51
3.8789132 -1.0227549 -0.94822121 93 51
3.8725646 -1.0465362 -0.94822121 7 51
3.8632627 -1.0695018 -0.94750363 7 51
3.8491538 -1.0910701 -0.9455899 15 51
3.869432 -1.1225047 -0.95252705 42 51
3.8215108 -1.1340834 -0.94200176 14 51
3.876112 -1.020774 -0.99782944 19 52
3.8669717 -1.043781 -0.99707723 82 52
3.8576953 -1.0667144 -0.99632508 180 52
3.8473518 -1.0893095 -0.99532223 158 52
3.8378062 -1.1120872 -0.99457008 161 52
3.8207011 -1.1325872 -0.99181217 76 52
3.8359134 -1.1627512 -0.99782944 12 52
3.8314807 -1.1871258 -0.99858159 5 52
3.8019753 -1.2035987 -0.99256432 14 52
3.9320438 -1.010258 -1.0610319 5 53
3.914571 -1.031418 -1.0578897 7 53
3.8988507 -1.0529045 -1.0552713 7 53
3.8439441 -1.0634403 -1.0416549 106 53
3.8392038 -1.0875318 -1.0421786 166 53
3.8315318 -1.1107998 -1.0419167 132 53
3.8320467 -1.1364819 -1.0440116 48 53
3.793597 -1.1504599 -1.0351086 106 53
3.8632169 -1.0173768 -1.0928022 114 54
3.8569016 -1.0410619 -1.0928022 134 54
3.844878 -1.0631689 -1.0911645 166 54
3.8419847 -1.0877893 -1.0922563 37 54
3.8361619 -1.1116105 -1.0925292 4 54
3.8246572 -1.1337603 -1.0911645 4 54
3.8130255 -1.1558108 -1.0897996 8 54
3.8719437 -1.0201997 -1.1437027 119 55
3.8609819 -1.0426896 -1.1422844 122 55
3.84342 -1.0632955 -1.1388803 146 55
3.8285191 -1.0845085 -1.1363271 125 55
3.8116608 -1.1050454 -1.1332066 13 55
3.801131 -1.1273229 -1.1320719 25 55
3.8669975 -1.0176539 -1.1929133 110 56
3.8754413 -1.0453452 -1.1976312 42 56
3.8081684 -1.0523016 -1.1781696 7 56
3.7979624 -1.0746074 -1.17699 6 56
3.7949684 -1.0989546 -1.1781696 40 56
3.7936509 -1.1238483 -1.1799388 130 56
3.8003869 -1.2280729 -1.1914389 9 56
3.9452527 -1.0143788 -0.4613373 145 41
3.9437535 -1.0398313 -0.46194577 151 41
3.9440067 -1.0658208 -0.46279767 117 41
3.9115629 -1.0828581 -0.45951188 17 41
3.904845 -1.1068386 -0.45951188 31 41
3.8960733 -1.1302248 -0.45926848 162 41
3.8871617 -1.1535453 -0.45902508 159 41
3.8648124 -1.1727676 -0.45707795 165 41
3.8414259 -1.1914656 -0.4550091 136 41
3.847291 -1.2192078 -0.45671284 26 41
3.8189602 -1.2360731 -0.45403555 5 41
3.8424075 -1.269751 -0.4580515 56 41
3.7940981 -1.2796751 -0.45281857 146 41
3.9479618 -1.0145711 -0.51137006 182 42
3.9311211 -1.0359972 -0.50990003 139 42
3.9179933 -1.0582889 -0.50896454 11 42
3.9123812 -1.0825738 -0.50909817 6 42
3.9075718 -1.1070998 -0.50936544 7 42
3.9045124 -1.1321597 -0.50990003 31 42
3.8908415 -1.1541226 -0.50896454 164 42
3.8779967 -1.1762482 -0.50816268 66 42
3.8830116 -1.2038372 -0.50990003 8 42
3.8538229 -1.220755 -0.50682628 25 42
3.8311739 -1.2394962 -0.50468802 146 42
3.8178506 -1.261115 -0.50388622 136 42
3.803467 -1.2823002 -0.50295073 171 42
3.9554794 -1.0162721 -0.56383175 159 43
3.9415154 -1.038509 -0.56266445 155 43
3.9408002 -1.0642201 -0.56353992 117 43
3.9465923 -1.0918059 -0.56543672 111 43
3.9084053 -1.1071126 -0.56062168 168 43
3.8939366 -1.1288718 -0.55945444 159 43
3.8802967 -1.1507763 -0.55843306 101 43
3.852798 -1.2202142 -0.55755758 6 43
3.8000529 -1.2292298 -0.55055386 51 43
3.7961969 -1.2537632 -0.55113751 139 43
3.8310483 -1.317614 -0.5590167 9 43
3.9453077 -1.0138888 -0.61230582 9 44
3.9390125 -1.0380777 -0.61230582 8 44
3.9344754 -1.0627426 -0.61262143 12 44
3.890765 -1.0765902 -0.60646671 76 44
3.8954864 -1.1036744 -0.60836047 171 44
3.8810539 -1.1253552 -0.60709798 190 44
3.8665025 -1.1469005 -0.60583544 167 44
3.8489983 -1.1674495 -0.60409951 120 44
3.8427055 -1.191337 -0.60425735 163 44
3.8277926 -1.2125068 -0.6029948 149 44
3.8137043 -1.2338425 -0.60189015 160 44
3.8051243 -1.2569098 -0.60173231 88 44
3.8141828 -1.2859141 -0.60457295 6 44
3.8062208 -1.3092933 -0.60457295 7 44
3.7934566 -1.330988 -0.60378391 12 44
3.9315152 -1.0115796 -0.65939963 64 45
3.90168 -1.0551232 -0.65634829 11 45
3.8951323 -1.0790436 -0.65634829 61 45
3.8742151 -1.0988935 -0.65380543 73 45
3.870239 -1.123468 -0.65431398 8 45
3.8661072 -1.148035 -0.65482259 7 45
3.8561611 -1.1708772 -0.65431398 10 45
3.8319602 -1.189263 -0.65126264 104 45
3.8151958 -1.2097769 -0.64956743 140 45
3.8039503 -1.2319502 -0.6488893 129 45
3.9367878 -1.0116984 -0.71058595 12 46
3.9133894 -1.0313225 -0.70732117 132 46
3.8927472 -1.0514672 -0.70460051 168 46
3.8881178 -1.0758575 -0.70496327 167 46
3.8823895 -1.0999625 -0.70514464 177 46
3.8793449 -1.1248596 -0.70587015 58 46
3.8591712 -1.144725 -0.70333087 5 46
3.862426 -1.1715237 -0.70532602 12 46
3.838258 -1.1899577 -0.70206124 103 46
3.842134 -1.2170511 -0.70423776 44 46
3.8414454 -1.2951083 -0.70859081 5 46
3.9542017 -1.0174099 -0.76399058 5 47
3.9108818 -1.0319014 -0.75646222 10 47
3.8959513 -1.0535758 -0.75472492 128 47
3.8922503 -1.0782461 -0.75530398 141 47
3.8600721 -1.0948864 -0.75009203 50 47
3.8108747 -1.106254 -0.74140543 9 47
3.830354 -1.1374294 -0.74681044 145 47
3.8251805 -1.1614802 -0.7471965 151 47
3.8161075 -1.1843481 -0.74681044 141 47
3.8003502 -1.2050742 -0.74507308 152 47
3.8339605 -1.2416598 -0.75356668 25 47
3.8216114 -1.2636223 -0.7526015 9 47
3.9099526 -1.0055242 -0.80392945 185 48
3.8961375 -1.0274986 -0.80229348 161 48
3.8840899 -1.0498524 -0.80106652 186 48
3.8596513 -1.0687002 -0.79718107 29 48
3.8426623 -1.0894245 -0.79493165 8 48
3.8415458 -1.1146193 -0.79615861 16 48
3.8374496 -1.1390054 -0.79677206 14 48
3.8322618 -1.1630989 -0.79718107 137 48
3.8231833 -1.1860111 -0.79677206 143 48
3.8410275 -1.2174352 -0.80229348 32 48
3.8567665 -1.2485197 -0.80740589 10 48
3.9918408 -0.89531153 -0.86728096 74 49
3.9415581 -0.90948433 -0.85710829 21 49
3.8988533 -0.92487472 -0.84866714 6 49
3.8919461 -0.9738335 -0.84974933 22 49
3.9508655 -0.91184634 -0.9096539 135 50
3.9167759 -0.92932516 -0.90281361 21 50
3.8797841 -0.94572824 -0.89528924 8 50
3.9135773 -0.97944832 -0.90486568 48 50
3.9207945 -0.93151271 -0.95276624 120 51
3.9159484 -0.95578271 -0.95300543 121 51
3.9137778 -0.98073548 -0.95396233 158 51
3.9009373 -0.92556554 -0.99808013 30 52
3.9290428 -0.95774043 -1.0071059 179 52
3.9155796 -0.97994965 -1.0051003 184 52
3.8851151 -0.99769402 -0.99858159 112 52
3.8991361 -0.95096624 -1.0484631 63 53
3.8904188 -0.97417051 -1.0476775 55 53
3.8978081 -0.97550017 -1.099353 94 54
3.8824315 -0.99700457 -1.0966235 70 54
3.881846 -0.99737608 -1.1448375 100 55
4.0123701 -0.97928727 -0.468274 55 41
3.9514024 -0.99015212 -0.4613373 149 41
4.032979 -0.87955576 -0.51831937 97 42
4.0149364 -0.90146148 -0.51658201 143 42
4.0035357 -0.92474097 -0.51578021 177 42
3.9833236 -0.94585305 -0.51377559 165 42
3.960115 -0.96604717 -0.51137006 160 42
3.9493062 -0.98912346 -0.51070189 154 42
4.0453291 -0.77852732 -0.56908453 75 43
4.0763793 -0.81046212 -0.57448322 128 43
4.0693913 -0.83506185 -0.57419139 158 43
4.0554795 -0.85817462 -0.57287818 150 43
4.0482044 -0.88262153 -0.57258636 124 43
4.0349898 -0.90571302 -0.57141906 9 43
4.0274286 -0.93000954 -0.57112724 6 43
4.0226088 -0.95493209 -0.57127315 9 43
3.9849544 -0.97187012 -0.56645811 48 43
3.9693186 -0.9939028 -0.56499898 127 43
4.0678916 -0.80903417 -0.62414181 115 44
4.0589819 -0.83318448 -0.62351054 156 44
4.054759 -0.85827881 -0.62366837 155 44
4.0455575 -0.88230014 -0.6230371 151 44
4.0265789 -0.90407676 -0.62082773 125 44
3.9709258 -0.91720539 -0.61262143 12 44
3.9575374 -0.93972749 -0.61135894 5 44
3.9891102 -0.97312331 -0.61751366 63 44
3.9658227 -0.99326175 -0.61467302 111 44
4.0507512 -0.83271015 -0.67245281 131 45
4.0349593 -0.85530442 -0.67058808 154 45
4.0094147 -0.87563622 -0.66702813 86 45
3.9501178 -0.88813013 -0.6575349 10 45
3.9772422 -0.91989225 -0.66329867 57 45
3.9791939 -0.94610041 -0.66465485 130 45
3.9694841 -0.9695642 -0.66397673 155 45
3.9558122 -0.99198669 -0.66262054 141 45
4.0410566 -0.85537708 -0.72273827 82 46
3.9838486 -0.86883593 -0.71294385 6 46
3.9813209 -0.89391059 -0.71348798 6 46
3.9671376 -0.91632998 -0.71185559 6 46
3.9710083 -0.94292754 -0.71366936 117 46
3.9575047 -0.96541017 -0.71221834 170 46
3.9553225 -0.99063087 -0.71294385 58 46
4.0489564 -0.85826719 -0.77499366 57 47
4.0292339 -0.87995875 -0.77209812 73 47
3.9931235 -0.89778638 -0.76592094 117 47
3.9770234 -0.91984171 -0.76379758 136 47
3.972259 -0.94445366 -0.76399058 139 47
3.9625764 -0.967879 -0.76321846 27 47
3.9518039 -0.99098277 -0.76225328 6 47
3.9940429 -0.87178773 -0.81456327 76 48
3.9828885 -0.89499009 -0.81333625 185 48
3.9687386 -0.91742682 -0.81149578 170 48
3.9506545 -0.93881798 -0.80883735 192 48
3.941016 -0.96211213 -0.8080194 185 48
3.9369373 -0.98675179 -0.80842835 104 48
3.877167 -1.1765127 -0.35812879 161 39
3.8613191 -1.1976293 -0.35725367 185 39
3.8444095 -1.2182956 -0.35628131 199 39
3.8283389 -1.2391056 -0.35540619 177 39
3.8159382 -1.2610126 -0.35492003 142 39
3.9516811 -1.0673919 -0.41325977 40 40
3.9373937 -1.0894974 -0.41238329 117 40
3.9134209 -1.1087575 -0.41041121 137 40
3.8979523 -1.1302568 -0.40942514 145 40
3.8890378 -1.1535875 -0.40920603 142 40
3.8771307 -1.1759853 -0.40865824 135 40
3.8755381 -1.2015195 -0.40931559 28 40
3.878516 -1.2285794 -0.41052076 12 40
3.8699586 -1.2520484 -0.41041121 12 40
3.8565407 -1.2738993 -0.40975383 17 40
3.8081517 -1.2838801 -0.40504271 125 40
