# .PCD v0.7 - Point Cloud Data file format
VERSION 0.7
FIELDS x y z intensity ring
SIZE 4 4 4 4 1
TYPE F F F F U
COUNT 1 1 1 1 1
WIDTH 1352
HEIGHT 1
VIEWPOINT 0 0 0 1 0 0 0
POINTS 1352
DATA ascii
-0 0 0 4 9
-0 0 0 5 9
-0 0 0 4 9
-0.41532663 2.6903706 0.77760375 5 9
-0.40873027 2.7596481 0.79609841 8 9
-0.39165387 2.7611492 0.79583424 7 9
-0.37470439 2.7635005 0.79583424 9 9
-0.35662374 2.7571394 0.79345632 13 9
-0.34040901 2.7650189 0.79504162 18 9
-0.32377389 2.7699294 0.79583424 14 9
-0.30677184 2.7718637 0.79583424 13 9
-0.28985885 2.7746532 0.79609841 11 9
-0.27330205 2.7811785 0.79741949 18 9
-0.25605425 2.7808824 0.79689103 28 9
-0.23898625 2.7824011 0.79689103 23 9
-0.22229445 2.7886221 0.79821211 20 9
-0.20525075 2.7908955 0.79847634 13 9
-0.18831798 2.7949889 0.79926896 15 9
-0.17116471 2.7960918 0.79926896 23 9
-0.15384471 2.7942004 0.79847634 21 9
-0.13636434 2.7883489 0.79662687 19 9
-0.11916958 2.7872059 0.79609841 14 9
-0.10170848 2.7782466 0.79345632 21 9
-0.084451146 2.7720704 0.79160684 12 9
-0.066987142 2.7542171 0.78658688 25 9
-0.0502478 2.7632549 0.78896475 15 9
-0.033135515 2.7509742 0.78553003 18 9
-0.016188052 2.7405169 0.78262377 22 9
0.00062547554 2.7521381 0.78579426 15 9
0.017506538 2.7511179 0.78553003 20 9
0.034514859 2.7615671 0.78843635 12 9
0.051335923 2.7545533 0.78658688 18 9
0.068518333 2.7657566 0.78975743 22 9
0.085604988 2.7691402 0.79081422 24 9
0.10277105 2.7733819 0.7921353 21 9
0.12048706 2.7890799 0.79662687 28 9
0.13693838 2.7748017 0.79292792 31 9
0.15496951 2.7922065 0.79794788 34 9
0.17150973 2.7815764 0.79530579 24 9
0.18870366 2.7823963 0.79583424 38 9
0.19289395 2.6061263 0.74774808 88 9
0.20888121 2.6048937 0.74774808 86 9
0.24153769 2.7976699 0.80111843 37 9
0.2610876 2.8220661 0.8082521 47 9
0.28113458 2.8482463 0.81591415 50 9
0.29620019 2.8234458 0.80957311 23 9
0.31670249 2.8503335 0.8174994 32 9
0.33452183 2.8512104 0.81829202 23 9
0.35236385 2.8519759 0.8190847 23 9
0.37381643 2.880368 0.82753938 30 9
0.39005727 2.8675072 0.82463306 23 9
0.4096767 2.8793833 0.82859623 28 9
0.42776054 2.8796775 0.82938886 28 9
0.4467465 2.8855772 0.83176672 35 9
0.46260732 2.8713548 0.82859623 22 9
0.48387083 2.8903418 0.83467305 30 9
0.50274944 2.8939705 0.83652252 27 9
0.51930338 2.8841863 0.83467305 17 9
0.53804868 2.8866348 0.83625829 23 9
0.55429333 2.8757024 0.83414465 22 9
0.57155192 2.8703551 0.8336162 15 9
0.58837825 2.8630149 0.83255935 21 9
0.60673255 2.8631253 0.8336162 17 9
0.6236729 2.8565214 0.83282357 33 9
0.64477766 2.868639 0.83731514 27 9
0.66063195 2.8571107 0.8352015 20 9
0.67792773 2.8520651 0.83493727 19 9
0.69906962 2.862844 0.83916461 19 9
0.7156859 2.8547583 0.83810776 25 9
0.73462826 2.8559182 0.83969301 20 9
0.74894488 2.8392322 0.83625829 25 9
0.77766246 2.8764844 0.84814775 19 9
0.78475845 2.8335459 0.83731514 20 9
0.80239272 2.8296053 0.83757937 23 9
0.8192029 2.8227761 0.83705091 24 9
0.83760417 2.8213952 0.83810776 26 9
0.85434055 2.8143566 0.83757937 15 9
0.90670294 2.9223762 0.87007713 29 9
0.99680847 3.1447906 0.93560117 112 9
1.0148989 3.1349442 0.93454432 93 9
0 0 0 87 9
0 0 0 5 9
0 0 0 7 9
0.94790578 2.6995366 0.81564993 9 9
1.1170799 3.1205003 0.93982852 20 9
1.1490878 3.1489267 0.95013273 103 9
1.1710745 3.1490495 0.95224637 105 9
0 0 0 126 9
0 0 0 109 9
0 0 0 112 9
0 0 0 109 9
1.2740252 3.1286192 0.95726639 116 9
1.2943048 3.1234164 0.95805901 132 9
1.3164403 3.1225266 0.96017265 126 9
1.3389933 3.1223691 0.96255058 136 9
0 0 0 137 9
0 0 0 124 9
0 0 0 135 9
0 0 0 173 9
1.4455327 3.1043112 0.96994841 156 9
1.4690872 3.1049745 0.97285473 159 9
1.4939568 3.1080737 0.97655368 167 9
1.5189195 3.1109838 0.98025262 151 9
1.5422612 3.1102476 0.98289472 154 9
0 0 0 134 9
0 0 0 159 9
1.6023575 3.0873258 0.98474419 127 9
1.628908 3.0919445 0.98923576 117 9
1.6519395 3.0895476 0.99161363 115 9
1.6722445 3.0818968 0.99240625 110 9
1.6934477 3.0758033 0.99372733 104 9
1.7174592 3.0746183 0.99663359 104 9
1.7405694 3.0715756 0.99901152 108 9
1.7665888 3.0733829 1.0029746 116 9
1.7888119 3.0683191 1.0048242 116 9
1.8120203 3.0647588 1.007202 110 9
1.837235 3.0643382 1.0106367 129 9
1.8645153 3.0670204 1.0151283 125 9
1.8949323 3.0744097 1.0212051 108 9
1.9209123 3.074178 1.024904 129 9
1.9402547 3.0631485 1.0251683 138 9
1.9631798 3.0576797 1.027282 142 9
1.9871624 3.0536618 1.029924 112 9
2.0154152 3.0559068 1.0346798 110 9
2.0426986 3.0563152 1.0389072 121 9
2.0673597 3.05251 1.0418135 117 9
2.0947783 3.0524938 1.0460409 110 9
2.1211734 3.0506713 1.0497397 120 9
2.1470695 3.0478511 1.0531745 104 9
2.1702106 3.0409012 1.0552882 117 9
2.1950414 3.0361273 1.0581945 115 9
2.2221737 3.034276 1.0621576 107 9
2.2470679 3.0291064 1.065064 119 9
2.2748778 3.0276015 1.0692912 107 9
2.2986667 3.0204952 1.0716692 114 9
2.3171568 3.0063338 1.0716692 109 9
2.3503902 3.0110707 1.0782744 135 9
2.3765938 3.0064306 1.0817091 110 9
2.4064438 3.0061007 1.0867292 115 9
2.4400215 3.0100136 1.0933344 132 9
2.4810779 3.0225747 1.1031102 80 9
2.5069726 3.016197 1.1062807 97 9
2.5322611 3.0088766 1.109187 103 9
2.5563035 2.9998908 1.1115649 103 9
2.5803308 2.9907231 1.1139427 111 9
2.6087816 2.9864588 1.1181701 192 9
2.6366382 2.981235 1.1221333 111 9
2.6677442 2.9793751 1.1274174 128 9
2.7066967 2.985822 1.1358721 138 9
2.7327895 2.9776869 1.1390426 122 9
2.7687285 2.9799449 1.1461763 150 9
2.8014941 2.9783599 1.151989 138 9
2.8290248 2.9708951 1.1556879 151 9
2.8652685 2.9722335 1.1628215 124 9
2.9043279 2.9759998 1.171012 96 9
2.9347312 2.9704764 1.1757678 102 9
2.972676 2.9721947 1.1834298 88 9
3.0038915 2.966779 1.1884499 95 9
3.0323913 2.9583972 1.192413 116 9
3.056735 2.94576 1.194791 114 9
3.0845296 2.9362612 1.1984899 108 9
3.1355033 2.9483409 1.2109077 128 9
3.1810882 2.9546518 1.2212119 133 9
3.2076838 2.942904 1.2243824 124 9
3.2313967 2.9283493 1.2264961 141 9
3.2579253 2.916188 1.2296666 139 9
3.3118768 2.9280937 1.2428771 209 9
3.3297811 2.9077175 1.2428771 145 9
3.3592424 2.8973131 1.2471044 200 9
3.4232008 2.9160604 1.2637496 130 9
3.4543104 2.9061809 1.2685055 156 9
3.5054517 2.9126761 1.2803949 138 9
3.5404022 2.9051881 1.2864717 146 9
3.5761414 2.8979878 1.2928127 158 9
3.6149364 2.892869 1.3002106 152 9
3.6553154 2.8885789 1.3081369 167 9
3.688935 2.8785598 1.3136853 171 9
3.7355542 2.8782468 1.3237252 164 9
3.7792375 2.8751326 1.3327084 231 9
3.8299613 2.8768048 1.3440694 167 9
3.8669047 2.8676174 1.3506746 200 9
3.903101 2.8575146 1.3570157 195 9
3.9494781 2.8544219 1.3667915 234 9
3.9943931 2.8497462 1.3760388 253 9
4.0417638 2.8462925 1.3860787 292 9
4.089241 2.8423638 1.3961188 292 9
4.1304603 2.8335929 1.404045 257 9
4.1717243 2.8244224 1.4119713 254 9
4.2234545 2.8218193 1.4233323 224 9
4.276113 2.8192179 1.4349575 252 9
4.3224311 2.811867 1.4444691 275 9
4.3785577 2.8103065 1.4571512 334 9
4.4258637 2.8024848 1.4669269 296 9
4.4830523 2.8003213 1.4798732 264 9
4.5354538 2.7945237 1.4912342 241 9
4.5978403 2.7942007 1.5057658 195 9
4.6438489 2.7832961 1.5150131 222 9
4.677443 2.7645679 1.5202973 253 9
4.760139 2.7741945 1.5411699 321 9
4.7996473 2.7579131 1.5483035 375 9
4.8643064 2.7555172 1.5633634 250 9
4.9173274 2.7458453 1.5747246 517 9
4.9146519 2.7049215 1.5686476 417 9
4.9184408 2.6678145 1.5646845 401 9
4.9143057 2.6266699 1.5583435 327 9
4.926064 2.594219 1.5570225 393 9
4.9367528 2.5612783 1.5554372 480 9
4.942071 2.5256698 1.5522667 480 9
4.9316335 2.4822841 1.5443404 427 9
4.9407234 2.4489779 1.542491 501 9
4.9461236 2.4139609 1.5395846 278 9
4.9486728 2.3777163 1.5358857 509 9
4.9466052 2.339469 1.5308657 314 9
4.9451294 2.301744 1.5261099 520 9
4.9486384 2.2665362 1.5229394 592 9
4.9439883 2.2278044 1.517391 501 9
4.8808618 2.1634085 1.4944048 62 9
4.8905082 2.1318769 1.4933479 70 9
4.8733602 2.0889037 1.4843647 245 9
4.9598475 2.0900638 1.5062941 697 9
4.9618864 2.0551603 1.5031236 270 9
4.7823596 1.946462 1.4463186 15 9
4.7055645 1.8816098 1.4201618 6 9
0 0 0 4 9
4.8245759 1.8608829 1.4484322 17 9
4.7646542 1.8042462 1.4275597 45 9
4.6499839 1.7282429 1.3908346 38 9
4.6786208 1.7062918 1.3961188 61 9
4.7371278 1.6947824 1.4101218 144 9
4.8766575 1.7110558 1.4476396 122 9
4.9746113 1.7112381 1.4730037 280 9
4.9831901 1.6800656 1.4724753 637 9
4.9567757 1.6373491 1.4619069 259 9
4.9447074 1.5997739 1.4555659 60 9
4.9470754 1.567072 1.4534522 57 9
4.9510708 1.534973 1.451867 50 9
4.9567041 1.5034443 1.4508102 46 9
4.9639869 1.4724532 1.4502817 50 9
4.968297 1.440623 1.4489607 44 9
4.9696198 1.4080061 1.446847 45 9
4.9688706 1.3749124 1.4442049 47 9
4.9706964 1.3426361 1.4423554 40 9
4.9723129 1.3103893 1.440506 61 9
4.9727874 1.277933 1.4383923 58 9
4.9730511 1.2455202 1.4362786 52 9
4.973104 1.2131524 1.4341649 46 9
4.9720092 1.1806079 1.431787 45 9
4.9707026 1.1481225 1.4294091 55 9
4.9748311 1.1169668 1.4286165 52 9
4.9815907 1.0864208 1.4286165 81 9
4.9843893 1.0550342 1.4275597 65 9
4.983211 1.0228775 1.425446 58 9
4.9827724 0.9909634 1.4235965 50 9
4.9811826 0.95891076 1.4214828 79 9
4.9917135 0.92921239 1.4228039 46 9
4.9925752 0.89771181 1.4214828 56 9
4.9951386 0.86656582 1.4206902 63 9
5.0003619 0.83589989 1.4206902 50 9
4.9996834 0.80428213 1.4191049 55 9
4.9911809 0.77152371 1.415406 55 9
4.9824648 0.73890007 1.411707 64 9
4.9840403 0.70790678 1.4109144 64 9
4.9921126 0.67783189 1.4119713 64 9
4.9952216 0.64706397 1.411707 66 9
4.9904828 0.61533743 1.4093292 78 9
4.9836278 0.58346874 1.4064229 84 9
4.978487 0.55192035 1.404045 100 9
4.9817796 0.52136254 1.404045 84 9
4.9925632 0.49154288 1.4061587 132 9
4.9993272 0.46125516 1.4072155 113 9
4.9943757 0.42990768 1.4051019 143 9
4.9844217 0.39825314 1.4016671 185 9
4.9838862 0.36744842 1.4008745 186 9
4.9889336 0.33705664 1.4016671 223 9
5.0024595 0.30715075 1.4048376 233 9
4.9994349 0.27618334 1.4035167 282 9
4.988513 0.24488451 1.4000819 360 9
4.9812493 0.21389654 1.397704 335 9
4.9882507 0.18354228 1.3992893 183 9
4.9989233 0.15322924 1.4019313 165 9
4.9939842 0.12241038 1.400346 184 9
4.9888554 0.091657914 1.3987608 169 9
5.0230775 0.061466016 1.4080082 107 9
5.0137157 0.03058276 1.4053661 106 9
5.0089869 -0.00018234432 1.404045 73 9
5.0088916 -0.030916907 1.404045 85 9
5.0192156 -0.061778411 1.4069513 57 9
5.024528 -0.092679955 1.4085366 73 9
5.0219364 -0.12346118 1.4080082 81 9
5.0268683 -0.15444925 1.4095935 74 9
5.0238986 -0.18522 1.409065 89 9
5.0188131 -0.21587768 1.4080082 60 9
5.0212474 -0.24685702 1.409065 58 9
5.0331202 -0.2784048 1.412764 57 9
5.0380559 -0.30969486 1.4146134 54 9
5.0350986 -0.3405371 1.4143492 56 9
5.0213718 -0.37057635 1.4111787 44 9
5.0305405 -0.40229988 1.4143492 51 9
5.0241332 -0.43282887 1.4132924 46 9
5.0281057 -0.4642674 1.4151418 42 9
5.0338011 -0.49595967 1.4175197 43 9
5.0508075 -0.52894205 1.4230682 66 9
5.0426736 -0.55939269 1.4217471 52 9
5.0410624 -0.59054738 1.4222755 48 9
1.1528834 -0.14313947 0.35011241 28 9
1.1481575 -0.14971575 0.34905559 51 9
5.0742569 -0.68932855 1.4346933 12 9
0 -0 0 4 9
5.069232 -0.7521109 1.4357501 12 9
5.0731001 -0.78452557 1.4381281 31 9
5.0729518 -0.81640387 1.4394491 36 9
5.073555 -0.84846878 1.4410344 30 9
5.0777564 -0.88123053 1.4436765 20 9
5.077949 -0.91339362 1.4452617 29 9
5.0836277 -0.94665033 1.4484322 23 9
5.083406 -0.97891808 1.4500175 28 9
5.0858173 -1.0117825 1.4523954 17 9
5.0757341 -1.0421945 1.4513385 28 9
5.0711312 -1.0737181 1.451867 29 9
5.071044 -1.1062512 1.4537164 22 9
5.067925 -1.1381903 1.4547733 18 9
1.1223155 -0.26023254 0.34747031 15 9
5.0620217 -1.2022997 1.4571512 17 9
1.1434002 -0.2799243 0.35433978 50 9
5.0777617 -1.2720554 1.4658701 14 9
1.115591 -0.28769717 0.34747031 9 9
5.0813551 -1.3394296 1.4714185 13 9
5.0907326 -1.3753586 1.4764385 20 9
5.0710425 -1.4034842 1.4732679 11 9
5.0743995 -1.4379889 1.4767027 16 9
5.0775232 -1.4725875 1.4801375 19 9
1.1255137 -0.33486876 0.35354713 42 9
1.1114389 -0.33813122 0.35011241 110 9
1.1111857 -0.34551543 0.35064083 125 9
1.1035278 -0.35058045 0.34905559 80 9
1.1123681 -0.36090574 0.35222608 26 9
1.1101327 -0.3677243 0.35222608 20 9
4.7134824 -1.5894674 1.3945335 151 9
4.706377 -1.6192995 1.3953261 190 9
4.6999931 -1.6494235 1.3963829 278 9
4.7097635 -1.6853753 1.4021956 398 9
4.683929 -1.708627 1.397704 290 9
4.6923428 -1.7443879 1.4032524 334 9
4.7013955 -1.7806575 1.409065 383 9
4.7092791 -1.8167568 1.4146134 349 9
4.7177939 -1.853372 1.420426 374 9
4.7170801 -1.8865802 1.4235965 415 9
4.73311 -1.9267547 1.431787 397 9
4.7363477 -1.9620317 1.4362786 392 9
4.7339969 -1.9951745 1.4391849 378 9
4.7225518 -2.024564 1.4394491 137 9
4.6958938 -2.047339 1.4352218 35 9
4.6867704 -2.0776765 1.4362786 62 9
4.6941595 -2.1155045 1.4423554 30 9
4.7003832 -2.1530998 1.448168 29 9
4.7002006 -2.1880026 1.4521312 33 9
4.7128453 -2.2291672 1.4600575 31 9
4.7234221 -2.2697337 1.4674554 31 9
4.7224083 -2.305016 1.4714185 39 9
4.7427449 -2.3510756 1.4819869 23 9
4.7471843 -2.3896687 1.4877995 24 9
4.7581987 -2.4319141 1.4957258 19 9
4.7543178 -2.4668362 1.4991605 19 9
4.7373853 -2.4950631 1.4986321 15 9
4.7364478 -2.5318103 1.5031236 26 9
4.7301502 -2.5658815 1.50603 23 9
4.7269926 -2.6018302 1.5099931 26 9
4.7202029 -2.635956 1.5128994 43 9
4.7215648 -2.6748488 1.5184479 40 9
4.7226262 -2.7138569 1.5239962 23 9
4.7425537 -2.7641444 1.5356214 15 9
4.7304859 -2.7961357 1.5372068 17 9
4.7281327 -2.8340309 1.5419625 20 9
4.7254915 -2.8720021 1.5467182 25 9
4.7307739 -2.9151051 1.5541161 21 9
4.7299776 -2.9548049 1.5596646 18 9
4.7256122 -2.9925411 1.5641561 13 9
4.7201495 -3.0298135 1.5683835 14 9
4.7103639 -3.0645025 1.5712898 12 9
4.7035513 -3.1013081 1.5752529 13 9
4.7237329 -3.156358 1.5881993 30 9
4.7026796 -3.1842017 1.5876708 20 9
4.6377158 -3.181905 1.5726109 10 9
0 -0 0 6 9
4.230813 -2.9798577 1.4494891 10 9
4.1598392 -2.96824 1.431787 25 9
4.1368575 -2.9903195 1.4302018 27 9
4.1044226 -3.0053935 1.425446 49 9
4.1021748 -3.042583 1.4309944 80 9
4.0957685 -3.0769622 1.4352218 106 9
4.0614581 -3.0903585 1.4299376 98 9
4.0439477 -3.1163981 1.4304659 74 9
4.0285521 -3.1441188 1.431787 56 9
3.9895074 -3.1532335 1.4249176 32 9
3.9550221 -3.1656032 1.4196334 18 9
3.9242828 -3.1807044 1.4156703 19 9
3.8957446 -3.1973832 1.4124998 11 9
0 -0 0 4 9
0 -0 0 5 9
4.7775731 -4.0702167 1.7512167 16 9
4.7700391 -4.1145701 1.7575576 17 9
4.7599602 -4.1570811 1.763106 12 9
4.7480936 -4.1983457 1.768126 15 9
4.7517104 -4.2537699 1.7789587 25 9
4.7526808 -4.3074527 1.7889986 22 9
4.7439303 -4.3528318 1.7956039 14 9
4.7454028 -4.4081092 1.8061723 10 9
4.7555094 -4.4721551 1.8201753 21 9
3.6597559 -3.484617 1.4161986 61 9
3.6431675 -3.5116913 1.4180481 67 9
3.6319082 -3.5440807 1.4220113 70 9
3.6080348 -3.564266 1.4212186 92 9
3.5690441 -3.5692914 1.4146134 105 9
3.5219932 -3.5657406 1.4048376 64 9
3.5121746 -3.5997071 1.4095935 111 9
3.4833264 -3.6142468 1.4069513 92 9
3.4577584 -3.6320601 1.4056302 75 9
3.4459815 -3.6644473 1.4098576 46 9
3.4221189 -3.6841094 1.4093292 40 9
3.4229286 -3.7306161 1.4188408 90 9
3.4045084 -3.7565501 1.4206902 87 9
3.3736734 -3.7687476 1.4175197 139 9
3.3619876 -3.8023801 1.4222755 80 9
3.3385932 -3.8229373 1.4222755 73 9
3.3465786 -3.8798594 1.435486 70 9
3.3383496 -3.9186714 1.4420912 93 9
3.57883 -4.2534075 1.5546446 58 9
3.5649955 -4.2901201 1.5599288 71 9
3.5514567 -4.3275676 1.5654771 127 9
3.5145104 -4.3365417 1.5609856 93 9
3.4781907 -4.3459783 1.5567583 94 9
3.4496644 -4.3649688 1.5559657 106 9
3.4257841 -4.3898544 1.5572866 92 9
3.409972 -4.4253049 1.5623066 69 9
3.4037838 -4.473773 1.5718182 118 9
3.3919137 -4.5153913 1.5789518 96 9
3.3957515 -4.5787191 1.5934834 107 9
4.7547784 -6.493278 2.2365699 59 9
4.7380176 -6.5543737 2.2474024 40 9
4.6876254 -6.5691924 2.2426467 88 9
4.6677828 -6.6270032 2.2524226 100 9
4.6215258 -6.6476011 2.2497804 99 9
4.5801044 -6.6750379 2.2495162 129 9
4.5185065 -6.6726718 2.2394762 216 9
4.4662232 -6.6834331 2.2339277 239 9
4.3943291 -6.6640162 2.2186036 129 9
4.3591437 -6.6997452 2.2215099 221 9
4.3007555 -6.6995854 2.212791 192 9
4.2415013 -6.6973329 2.2035437 179 9
4.1839714 -6.6970596 2.1950889 203 9
4.124074 -6.6922288 2.1853132 122 9
4.076921 -6.7075186 2.1821427 126 9
4.0059276 -6.6827788 2.16629 244 9
3.9520838 -6.685648 2.1594207 241 9
3.9017568 -6.6939416 2.1544006 253 9
3.8538804 -6.7060504 2.1507018 297 9
3.788883 -6.6876173 2.1374912 147 9
3.7458956 -6.7073717 2.1364343 226 9
3.6962955 -6.7150226 2.1316786 256 9
3.6449029 -6.7189269 2.1258659 189 9
3.5926921 -6.7207532 2.119525 280 9
3.5419455 -6.7247524 2.1139765 317 9
3.4930627 -6.7318068 2.1094849 339 9
3.4415925 -6.7333627 2.1034081 335 9
3.3911028 -6.7362638 2.0978599 360 9
3.3402786 -6.7379351 2.0920472 349 9
3.2840607 -6.7279711 2.0827999 364 9
3.2339413 -6.7297411 2.0772514 332 9
3.1847494 -6.7328935 2.0722315 325 9
3.1311619 -6.726079 2.0643051 338 9
3.0838056 -6.7320127 2.0603421 369 9
3.0376837 -6.7402573 2.0571716 444 9
2.9857116 -6.7349648 2.0500379 439 9
2.9362328 -6.7345934 2.0444894 409 9
1.7509364 -4.0853696 1.2494823 16 9
1.7254614 -4.0951471 1.2492181 21 9
1.7135949 -4.1377325 1.2587297 25 9
1.688174 -4.148169 1.2587297 38 9
1.651224 -4.1297956 1.250275 19 9
1.6364368 -4.1667781 1.2582012 26 9
1.6073663 -4.1677427 1.2555592 26 9
1.5650172 -4.1333346 1.2426128 52 9
1.5369364 -4.1356277 1.2404991 37 9
1.5092171 -4.1386385 1.2386497 52 9
1.4766424 -4.1278443 1.2328371 33 9
1.4570379 -4.1532073 1.2375929 58 9
1.4334105 -4.167541 1.2391782 49 9
1.4038037 -4.1643777 1.2357434 52 9
1.3715653 -4.1527667 1.2299308 50 9
1.3433849 -4.1528463 1.2275529 43 9
1.3149637 -4.1518173 1.2249109 34 9
1.2894639 -4.1598077 1.2249109 37 9
1.2655964 -4.1731787 1.2264961 30 9
1.2383195 -4.1753182 1.2249109 48 9
1.2210099 -4.2115512 1.2331014 24 9
1.1917248 -4.2069016 1.2296666 53 9
1.1643448 -4.2085581 1.2280813 46 9
1.1377444 -4.2128296 1.2272887 45 9
1.1079377 -4.2048106 1.2230613 43 9
1.0876428 -4.2330127 1.2291381 28 9
1.0550822 -4.2134123 1.2217404 44 9
1.0340137 -4.2394824 1.2272887 28 9
0.99906009 -4.2082143 1.2167203 55 9
0.97821736 -4.235878 1.2227972 29 9
0.95199662 -4.2408595 1.222533 28 9
0.93027741 -4.2664084 1.2280813 26 9
0.90108269 -4.2578835 1.2241182 36 9
0.88833576 -4.3285184 1.2423487 28 9
0.90413702 -4.5467143 1.3017958 15 9
0.89830875 -4.6667676 1.3337653 17 9
0.87177777 -4.683569 1.3369358 20 9
1.2268667 -6.8207397 1.9303508 273 9
1.1810306 -6.8053336 1.9240098 550 9
1.1390923 -6.811501 1.9237455 513 9
1.0974298 -6.8193145 1.9240098 472 9
1.0543861 -6.818295 1.9218961 558 9
1.0098376 -6.80651 1.9168761 585 9
0.96764714 -6.8097138 1.9160835 559 9
0.92532533 -6.8117003 1.9150267 596 9
0.88251919 -6.809598 1.912913 381 9
0.84131092 -6.8196707 1.914234 629 9
0.79855138 -6.8170414 1.9121203 607 9
0.75670773 -6.8218131 1.9121203 652 9
0.71523809 -6.8301644 1.9131771 716 9
0.67303133 -6.8315449 1.9123845 689 9
0.63127875 -6.8374667 1.912913 702 9
0.58815187 -6.8277593 1.909214 671 9
0.54624647 -6.8312392 1.909214 726 9
0.50467616 -6.8392715 1.9105351 725 9
0.46250597 -6.8393526 1.9097425 721 9
0.42041311 -6.8401365 1.909214 706 9
0.37854177 -6.8445134 1.9097425 815 9
0.33610988 -6.8380375 1.9073646 788 9
0.29427093 -6.8428621 1.9081572 813 9
0.25227839 -6.8445387 1.9081572 844 9
0.21027634 -6.8459578 1.9081572 877 9
0.16826637 -6.8471193 1.9081572 900 9
0.12621419 -6.8460941 1.9076288 901 9
0.084229015 -6.8486686 1.9081572 905 9
0.042223115 -6.8519497 1.9089499 855 9
0.00017878867 -6.8482218 1.9078929 893 9
-0.04186403 -6.8519521 1.9089499 851 9
-0.083940968 -6.8544593 1.9097425 850 9
-0.12617318 -6.8634582 1.9123845 871 9
-0.1684016 -6.8673759 1.9137056 833 9
-0.21056525 -6.867177 1.9139698 875 9
-0.25262687 -6.8638282 1.9134414 751 9
-0.29498512 -6.8679304 1.9150267 724 9
-0.3372618 -6.8688812 1.9158193 787 9
-0.37945515 -6.8676453 1.9160835 782 9
-0.42223558 -6.8757772 1.9189898 790 9
-0.46493548 -6.8807554 1.9211035 863 9
-0.5077123 -6.885468 1.9232172 805 9
-0.55056453 -6.889914 1.9253308 781 9
-0.59365547 -6.8960156 1.9279729 831 9
-0.63586897 -6.8912826 1.9277087 817 9
-0.67795247 -6.8853316 1.9271803 775 9
-0.72169077 -6.895431 1.9311434 729 9
-0.76515406 -6.9014177 1.9340497 742 9
-0.80826992 -6.9032984 1.9358993 732 9
-0.85179126 -6.9077811 1.9385413 673 9
-0.89490306 -6.9081635 1.9401265 664 9
-0.9383108 -6.9101882 1.9422402 593 9
-0.98096418 -6.9062109 1.9427687 618 9
-1.0251588 -6.9124646 1.9462034 587 9
-1.0688782 -6.9146223 1.9485812 566 9
-1.1122035 -6.9136472 1.9501666 607 9
-1.1552393 -6.9104981 1.9512234 613 9
-1.1989373 -6.910882 1.9533371 597 9
-1.2418306 -6.9062428 1.9541297 628 9
-1.2852412 -6.9041824 1.9557149 639 9
-1.3319523 -6.9188972 1.9620559 645 9
-1.3770124 -6.9238377 1.9657549 667 9
-0 -0 0 624 9
-1.4650679 -6.9215159 1.9699823 671 9
-1.5110009 -6.9284158 1.9744738 692 9
-1.5555958 -6.9284248 1.9771159 667 9
-1.6015489 -6.9337854 1.9813433 644 9
-1.646513 -6.9341507 1.9842496 651 9
-1.6897143 -6.9267282 1.9850422 651 9
-0 -0 0 637 9
-0 -0 0 152 9
-1.8353485 -6.9644027 2.004858 456 9
-1.8780466 -6.9530101 2.004858 512 9
-1.924787 -6.9562287 2.0090852 404 9
-1.9655942 -6.9377918 2.0072358 98 9
-2.0145693 -6.9478331 2.0135767 196 9
-2.0626447 -6.953835 2.0188611 624 9
-0 -0 0 575 9
-2.1592417 -6.9648495 2.0294294 35 9
-2.2045562 -6.9597449 2.0318074 683 9
-2.2531536 -6.9644408 2.0370915 647 9
-2.3046124 -6.9770441 2.0447536 696 9
-2.3526149 -6.9783096 2.0492451 672 9
-2.4000924 -6.9774237 2.0532084 689 9
-2.4489238 -6.9798584 2.0582283 707 9
-2.4962518 -6.9774146 2.0619273 570 9
-2.5452931 -6.9791832 2.0669472 549 9
-2.5951219 -6.9824204 2.0724957 627 9
-2.6211877 -6.9221663 2.0595493 230 9
-2.4932694 -6.4640985 1.9298223 291 9
-2.538877 -6.4639401 1.9343139 611 9
-2.5928092 -6.4840636 1.9448823 449 9
-2.6405413 -6.4876866 1.9506949 286 9
-2.821223 -6.8117709 2.0516231 223 9
-2.9022751 -6.8876605 2.079365 406 9
-2.9528382 -6.8892264 2.0851777 453 9
-2.9958246 -6.8727469 2.0857062 526 9
-3.0402827 -6.8595262 2.0872915 484 9
-3.0751853 -6.8249135 2.0825355 415 9
-3.1061649 -6.7822385 2.075402 235 9
-2.1530151 -4.6249971 1.4294091 202 9
-2.1570337 -4.5602546 1.4138207 197 9
-2.1457262 -4.4652095 1.388985 60 9
-2.1388321 -4.3817468 1.3675841 31 9
-2.1387031 -4.3140955 1.3509389 19 9
-2.1547303 -4.2802138 1.3445978 26 9
-2.1695454 -4.2445807 1.3377284 31 9
-2.1671324 -4.176393 1.3208189 13 9
-2.1859787 -4.1502156 1.3168558 16 9
-2.2186744 -4.1503353 1.3210832 41 9
-0 -0 0 6 9
-2.2317829 -4.0543485 1.2996821 18 9
-2.8996596 -5.192656 1.6611211 461 9
-2.9728107 -5.2477822 1.6841073 375 9
-3.0304136 -5.2737679 1.6981105 455 9
-3.0777657 -5.2809086 1.706301 501 9
-3.1199224 -5.278532 1.7115852 495 9
-3.1775315 -5.3014836 1.7250599 376 9
-3.2220187 -5.3016701 1.7314008 350 9
-3.8068082 -6.1785526 2.019918 179 9
-3.3358741 -5.3402677 1.756765 53 9
-3.3629045 -5.3107343 1.7538587 328 9
-2.9308584 -4.5659165 1.5181836 188 9
-2.9351585 -4.5114627 1.5062941 253 9
-2.9532318 -4.4788728 1.5015384 264 9
-2.9726231 -4.448637 1.4975753 195 9
-4.1594114 -6.1435828 2.0643051 135 9
-4.1937566 -6.113173 2.0627198 431 9
-4.2328382 -6.0897017 2.0635126 418 9
-4.2667933 -6.0588832 2.0619273 440 9
-4.297729 -6.0239511 2.059021 341 9
-4.3103228 -5.963851 2.0476599 246 9
-4.3451266 -5.9349566 2.0468674 366 9
-4.3992667 -5.9322019 2.0550578 434 9
-4.4350042 -5.9043255 2.0547936 445 9
-4.4688134 -5.8739309 2.0537367 440 9
-4.5018282 -5.8425798 2.0524156 301 9
-4.5257287 -5.7996383 2.0471315 395 9
-4.4817119 -5.6711059 2.0119915 494 9
-4.4314713 -5.5373111 1.974738 598 9
-1.321712 -1.6296166 0.60666007 42 9
-1.3304628 -1.6199847 0.60613161 50 9
-1.3416103 -1.6132745 0.60666007 43 9
-1.3527256 -1.6064883 0.60718846 50 9
-1.3625573 -1.5981579 0.60718846 41 9
-1.3735974 -1.5912281 0.60771692 47 9
-1.3839694 -1.5834965 0.60798109 31 9
-4.5234618 -5.1159182 1.9026088 25 9
-4.5991449 -5.1376572 1.9208392 244 9
-4.6202216 -5.0979047 1.9166119 221 9
-4.2335286 -4.6138611 1.7472534 137 9
-4.6456814 -5.0012455 1.9018161 176 9
-4.6782627 -4.9747543 1.9026088 193 9
-3.8549666 -4.0488992 1.5633634 157 9
-3.774008 -3.9154308 1.5216184 308 9
-3.7690043 -3.8625116 1.5102574 357 9
-3.783824 -3.8303912 1.5068226 347 9
-3.7813454 -3.7811816 1.4967827 235 9
-4.8842683 -4.8249502 1.9126488 93 9
-4.8979077 -4.7793951 1.9065719 180 9
-4.9299188 -4.7519298 1.9076288 171 9
-4.9533963 -4.7162695 1.9055151 150 9
-4.3675985 -4.1075196 1.6743315 169 9
-5.0031276 -4.6479068 1.9026088 48 9
-3.5224378 -3.2318318 1.3414273 6 9
-3.5386293 -3.2069187 1.3401062 5 9
-3.5668614 -3.1928668 1.3432767 7 9
-3.5907197 -3.1747551 1.344862 12 9
-2.737848 -2.3905394 1.0275462 15 9
-2.7028127 -2.330848 1.0095799 67 9
-2.7097232 -2.3079638 1.0069377 82 9
-2.7253094 -2.292536 1.0074662 269 9
-2.7111421 -2.2523415 0.99742627 89 9
-2.7241657 -2.2350519 0.99716204 211 9
-2.722096 -2.205539 0.99161363 97 9
-2.7295547 -2.1839726 0.98949993 90 9
-2.7353382 -2.1612015 0.98685783 84 9
-2.7310627 -2.1307261 0.98078102 101 9
-2.7211697 -2.0962632 0.97285473 104 9
-2.7462602 -2.0888734 0.97708207 248 9
-2.733582 -2.0528622 0.96836317 72 9
-2.7407048 -2.0320277 0.96651369 84 9
-2.7437849 -2.0083339 0.9633432 83 9
-2.7513669 -1.9880697 0.96175796 82 9
-2.7588036 -1.9677882 0.96017265 91 9
-2.7708256 -1.9508235 0.96017265 102 9
-2.8104572 -1.9530582 0.96942002 50 9
-2.8231833 -1.9363226 0.96968424 57 9
-2.8509815 -1.9297813 0.97496843 42 9
-2.8731923 -1.9192195 0.97840315 43 9
-2.9388554 -1.9371345 0.99610519 133 9
-2.9506862 -1.9190656 0.99610519 94 9
-2.9981139 -1.9238544 1.0077305 169 9
-3.073411 -1.9456815 1.0283388 54 9
-3.1081924 -1.9410987 1.0357367 50 9
-3.1430323 -1.9361616 1.0431346 45 9
-3.1754556 -1.9293665 1.0497397 47 9
-3.1905427 -1.9118299 1.0507966 30 9
-4.1527696 -2.4543114 1.3533168 66 9
-4.1577525 -2.4229546 1.3501462 78 9
-4.212676 -2.4204705 1.3628283 59 9
-4.2568159 -2.4112206 1.3720757 56 9
-4.2765827 -2.3878782 1.3736609 58 9
-4.2996025 -2.3662448 1.376303 52 9
-4.3030205 -2.333838 1.3728683 83 9
-4.3130074 -2.3051171 1.3715472 56 9
-4.3117113 -2.2705171 1.3667915 71 9
-4.2981691 -2.2297993 1.3583367 58 9
-4.1176991 -2.104152 1.2986253 41 9
-4.0831556 -2.0549874 1.2840939 112 9
-4.1026006 -2.033323 1.2862074 102 9
-4.0621333 -1.9822965 1.2700907 131 9
-4.0498815 -1.9456339 1.2626928 142 9
-4.0521536 -1.9162098 1.2597865 149 9
-4.058589 -1.8888671 1.2582012 138 9
-4.0613346 -1.8599105 1.2555592 132 9
-4.0691538 -1.83337 1.2545023 123 9
-4.0794449 -1.8079766 1.2542381 87 9
-4.0780849 -1.7775131 1.2505392 65 9
-4.0738463 -1.7459942 1.2460476 43 9
-4.098702 -1.7269603 1.250275 131 9
-4.0985298 -1.6973474 1.2471044 98 9
-4.0981483 -1.667802 1.2439339 114 9
-4.100246 -1.6394001 1.241556 110 9
-4.0994563 -1.609977 1.2383856 111 9
-4.0921621 -1.5781946 1.2333655 135 9
-4.1062784 -1.5547646 1.2346866 106 9
-4.1338201 -1.5362639 1.2399708 67 9
-4.1422625 -1.5105398 1.2397065 60 9
-4.155993 -1.4867203 1.2410276 52 9
-4.1504774 -1.4560794 1.2368003 40 9
-6.4136586 -2.206619 1.8899267 48 9
-4.1643777 -1.4038037 1.2357434 45 9
-4.168334 -1.3767116 1.2344223 44 9
-4.1748681 -1.350515 1.233894 48 9
-4.1931891 -1.3280791 1.2368003 52 9
-6.843101 -2.1220229 1.9945538 37 9
-4.223937 -1.2810047 1.2410276 50 9
-3.7176499 -1.1024505 1.0941271 18 9
-3.6446869 -1.0565015 1.0714049 4 9
-3.6492453 -1.033592 1.0708766 8 9
-0 -0 0 5 9
-0 -0 0 4 9
-3.6126306 -0.9517327 1.0552882 8 9
-3.6025233 -0.92546362 1.0507966 7 9
-0 -0 0 5 9
-3.6126719 -0.88095665 1.0505325 5 9
-3.6236393 -0.8601113 1.0521177 7 9
-3.6316676 -0.83851266 1.0529103 6 9
-3.6480362 -0.81875139 1.0560808 10 9
-3.6642985 -0.79882073 1.0592513 9 9
-3.6795096 -0.7785213 1.0621576 10 9
-3.6804383 -0.755153 1.0611008 10 9
-3.7048664 -0.73651129 1.0666492 13 9
-3.7879198 -0.72891527 1.0885786 10 9
-4.2616487 -0.7931366 1.2193624 63 9
-4.280673 -0.7695362 1.2233256 72 9
-4.2758117 -0.74160528 1.2206835 68 9
-4.2726717 -0.71408147 1.2185698 57 9
-4.3141084 -0.69383401 1.228874 120 9
-4.2572851 -0.65790659 1.2119645 74 9
-4.2574258 -0.6312052 1.2109077 75 9
-4.3356972 -0.61566633 1.2315161 124 9
-4.2495604 -0.57683271 1.2066803 71 9
-4.2664104 -0.55248469 1.2103792 61 9
-4.2773771 -0.52724212 1.2124929 104 9
-4.3063951 -0.50402075 1.2196267 103 9
-4.3141994 -0.47812021 1.2209476 124 9
-4.3151336 -0.45143855 1.2204193 89 9
-4.2976665 -0.42296374 1.2148708 68 9
-4.3203483 -0.39845124 1.2204193 109 9
-4.3313599 -0.37268102 1.2227972 63 9
-4.3335652 -0.34609726 1.2227972 60 9
-7.1507025 0.17437312 1.9032195 923 10
-7.1543331 0.21839358 1.9044849 916 10
-7.1567254 0.26242962 1.9054972 896 10
-7.1598134 0.30654472 1.9067626 889 10
-7.1548986 0.35032862 1.9060034 457 10
-7.1584101 0.39454344 1.9075218 816 10
-7.1587515 0.43863684 1.9082811 855 10
-7.1636472 0.48307499 1.9103057 682 10
-7.1615133 0.52709228 1.9105588 664 10
-7.1600728 0.57117856 1.911065 595 10
-7.1487226 0.614438 1.9090403 462 10
-7.1563783 0.65935588 1.9120773 331 10
-7.1521978 0.70325422 1.9120773 216 10
-7.1362014 0.74591851 1.9090403 142 10
-4.4525795 0.49290156 1.2039522 174 10
-4.4552369 0.52088737 1.2054707 173 10
-4.4970856 0.55377549 1.2173656 248 10
-4.4993596 0.58210391 1.2188841 316 10
-4.4995375 0.61022085 1.2198964 271 10
-4.4957085 0.63781804 1.2198964 389 10
-4.4084525 0.6530503 1.1978782 178 10
-4.4282651 0.68378073 1.2042053 211 10
-4.5281 0.72767961 1.2317913 300 10
-4.4538922 0.74381071 1.2133163 161 10
-4.4358993 0.76881117 1.2097732 163 10
-4.5034647 0.80902135 1.2290074 448 10
-4.4489579 0.82743603 1.2158471 173 10
-4.4399967 0.85398751 1.2148348 216 10
-4.4878101 0.89177835 1.2290074 418 10
-4.4348688 0.90957552 1.2163533 251 10
-4.4831543 0.94818538 1.2307789 330 10
-4.4498401 0.96969962 1.2234396 297 10
-4.4126554 0.98999351 1.2150879 276 10
-4.424408 1.0211859 1.2198964 346 10
-4.4171176 1.0480908 1.2196434 282 10
-4.3965049 1.071736 1.2158471 248 10
-4.4442778 1.1123204 1.2305259 453 10
-4.4167547 1.1342732 1.2249581 334 10
-4.3779039 1.1529726 1.2163533 255 10
-4.3754172 1.1810743 1.2176187 310 10
-4.3774123 1.2104783 1.2201495 321 10
-4.366179 1.2362603 1.2191372 258 10
-4.4161215 1.2797271 1.2348284 418 10
-4.3673749 1.2946978 1.2236927 274 10
-4.3649035 1.3231555 1.2252111 290 10
-4.3474617 1.3470491 1.2226803 258 10
-4.3446484 1.3754517 1.2241988 307 10
-4.3609805 1.4101226 1.231032 361 10
-4.3614326 1.4398884 1.2335629 287 10
-4.3030095 1.4499364 1.2198964 184 10
-4.3315411 1.4892113 1.2302728 242 10
-4.3259735 1.517042 1.2312851 270 10
-4.2938108 1.5354116 1.2249581 198 10
-4.2924891 1.5647117 1.2272358 208 10
-4.3018513 1.598097 1.2325505 313 10
-4.2783928 1.6193244 1.2287543 272 10
-3.8694022 1.4916943 1.1168919 44 10
-3.8484697 1.5108114 1.1136017 40 10
-3.8256524 1.5290098 1.1098055 36 10
-3.8045495 1.5477146 1.1065154 32 10
-3.7851489 1.5669583 1.1037315 28 10
-3.7701137 1.5879004 1.102213 30 10
-3.7567425 1.6094792 1.1012007 30 10
-3.747683 1.6328864 1.1014538 18 10
-3.7455537 1.6593785 1.1037315 25 10
-3.7441223 1.6863034 1.1062623 25 10
-3.7407417 1.7124673 1.108287 20 10
-3.7398121 1.7398777 1.1110709 24 10
-3.7413106 1.7685815 1.114614 33 10
-4.2806525 2.0558298 1.2743092 418 10
-4.4348946 2.1635113 1.322901 340 10
-4.5333591 2.2460968 1.3555487 251 10
-4.573936 2.3012683 1.3714929 336 10
-4.5381918 2.3182857 1.3651658 261 10
-4.5281758 2.3483152 1.3664312 203 10
-4.5145373 2.3765061 1.3666843 244 10
-4.511816 2.4105453 1.3702275 310 10
-4.4705763 2.4238873 1.3623819 270 10
-4.5327511 2.4937143 1.3854125 384 10
-4.2960477 2.3979244 1.3191048 192 10
-3.9377935 2.2297213 1.2158471 196 10
-3.9089384 2.2451668 1.2112917 280 10
-3.8599811 2.2486529 1.2006621 214 10
-3.8369489 2.266881 1.1978782 123 10
-3.8221376 2.2898843 1.1976252 142 10
-3.8129759 2.3163075 1.1991436 110 10
-3.8061049 2.3442266 1.2014214 69 10
-3.7850847 2.3634367 1.1993967 106 10
-3.7574332 2.3783371 1.1953474 77 10
-3.7199712 2.3867176 1.1882612 98 10
-4.3167458 2.8072205 1.3790854 122 10
-4.301055 2.8347194 1.3795916 319 10
-4.3012786 2.8728795 1.3851594 411 10
-4.2931838 2.9057255 1.3881963 400 10
-4.3079839 2.9544497 1.3985728 325 10
-4.3040743 2.9907653 1.4031283 293 10
-4.2982988 3.0260298 1.4071776 354 10
-4.2883143 3.0585268 1.4099615 360 10
-4.3243561 3.1244469 1.4276773 188 10
-4.572083 3.346355 1.5142314 51 10
-4.6221824 3.4267819 1.537262 74 10
-4.454864 3.3452735 1.4894294 156 10
-4.6244421 3.5172164 1.5519408 219 10
-5.9715352 4.6000299 2.0039463 186 10
-5.9592152 4.6490812 2.0092611 150 10
-5.9282994 4.6837597 2.0085018 193 10
-5.8986936 4.7194424 2.0082488 178 10
-5.9275026 4.8024445 2.0277362 289 10
-5.4259911 4.4515061 1.8680409 163 10
-5.8673787 4.8742042 2.027483 316 10
-5.8314381 4.9051318 2.0254583 275 10
-5.8130145 4.9508576 2.0295076 272 10
-5.7795968 4.9839053 2.0284953 310 10
-5.7532797 5.0230923 2.0300138 305 10
-4.7322493 4.1830049 1.684303 227 10
-5.712111 5.1120267 2.0373533 267 10
-5.6784859 5.14503 2.0365939 156 10
-4.1105089 3.7703962 1.4912009 236 10
-4.109272 3.8159561 1.4990466 387 10
-4.0963526 3.8510389 1.5028428 385 10
-4.1083837 3.9101191 1.5157501 284 10
-5.5019684 5.3013554 2.0307732 133 10
-5.4783387 5.3437977 2.0340631 196 10
-4.2628694 4.2094131 1.5992672 168 10
-5.3945613 5.3928385 2.027483 238 10
-5.375649 5.4402895 2.0327978 261 10
-5.3644652 5.4960194 2.0411494 233 10
-5.3292985 5.5274386 2.0406432 251 10
-5.2939482 5.5586333 2.0401371 242 10
-5.2577529 5.5888977 2.0393779 219 10
-5.2259951 5.6238885 2.0403903 205 10
-5.1874642 5.6515718 2.0388718 259 10
-5.1598368 5.6911798 2.0416555 249 10
-4.9899378 5.5720997 1.9887614 153 10
-5.0517936 5.7113142 2.0267239 113 10
-5.0395675 5.7684336 2.0358348 118 10
-5.0369415 5.8373365 2.048995 226 10
-4.9903626 5.8556147 2.0446925 68 10
-4.955585 5.8876052 2.0451987 84 10
-4.9224582 5.9216213 2.0464642 272 10
-4.8964663 5.9644256 2.0507667 248 10
-4.8579493 5.9921026 2.0500073 221 10
-4.8277416 6.0301056 2.0527914 279 10
-4.7852511 6.052784 2.0505135 284 10
-4.7629037 6.1010971 2.0568407 312 10
-4.7336469 6.1409345 2.0603838 286 10
-4.6870894 6.1583161 2.0565875 275 10
-4.6463089 6.1830926 2.0553222 338 10
-4.6186576 6.225471 2.0598776 309 10
-4.5775137 6.2497911 2.0586121 348 10
-4.5424805 6.2824645 2.0601306 292 10
-4.5049706 6.3117933 2.0606368 342 10
-4.4689431 6.3432708 2.0619023 295 10
-4.4338036 6.3761325 2.0636737 310 10
-4.3929543 6.400825 2.0629146 381 10
-4.3590221 6.4356694 2.0654454 427 10
-4.3205266 6.4639034 2.0659516 425 10
-4.236043 6.4224515 2.0446925 341 10
-4.1970835 6.4491334 2.0449457 355 10
-4.1553426 6.471508 2.0439334 426 10
-4.109344 6.4870758 2.0408964 435 10
-4.0561337 6.4908361 2.0343163 323 10
-2.0629804 3.346452 1.0604544 197 10
-2.038388 3.3524337 1.0584297 161 10
-0 0 0 6 10
-0 0 0 5 10
-1.873041 3.2121978 1.0047762 26 10
-1.8894535 3.2865374 1.0237575 136 10
-1.5363456 2.7105563 0.84710574 42 10
-0 0 0 48 10
-0 0 0 42 10
-0 0 0 56 10
-0 0 0 54 10
-0 0 0 61 10
-0 0 0 62 10
-0 0 0 56 10
-0 0 0 50 10
-0 0 0 60 10
-0 0 0 61 10
-0 0 0 133 10
-0 0 0 51 10
-0 0 0 53 10
-0 0 0 41 10
-0 0 0 21 10
-0 0 0 10 10
-0 0 0 7 10
-0 0 0 5 10
-0 0 0 5 10
-0 0 0 5 10
-0 0 0 5 10
-0 0 0 4 10
-0 0 0 5 10
-0 0 0 6 10
-0 0 0 6 10
-0 0 0 3 10
-0 0 0 5 10
-0 0 0 4 10
-0 0 0 5 10
-0 0 0 5 10
-0 0 0 6 10
-0 0 0 6 10
-0 0 0 4 10
-0 0 0 5 10
-0 0 0 7 10
-0 0 0 5 10
-0 0 0 4 10
-0 0 0 4 10
-0 0 0 5 10
-0 0 0 4 10
-0.74409318 2.7517734 0.7777611 5 10
-0.72867465 2.7618999 0.77927959 4 10
-0.72327864 2.8112934 0.79142761 15 10
-0.70648563 2.8175552 0.79193377 22 10
-0 0 0 29 10
-0 0 0 27 10
-0.6527611 2.8225412 0.78990906 38 10
-0.63224894 2.8123348 0.78611284 27 10
-0.61374319 2.8104899 0.78459436 26 10
-0.59708822 2.8170424 0.7853536 19 10
-0.57862401 2.8149669 0.78383511 32 10
-0.55926353 2.808027 0.78105122 31 10
-0.54184026 2.8104558 0.78079814 24 10
-0.52245921 2.8023148 0.7777611 32 10
-0.50491196 2.8035634 0.77725494 22 10
-0.48770013 2.8066087 0.77725494 26 10
-0.46983132 2.8057315 0.77624261 33 10
-0.45168409 2.8028307 0.77472413 24 10
-0.43447775 2.8055494 0.77472413 24 10
-0.41981208 2.8253877 0.77927959 32 10
-0.39838243 2.7991762 0.77168715 21 10
-0.37976617 2.791023 0.76890326 17 10
-0.36288247 2.7952194 0.76940942 28 10
-0.34299827 2.7753098 0.76358849 24 10
-0.32404801 2.7610276 0.75928611 23 10
-0.30763426 2.7677715 0.76055151 28 10
-0.28479722 2.7138009 0.74587274 16 10
-0.26301399 2.6635075 0.73220623 19 10
-0.24524172 2.6496577 0.72815692 26 10
-0.22715071 2.6299074 0.72258914 31 10
-0.20962013 2.6138933 0.71803361 37 10
-0.19364892 2.6160951 0.71828669 32 10
-0.17778927 2.6201296 0.71904594 26 10
-0.16141197 2.6163433 0.71778053 32 10
-0.14524834 2.6153524 0.71727437 21 10
-0.12910296 2.6142619 0.71676821 21 10
-0.11264326 2.6053393 0.71423739 17 10
-0.095869355 2.5847123 0.70866954 33 10
-0.07956133 2.5707469 0.70487332 44 10
-0.064119898 2.5847268 0.70841646 22 10
-0.048008319 2.5715296 0.70487332 25 10
-0.03212101 2.5630696 0.70259559 28 10
-0.016369538 2.5593486 0.70158327 19 10
-0.00066441257 2.550694 0.69930553 22 10
0.014957211 2.5458128 0.69804013 23 10
0.030507144 2.5398688 0.69652158 27 10
0.046303336 2.5512414 0.69955862 21 10
0.062429324 2.5702524 0.70462024 18 10
0.078583337 2.5823917 0.7079103 28 10
0.095492221 2.6108649 0.7155028 27 10
0 0 0 28 10
0.13960239 2.8558989 0.78003889 23 10
0.15696336 2.8520906 0.77927959 14 10
0.17653316 2.884871 0.7881375 32 10
0 0 0 53 10
0.19301856 2.6258423 0.72081757 120 10
0.21821079 2.738405 0.75068128 60 10
0.24711248 2.8777418 0.78763133 32 10
0.26885065 2.920486 0.79927313 31 10
0.28979644 2.9495909 0.8073718 26 10
0.31010312 2.9689255 0.81293958 18 10
0.32852733 2.96889 0.81344575 28 10
0.3483119 2.9802709 0.81698895 29 10
0.36742017 2.9847987 0.81876051 31 10
0.38597608 2.9844069 0.81926668 26 10
0.40402058 2.9800651 0.81876051 28 10
0.4224343 2.978488 0.8190136 22 10
0.44013458 2.9720118 0.81800127 35 10
0.45880538 2.9721236 0.81876051 29 10
0.47749412 2.9721181 0.81951976 26 10
0.49556226 2.968178 0.81926668 27 10
0.51459181 2.9698474 0.82053208 21 10
0.5326336 2.965682 0.820279 27 10
0.55135161 2.9652114 0.82103825 26 10
0.57008386 2.9646225 0.82179749 32 10
0.58939552 2.9667621 0.82331598 20 10
0.60817146 2.9659328 0.82407522 28 10
0.62635863 2.9621453 0.82407522 28 10
0.64575863 2.9639177 0.82559371 24 10
0.66583955 2.9683952 0.8278715 20 10
0.68404073 2.9642539 0.8278715 24 10
0.70221621 2.9600008 0.8278715 39 10
0.72357404 2.9687951 0.83141464 18 10
0.74248153 2.9671149 0.83217388 16 10
0.76019198 2.9606292 0.83166772 32 10
0.7785902 2.9568446 0.8319208 23 10
0.79772723 2.9557474 0.83293313 32 10
0.81352699 2.9424052 0.8306554 20 10
0.83420235 2.9466665 0.83318621 21 10
0.85253644 2.9424214 0.83343929 28 10
0.87222499 2.9427001 0.83495778 11 10
0.89475638 2.952106 0.83900714 31 10
0.93433398 3.015866 0.8579883 40 10
1.0004294 3.1604118 0.89924079 162 10
1.0198025 3.1542137 0.89924079 150 10
1.0376203 3.1433036 0.89797539 107 10
1.0343307 3.0699537 0.87950033 9 10
0 0 0 5 10
0 0 0 6 10
1.1108643 3.1068723 0.89519143 9 10
1.1451515 3.1418076 0.90683323 151 10
1.1650816 3.1365356 0.90733939 165 10
1.1863604 3.1347566 0.90885788 144 10
1.2090533 3.1364446 0.91138875 177 10
1.2314579 3.1370716 0.91366649 177 10
0 0 0 178 10
1.2753314 3.135165 0.91746271 168 10
1.2975055 3.1344314 0.91948736 174 10
1.320094 3.1344349 0.92176515 167 10
1.341207 3.1307223 0.92303056 168 10
1.3634837 3.1295288 0.92505521 147 10
0 0 0 155 10
0 0 0 146 10
0 0 0 176 10
1.448447 3.1135442 0.93036991 171 10
1.4724865 3.1150935 0.93340695 179 10
1.4957616 3.1147203 0.93593776 158 10
1.5186633 3.1133091 0.93821549 192 10
0 0 0 196 10
0 0 0 233 10
0 0 0 223 10
0 0 0 227 10
1.6292237 3.0952208 0.9470734 223 10
1.6513766 3.0911386 0.94884497 241 10
1.6749243 3.0894523 0.95137578 228 10
1.699446 3.089288 0.95441276 254 10
0 0 0 253 10
0 0 0 251 10
1.7685516 3.0792942 0.96099293 239 10
0 0 0 241 10
1.8130965 3.06902 0.96453607 182 10
1.8378608 3.0677955 0.96757305 194 10
1.8656924 3.0713432 0.97212857 180 10
1.8900843 3.0688982 0.97491246 194 10
1.910929 3.0605254 0.97592479 171 10
1.9353644 3.057734 0.97870868 199 10
1.9634948 3.0604572 0.98326421 154 10
1.9912037 3.0621388 0.98756659 172 10
2.0158122 3.0587485 0.99035048 183 10
2.043678 3.0599978 0.99465293 138 10
2.0716348 3.0610199 0.99895531 164 10
2.0963974 3.0570269 1.0017393 136 10
2.1206365 3.0520504 1.0042701 148 10
2.1460073 3.0484734 1.0073071 148 10
2.1725376 3.0462747 1.0108502 150 10
2.1945882 3.0375917 1.0123687 147 10
2.2148993 3.0264106 1.0131279 153 10
2.2437994 3.0267515 1.0176834 152 10
2.2727866 3.0268512 1.022239 182 10
2.3018591 3.0267084 1.0267944 187 10
2.3345575 3.0309207 1.0328684 204 10
2.3644183 3.0310314 1.0376769 234 10
2.3883698 3.023298 1.0399547 188 10
2.4189641 3.0236943 1.0450164 214 10
2.4472167 3.0208213 1.0490657 200 10
2.4687743 3.0094883 1.0503311 190 10
2.498322 3.0076778 1.0548866 155 10
2.5254488 3.0026565 1.0584297 191 10
2.5557442 3.0010972 1.0632383 181 10
2.587379 3.0007441 1.0685531 208 10
2.6095603 2.9891844 1.0700716 254 10
2.6432309 2.9905117 1.0761455 165 10
2.6699183 2.9836082 1.0794356 175 10
2.7089629 2.9901104 1.0875342 199 10
2.7357609 2.9827001 1.0908242 196 10
2.7684951 2.9814527 1.0963922 198 10
2.8013163 2.9799156 1.1019599 190 10
2.8302202 2.9738827 1.1060092 205 10
2.8604977 2.9690003 1.1105647 233 10
2.894875 2.9680128 1.1166388 251 10
2.929347 2.9667146 1.1227127 213 10
2.9632277 2.9644203 1.1285336 245 10
2.9916842 2.9563818 1.1323298 263 10
3.0222304 2.9501324 1.1368853 267 10
3.0611696 2.9516764 1.1444778 248 10
3.1044447 2.956856 1.1535888 222 10
3.1246433 2.9397404 1.154348 196 10
3.1582143 2.9350002 1.1599158 213 10
3.204674 2.9417329 1.1700392 213 10
3.2434499 2.9408574 1.1773785 184 10
3.2744067 2.9325171 1.181934 192 10
3.3104556 2.9283938 1.1882612 296 10
3.3334618 2.9124813 1.1900327 206 10
3.3732443 2.9109325 1.1976252 308 10
3.41166 2.9077494 1.2047114 210 10
3.451643 2.9054496 1.212304 211 10
3.4909813 2.9021497 1.2196434 195 10
3.5333996 2.9009309 1.227995 199 10
3.5781879 2.9011276 1.2371061 216 10
3.6178238 2.896651 1.2444454 195 10
3.6529851 2.8881969 1.2502663 246 10
3.692754 2.8829916 1.2576058 224 10
3.7356606 2.8797686 1.2659575 272 10
3.7863643 2.8819859 1.27684 315 10
3.8240862 2.8738086 1.2834202 330 10
3.8641803 2.8670058 1.2907596 328 10
3.9215057 2.8723938 1.3036668 293 10
3.972769 2.8726509 1.3145493 357 10
4.0084324 2.861146 1.3203702 342 10
4.0504308 2.8537686 1.3282158 364 10
4.0996375 2.8509533 1.3383391 386 10
4.1521516 2.8498304 1.3494747 418 10
4.2072077 2.849797 1.3613696 371 10
4.2511578 2.8416681 1.3697213 376 10
4.291935 2.8309762 1.3770608 435 10
4.3376055 2.8230562 1.3859186 400 10
4.3939228 2.8214765 1.3980666 497 10
4.4422092 2.8141341 1.4076837 456 10
4.4930315 2.8078427 1.4180601 432 10
4.5464134 2.8025556 1.4291958 364 10
4.6007247 2.7972209 1.4405844 395 10
4.6567998 2.7923191 1.4524794 467 10
4.7096553 2.7848642 1.4633619 440 10
4.7575784 2.7739418 1.472726 427 10
4.8047051 2.762053 1.4818369 528 10
4.8888993 2.7706754 1.5020835 395 10
4.9387479 2.7590246 1.5119537 705 10
4.9301591 2.7146719 1.5043613 567 10
4.9297161 2.6751423 1.4992996 516 10
4.9144707 2.6279666 1.4899355 362 10
4.9330711 2.5991151 1.4906948 425 10
4.9446325 2.5665693 1.4894294 493 10
4.9387522 2.5251722 1.4831023 516 10
4.9532895 2.494386 1.4828492 451 10
4.9450994 2.4523427 1.476016 492 10
4.9348416 2.4096456 1.4686767 569 10
4.9390702 2.3742914 1.4656396 398 10
4.9482989 2.3414588 1.4641211 687 10
4.9467859 2.3037021 1.4595656 375 10
4.9476352 2.2672613 1.4557694 657 10
4.95087 2.2320898 1.4527324 651 10
4.9246745 2.1840231 1.4413437 283 10
4.9220204 2.1468041 1.4367882 180 10
4.9190955 2.1097 1.4322327 272 10
4.9613662 2.0918787 1.4405844 618 10
4.9678521 2.0588045 1.4388129 659 10
4.9723268 2.0250003 1.4365351 713 10
4.9604063 1.9847506 1.4297019 323 10
4.7734966 1.8760852 1.3737706 120 10
4.9085717 1.8944741 1.408443 330 10
4.7708278 1.8077692 1.3666843 155 10
4.7782035 1.7771132 1.365672 227 10
4.7890177 1.7477612 1.365672 248 10
4.7404456 1.6971521 1.3492216 92 10
4.9570718 1.7404498 1.4064183 221 10
4.9850388 1.7159826 1.4112269 369 10
4.9835567 1.681343 1.4079368 767 10
4.9937792 1.6507328 1.4079368 184 10
4.9587131 1.605462 1.3955357 61 10
4.9647818 1.5738366 1.3945234 79 10
4.9614091 1.5393311 1.3909802 60 10
4.9605775 1.5057693 1.3881963 54 10
4.9641585 1.4736518 1.3866779 66 10
4.9703197 1.4423559 1.3859186 67 10
4.9772148 1.4113038 1.3854125 66 10
4.9801865 1.3791888 1.383894 50 10
4.9801497 1.3463334 1.3816162 62 10
4.9789624 1.3132837 1.3790854 61 10
4.9738092 1.2793356 1.3755423 68 10
4.9721813 1.2464411 1.3730114 48 10
4.9750361 1.2147619 1.3717459 81 10
4.9758077 1.1826472 1.3699744 74 10
4.9773149 1.1507869 1.3684559 70 10
4.9861703 1.1206491 1.368962 82 10
4.9929523 1.0900334 1.368962 69 10
4.9948149 1.0583744 1.3676966 70 10
4.9926858 1.025955 1.3654189 64 10
4.9950914 0.9945457 1.3644066 75 10
4.9897003 0.96168149 1.3613696 71 10
4.9926538 0.93051559 1.3606104 55 10
4.9935088 0.89900696 1.359345 64 10
4.9951181 0.86768848 1.3583326 94 10
4.9946232 0.83606476 1.3568141 63 10
4.9901075 0.80386472 1.3542833 63 10
4.9825172 0.77130777 1.3509933 86 10
4.9804573 0.73972672 1.3492216 68 10
4.9839444 0.7090171 1.3489685 84 10
4.9987464 0.67985618 1.3517525 79 10
5.0114584 0.65029144 1.3540303 88 10
5.0134339 0.61929238 1.3535241 73 10
5.0142565 0.58818096 1.3527648 86 10
5.0129638 0.55686933 1.3514994 93 10
5.005702 0.52499068 1.3487154 94 10
4.9992013 0.49331704 1.3461846 110 10
5.0040612 0.46281129 1.3466908 96 10
5.0116258 0.43251377 1.3479562 122 10
5.0122566 0.40160048 1.34745 112 10
5.0078731 0.37033936 1.3456784 127 10
5.0110164 0.33967003 1.3459315 131 10
5.015903 0.30909491 1.3466908 142 10
5.0206027 0.2784726 1.34745 203 10
5.0193181 0.24751878 1.3466908 222 10
5.0168762 0.21654958 1.3456784 231 10
5.0190773 0.18579824 1.3459315 198 10
5.0278587 0.15523653 1.3479562 182 10
5.0316181 0.12445478 1.3487154 166 10
5.0148759 0.093256578 1.34416 153 10
5.0250278 0.062603898 1.3466908 151 10
5.0262847 0.031775769 1.3469439 115 10
5.0244498 0.00093425746 1.3464377 130 10
5.008882 -0.029801916 1.3423884 133 10
5.013442 -0.060594112 1.3436538 112 10
5.0245833 -0.091567293 1.3466908 91 10
5.0413356 -0.1228213 1.3512464 115 10
5.0424209 -0.15381119 1.3517525 125 10
5.033648 -0.18446398 1.3497277 71 10
5.0382209 -0.21559499 1.3512464 114 10
5.0387354 -0.2465996 1.3517525 91 10
5.0487194 -0.27815157 1.3547895 84 10
5.0459518 -0.30906549 1.3545364 87 10
5.0400996 -0.33976048 1.3535241 80 10
5.0369554 -0.37060848 1.353271 68 10
5.0423012 -0.40212354 1.3552957 86 10
5.0503416 -0.43396685 1.3580796 67 10
5.0678144 -0.46681204 1.3633943 97 10
5.0638919 -0.49780405 1.3631412 90 10
5.0559311 -0.52836299 1.3618758 70 10
5.0574017 -0.55990833 1.3631412 75 10
5.0567536 -0.59126669 1.3639004 62 10
1.1383688 -0.13988926 0.33208266 60 10
1.1374891 -0.14687152 0.33208266 55 10
1.1250626 -0.15228711 0.32904568 22 10
0 -0 0 7 10
5.0706887 -0.75120997 1.3730114 13 10
5.0822377 -0.7848202 1.3773139 81 10
5.0687299 -0.8146072 1.3750361 47 10
5.0693617 -0.84664965 1.3765546 65 10
5.0669308 -0.87823462 1.3773139 51 10
5.0681119 -0.91050613 1.3790854 65 10
5.0681367 -0.94264823 1.3806039 54 10
5.0708075 -0.97537327 1.3828816 49 10
5.073267 -1.0081666 1.3851594 59 10
5.0745668 -1.0408322 1.387184 53 10
5.0756569 -1.0735517 1.3892087 48 10
5.0680289 -1.1044689 1.3889556 57 10
5.0800357 -1.1397823 1.3940172 21 10
1.1383539 -0.26244611 0.33765048 84 10
1.1386048 -0.26987281 0.33815664 100 10
1.1284684 -0.27479124 0.33587891 49 10
0 -0 0 6 10
0 -0 0 5 10
5.1225805 -1.3491598 1.417807 42 10
5.1179419 -1.3815749 1.4188193 45 10
5.1149631 -1.4144995 1.4203378 47 10
5.1201496 -1.4498124 1.4241341 36 10
5.1408916 -1.489821 1.4322327 53 10
5.1520591 -1.5273879 1.4378005 74 10
1.1134325 -0.33721989 0.33638507 101 10
1.1085702 -0.34318623 0.33562583 117 10
1.1101328 -0.35115013 0.33663815 106 10
1.1088778 -0.35825288 0.33689123 91 10
1.1057401 -0.36474672 0.33663815 50 10
4.6981378 -1.5831157 1.3289751 64 10
4.7221851 -1.623554 1.3383391 309 10
4.7121344 -1.6524982 1.3383391 354 10
4.7328777 -1.6924583 1.3469439 440 10
4.7178593 -1.7198098 1.3456784 416 10
4.7262621 -1.755802 1.3509933 518 10
4.7153997 -1.7847688 1.3509933 592 10
