# .PCD v0.7 - Point Cloud Data file format
VERSION 0.7
FIELDS x y z intensity ring
SIZE 4 4 4 4 1
TYPE F F F F U
COUNT 1 1 1 1 1
WIDTH 1422
HEIGHT 1
VIEWPOINT 0 0 0 1 0 0 0
POINTS 1422
DATA ascii
-2.5844774 2.0416353 0.16152738 40 28
-2.5562968 2.0449684 0.16076311 48 28
-2.5165272 2.0385969 0.15942565 54 28
-2.4869759 2.040055 0.15858495 37 28
-2.4551964 2.0393121 0.15762961 42 28
-2.4227555 2.0376132 0.15663606 26 28
-2.3965144 2.0407774 0.15594822 31 28
-2.3695695 2.0430441 0.15522216 26 28
-2.3419349 2.0444 0.1544579 32 28
-2.3158708 2.046818 0.15377006 34 28
-2.2861426 2.0456617 0.15289114 36 28
-2.258738 2.0462308 0.15212688 29 28
-2.2314129 2.0465412 0.15136261 35 28
-2.2107594 2.0527141 0.15094227 23 28
-2.1777384 2.0470743 0.14987229 34 28
-2.1521084 2.047997 0.14918445 47 28
-2.1265497 2.0486827 0.14849661 40 28
-2.1010642 2.0491321 0.14780876 48 28
-2.0784976 2.052155 0.14727378 41 28
-2.05668 2.0556853 0.146777 41 28
-2.0215535 2.0455194 0.14555417 44 28
-1.9461495 1.993523 0.14211497 20 28
-0 0 0 7 28
-0 0 0 4 28
-1.8892703 2.0078995 0.14100678 29 28
-1.8830361 2.0260425 0.1413507 48 28
-1.8752989 2.042712 0.14161819 51 28
-1.8714547 2.0638044 0.14211497 39 28
-1.8660887 2.0834374 0.14253531 31 28
-1.8645241 2.1075733 0.14318494 44 28
-1.8620757 2.1310151 0.14379635 34 28
-1.8574511 2.152236 0.14429313 36 28
-1.8506916 2.1711984 0.14467527 46 28
-1.8495599 2.1970394 0.14540133 30 28
-1.8469028 2.2214108 0.14605094 30 28
-1.843382 2.2450593 0.14666237 43 28
-1.8396401 2.2687478 0.14727378 36 28
-1.8419214 2.3002756 0.14826733 39 28
-1.840786 2.3279963 0.14906982 33 28
-1.8387644 2.3550014 0.14983408 41 28
-1.8358703 2.3812773 0.15056013 30 28
-1.8393791 2.4163527 0.15170653 33 28
-1.8323214 2.437979 0.15220331 42 28
-1.8274487 2.4628196 0.15285294 34 28
-1.821159 2.4860792 0.15342614 30 28
-1.8181651 2.5142126 0.15422861 39 28
-1.7922553 2.5106804 0.15354078 20 28
-2.714268 3.852401 0.21579041 26 28
-2.6962836 3.8771873 0.21617255 156 28
-2.670181 3.8903627 0.21601969 133 28
-2.6137602 3.8586853 0.21380332 79 28
-2.595587 3.8829584 0.21418545 46 28
-2.6751404 4.0556397 0.22136956 133 28
-2.6769111 4.113018 0.22324203 163 28
-2.6662002 4.1520696 0.22427379 173 28
-2.6593878 4.197897 0.22561125 151 28
-2.6531718 4.245491 0.22702515 131 28
-2.0765576 3.3684809 0.18690108 84 28
-2.0376825 3.3512733 0.18556361 153 28
-2.0068047 3.3465722 0.18479934 72 28
-0 0 0 4 28
-0 0 0 6 28
-1.8796327 3.2694509 0.17979339 38 28
-1.865448 3.2913554 0.18025194 72 28
-1.83937 3.2922709 0.17979339 127 28
-1.8046765 3.2772336 0.17864698 42 28
-0 0 0 5 28
-0 0 0 12 28
-0 0 0 8 28
-0 0 0 9 28
-0 0 0 4 28
-0 0 0 7 28
-0 0 0 4 28
-0 0 0 6 28
-0 0 0 4 28
-0 0 0 7 28
-0 0 0 9 28
-0 0 0 8 28
-0 0 0 4 28
-0 0 0 7 28
-0 0 0 8 28
-1.1723197 2.7330112 0.14929909 4 28
-1.1566926 2.7429154 0.14941373 5 28
-0 0 0 5 28
-0 0 0 23 28
-0 0 0 29 28
-0 0 0 24 28
-0 0 0 16 28
-0 0 0 17 28
-0 0 0 15 28
-0 0 0 14 28
-0 0 0 18 28
-0 0 0 32 28
-0 0 0 30 28
-0 0 0 11 28
-0 0 0 7 28
-0 0 0 5 28
-0 0 0 7 28
-0 0 0 5 28
-0 0 0 4 28
-0 0 0 7 28
-0 0 0 10 28
-0 0 0 4 28
-0 0 0 5 28
-0 0 0 4 28
-0 0 0 4 28
-0 0 0 6 28
-0 0 0 4 28
-0 0 0 4 28
-0 0 0 5 28
-0 0 0 3 28
-0 0 0 5 28
-0 0 0 5 28
-0 0 0 4 28
-0 0 0 7 28
-0 0 0 7 28
-0 0 0 6 28
-0 0 0 4 28
-0 0 0 5 28
-0 0 0 4 28
-0 0 0 4 28
-0 0 0 4 28
-0 0 0 5 28
-0 0 0 5 28
-0 0 0 5 28
-0 0 0 4 28
-0 0 0 5 28
-0 0 0 4 28
-0 0 0 6 28
-0 0 0 6 28
-0.26764393 2.5501261 0.13363159 5 28
-0.25150135 2.5467482 0.13344052 5 28
-0.23623785 2.5522234 0.13359338 6 28
-0 0 0 5 28
-0 0 0 5 28
-0.18686393 2.5242496 0.13237055 5 28
-0.17069687 2.515379 0.13198842 15 28
-0.15538235 2.5183737 0.13206485 11 28
-0.1398717 2.5182819 0.13202663 8 28
-0.12441719 2.5190928 0.13202663 11 28
-0.10844179 2.5078287 0.13156807 16 28
-0.093015119 2.5074482 0.13152985 22 28
-0.07756643 2.5059741 0.13145342 23 28
-0.062163968 2.505404 0.13141522 26 28
-0.046919446 2.5127318 0.13168271 12 28
-0.031364642 2.5019813 0.13126236 32 28
-0.015980981 2.4971304 0.1310713 38 28
-0.00065879326 2.4991801 0.13114773 39 28
0.01465181 2.4951401 0.13099487 45 28
0.029888503 2.4890079 0.13076559 62 28
0.045215059 2.491775 0.13088022 46 28
0.060405795 2.4874549 0.13072738 70 28
0.075636849 2.4860384 0.13068916 71 28
0.090852804 2.484529 0.13065095 94 28
0.1056679 2.4739413 0.13026881 149 28
0 0 0 168 28
0 0 0 223 28
0 0 0 265 28
0 0 0 360 28
0.18370789 2.4994328 0.13141522 429 28
0.19808649 2.4863055 0.13095665 577 28
0.21333843 2.485043 0.13095665 760 28
0.22913276 2.4896576 0.13118593 900 28
0.2444047 2.488205 0.13118593 883 28
0.25904381 2.4806952 0.13095665 716 28
0.27426019 2.4790592 0.13095665 629 28
0.29039526 2.4852695 0.13126236 477 28
0.30710566 2.4953423 0.13172093 334 28
0.32138467 2.4854829 0.13141522 240 28
0.33649486 2.4824739 0.131377 188 28
0.35172072 2.4803624 0.131377 175 28
0.36634725 2.4742038 0.13122416 108 28
0.38152176 2.4719093 0.13122416 103 28
0.39684057 2.4705083 0.13126236 86 28
0.41215655 2.4690125 0.13130058 74 28
0.42934713 2.4782522 0.13175914 59 28
0.44472209 2.4765544 0.13179734 50 28
0.46118915 2.4806559 0.13206485 45 28
0 0 0 32 28
0 0 0 40 28
0 0 0 36 28
0 0 0 41 28
0 0 0 26 28
0.57012713 2.5419509 0.13519834 17 28
0.5800932 2.5140636 0.13424301 19 28
0.59873927 2.5240686 0.13477799 20 28
0.61113769 2.5077264 0.13428122 13 28
0.63233805 2.5271938 0.13519834 14 28
0.64683813 2.5193949 0.13504548 10 28
0.66483045 2.5250416 0.13542762 10 28
0 0 0 5 28
0 0 0 6 28
0.70302606 2.4835329 0.13428122 7 28
0.70378447 2.429265 0.13229412 8 28
0.71952921 2.4277751 0.13240877 6 28
0 0 0 4 28
0.74542177 2.4063544 0.13191199 5 28
0.75836277 2.3960195 0.13168271 4 28
0.98093444 3.034044 0.15751497 15 28
0.97634465 2.9577518 0.15468718 15 28
0.95872819 2.8456492 0.15040728 7 28
0.84358311 2.4541726 0.13481621 18 28
0.85201055 2.4300916 0.13405195 31 28
0.88036686 2.4624536 0.13558048 16 28
1.1179599 3.0672321 0.1604192 21 28
1.1743497 3.1614776 0.16454624 161 28
1.1962026 3.1607542 0.16481373 193 28
1.2162932 3.1552196 0.16489016 181 28
1.2370914 3.1514177 0.16504301 201 28
0 0 0 220 28
1.278684 3.143404 0.16534872 202 28
1.2994767 3.1391919 0.16550158 207 28
1.3210417 3.1366847 0.16573085 186 28
1.3426249 3.1340308 0.16596013 219 28
1.364225 3.1312299 0.16618942 194 28
0 0 0 203 28
0 0 0 218 28
0 0 0 197 28
0 0 0 191 28
1.4745829 3.1195273 0.16752689 206 28
1.5001864 3.1239316 0.16810009 192 28
1.5210791 3.1182601 0.16825294 205 28
0 0 0 215 28
0 0 0 236 28
0 0 0 620 28
0 0 0 47 28
0 0 0 61 28
1.5750114 2.9482319 0.16339983 34 28
1.5935482 2.9393907 0.16343805 55 28
0 0 0 47 28
0 0 0 53 28
0 0 0 49 28
0 0 0 54 28
0 0 0 82 28
0 0 0 92 28
0 0 0 75 28
0 0 0 78 28
0 0 0 72 28
0 0 0 82 28
0 0 0 70 28
0 0 0 87 28
0 0 0 73 28
1.7386703 2.6383162 0.15640679 94 28
0 0 0 76 28
1.7793181 2.629194 0.15697998 113 28
0 0 0 84 28
0 0 0 467 28
0 0 0 143 28
0 0 0 176 28
0 0 0 133 28
0 0 0 129 28
0 0 0 116 28
1.9265864 2.5658865 0.15827924 125 28
0 0 0 124 28
0 0 0 136 28
0 0 0 128 28
0 0 0 117 28
0 0 0 123 28
0 0 0 112 28
0 0 0 150 28
2.1210494 2.5535786 0.16252093 74 28
2.1849239 2.597867 0.16538693 37 28
2.2345166 2.6239688 0.16737403 37 28
2.4444013 2.8349566 0.17872341 63 28
2.4663508 2.8251736 0.1789909 96 28
2.5087895 2.8384364 0.18044302 49 28
2.5494838 2.8490498 0.18178049 41 28
2.7299674 3.0132902 0.19106634 111 28
2.7497561 2.9979556 0.19114277 154 28
2.7755797 2.9890809 0.19156311 114 28
2.8130343 2.9923782 0.19263309 128 28
2.8444324 2.9888136 0.19335915 147 28
2.8710384 2.9799387 0.1938177 149 28
2.8941536 2.9672732 0.1940852 142 28
2.9375837 2.975055 0.19546089 227 28
2.9282291 2.9294143 0.19397056 16 28
3.1409175 3.1038272 0.20444103 41 28
3.2285559 3.151499 0.20810951 67 28
3.2629397 3.146194 0.208912 83 28
3.2966559 3.1398962 0.20967627 74 28
3.3340561 3.1367257 0.21063161 76 28
3.3664169 3.1284525 0.21131945 76 28
3.4010096 3.121927 0.21212193 87 28
3.4408307 3.1197922 0.2131919 84 28
3.4792643 3.1159525 0.21418545 78 28
3.5207734 3.1144059 0.21533185 80 28
3.5676615 3.1170683 0.21674575 65 28
3.6154706 3.1199243 0.21819785 78 28
3.6550815 3.1151807 0.21922962 63 28
3.6878889 3.1042771 0.21991746 69 28
3.721468 3.0937262 0.22064352 66 28
3.7542834 3.0822458 0.22133136 86 28
3.7746775 3.0604105 0.22140779 46 28
3.7535996 3.005343 0.21945889 5 28
0 0 0 3 28
0 0 0 6 28
3.7940359 2.9247618 0.21877106 4 28
3.8063443 2.8971908 0.21850356 4 28
3.827245 2.8761821 0.21865642 15 28
3.8825409 2.880626 0.22045244 139 28
3.9178793 2.8697381 0.22129314 129 28
3.9653766 2.8673065 0.22270703 130 28
4.0170574 2.8673015 0.22431201 138 28
4.0607166 2.8610146 0.22553483 113 28
4.1118331 2.8594332 0.22710158 73 28
4.1433077 2.8437614 0.22775121 87 28
4.2169404 2.8563883 0.23034972 157 28
4.2518344 2.8421204 0.23115221 140 28
4.2958875 2.8335829 0.23237503 124 28
4.3559084 2.8349662 0.23432392 134 28
4.4043341 2.8281608 0.23573782 127 28
4.4629693 2.8272831 0.23761027 141 28
4.5243001 2.8273802 0.23959737 143 28
4.5645313 2.8137224 0.24062912 102 28
4.6312351 2.8157682 0.24284551 123 28
4.6998482 2.8181276 0.2451383 118 28
4.7376957 2.8014421 0.24605542 102 28
4.7686086 2.7803717 0.24666685 123 28
4.8418918 2.783427 0.24915071 219 28
4.8562713 2.7521875 0.24903607 222 28
4.8634706 2.7169778 0.24861573 240 28
4.8599162 2.6760008 0.24773683 219 28
4.8613133 2.6380291 0.2470872 200 28
4.8703585 2.6043818 0.24678148 223 28
4.8641443 2.5628057 0.24582615 130 28
4.8771172 2.5315306 0.24571151 176 28
4.876543 2.4933703 0.24502367 224 28
4.8810401 2.4580088 0.2445651 252 28
4.8879728 2.4240179 0.24422118 192 28
4.9252038 2.4049401 0.24517652 197 28
4.9821978 2.3950195 0.24697255 267 28
4.989573 2.3609855 0.24666685 251 28
4.9849424 2.3214681 0.24586436 145 28
4.985466 2.2845941 0.24529116 247 28
4.963861 2.2379456 0.24380083 188 28
4.9902883 2.2131164 0.24433583 200 28
4.9946141 2.1784606 0.24395369 217 28
4.9922743 2.1410787 0.24330406 246 28
4.9869018 2.102643 0.24253979 321 28
4.9997091 2.0720043 0.24253979 314 28
5.0114036 2.040911 0.24250159 301 28
4.9987817 2.000102 0.24146982 359 28
4.993289 1.9624491 0.24074377 392 28
5.0005751 1.9299752 0.24055269 437 28
5.0095196 1.898194 0.24043806 376 28
4.9817343 1.8527931 0.2388331 295 28
5.0023966 1.825616 0.23921522 310 28
5.0069184 1.7925303 0.23894773 313 28
5.0140514 1.7604508 0.23879488 300 28
5.0200343 1.7280262 0.23860382 323 28
5.0220213 1.694317 0.2382599 341 28
5.0142956 1.6575129 0.23753384 217 28
4.9730334 1.6100973 0.23547031 36 28
4.9818668 1.5792511 0.2354321 35 28
4.9905086 1.5483571 0.2353939 26 28
4.9970465 1.5168363 0.23527925 32 28
4.9995537 1.4841564 0.23501176 34 28
4.999929 1.450946 0.23466784 23 28
4.997201 1.4169693 0.23420927 34 28
4.9980969 1.3841474 0.23390357 25 28
5.0016727 1.3521501 0.23371249 25 28
5.0060101 1.3204157 0.23355965 32 28
5.0149856 1.2899234 0.23359786 22 28
5.0189285 1.2581562 0.233445 21 28
5.0217004 1.2261522 0.23325394 30 28
5.0223241 1.1936995 0.23298645 24 28
5.0237122 1.1615105 0.23275717 17 28
5.02002 1.1282542 0.23233682 13 28
5.0200143 1.0959393 0.23206933 16 28
5.0237117 1.0644952 0.23195468 23 28
5.0242753 1.0324439 0.23172541 21 28
5.0216956 0.99984056 0.23138148 15 28
5.0247922 0.96844208 0.23126684 15 28
5.0247455 0.93649423 0.23103756 15 28
5.0264635 0.90493739 0.2308847 15 28
5.0269985 0.87322384 0.23069364 16 28
5.0312762 0.84219742 0.23065543 16 28
5.0333896 0.81083369 0.23054078 16 28
5.0362949 0.77962852 0.23046435 19 28
5.0350533 0.74783134 0.23023508 30 28
5.0365791 0.71650076 0.23012044 23 28
5.0369201 0.68504506 0.22996758 34 28
5.0400376 0.65399766 0.22992937 30 28
5.0419722 0.62281543 0.22985294 20 28
5.0407362 0.59128505 0.22966188 33 28
5.0393038 0.55979329 0.22947082 25 28
5.035687 0.52813309 0.22920331 33 28
5.032866 0.49663642 0.22897404 44 28
5.0358186 0.46574599 0.22897404 51 28
5.0435596 0.43526721 0.22916511 49 28
5.0501194 0.40463126 0.22931796 54 28
5.0525074 0.37363669 0.22931796 63 28
5.0507169 0.34235805 0.22916511 63 28
5.0457406 0.3109313 0.22889762 80 28
5.0475535 0.27996537 0.22889762 83 28
5.0352035 0.24830091 0.22836262 125 28
5.0426221 0.21765891 0.2285919 165 28
5.0478573 0.18686141 0.22874476 146 28
5.0588965 0.15619244 0.22912689 141 28
5.0547652 0.12502553 0.22893582 99 28
5.0564361 0.094026223 0.22897404 66 28
5.0539203 0.062961631 0.22885939 57 28
5.0542116 0.031950176 0.22885939 70 28
5.0513144 0.00093718793 0.22874476 50 28
0 -0 0 44 28
5.056941 -0.061123203 0.22897404 58 28
5.0614662 -0.092242278 0.22916511 48 28
5.0628028 -0.12334595 0.22924154 53 28
5.0689425 -0.1546222 0.22950903 31 28
5.0688968 -0.18575841 0.22954723 43 28
5.0796418 -0.21737066 0.2300058 33 28
5.0822048 -0.24873035 0.23015866 27 28
0 -0 0 38 28
5.0987177 -0.31230143 0.23092292 42 28
5.0996962 -0.34378254 0.23103756 41 28
5.0945015 -0.37484702 0.23092292 32 28
5.097086 -0.40649682 0.23111399 17 28
5.088522 -0.43725055 0.2308847 28 28
5.0867386 -0.46855664 0.23092292 28 28
5.0758119 -0.49897674 0.23061721 11 28
5.0806055 -0.53094345 0.23092292 21 28
5.0782452 -0.56221747 0.23096113 15 28
5.0826402 -0.59429544 0.23126684 19 28
5.078898 -0.62547076 0.23126684 38 28
5.0848742 -0.65790546 0.23164898 34 28
5.0916338 -0.69057143 0.23206933 27 28
5.0962048 -0.72306412 0.23241325 27 28
5.0995803 -0.75549233 0.23271894 27 28
5.0958362 -0.78692114 0.23275717 20 28
5.0958447 -0.81896698 0.23294823 22 28
5.0917091 -0.85038376 0.23298645 17 28
5.0952568 -0.88314646 0.23333037 15 28
5.095643 -0.91545433 0.23355965 17 28
5.1007366 -0.9487142 0.23398 15 28
5.1056132 -0.98207092 0.23440035 21 28
5.1112523 -1.015718 0.2348589 18 28
5.1137338 -1.0488685 0.23520282 20 28
5.1179557 -1.0825015 0.23562317 27 28
5.1219568 -1.1162256 0.23604351 15 28
5.1169615 -1.14807 0.23611994 22 28
5.11761 -1.181244 0.23642565 25 28
5.1190157 -1.2146999 0.23676957 21 28
5.1163201 -1.2472703 0.23696063 17 28
5.1153564 -1.280339 0.23722814 19 28
5.1151466 -1.3136913 0.23753384 24 28
5.1127877 -1.3465799 0.23776312 26 28
5.1140761 -1.380531 0.23814526 27 28
5.1083984 -1.4126836 0.2382599 22 28
5.1255932 -1.4513541 0.23929165 38 28
5.1405854 -1.4897321 0.240247 40 28
5.2079906 -1.5439738 0.24330406 109 28
5.1525178 -1.5619818 0.24146982 394 28
5.0407076 -1.5619138 0.23738098 155 28
4.9719653 -1.5741094 0.23501176 154 28
4.8985109 -1.5839833 0.23245145 175 28
4.8270235 -1.5936425 0.22996758 130 28
4.7480283 -1.5999315 0.22717801 326 28
4.7475715 -1.6322844 0.22756015 397 28
4.7497249 -1.6656841 0.22805692 326 28
4.7431784 -1.6961427 0.22820976 378 28
4.7458253 -1.7300066 0.22874476 357 28
4.7510448 -1.765011 0.22939439 450 28
4.7504053 -1.7980214 0.22981474 332 28
4.7542009 -1.832888 0.23042615 404 28
4.7605371 -1.8689643 0.23115221 541 28
4.762898 -1.9037035 0.23172541 450 28
4.7742667 -1.9423079 0.23268074 487 28
4.7761078 -1.9773003 0.23325394 514 28
4.7740154 -2.0108364 0.23367429 545 28
4.7524023 -2.0361552 0.23329215 58 28
4.7508116 -2.0700679 0.23375072 33 28
4.7471566 -2.1032279 0.23413284 34 28
4.7414508 -2.1355999 0.23443855 45 28
4.7455201 -2.1725571 0.23516461 36 28
4.7484078 -2.2092228 0.23585245 38 28
4.7483134 -2.244724 0.23642565 43 28
4.7470613 -2.2798743 0.23696063 33 28
4.7464538 -2.315532 0.23753384 37 28
4.7464824 -2.3517113 0.23814526 26 28
4.7480302 -2.3888762 0.2388331 28 28
4.7519698 -2.4275122 0.23963557 40 28
4.7511783 -2.4639859 0.240247 23 28
4.7518854 -2.5014718 0.24093483 41 28
4.7531924 -2.5395298 0.24166089 35 28
4.756846 -2.5791271 0.24250159 36 28
4.7636938 -2.620791 0.24349514 41 28
4.7588658 -2.6563034 0.24399191 47 28
4.7659545 -2.6987493 0.24502367 47 28
4.7701006 -2.7398882 0.24594079 43 28
4.7816911 -2.785707 0.24720183 41 28
4.7894568 -2.8297369 0.24831001 44 28
4.801147 -2.8765349 0.24960928 42 28
4.7962165 -2.9137232 0.25018248 27 28
4.7935624 -2.9525316 0.25087032 26 28
4.7889166 -2.9903579 0.25148174 24 28
4.7797651 -3.0255654 0.25190207 39 28
4.7863407 -3.071027 0.25304848 16 28
4.7833228 -3.1106896 0.25377452 19 28
4.7891755 -3.1564798 0.25492093 16 28
4.7921524 -3.2007933 0.25595272 29 28
4.7914548 -3.243021 0.25683162 23 28
4.7912431 -3.2859251 0.25774872 14 28
4.7923255 -3.3300889 0.25874227 25 28
4.7897773 -3.372088 0.25958297 10 28
4.7901478 -3.4165018 0.26057652 15 28
4.7869124 -3.4587054 0.26141721 7 28
4.8067226 -3.5181146 0.2633661 18 28
4.8139424 -3.5689683 0.26474178 22 28
4.8167224 -3.6170416 0.26592639 22 28
4.8151164 -3.6622579 0.26691994 15 28
4.8155107 -3.7094197 0.26802814 19 28
4.8170824 -3.7579529 0.26921275 15 28
4.815887 -3.8047857 0.27028272 15 28
4.8220992 -3.8579879 0.27173483 14 28
4.8286157 -3.9120378 0.27322516 13 28
4.8284688 -3.9612412 0.27440977 14 28
4.8332796 -4.0150595 0.27586189 18 28
4.833787 -4.0658684 0.27712291 16 28
4.8384161 -4.1207218 0.27861324 17 28
4.8425531 -4.1757841 0.28010356 18 28
4.8439374 -4.2290797 0.28147927 32 28
4.8426032 -4.2805629 0.28274029 15 28
4.862411 -4.3515148 0.28510952 24 28
4.8644981 -4.4074364 0.28659984 25 28
4.8631353 -4.4608445 0.28793731 18 28
4.8576384 -4.5110011 0.28908372 19 28
4.8619003 -4.5708404 0.29076511 20 28
4.8627143 -4.6281447 0.29229364 21 28
4.8651657 -4.6877103 0.29393682 24 28
4.8606305 -4.7411985 0.29523608 23 28
4.8684192 -4.8074465 0.29722318 23 28
4.8699226 -4.8683143 0.29890457 16 28
4.8778849 -4.9364891 0.30096808 15 28
4.8775148 -4.997077 0.30261126 13 28
4.8904548 -5.0722332 0.30501872 15 28
4.8909397 -5.1354327 0.30677652 27 28
4.8969936 -5.2053781 0.30887827 19 28
4.8935294 -5.2660737 0.31048322 23 28
4.889504 -5.326921 0.31208819 23 28
4.8902841 -5.3938389 0.31399885 29 28
4.8897591 -5.4602213 0.31587133 38 28
4.8938985 -5.5327868 0.31804949 24 28
4.9065337 -5.6161432 0.32076263 31 28
4.905273 -5.6847296 0.32271153 28 28
4.9098353 -5.7611156 0.32504255 47 28
4.9117131 -5.8354769 0.32725891 50 28
4.9218044 -5.9208345 0.33001027 49 28
4.9196191 -5.992631 0.33207381 63 28
4.9312096 -6.0824757 0.33501622 51 28
4.9293909 -6.1570845 0.33719441 32 28
4.9324188 -6.2389531 0.33971649 28 28
4.9254026 -6.3092732 0.34166536 42 28
4.9177079 -6.3797407 0.34361425 29 28
4.9159899 -6.4590969 0.34598348 32 28
4.9164824 -6.5426645 0.34854379 34 28
4.9869804 -6.7219839 0.35565147 113 28
4.9627633 -6.7758365 0.35675967 335 28
4.97964 -6.8871398 0.36058101 434 28
4.9761796 -6.9720612 0.3631413 499 28
4.9770427 -7.0645494 0.3660455 79 28
5.0471215 -7.2582226 0.37364998 21 28
5.0143647 -7.3063569 0.37445247 31 28
5.0069823 -7.3924217 0.37701276 29 28
4.9915128 -7.4678679 0.3790763 37 28
4.9863076 -7.5600848 0.3819041 38 28
5.0177636 -7.7103081 0.38736859 51 28
5.0275855 -7.8300848 0.39141923 50 28
5.0265002 -7.9350739 0.39478201 43 28
5.0174298 -8.0293245 0.39764801 39 28
5.0341301 -8.1671448 0.4024629 29 28
5.0342727 -8.2807064 0.40616959 24 28
5.0332088 -8.3945732 0.40987629 24 28
5.0594144 -8.5569067 0.41572294 23 28
5.0576448 -8.6749821 0.41958249 22 28
5.0720434 -8.8236761 0.42477953 16 28
5.0660849 -8.9398327 0.42852443 18 28
5.0506058 -9.0414143 0.43161973 29 28
5.0634675 -9.196537 0.43704602 20 28
5.0717535 -9.3468847 0.44224304 16 28
5.0614214 -9.465951 0.44606438 23 28
5.0437632 -9.5737457 0.44938895 25 28
5.0792861 -9.7863359 0.4572227 50 28
5.1233029 -10.02107 0.46597356 54 28
5.0999155 -10.128182 0.46922171 57 28
5.1126924 -10.310583 0.47567979 34 28
5.1549845 -10.558171 0.48488921 19 28
5.1351228 -10.68327 0.48886341 23 28
5.1451144 -10.874458 0.49562716 17 28
5.1719308 -11.10693 0.50411057 15 28
5.1324019 -11.201139 0.50674725 19 28
5.0791807 -11.267037 0.50819939 13 28
5.1671095 -11.652429 0.52302617 150 28
0 -0 0 239 28
5.1532888 -12.017113 0.5355984 169 28
5.1951284 -12.322905 0.54698598 77 28
5.2112198 -12.576108 0.55615723 55 28
5.2488904 -12.890122 0.56781226 32 28
5.2795587 -13.196712 0.57912344 16 28
5.2858276 -13.451138 0.58825648 12 28
5.2395267 -13.577478 0.592116 14 28
5.2492223 -13.855135 0.60216612 25 28
5.2671967 -14.164322 0.61347729 26 28
5.2802005 -14.470485 0.62463564 32 28
5.2788658 -14.747224 0.63457114 25 28
5.395134 -15.368629 0.65845448 9 28
5.3852777 -15.647113 0.66838998 5 28
5.322063 -15.777389 0.67232597 7 28
5.3289418 -16.1238 0.68497461 23 28
5.4114676 -16.717112 0.70752048 99 28
5.3205647 -16.787151 0.70901084 407 28
5.2136121 -16.807074 0.70851403 504 28
5.1069055 -16.827274 0.7080555 521 28
4.9964519 -16.834343 0.70710015 550 28
4.8855467 -16.838772 0.7060684 509 28
4.775321 -16.844397 0.70511305 467 28
4.6652102 -16.849304 0.70415771 525 28
4.5539155 -16.848673 0.70301133 506 28
4.4412761 -16.841513 0.70163566 561 28
4.3363619 -16.86264 0.70140636 612 28
4.2269831 -16.865667 0.70048922 537 28
4.1163092 -16.862164 0.69934285 589 28
4.0065303 -16.860853 0.69831109 540 28
3.8989482 -16.867596 0.69762325 560 28
3.7918725 -16.875601 0.69701183 515 28
3.6827149 -16.873167 0.69601828 377 28
3.5755935 -16.878826 0.69536865 447 28
3.4691448 -16.886745 0.69483364 519 28
3.3646841 -16.903793 0.69468081 536 28
3.2578764 -16.908421 0.69406939 440 28
3.248502 -17.434994 0.7137875 113 28
3.277915 -18.212854 0.74325001 274 28
3.1691782 -18.250347 0.74393785 491 28
3.0538385 -18.249737 0.7431736 456 28
2.9344957 -18.22275 0.7414158 431 28
2.8165162 -18.200912 0.73988724 465 28
2.698915 -18.178314 0.73835874 462 28
2.5821197 -18.157927 0.73694479 503 28
2.466753 -18.144714 0.73583663 574 28
2.3499753 -18.117887 0.73423165 496 28
2.2345991 -18.098246 0.73293239 466 28
2.1178076 -18.062984 0.73105997 484 28
2.0034072 -18.043859 0.72983712 527 28
1.8894258 -18.025003 0.72865254 528 28
1.7757512 -18.005428 0.72746789 500 28
1.6628478 -17.990114 0.72647434 469 28
1.5494267 -17.965134 0.72513688 465 28
1.4374912 -17.953386 0.72433442 441 28
1.3253164 -17.934961 0.72330266 430 28
1.2128146 -17.906864 0.72192693 510 28
1.1007074 -17.878063 0.72055125 566 28
0.98944157 -17.856543 0.71948129 563 28
0.87828475 -17.830339 0.71825844 588 28
0.76783097 -17.811434 0.71734136 535 28
0.65782672 -17.796837 0.71661526 571 28
0.54793823 -17.778564 0.7157746 565 28
0.43827417 -17.758615 0.71489567 502 28
0.32893106 -17.740988 0.71413141 465 28
0.21974654 -17.716694 0.71313787 534 28
0.11091625 -17.698723 0.71241182 528 28
0.002314555 -17.678085 0.7116093 563 28
-0.10601164 -17.653784 0.71069223 559 28
-0.21388155 -17.615831 0.70927835 592 28
-0.32167369 -17.598202 0.70866692 693 28
-0.42913547 -17.574919 0.7078644 660 28
-0.53620148 -17.546984 0.70690906 614 28
-0.64312422 -17.523392 0.70614481 622 28
-0.75024843 -17.510132 0.70580089 588 28
-0.85723418 -17.496216 0.70545697 625 28
-0.96391225 -17.478653 0.70499843 585 28
-1.0702847 -17.458447 0.70446342 613 28
-1.1764456 -17.437592 0.70392841 612 28
-1.2827579 -17.421076 0.70358449 619 28
-1.3893094 -17.408894 0.70343167 665 28
-1.4936191 -17.371168 0.7023235 101 28
-1.0806929 -11.726707 0.48592097 62 28
-1.7060906 -17.345564 0.7020942 458 28
-1.8107219 -17.317875 0.70144457 657 28
-1.9176085 -17.312397 0.70167387 709 28
-2.0186896 -17.256636 0.69999248 396 28
-2.0740623 -16.834324 0.6842103 669 28
-2.1796262 -16.839119 0.68489814 629 28
-2.285058 -16.84127 0.68550956 648 28
-2.3917217 -16.850677 0.6864267 591 28
-2.4963892 -16.844582 0.68677062 608 28
-2.6001563 -16.831909 0.68688524 168 28
-2.0353763 -12.661075 0.52596861 52 28
-2.1120367 -12.642434 0.52573931 147 28
-2.1883743 -12.622345 0.52547187 185 28
-2.2629542 -12.592943 0.52486044 87 28
-2.2811363 -12.261504 0.51251751 399 28
-2.3085561 -11.999016 0.50284952 613 28
-2.37902 -11.968944 0.50223809 1009 28
-2.4552271 -11.967825 0.50277311 799 28
-2.5333717 -11.975019 0.50365198 943 28
-2.608717 -11.968037 0.5039959 905 28
-2.6873543 -11.975205 0.50491303 970 28
-2.7646041 -11.975042 0.50556266 1007 28
-2.841722 -11.97341 0.50617409 439 28
-3.0955353 -12.695513 0.53529269 13 28
-3.1656091 -12.645261 0.53406984 38 28
-6.4573112 -25.13689 1.0280545 182 28
-6.57655 -24.964413 1.0228193 17 28
-6.4563422 -23.911602 0.98273343 23 28
-6.5885534 -23.819529 0.98066992 61 28
-6.7430248 -23.808458 0.9818545 31 28
-6.6486092 -22.937403 0.94883817 18 28
-6.7914982 -22.903841 0.94914383 16 28
-7.7574453 -25.584248 1.0579374 150 28
-7.9199023 -25.554302 1.0586635 281 28
-8.0825853 -25.524279 1.0594277 171 28
-2.317421 -7.1661062 0.32359043 376 28
-2.3575876 -7.1403656 0.32313186 1518 28
-2.4010365 -7.1248183 0.32309365 1627 28
-2.4518578 -7.1307406 0.32393435 1211 28
-2.5091262 -7.1542225 0.32550108 908 28
-0 -0 0 878 28
-0 -0 0 1521 28
-2.5829568 -6.9522715 0.3191959 1551 28
-2.6301658 -6.948441 0.31969267 1523 28
-2.6799419 -6.950819 0.32045692 1422 28
-2.7280195 -6.9481959 0.32103014 1545 28
-2.7613277 -6.9081297 0.3200748 1234 28
-2.7829485 -6.8401499 0.31797305 1773 28
-0 -0 0 1214 28
-2.9334075 -6.9638758 0.32454577 1675 28
-2.9800179 -6.9549303 0.3249279 1684 28
-3.0330164 -6.9603319 0.32592145 1049 28
-5.4355125 -12.266885 0.54866737 37 28
-5.4573207 -12.114861 0.54369962 22 28
-5.4870386 -11.983932 0.5396108 34 28
-5.4946985 -11.808706 0.5336495 35 28
-5.5145135 -11.663654 0.52894926 39 28
-5.5228052 -11.49809 0.52337009 47 28
-5.5717807 -11.419981 0.52149767 17 28
-5.6213374 -11.344392 0.51973981 46 28
-5.6809573 -11.290049 0.51889914 68 28
-5.7528524 -11.260318 0.51912844 52 28
-0 -0 0 14 28
-0 -0 0 6 28
-9.488019 -17.756313 0.80546147 9 28
-0 -0 0 7 28
-0 -0 0 16 28
-5.8336496 -10.450252 0.49325794 13 28
-10.087861 -17.81288 0.81841582 8 28
-0 -0 0 4 28
-0 -0 0 7 28
-10.585856 -17.914957 0.83133191 6 28
-0 -0 0 4 28
-5.6435695 -9.2890606 0.45122319 21 28
-5.5951128 -9.0832481 0.4435423 73 28
-5.6232166 -9.004673 0.4415552 70 28
-5.6398773 -8.9092112 0.43880385 74 28
-5.6323729 -8.7777224 0.43440929 66 28
-5.633822 -8.6625814 0.4307408 73 28
-5.6505709 -8.5727854 0.42821872 63 28
-5.6592155 -8.4723101 0.42519987 91 28
-5.701571 -8.423358 0.42455024 162 28
-5.7667141 -8.4079924 0.42546737 194 28
-5.7600279 -8.2887526 0.42156959 67 28
-5.8056006 -8.2459011 0.42122567 49 28
-5.8822007 -8.2467308 0.42294529 8 28
-0 -0 0 5 28
-5.9316072 -8.103776 0.41962072 14 28
-6.0597825 -8.1731825 0.42466488 8 28
-5.8325763 -7.7666998 0.40701029 19 28
-5.887382 -7.7403092 0.40746886 27 28
-5.9573293 -7.7333283 0.40888274 11 28
-6.0304852 -7.7297182 0.41048771 7 28
-6.1050591 -7.7270689 0.4121691 6 28
-6.2066722 -7.7573438 0.41549367 6 28
-6.2472334 -7.7105742 0.41507331 6 28
-6.3197808 -7.7029972 0.41660187 7 28
-6.4326997 -7.7432418 0.42053783 6 28
-0 -0 0 4 28
-0 -0 0 6 28
-0 -0 0 6 28
-6.8054767 -7.7945542 0.43127578 6 28
-6.9312735 -7.840992 0.435785 5 28
-6.9692578 -7.7871461 0.43521178 8 28
-7.0685735 -7.8012543 0.43815422 25 28
-7.1271167 -7.7695169 0.43876562 80 28
-7.205256 -7.7585883 0.44048524 228 28
-0 -0 0 795 28
-0 -0 0 840 28
-0 -0 0 869 28
-0 -0 0 898 28
-0 -0 0 718 28
-0 -0 0 602 28
-7.89641 -7.8023415 0.4600887 539 28
-7.9934797 -7.8019009 0.46272543 222 28
-8.0606251 -7.7714329 0.46375719 18 28
-9.0611954 -8.6293926 0.51408422 73 28
-9.1496391 -8.6071806 0.5159567 72 28
-9.2564507 -8.6012106 0.51878452 63 28
-9.3767834 -8.6064148 0.52230012 87 28
-9.4960451 -8.6091213 0.52573931 86 28
-9.5851679 -8.5833559 0.52761179 60 28
-6.3479223 -5.614831 0.35966387 206 28
-2.7225311 -2.3787987 0.17383209 56 28
-2.6954637 -2.3261459 0.17173035 112 28
-2.7233763 -2.3212292 0.17241819 315 28
-2.6947536 -2.2684424 0.17027825 127 28
-2.7101588 -2.2531424 0.17035468 224 28
-2.7030787 -2.2193525 0.16932291 159 28
-2.7096591 -2.1970615 0.16897899 121 28
-2.7145081 -2.1735246 0.16855864 126 28
-2.7136829 -2.1456735 0.1678708 108 28
-2.7197082 -2.1234484 0.16752689 104 28
-2.7350605 -2.1085505 0.16764152 238 28
-2.7113681 -2.0638919 0.16588371 161 28
-2.7127964 -2.0388126 0.16534872 123 28
-2.7180324 -2.0167706 0.1650048 136 28
-2.7206814 -1.9929701 0.16454624 131 28
-2.7255707 -1.9709697 0.16420232 131 28
-2.735173 -1.9524673 0.16408768 123 28
-2.7536368 -1.9402517 0.16439338 126 28
-2.7851808 -1.93701 0.1653105 87 28
-2.814316 -1.9317577 0.16611299 86 28
-2.8418365 -1.9250995 0.16683905 66 28
-2.8760266 -1.9226179 0.1678708 111 28
-2.9311476 -1.9335424 0.1698579 424 28
-2.9747834 -1.9362315 0.17131001 95 28
-3.0093117 -1.9325186 0.17234178 302 28
-3.0616333 -1.939683 0.17417602 74 28
-3.0946634 -1.9340984 0.17513135 83 28
-3.1464543 -1.9397155 0.17692739 57 28
-3.1787901 -1.9328305 0.17784451 87 28
-3.4322767 -2.0581868 0.18862069 44 28
-3.473227 -2.0538702 0.18988173 53 28
-3.528065 -2.0571802 0.19175418 34 28
-3.5406213 -2.0354936 0.19175418 5 28
-3.6121633 -2.0472295 0.19435269 38 28
-3.6499565 -2.0391586 0.19546089 41 28
-3.6615245 -2.0162425 0.19542266 22 28
-9.6437559 -5.2328262 0.45515919 280 28
-9.6413145 -5.15518 0.45366886 588 28
-9.6409369 -5.0791588 0.45229316 604 28
-9.6293478 -4.9978132 0.45045891 614 28
-9.6269112 -4.9218049 0.44904503 532 28
-9.5989161 -4.8334332 0.44656116 627 28
-9.577363 -4.7491422 0.444383 564 28
-9.5605259 -4.6679292 0.4424341 600 28
-9.5538626 -4.5922966 0.44094378 689 28
-9.5520525 -4.5194869 0.43968275 629 28
-9.5506153 -4.4472942 0.43845993 666 28
-9.5522871 -4.3769546 0.43738994 700 28
-9.5570993 -4.3084049 0.43647283 759 28
-9.5669127 -4.2423921 0.435785 719 28
-9.5707798 -4.1740241 0.43486786 686 28
-9.5815172 -4.1089196 0.43425643 594 28
-9.5761623 -4.0372415 0.43299541 568 28
-9.5905991 -3.9742 0.43257505 585 28
-9.6323881 -3.9224381 0.43330112 703 28
-9.6442127 -3.8584361 0.43280435 758 28
-9.6184139 -3.779819 0.43077904 640 28
-9.6376963 -3.7192914 0.43062618 619 28
-9.6491222 -3.6558375 0.43016762 642 28
-9.6573238 -3.5913389 0.4295944 664 28
-9.6735449 -3.5299599 0.42936513 598 28
-9.6921997 -3.4695275 0.42925048 628 28
-9.7133064 -3.409992 0.42925048 633 28
-9.7198734 -3.3454504 0.42867729 551 28
-9.7458992 -3.2876637 0.42890656 643 28
-9.767786 -3.2284291 0.428983 644 28
-9.7769537 -3.1650493 0.42856264 594 28
-8.3549414 -2.648241 0.37074578 960 28
-8.3605347 -2.5936699 0.37032542 1000 28
-8.3657732 -2.5391297 0.36990508 992 28
-8.3735323 -2.485476 0.36959937 1090 28
-8.3838263 -2.4326582 0.36940831 1036 28
-8.3812904 -2.3762648 0.36872044 976 28
-8.3870459 -2.3223937 0.36837652 978 28
-8.3934202 -2.2688024 0.36807084 985 28
-8.4071836 -2.2172587 0.36807084 739 28
-6.2256875 -1.6012365 0.28140283 223 28
-8.8253555 -2.2120576 0.38350904 244 28
-9.9716492 -2.4343927 0.42810407 817 28
-6.3377161 -1.5062363 0.28468919 276 28
-9.9540386 -2.3010406 0.42626983 923 28
-9.9562702 -2.2372921 0.42581129 945 28
-9.860466 -2.1522965 0.42153138 540 28
-9.7014332 -2.0553095 0.41480583 466 28
-9.8743896 -2.0287185 0.42107281 524 28
-9.8827314 -1.967312 0.42091995 801 28
-9.8818607 -1.9041783 0.42042318 846 28
-9.8933592 -1.8435084 0.42042318 808 28
-9.9074345 -1.7833002 0.42053783 847 28
-9.901453 -1.7195697 0.4198882 884 28
-9.8930922 -1.65565 0.41916215 892 28
-9.8853064 -1.5920566 0.41847432 934 28
-9.8771133 -1.5286213 0.41778648 1013 28
-9.873457 -1.4660802 0.4172897 982 28
-9.8595133 -1.4022349 0.41641077 1033 28
-9.8471375 -1.3388853 0.41560832 1021 28
-9.8343573 -1.2757405 0.41480583 1075 28
-9.8211737 -1.2128029 0.41400334 1003 28
-9.8135433 -1.1507734 0.41343015 1015 28
-9.8164463 -1.090096 0.4132773 1016 28
-8.6422844 -0.9061079 0.36787975 97 28
-9.8052177 -0.96719766 0.41236016 985 28
-9.7960424 -0.90563655 0.41178697 1047 28
-9.7924547 -0.8447395 0.41144305 1068 28
-9.7785282 -0.78312331 0.41071698 1094 28
-9.7682009 -0.72200435 0.41014379 1091 28
-9.7624769 -0.66137916 0.40976167 1119 28
-9.752388 -0.60060591 0.40922666 1148 28
-9.742919 -0.54003662 0.40872988 1149 28
-9.7330742 -0.47960621 0.40823311 1140 28
-9.7318411 -0.41970411 0.40808025 1091 28
-9.726244 -0.35968763 0.40777457 1074 28
-9.7092905 -0.29941729 0.40704849 1042 28
-9.6929636 -0.23939317 0.40636066 1040 28
-6.3642559 -0.1182457 0.27899539 312 28
-9.6821823 -0.12026674 0.40586388 1092 28
-9.6727457 -0.060793325 0.40548176 1143 28
-9.6649427 -0.0014404567 0.40517604 1115 28
-9.6637697 0.057856519 0.40513784 1146 28
-9.6612349 0.1171269 0.40506139 1155 28
-9.6153746 0.17558213 0.4033418 584 28
-9.7559652 -0.72210956 0.29022923 1110 29
-9.7472467 -0.66135317 0.28989118 1234 29
-9.7411442 -0.60091603 0.28963116 1299 29
-9.7266817 -0.54013437 0.28916311 1214 29
-9.7168331 -0.47979993 0.28882509 1221 29
-9.7136021 -0.41990975 0.28866908 1234 29
-9.7010107 -0.35974282 0.28827903 1098 29
-9.700038 -0.30011868 0.28820103 1196 29
-9.698699 -0.24052 0.28812301 1098 29
-6.353714 -0.1181594 0.20106673 444 29
-9.67593 -0.12116798 0.28747296 1055 29
-9.6674948 -0.061736766 0.28723893 1051 29
-9.6656923 -0.0024162282 0.28718692 1062 29
-9.6615267 0.056868341 0.28708291 1099 29
-9.6210127 0.11567342 0.28604284 220 29
-6.3787456 0.11623398 0.2017168 78 29
-9.4679632 0.23008083 0.28211644 117 29
-9.4813614 0.28862524 0.2825065 699 29
-9.4923992 0.34726986 0.28284451 1136 29
-9.483098 0.40520972 0.28266251 1170 29
-9.455472 0.46217227 0.28201243 445 29
-9.4644356 0.52083892 0.28232446 1191 29
-9.4590664 0.57877994 0.28227246 1117 29
-9.4493523 0.63640648 0.28211644 1124 29
-9.4293175 0.69320393 0.2817004 987 29
-9.5544338 0.76135522 0.28508073 1200 29
-9.5436058 0.81945342 0.28492472 1184 29
-9.5364075 0.87781346 0.28487271 1275 29
-9.5268621 0.93592077 0.2847687 1260 29
-9.5139799 0.99363285 0.2845867 1147 29
-9.5057173 1.0517712 0.28453469 1256 29
-9.5050421 1.1107728 0.28469071 1352 29
-9.4980478 1.1690738 0.28469071 1369 29
-9.490696 1.2273307 0.28469071 1317 29
-9.4265213 1.2778938 0.28320855 758 29
-9.4640322 1.3421611 0.28440467 1197 29
-9.4556189 1.400206 0.28440467 1203 29
-9.460681 1.4603316 0.2847687 1344 29
-9.4495687 1.5180368 0.2847167 1312 29
-9.4459925 1.5769767 0.28487271 1455 29
-9.4331827 1.6343949 0.28479472 1399 29
-9.4259291 1.6927748 0.28487271 1466 29
-9.4192963 1.7513098 0.28497672 1371 29
-9.4152451 1.810393 0.28515875 1391 29
-9.4069014 1.8687137 0.28523675 1425 29
-9.4001541 1.9274015 0.28536677 1454 29
-9.3959751 1.986697 0.28557479 1328 29
-9.3855619 2.0447376 0.2856268 1369 29
-9.3747902 2.102725 0.2856788 1329 29
-9.3646336 2.160882 0.2857568 1304 29
-9.3511982 2.2183018 0.2857568 1231 29
-9.3403254 2.2763476 0.28583482 1248 29
-9.3329706 2.3353136 0.28601682 1237 29
-9.3262119 2.3945236 0.28622484 1172 29
-9.3190775 2.4537385 0.28643286 1178 29
-9.3115673 2.5129559 0.28664088 1133 29
-9.0184708 2.4933589 0.27915215 132 29
-8.3671885 2.3687422 0.26196453 146 29
-8.3457747 2.4180913 0.26178253 112 29
-8.3557014 2.4766374 0.26245859 377 29
-8.3355637 2.5264111 0.26232857 356 29
-8.3380489 2.583128 0.26282263 376 29
-8.3258543 2.6354468 0.26292664 321 29
-8.3076248 2.6858687 0.26287463 330 29
-8.307127 2.7421176 0.26331666 342 29
-8.3053026 2.7981424 0.2637327 333 29
-8.2898684 2.8496997 0.26378471 360 29
-8.2778873 2.9024956 0.26394072 342 29
-8.2759247 2.9589524 0.26438275 338 29
-8.2670059 3.0130987 0.26464278 378 29
-8.2549229 3.0662031 0.26482481 339 29
-8.2350187 3.1164429 0.26479879 353 29
-8.222271 3.1694295 0.26498082 340 29
-8.2212801 3.2271235 0.26550087 349 29
-8.2124643 3.2819579 0.2658129 368 29
-8.2116194 3.340194 0.26635894 321 29
-8.2103672 3.3985431 0.26690501 299 29
-8.2059441 3.4558387 0.26737306 310 29
-8.195612 3.5108466 0.26768509 282 29
-8.1794147 3.5634627 0.2678411 235 29
-8.1519117 3.611155 0.26768509 265 29
-8.1460085 3.6684928 0.26815313 286 29
-8.1342535 3.7233982 0.26846516 313 29
-8.1175995 3.7761896 0.26864716 286 29
-8.1069298 3.8319061 0.2690112 309 29
-8.1048946 3.8919599 0.26963526 317 29
-8.0916433 3.9468751 0.26994729 328 29
-8.0816069 4.0035481 0.27036333 329 29
-8.0747509 4.0620432 0.27088338 295 29
-8.0657005 4.1196952 0.27135143 309 29
-8.0580206 4.178309 0.27187148 311 29
-8.0410786 4.2323284 0.2721315 291 29
-8.0202484 4.2844133 0.27228752 262 29
-8.0105076 4.3425941 0.27278155 262 29
-8.0091143 4.405633 0.27353564 258 29
-8.0011368 4.4654083 0.27410769 270 29
-7.9831562 4.519835 0.27439371 234 29
-7.9734788 4.579186 0.27493978 197 29
-7.9547338 4.6335578 0.27522579 30 29
-8.7567911 5.1728268 0.30031818 452 29
-8.916995 5.3415089 0.30614275 733 29
-8.8874702 5.3981977 0.30624676 674 29
-8.8626928 5.4578695 0.30650678 679 29
-8.8476934 5.5237918 0.30707884 363 29
-2.6755624 1.6942742 0.11814485 5 29
-2.7206533 1.7462779 0.11986101 24 29
-2.7224593 1.7711111 0.12025104 40 29
-2.7190537 1.7927321 0.12048507 42 29
-2.7179792 1.816043 0.1207971 38 29
-2.7225165 1.8433292 0.12129115 40 29
-2.7235227 1.8684781 0.12168118 55 29
-2.7251432 1.8942786 0.12209722 52 29
-2.7240965 1.9184432 0.12243526 61 29
-2.7171578 1.9386038 0.12259126 40 29
-2.711695 1.9599218 0.12279928 50 29
-2.7036519 1.9794749 0.1229293 44 29
-2.7067151 2.0073357 0.12342335 74 29
-2.6919489 2.0221057 0.12334534 12 29
-2.6532297 2.0186198 0.12248726 26 29
-2.6273286 2.0244937 0.12204522 38 29
-2.6022441 2.0307407 0.12162918 37 29
-2.5724754 2.0330393 0.12105712 32 29
-2.5427771 2.0350497 0.12048507 44 29
-2.5139282 2.0374017 0.11993901 41 29
-2.484374 2.0388429 0.11936696 38 29
-2.4595118 2.0438304 0.11895092 41 29
-2.4232051 2.03894 0.11814485 35 29
-2.394664 2.0401616 0.11759879 29 29
-2.3616564 2.0371945 0.11689673 44 29
-2.3340485 2.038501 0.11637668 34 29
-2.3027685 2.0362363 0.11572661 42 29
-2.2768199 2.0383303 0.11525857 44 29
-2.2472284 2.036828 0.11466052 40 29
-2.2199519 2.0370667 0.11414047 46 29
-2.1912923 2.0356874 0.11356841 46 29
-2.1678333 2.038826 0.11317837 41 29
-2.1436944 2.0410645 0.11276233 32 29
-2.1203301 2.0437775 0.11237229 39 29
-2.0984449 2.0476768 0.11203426 53 29
-2.0801497 2.0548959 0.11182624 51 29
-2.0618448 2.0619681 0.11161822 39 29
-2.0350983 2.0603619 0.11109818 47 29
-1.9798152 2.0291812 0.10951202 29 29
-1.8521225 1.9218535 0.10519561 6 29
-1.8382267 1.9310106 0.1051176 7 29
-1.8880045 2.0077701 0.10745783 51 29
-1.8749689 2.0185847 0.10743183 41 29
-1.8598433 2.027106 0.10732782 41 29
-1.8540863 2.0458841 0.10758784 46 29
-1.8495027 2.0661569 0.10789987 31 29
-1.8500395 2.0924392 0.10841992 43 29
-1.8496652 2.1180525 0.10891397 38 29
-1.850352 2.1452527 0.10946002 38 29
-1.8475314 2.1687372 0.10987606 56 29
-1.8509309 2.199914 0.11055212 45 29
-1.8501815 2.2266018 0.11107218 43 29
-1.8491738 2.2533627 0.11159222 39 29
-1.8466475 2.2786417 0.11206026 56 29
-1.8420053 2.3016331 0.1124503 47 29
-1.8371501 2.3246531 0.11284034 54 29
-1.8345428 2.3508511 0.11333439 38 29
-1.8316826 2.377104 0.11382844 44 29
-1.8322024 2.4081819 0.1144785 44 29
-1.8300066 2.4361587 0.11502455 51 29
-1.829919 2.4674094 0.11567461 43 29
-1.8212442 2.4874611 0.11596064 49 29
-1.8176652 2.5147884 0.11648069 36 29
-1.806267 2.5315888 0.1166627 24 29
-2.7023754 3.8360853 0.15782462 21 29
-2.6884918 3.866545 0.15826666 182 29
-2.6692433 3.8895614 0.15847468 146 29
-2.6032689 3.8437996 0.15652449 55 29
-2.5896373 3.8746581 0.15699254 74 29
-2.6726267 4.0523438 0.16203703 160 29
-2.6586208 4.0854216 0.16255707 157 29
-2.6502523 4.1277308 0.16336314 128 29
-2.6484208 4.181067 0.16450725 121 29
-2.6407344 4.2260585 0.16539134 146 29
-2.6241992 4.2574978 0.16585939 96 29
-2.0369694 3.3511167 0.13777672 144 29
-2.006084 3.3464074 0.13725667 73 29
-0 0 0 5 29
-0 0 0 18 29
-0 0 0 5 29
-0 0 0 7 29
-0 0 0 6 29
-0 0 0 5 29
-0 0 0 8 29
-0 0 0 4 29
-0 0 0 8 29
-0 0 0 10 29
-0 0 0 4 29
-0 0 0 5 29
-0 0 0 3 29
-0 0 0 4 29
-0 0 0 4 29
-0 0 0 4 29
-0 0 0 12 29
-0 0 0 15 29
-0 0 0 5 29
-0 0 0 5 29
-0 0 0 5 29
-0 0 0 5 29
-0 0 0 4 29
-0 0 0 5 29
-0 0 0 10 29
-0 0 0 25 29
-1.0755494 2.7383142 0.11229429 9 29
-1.0594474 2.7467272 0.11234629 4 29
-1.0439913 2.7569151 0.1124503 4 29
-0 0 0 4 29
-1.0021946 2.7479215 0.11185224 6 29
-0.9728412 2.7191985 0.11089016 9 29
-0 0 0 10 29
-0 0 0 10 29
-0 0 0 6 29
-0.87348115 2.6444979 0.1082119 4 29
-0.86124367 2.6621706 0.10854993 6 29
-0.84126562 2.6559706 0.1082379 5 29
-0 0 0 5 29
-0 0 0 4 29
-0 0 0 6 29
-0 0 0 5 29
-0 0 0 7 29
-0 0 0 4 29
-0 0 0 6 29
-0 0 0 4 29
-0 0 0 5 29
-0 0 0 7 29
-0 0 0 4 29
-0 0 0 5 29
-0 0 0 6 29
-0 0 0 6 29
-0 0 0 5 29
-0 0 0 6 29
-0 0 0 5 29
-0 0 0 3 29
-0 0 0 4 29
-0 0 0 6 29
-0 0 0 4 29
-0 0 0 5 29
-0 0 0 5 29
-0 0 0 4 29
-0 0 0 5 29
-0 0 0 7 29
-0 0 0 6 29
-0 0 0 7 29
-0 0 0 5 29
-0 0 0 3 29
-0.35052726 2.99349 0.11416647 12 29
-0.32131872 2.8982184 0.11161822 6 29
-0 0 0 4 29
-0 0 0 5 29
-0 0 0 6 29
-0.25087133 2.9141946 0.11185224 12 29
-0 0 0 6 29
-0.21412998 2.9040937 0.11151421 8 29
-0.19569664 2.8963766 0.11128019 11 29
-0.17471428 2.8456395 0.10992806 7 29
-0.1621386 2.9344923 0.11221628 9 29
-0.14200471 2.892499 0.11109818 13 29
-0.12507659 2.9122918 0.11159222 31 29
-0.10631278 2.889029 0.11096817 20 29
-0.090849586 2.9625671 0.11286634 27 29
-0.070478395 2.8751259 0.11057813 14 29
-0.054487493 2.963459 0.11286634 34 29
-0.037162416 3.031709 0.11463451 43 29
-0.018286308 2.9898951 0.11354241 30 29
5.2272189e-05 3.0099442 0.11406246 29 29
0.018411445 2.9908941 0.11356841 44 29
0.036941327 3.0057185 0.11395845 44 29
0.055004749 2.9844458 0.1134124 49 29
0.072470248 2.9490743 0.11250231 43 29
0.089231133 2.9046092 0.1113582 48 29
0.10373719 2.8130982 0.10899197 33 29
0.12320886 2.8643439 0.1103441 61 29
0.13255477 2.6947916 0.10594968 50 29
0.15423901 2.7877543 0.10839391 52 29
0.16866052 2.7428522 0.10724981 67 29
0.18065949 2.6699522 0.10537763 63 29
0.19725811 2.6717842 0.10545564 58 29
0.21309316 2.663548 0.10527362 82 29
0.22943237 2.6621904 0.10527362 64 29
0 0 0 67 29
0 0 0 77 29
0 0 0 83 29
0 0 0 102 29
0 0 0 92 29
0.31543061 2.5556993 0.10275138 115 29
0.33225894 2.5626385 0.1029854 91 29
0.34784257 2.559561 0.1029594 87 29
0.3642424 2.5623274 0.10308941 92 29
0.38098189 2.5669665 0.10327143 73 29
0.47367677 3.0635104 0.11640268 63 29
0.51686472 3.2125483 0.12040706 208 29
0.53738928 3.2142465 0.12053707 196 29
0.55829519 3.2177839 0.12071909 181 29
0.57802862 3.2142975 0.12071909 193 29
0.59682721 3.2057762 0.12058908 193 29
0.61610901 3.2000904 0.12053707 199 29
0.63573277 3.1962497 0.12053707 249 29
0.65713871 3.2011027 0.1207711 194 29
0.67738795 3.1999445 0.1208491 212 29
0.69552094 3.1888905 0.12066709 241 29
0.71551186 3.1865137 0.12071909 185 29
0.73505044 3.1820633 0.12071909 221 29
0.75686759 3.1872201 0.12097912 192 29
0.78090483 3.2009702 0.12147316 217 29
0.80077344 3.1970882 0.12149917 227 29
0.82161778 3.1969559 0.12162918 222 29
0.84172732 3.1937878 0.12168118 223 29
0.86234957 3.1924236 0.12178519 223 29
0.88298672 3.1909266 0.1218892 250 29
0.90363795 3.1892962 0.12199321 242 29
0 0 0 254 29
0.94355935 3.1808424 0.12207122 155 29
0.90770102 2.9922585 0.11710475 24 29
0.93166232 3.0047765 0.11759879 313 29
1.0070747 3.1791382 0.12251326 66 29
1.0265627 3.1728992 0.12251326 192 29
0 0 0 210 29
0 0 0 175 29
0.84017962 2.4415736 0.1029334 24 29
0.85051596 2.4231648 0.10256936 8 29
0 0 0 4 29
1.124174 3.0822437 0.12110913 27 29
1.1750768 3.1615057 0.12350135 199 29
0 0 0 227 29
0 0 0 241 29
0 0 0 206 29
0 0 0 210 29
1.277527 3.1387894 0.12391739 195 29
1.2982911 3.1345863 0.1240214 183 29
1.3202152 3.1330106 0.12420342 192 29
1.3425623 3.1322026 0.12441144 190 29
0 0 0 216 29
0 0 0 220 29
0 0 0 180 29
0 0 0 189 29
1.4489697 3.1131134 0.1250875 227 29
1.4710337 3.110491 0.12526952 224 29
1.4957156 3.113122 0.12560755 242 29
1.5191705 3.1128712 0.12586758 247 29
1.540904 3.108866 0.12602359 251 29
0 0 0 237 29
0 0 0 718 29
0 0 0 51 29
0 0 0 45 29
1.5832717 2.9622567 0.12313732 35 29
1.5885575 2.928756 0.12243526 51 29
1.6045713 2.9154499 0.12233125 54 29
0 0 0 55 29
0 0 0 59 29
0 0 0 54 29
0 0 0 115 29
0 0 0 88 29
0 0 0 66 29
0 0 0 68 29
0 0 0 110 29
0 0 0 92 29
0 0 0 76 29
0 0 0 100 29
0 0 0 89 29
0 0 0 80 29
0 0 0 99 29
0 0 0 114 29
0 0 0 85 29
0 0 0 667 29
0 0 0 151 29
0 0 0 202 29
0 0 0 164 29
0 0 0 229 29
0 0 0 208 29
1.9020822 2.5320511 0.11814485 263 29
1.9187928 2.521924 0.11819685 268 29
1.9409397 2.5188158 0.11848288 125 29
0 0 0 127 29
0 0 0 105 29
0 0 0 124 29
0 0 0 113 29
0 0 0 204 29
2.078316 2.5010421 0.12035505 102 29
0 0 0 54 29
0 0 0 36 29
2.4444613 2.834146 0.13312227 81 29
2.4572043 2.8138216 0.13294025 92 29
2.4797187 2.8046846 0.13314827 60 29
2.498214 2.7909067 0.13320027 44 29
2.7219775 3.0037377 0.14120904 155 29
2.7484639 2.9958212 0.14152107 151 29
2.7776756 2.9906232 0.14193711 148 29
2.8076115 2.9859073 0.14237915 149 29
2.8410385 2.9845576 0.14295121 180 29
2.8697 2.9778695 0.14334124 189 29
2.8955946 2.9680786 0.14362727 167 29
2.936224 2.973022 0.14445935 289 29
2.9699562 2.9705067 0.14503141 20 29
3.1878984 3.1497087 0.1523381 74 29
3.2257607 3.1482475 0.15301417 86 29
3.2579682 3.1408875 0.15348221 99 29
3.2967203 3.1394563 0.15418428 95 29
3.3333926 3.1356118 0.15480833 102 29
3.3664806 3.1280317 0.15530238 84 29
3.3981278 3.1188109 0.15574442 97 29
3.4386735 3.1173782 0.15649849 83 29
3.474117 3.1108954 0.15707055 74 29
3.5223365 3.1153562 0.15808465 78 29
3.5571921 3.1075001 0.1586307 101 29
3.6004071 3.1065185 0.15946278 95 29
3.6384184 3.1005828 0.16011284 79 29
3.6803148 3.0975165 0.16089292 88 29
3.7176981 3.0902169 0.16151698 70 29
3.7489495 3.0774987 0.16193302 82 29
3.7786314 3.0632536 0.16229704 56 29
3.7911143 3.0350113 0.16208902 4 29
3.8018248 3.0054908 0.16182901 6 29
0 0 0 5 29
3.8241715 2.9476218 0.16136096 9 29
3.8469579 2.9277353 0.16151698 8 29
3.8496678 2.8926623 0.16102293 23 29
3.8809905 2.8791151 0.16146497 175 29
3.9130979 2.8658831 0.16193302 166 29
3.9532878 2.8582242 0.16266108 197 29
3.9992254 2.8542454 0.16357116 176 29
4.046896 2.8509619 0.16453326 189 29
4.091393 2.8449163 0.16539134 180 29
4.1648111 2.8582361 0.16715951 118 29
4.1971664 2.8427215 0.16762756 135 29
4.2411213 2.8346968 0.16845964 113 29
4.293479 2.8317447 0.16955175 121 29
4.3493094 2.8304379 0.17074785 125 29
4.3985553 2.8242292 0.17173594 148 29
4.4537983 2.8212678 0.17290606 144 29
4.5006928 2.8124347 0.17381614 128 29
4.5544524 2.8073292 0.17493425 158 29
4.6049008 2.7995913 0.17594835 183 29
4.6648545 2.7969956 0.17724846 176 29
4.7163444 2.7886791 0.17828856 179 29
4.7696333 2.7808425 0.17938067 156 29
4.8316679 2.7774401 0.1807328 230 29
4.8538365 2.7506995 0.18088882 280 29
4.8592792 2.714525 0.18055078 258 29
4.8592076 2.6754935 0.18005674 227 29
4.8579617 2.6360881 0.17953669 239 29
4.8617048 2.5996287 0.17917265 237 29
4.8554564 2.5580952 0.17852259 312 29
4.8639636 2.524569 0.17831457 367 29
4.8571129 2.4832952 0.1776645 298 29
4.8526182 2.4435503 0.17709246 273 29
4.8621473 2.4110634 0.17693645 227 29
4.9397244 2.4119005 0.17875661 218 29
4.9841595 2.395844 0.17961469 317 29
4.9933453 2.3626502 0.17945868 307 29
4.9923439 2.3247898 0.17901663 240 29
4.9892492 2.2861977 0.17852259 341 29
4.9348397 2.2247128 0.17657241 250 29
4.9703274 2.2041221 0.17719646 321 29
4.9810095 2.1723838 0.17711847 329 29
4.9878144 2.1390207 0.17693645 363 29
4.9953189 2.1060443 0.17678043 438 29
4.9998364 2.071908 0.17654641 482 29
4.9957919 2.0344005 0.17607836 426 29
4.9942598 1.9981356 0.17568833 427 29
4.9934015 1.962332 0.17532429 408 29
5.0016184 1.9302157 0.17522028 461 29
5.0040202 1.895946 0.17496026 420 29
4.983705 1.8533522 0.17407617 338 29
4.996861 1.8234237 0.17412817 351 29
5.0013676 1.7903694 0.17394616 333 29
5.0113158 1.7593164 0.17392015 296 29
5.0182357 1.7272323 0.17381614 348 29
5.024004 1.6948098 0.17368613 388 29
4.9991922 1.6523358 0.17272404 272 29
4.9759517 1.6108468 0.17181395 42 29
4.9771657 1.5775642 0.17157993 50 29
4.9877067 1.5472916 0.17160593 38 29
4.9875417 1.5137532 0.1713459 49 29
4.9976945 1.4834063 0.17137191 45 29
4.9980621 1.4502041 0.17113788 42 29
4.9914794 1.4151431 0.17072184 57 29
5.0029588 1.3852903 0.17079985 47 29
5.0055747 1.3530002 0.17064384 47 29
5.0089493 1.3209854 0.17051382 41 29
5.002439 1.2864882 0.17012379 61 29
5.0092688 1.2555263 0.17009778 59 29
5.0159073 1.2245291 0.17007178 56 29
5.0136013 1.1914155 0.16981176 50 29
5.0081563 1.1577005 0.16947374 34 29
5.0093136 1.1256329 0.16931772 38 29
5.0131965 1.0942349 0.16923971 31 29
5.0188379 1.0632465 0.16921371 40 29
5.0262465 1.0326329 0.16923971 41 29
5.023665 1.0000145 0.16900569 33 29
5.0238166 0.96803486 0.16884968 42 29
5.0237656 0.93609101 0.16869366 26 29
5.0235119 0.90418428 0.16853765 29 29
5.0279808 0.87317228 0.16851164 28 29
5.0302858 0.84180909 0.16843364 26 29
5.0333824 0.81060964 0.16838163 26 29
5.0352979 0.7792508 0.16830362 29 29
5.0370183 0.747899 0.16822562 32 29
5.0385437 0.71655542 0.16814761 44 29
5.0418549 0.68549109 0.16812161 24 29
