# .PCD v0.7 - Point Cloud Data file format
VERSION 0.7
FIELDS x y z intensity ring
SIZE 4 4 4 4 1
TYPE F F F F U
COUNT 1 1 1 1 1
WIDTH 431
HEIGHT 1
VIEWPOINT 0 0 0 1 0 0 0
POINTS 431
DATA ascii
3.3843138 -1.7294713 -1.2243265 115 58
3.3618484 -1.7440865 -1.2199028 100 58
3.3788292 -1.8051101 -0.85721141 103 50
3.3488595 -1.8155971 -0.85219514 8 50
3.3205955 -1.8267233 -0.84763491 10 50
3.3509817 -1.8703198 -0.85880744 35 50
3.2979286 -1.8673345 -0.84763491 131 50
3.280499 -1.88414 -0.84603882 105 50
3.2655113 -1.9022726 -0.84512681 103 50
3.2504249 -1.9202923 -0.84421474 108 50
3.2402513 -1.9412012 -0.84467077 107 50
3.2557387 -1.9777309 -0.85219514 22 50
3.3373201 -1.810728 -0.89535552 7 51
3.3235948 -1.8297672 -0.89463788 9 51
3.3089137 -1.8482331 -0.89368105 4 51
3.2924414 -1.8656309 -0.89224577 60 51
3.2758801 -1.8828962 -0.89081049 93 51
3.2592313 -1.9000287 -0.88937521 42 51
3.2491837 -1.9209789 -0.88985366 8 51
3.2365026 -1.9403803 -0.88961446 30 51
3.2286849 -1.9627233 -0.89081049 81 51
3.2215416 -1.9855523 -0.89224577 8 51
3.3722897 -1.8016156 -0.94994229 137 52
3.3526618 -1.8176589 -0.94743508 85 52
3.3414457 -1.8381963 -0.94743508 119 52
3.3182702 -1.8520579 -0.94392502 132 52
3.2967355 -1.8666588 -0.94091642 103 52
3.2701106 -1.878172 -0.93640351 45 52
3.262707 -1.9006386 -0.93765712 10 52
3.25015 -1.9201299 -0.93740636 5 52
3.2180693 -1.9548429 -0.93489921 52 52
3.1895297 -1.964397 -0.92988485 109 52
3.3838866 -1.8084365 -1.0005441 10 53
3.347271 -1.8153702 -0.99268854 24 53
3.3259211 -1.8302939 -0.9895463 115 53
3.3045144 -1.8450242 -0.98640406 118 53
3.2855721 -1.8609872 -0.98404741 132 53
3.2740915 -1.881112 -0.98404741 102 53
3.2566495 -1.8977665 -0.98221445 28 53
3.2507608 -1.9211485 -0.98404741 37 53
3.2149 -1.9266788 -0.97645366 105 53
3.199718 -1.944365 -0.97540629 127 53
3.1803308 -1.9594077 -0.97304958 98 53
3.1944473 -1.9952374 -0.98142886 52 53
3.3242462 -1.8022494 -1.0322068 3 54
3.3198681 -1.826323 -1.0343904 15 54
3.3102794 -1.8475969 -1.0349363 10 54
3.3005545 -1.8688217 -1.0354823 10 54
3.2890255 -1.8890383 -1.0354823 7 54
3.2848537 -1.9135429 -1.0379388 15 54
3.2208722 -1.9028289 -1.0207429 116 54
3.2066603 -1.9210726 -1.019924 108 54
3.1923459 -1.9392135 -1.0191051 120 54
3.1762917 -1.956242 -1.0177404 117 54
3.1585166 -1.9721273 -1.0158297 93 54
3.143918 -1.9899267 -1.0150108 57 54
3.3275769 -1.8046969 -1.0790236 127 55
3.3113992 -1.8223083 -1.0773215 114 55
3.2792203 -1.830912 -1.0702295 74 55
3.313823 -1.8769772 -1.085832 9 55
3.3097281 -1.9015721 -1.0883851 4 55
3.2921972 -1.9184667 -1.0863993 4 55
3.2630246 -1.9283911 -1.0804421 28 55
3.2083516 -1.922757 -1.0656906 89 55
3.1932149 -1.9404161 -1.0645559 108 55
3.1763492 -1.9569563 -1.0628538 97 55
3.1569605 -1.9718395 -1.0603007 107 55
3.1431813 -1.9901477 -1.0597334 82 55
3.099431 -1.9892069 -1.0486698 26 55
3.304574 -1.8171593 -1.1227332 114 56
3.2900243 -1.8355391 -1.1215537 114 56
3.2687213 -1.8500427 -1.1180152 86 56
3.2523363 -1.8672094 -1.116246 80 56
3.2358639 -1.8842447 -1.1144767 121 56
3.219305 -1.9011483 -1.1127075 103 56
3.2108583 -1.9228299 -1.113887 96 56
3.1998162 -1.9429911 -1.1141819 36 56
3.2810352 -1.804868 -1.1603314 115 57
3.2740569 -1.8272851 -1.1618589 93 57
3.2602971 -1.8459332 -1.1609423 68 57
3.176235 -1.8241954 -1.1340559 15 57
3.3662748 -1.8794823 -0.53012645 39 43
3.3738444 -1.8838527 -0.57884938 102 44
3.3733907 -1.9108469 -0.58090097 21 44
3.3442371 -1.8687118 -0.62007064 90 45
3.3412831 -1.8940539 -0.62176585 106 45
3.3612151 -1.9326869 -0.62803817 10 45
3.3819518 -1.8343031 -0.67050153 146 46
3.3663254 -1.8526486 -0.66959465 141 46
3.3566117 -1.8742282 -0.6699574 126 46
3.3553159 -1.900606 -0.67213392 141 46
3.3282435 -1.9123378 -0.66886914 77 46
3.3642416 -1.8260808 -0.71380132 84 47
3.3546927 -1.8476353 -0.71418738 110 47
3.3355825 -1.8638792 -0.71245009 83 47
3.3240833 -1.8843108 -0.71245009 27 47
3.3039513 -1.8997833 -0.71051973 63 47
3.2981663 -1.9234785 -0.71187097 54 47
3.3867035 -1.8108317 -0.76282573 141 48
3.3746684 -1.8311111 -0.76262122 130 48
3.3625119 -1.851311 -0.76241678 23 48
3.3664706 -1.8805022 -0.76609766 7 48
3.3304114 -1.9143538 -0.76303023 5 48
3.2720947 -1.9076324 -0.75178295 85 48
3.2712812 -1.9341512 -0.75444138 42 48
3.3862429 -1.8089384 -0.81143951 112 49
3.3664954 -1.8250316 -0.80927515 105 49
3.3475337 -1.8414211 -0.80732715 86 49
3.3566358 -1.8733392 -0.8125217 15 49
3.3467774 -1.8948613 -0.8129546 9 49
3.2995238 -1.894951 -0.80386412 77 49
3.2777095 -1.9092672 -0.80126685 103 49
3.261729 -1.9268613 -0.80018467 82 49
3.2674358 -1.9573692 -0.80472988 28 49
3.393285 -1.7596511 -0.94969159 153 52
3.3764281 -1.7772818 -0.94793653 160 52
3.3931749 -1.7332569 -1.0403954 164 54
3.3910158 -1.758474 -1.0431249 119 54
3.3452609 -1.760872 -1.0319339 3 54
3.3394845 -1.7840854 -1.0335716 14 54
3.3857718 -1.7563806 -1.0875341 57 55
3.3732338 -1.7762291 -1.0869666 56 55
3.3394334 -1.7846971 -1.0793073 108 55
3.3659883 -1.7447499 -1.1289256 6 56
3.3190389 -1.7724185 -1.1200793 83 56
3.3089411 -1.7932057 -1.1203742 116 56
3.3789568 -1.7258823 -1.1762189 15 57
3.3902845 -1.7579721 -1.1841626 5 57
3.3280275 -1.7517041 -1.1655253 29 57
3.3222566 -1.7747819 -1.1673585 75 57
3.299583 -1.7887839 -1.163081 99 57
3.3410103 -1.7593757 -1.2161109 76 58
3.2975206 -1.762398 -1.2037878 24 58
3.3817382 -1.7551538 -0.75648636 33 48
3.5118067 -1.5823796 -1.2413894 69 58
3.5330837 -1.6181233 -1.2527647 4 58
3.5385706 -1.6469792 -1.2584523 6 58
3.4599435 -1.6623336 -1.2369657 31 58
3.4411526 -1.6793702 -1.2338059 105 58
3.4231331 -1.6966603 -1.230962 94 58
3.400794 -1.7116594 -1.2265383 118 58
3.4813545 -1.5685353 -1.2776266 29 59
3.5077622 -1.6063848 -1.2913421 76 59
3.4866982 -1.6226966 -1.2870969 92 59
3.4612935 -1.6367917 -1.2812188 86 59
3.4358475 -1.6506364 -1.2753408 82 59
3.421407 -1.669616 -1.273708 76 59
3.439049 -1.7044201 -1.2844844 39 59
3.8211029 -2.0118864 -1.4503759 20 59
3.8396142 -2.022006 -1.5110723 10 60
3.8305764 -2.0461283 -1.5661589 11 61
3.4014649 -1.8185841 -0.91018665 52 51
3.4293294 -1.8065065 -0.43711978 10 41
3.4383159 -1.8382721 -0.43991879 81 41
3.4287169 -1.8602808 -0.44016218 74 41
3.4793067 -1.8050377 -0.49025491 182 42
3.4681656 -1.8263525 -0.49025491 149 42
3.4472804 -1.8424588 -0.48878485 190 42
3.4184885 -1.8541247 -0.48611206 169 42
3.4070475 -1.8750652 -0.48611206 67 42
3.4560363 -1.8197976 -0.53756785 138 43
3.4343333 -1.8353769 -0.53581697 122 43
3.4134395 -1.8512299 -0.53421193 132 43
3.4011493 -1.8716629 -0.53406602 112 43
3.4566286 -1.8202754 -0.58563536 19 44
3.4140675 -1.8517263 -0.58200562 14 44
3.3983159 -1.8702587 -0.58121657 23 44
3.4571617 -1.8491132 -0.63549709 5 45
3.4388201 -1.8665321 -0.63414097 6 45
3.4212589 -1.8842709 -0.6329543 12 45
3.4233489 -1.8027459 -0.67449188 17 46
3.395745 -1.8149083 -0.67104566 73 46
3.3978817 -1.8174292 -0.71882021 7 47
3.7054219 -1.5071752 -0.84715205 120 49
3.6852782 -1.5254054 -0.84455478 121 49
3.653352 -1.538523 -0.83914381 77 49
3.6447406 -1.5612947 -0.83936024 20 49
3.6270356 -1.580122 -0.8374123 141 49
3.6047733 -1.5968152 -0.83438212 150 49
3.576211 -1.6104907 -0.82983691 180 49
3.5635984 -1.6311854 -0.82918757 124 49
3.5393574 -1.6464362 -0.82572454 19 49
3.5230088 -1.6652038 -0.82420945 8 49
3.5056834 -1.6834104 -0.82247794 8 49
3.4900224 -1.7023227 -0.82117927 30 49
3.4751368 -1.7215395 -0.82009709 38 49
3.4592743 -1.7401993 -0.81879848 7 49
3.6854963 -1.4992701 -0.89186907 65 50
3.6609347 -1.515523 -0.88799286 16 50
3.6402714 -1.5595672 -0.88753682 12 50
3.6154597 -1.5752611 -0.88366067 42 50
3.5754602 -1.5840034 -0.87590832 166 50
3.5834284 -1.6139108 -0.88046849 152 50
3.546015 -1.6233016 -0.87340015 87 50
3.5306914 -1.6425643 -0.87203211 67 50
3.5055826 -1.6571219 -0.8681559 176 50
3.4935932 -1.6777574 -0.86769986 171 50
3.4806077 -1.6978812 -0.86701584 183 50
3.463145 -1.7157472 -0.86519176 125 50
3.4916906 -1.7566596 -0.87545228 7 50
3.4669735 -1.7709632 -0.87180406 7 50
3.4266555 -1.7769601 -0.8640517 11 50
3.4044876 -1.7920554 -0.86108756 54 50
3.6593313 -1.5161648 -0.93578225 81 51
3.6132712 -1.5231367 -0.92597455 16 51
3.6431277 -1.5621034 -0.93649989 96 51
3.6245728 -1.5805492 -0.93410778 135 51
3.5739701 -1.5846676 -0.92310405 78 51
3.548244 -1.5993899 -0.91879821 8 51
3.5304177 -1.6174939 -0.91664535 4 51
3.5151443 -1.6366682 -0.91521007 7 51
3.4857237 -1.6490766 -0.9099474 95 51
3.4860427 -1.6754777 -0.91281796 145 51
3.4695878 -1.6938562 -0.91114348 118 51
3.4495587 -1.7103717 -0.90851212 113 51
3.4329276 -1.7284509 -0.90683764 94 51
3.4265807 -1.7516909 -0.90803373 146 51
3.4209399 -1.775365 -0.90946901 119 51
3.4134188 -1.7981312 -0.91042584 111 51
3.6386845 -1.5325304 -0.9822849 132 52
3.6220942 -1.5517776 -0.98027915 150 52
3.6116171 -1.5735863 -0.98002845 166 52
3.6001236 -1.5949328 -0.979527 132 52
3.5743823 -1.6098355 -0.97501409 44 52
3.5468338 -1.6236765 -0.96999973 18 52
3.5464587 -1.6499016 -0.97275764 76 52
3.4933856 -1.6513548 -0.96047246 160 52
3.4674802 -1.6652138 -0.9559595 32 52
3.4798179 -1.6974958 -0.96247816 9 52
3.4571931 -1.7127978 -0.9589681 10 52
3.458725 -1.7400707 -0.96247816 15 52
3.4083285 -1.7409993 -0.95094514 133 52
3.6371784 -1.5324618 -1.0303953 73 53
3.6179478 -1.5505711 -1.0275149 107 53
3.5650086 -1.553859 -1.0146841 35 53
3.5889406 -1.5905536 -1.0246345 4 53
3.566793 -1.6069984 -1.0209686 19 53
3.5305376 -1.6168064 -1.013113 124 53
3.5117993 -1.6343695 -1.0104945 144 53
3.4999599 -1.6550621 -1.0099708 165 53
3.4853885 -1.674418 -1.0086615 116 53
3.5080128 -1.711846 -1.0186119 14 53
3.4539773 -1.7382889 -1.0086615 10 53
3.4131625 -1.7440883 -0.9994967 64 53
3.4092512 -1.7685515 -1.0015914 22 53
3.3974814 -1.7889875 -1.0013297 10 53
3.6341004 -1.5569227 -1.0810652 88 54
3.5645089 -1.5530558 -1.0625045 9 54
3.5549123 -1.5748979 -1.0625045 5 54
3.5169497 -1.6099926 -1.0567725 34 54
3.5096214 -1.6327596 -1.0575913 126 54
3.5091038 -1.6587869 -1.0605938 69 54
3.5248747 -1.6927837 -1.0687823 6 54
3.4253681 -1.6709279 -1.0406684 41 54
3.4495306 -1.7090006 -1.0515864 118 54
3.4166365 -1.7188908 -1.0444896 149 54
3.5756445 -1.558491 -1.1130652 81 55
3.5581231 -1.5769069 -1.1105121 104 55
3.5466318 -1.5979222 -1.1099448 120 55
3.5385041 -1.6204518 -1.1105121 114 55
3.5215387 -1.6388985 -1.1082428 57 55
3.5200863 -1.664572 -1.1110796 5 55
3.5355947 -1.7252953 -1.1229941 4 55
3.4484627 -1.7090821 -1.0977465 60 55
3.4267743 -1.7246085 -1.0940586 90 55
3.4050252 -1.7399335 -1.0903709 102 55
3.5618477 -1.5511593 -1.1578232 44 56
3.5540102 -1.5737592 -1.1584131 111 56
3.5408018 -1.5939672 -1.1572335 106 56
3.5248728 -1.6128795 -1.1551694 131 56
3.5088451 -1.6316564 -1.1531053 102 56
3.4961758 -1.6519307 -1.1522206 29 56
3.4816668 -1.6712837 -1.1507462 51 56
3.4558876 -1.6850758 -1.1454386 106 56
3.4377768 -1.7024317 -1.1427847 127 56
3.4119008 -1.7157646 -1.1374769 36 56
3.4285402 -1.7505748 -1.1469129 7 56
3.543947 -1.5698924 -1.2024944 66 57
3.5125394 -1.58184 -1.194856 33 57
3.5529902 -1.6263334 -1.2125767 5 57
3.5058153 -1.6308454 -1.199439 12 57
3.4871328 -1.6482596 -1.1963837 20 57
3.4692273 -1.665918 -1.193634 94 57
3.4520926 -1.683836 -1.1911898 90 57
3.429749 -1.699072 -1.1869123 100 57
3.406498 -1.7136699 -1.1823294 96 57
3.615051 -1.6028678 -0.44673377 79 41
3.6241531 -1.633579 -0.44928938 162 41
3.6122565 -1.6549593 -0.44904599 187 41
3.6020339 -1.6770926 -0.44904599 175 41
3.5889835 -1.69789 -0.44868091 187 41
3.5695505 -1.7155827 -0.44746396 160 41
3.5527122 -1.7344065 -0.44661209 172 41
3.534888 -1.7526478 -0.44563851 143 41
3.4921472 -1.758245 -0.44125745 67 41
3.450356 -1.7638358 -0.43699807 8 41
3.4280136 -1.7790333 -0.43541604 5 41
3.7202258 -1.5408323 -0.50468802 106 42
3.7107015 -1.5636302 -0.50468802 128 42
3.6901073 -1.5816829 -0.50308436 137 42
3.6730654 -1.6011264 -0.50201523 157 42
3.6532061 -1.6192155 -0.5005452 120 42
3.6278424 -1.634678 -0.49827331 53 42
3.6222489 -1.658971 -0.49894151 8 42
3.5976264 -1.674473 -0.49680328 5 42
3.5819092 -1.6939735 -0.49600142 9 42
3.5571561 -1.7090515 -0.4938632 139 42
3.54304 -1.7291067 -0.49332863 185 42
3.521709 -1.7455314 -0.49172494 189 42
3.4976547 -1.7604228 -0.48972034 162 42
3.4814925 -1.7791446 -0.48891851 148 42
3.7891858 -1.4612885 -0.56047577 124 43
3.7783065 -1.4837883 -0.56018394 145 43
3.7590251 -1.5029064 -0.55857897 145 43
3.7442341 -1.5237074 -0.5577035 160 43
3.7393849 -1.548544 -0.55843306 40 43
3.7553432 -1.5822072 -0.56251854 6 43
3.6928177 -1.5826323 -0.55405575 153 43
3.6630831 -1.596571 -0.55084568 194 43
3.6396492 -1.6130087 -0.54865706 173 43
3.6197603 -1.6308435 -0.54705203 179 43
3.5925932 -1.6452022 -0.54427975 20 43
3.5596108 -1.6832478 -0.54223698 24 43
3.534054 -1.6977793 -0.53975654 96 43
3.5289054 -1.7220335 -0.54063201 23 43
3.5189974 -1.770987 -0.54252881 5 43
3.4948485 -1.7857976 -0.54034019 15 43
3.4697723 -1.7999234 -0.53800559 106 43
3.7913799 -1.4623648 -0.61072767 158 44
3.7722259 -1.4816288 -0.60899174 155 44
3.7584794 -1.5029132 -0.6082027 151 44
3.7601619 -1.5304146 -0.61009645 45 44
3.7242446 -1.5424973 -0.60551983 4 44
3.7047007 -1.5611008 -0.60378391 6 44
3.6896067 -1.5814683 -0.60283703 16 44
3.6526785 -1.5922374 -0.59810263 137 44
3.6365209 -1.6118182 -0.59699792 120 44
3.6193604 -1.6308551 -0.59573543 25 44
3.5985126 -1.6480972 -0.59384167 25 44
3.5937037 -1.6726468 -0.59478855 157 44
3.5690906 -1.6879097 -0.59226352 183 44
3.5568867 -1.708922 -0.59194791 191 44
3.5383475 -1.7268159 -0.59052759 157 44
3.5400712 -1.754635 -0.59273696 13 44
3.5283563 -1.7758794 -0.59257913 10 44
3.4743094 -1.775473 -0.58484626 36 44
3.466856 -1.7985768 -0.58547753 121 44
3.7880819 -1.4623761 -0.6595692 142 45
3.7634435 -1.4794667 -0.65668732 129 45
3.7387385 -1.4963102 -0.65380543 152 45
3.72401 -1.5169934 -0.65278834 150 45
3.7091687 -1.5375521 -0.65177119 96 45
3.6833174 -1.5533935 -0.64871979 165 45
3.6682818 -1.5736351 -0.64770269 170 45
3.6585569 -1.5961136 -0.64770269 138 45
3.6252689 -1.6081488 -0.64329511 8 45
3.6018555 -1.6242896 -0.64075232 5 45
3.5837569 -1.6426661 -0.63922662 4 45
3.5843322 -1.6696153 -0.64126086 51 45
3.5490744 -1.6797791 -0.63651425 145 45
3.5200462 -1.6925613 -0.6329543 136 45
3.5122516 -1.7154248 -0.63346285 10 45
3.5228519 -1.7474474 -0.6375314 54 45
3.4830134 -1.7544086 -0.63193715 126 45
3.458142 -1.7685713 -0.62922484 138 45
3.4437258 -1.7879413 -0.62854671 154 45
3.4082744 -1.79618 -0.62380016 93 45
3.715606 -1.4593838 -0.69716406 25 46
3.6837552 -1.4993079 -0.69444335 4 46
3.7062848 -1.5350566 -0.7007916 36 46
3.6687038 -1.5459282 -0.69516885 156 46
3.6582451 -1.5680224 -0.69498748 153 46
3.6521609 -1.5920116 -0.69571304 133 46
3.6423237 -1.6143909 -0.69571304 98 46
3.618901 -1.630648 -0.69299233 112 46
3.5972047 -1.6474979 -0.69063443 161 46
3.587028 -1.669539 -0.69063443 153 46
3.5660489 -1.6864709 -0.68845791 85 46
3.544111 -1.7027824 -0.68610001 7 46
3.4982781 -1.7339151 -0.68102145 13 46
3.4708841 -1.7469455 -0.67757529 97 46
3.4495919 -1.7628384 -0.67539877 181 46
3.4544222 -1.7921247 -0.67866355 114 46
3.7506061 -1.4744244 -0.75356668 75 47
3.7105129 -1.4850233 -0.74700344 9 47
3.6976957 -1.5062829 -0.74623132 6 47
3.6775057 -1.5244377 -0.7439149 35 47
3.6545198 -1.5412585 -0.74101937 62 47
3.584285 -1.6163722 -0.73426312 116 47
3.5698392 -1.6362916 -0.73329794 152 47
3.5570633 -1.6569228 -0.73271883 151 47
3.5477166 -1.6791369 -0.73291183 135 47
3.5444221 -1.7042731 -0.73445612 49 47
3.5330164 -1.7255589 -0.73426312 64 47
3.4863179 -1.7293388 -0.72634864 139 47
3.4677534 -1.7467277 -0.72461134 129 47
3.4657075 -1.7724376 -0.7265417 33 47
3.412442 -1.7983747 -0.71959239 4 47
3.7156136 -1.4865168 -0.79656762 163 48
3.7018898 -1.5074412 -0.7955451 156 48
3.687145 -1.5278783 -0.79431814 150 48
3.6731911 -1.5485716 -0.79329568 159 48
3.6294353 -1.5564172 -0.78552479 40 48
3.5964894 -1.5684814 -0.78020793 9 48
3.5867977 -1.5905195 -0.78020793 4 48
3.5662627 -1.6076694 -0.77775395 34 48
3.550992 -1.6270741 -0.77652699 30 48
3.5418289 -1.6492453 -0.77673149 11 48
3.5272188 -1.6688528 -0.77570897 5 48
3.5116193 -1.6879191 -0.77448201 10 48
3.497678 -1.707716 -0.77366406 164 48
3.4809954 -1.7261006 -0.77223259 187 48
3.4554765 -1.7399416 -0.76875615 183 48
3.4412494 -1.7593286 -0.76793814 174 48
3.4098747 -1.7964058 -0.76568872 77 48
3.4272568 -1.7771291 -0.81620121 24 49
3.4059191 -1.7926713 -0.81360394 111 49
3.8076689 -1.4418721 -0.61199021 144 44
3.4823408 -1.8072067 -0.34558541 144 39
3.4703059 -1.8280764 -0.34548819 125 39
3.4335666 -1.8357346 -0.34266835 14 39
3.4459085 -1.814629 -0.39134762 67 40
3.4513645 -1.8446422 -0.39342928 139 40
3.5362628 -1.78044 -0.3490859 41 39
3.4898188 -1.7839944 -0.34519649 141 39
3.5583854 -1.6828457 -0.39594918 69 40
3.5659106 -1.7132587 -0.3981404 158 40
3.5455055 -1.7303102 -0.39693522 176 40
3.5348217 -1.7520324 -0.39693522 157 40
3.5160146 -1.769666 -0.39594918 127 40
3.4581819 -1.7672292 -0.39014244 27 40
