# .PCD v0.7 - Point Cloud Data file format
VERSION 0.7
FIELDS x y z intensity ring
SIZE 4 4 4 4 1
TYPE F F F F U
COUNT 1 1 1 1 1
WIDTH 1362
HEIGHT 1
VIEWPOINT 0 0 0 1 0 0 0
POINTS 1362
DATA ascii
-4.3649035 1.3231555 1.2252111 267 10
-4.3557787 1.3496268 1.2249581 234 10
-4.3446484 1.3754517 1.2241988 242 10
-4.3821516 1.4169704 1.236853 309 10
-4.3660254 1.4414052 1.2348284 286 10
-4.3387637 1.4619874 1.2297666 201 10
-4.3251371 1.4870089 1.2285012 252 10
-4.3150187 1.5131993 1.2282481 258 10
-4.3083854 1.5406247 1.2290074 232 10
-4.2997603 1.5673629 1.2292604 220 10
-4.2882485 1.5930423 1.2287543 283 10
-4.2621069 1.6131588 1.2241988 263 10
-3.8513489 1.4847327 1.1118301 38 10
-3.8349624 1.5055073 1.1098055 41 10
-3.8157709 1.5250595 1.1070216 31 10
-3.8000689 1.5458914 1.10525 37 10
-3.7806797 1.5651077 1.1024661 27 10
-3.7701137 1.5879004 1.102213 42 10
-3.7487395 1.6060497 1.098923 37 10
-3.7361536 1.6278616 1.0981637 18 10
-3.733171 1.6538912 1.1001884 25 10
-3.7247167 1.6775612 1.1006945 17 10
-3.7293067 1.7072312 1.1049969 21 10
-3.7170069 1.7292653 1.1044908 18 10
-3.7316899 1.7640326 1.1118301 36 10
-4.2701879 2.0508032 1.2712722 371 10
-4.4435892 2.1677537 1.3254318 291 10
-4.5229568 2.240942 1.3525118 265 10
-4.5436893 2.2860475 1.362635 294 10
-4.545084 2.3218071 1.3671905 305 10
-4.5298934 2.349206 1.3669374 201 10
-4.5051208 2.3715482 1.3639004 238 10
-4.5041366 2.4064417 1.3679497 301 10
-4.4773803 2.4275768 1.3644066 248 10
-4.503933 2.4778571 1.3768077 350 10
-4.2985816 2.3993392 1.319864 166 10
-3.9529462 2.2383029 1.2204026 183 10
-3.9198437 2.2514317 1.2145817 273 10
-3.8591452 2.2481658 1.2004091 195 10
-3.8486094 2.2737715 1.2014214 141 10
-3.8237972 2.2908788 1.1981313 152 10
-3.7997472 2.3082697 1.1950943 77 10
-3.7871599 2.332556 1.1956005 70 10
-3.7744174 2.3567746 1.1961067 82 10
-3.7500765 2.3736796 1.1930697 82 10
-3.7240424 2.3893301 1.1895266 92 10
-4.3418865 2.8235724 1.3869309 154 10
-4.2994399 2.8336546 1.3790854 305 10
-4.3028879 2.8739543 1.3856655 389 10
-4.2955875 2.9073524 1.3889556 356 10
-4.3111753 2.9566386 1.3995851 302 10
-4.3080463 2.9935257 1.4043937 297 10
-4.3172836 3.0393972 1.4132515 392 10
-4.3064289 3.0714488 1.4157823 322 10
-4.3220038 3.1227469 1.426918 180 10
-4.675128 3.4217854 1.5476384 49 10
-4.6587071 3.4538643 1.5491569 111 10
-4.4819388 3.3656077 1.4982873 168 10
-4.6367617 3.526588 1.5559901 236 10
-5.973834 4.6018009 2.0047057 222 10
-5.9782839 4.6639595 2.015588 158 10
-5.8971772 4.6591682 1.9981254 144 10
-5.8722548 4.698287 1.9993908 170 10
-5.9447908 4.816453 2.0335569 291 10
-5.4514203 4.4723701 1.8766458 165 10
-5.8599372 4.868022 2.0249522 267 10
-5.8306975 4.9045091 2.0252054 273 10
-5.8100686 4.9483485 2.0284953 256 10
-5.7803297 4.9845371 2.0287485 299 10
-5.7467213 5.0173655 2.0277362 314 10
-4.7257257 4.177238 1.6820253 180 10
-5.7056231 5.1062198 2.0350754 272 10
-5.6526775 5.121644 2.027483 154 10
-4.115499 3.7749741 1.4929726 234 10
-4.119905 3.8258317 1.5028428 358 10
-4.094943 3.8497136 1.5023366 363 10
-4.1111865 3.912787 1.5167624 282 10
-5.4970918 5.2966566 2.0290015 175 10
-5.4707212 5.3363662 2.0312793 206 10
-4.2669992 4.2134914 1.6007857 176 10
-5.4102969 5.4085708 2.033304 266 10
-5.3770089 5.4416661 2.033304 227 10
-5.3577085 5.4890957 2.0386186 223 10
-5.3266129 5.5246525 2.0396309 258 10
-5.285275 5.5495253 2.0368471 267 10
-5.2630558 5.5945349 2.0414026 244 10
-5.2319217 5.6302667 2.0426679 250 10
-5.1946602 5.6594124 2.0416555 254 10
-5.152689 5.6832952 2.0388718 286 10
-5.0170431 5.6023703 1.9993908 155 10
-5.049871 5.7091403 2.0259645 125 10
-5.0433865 5.7728052 2.0373533 132 10
-5.0249338 5.8234191 2.0441864 230 10
-4.9784403 5.8416238 2.0398841 64 10
-4.9512243 5.8824239 2.0434272 89 10
-4.9274054 5.9275732 2.0484889 252 10
-4.8933969 5.9606867 2.0495012 291 10
-4.8591676 5.9936061 2.0505135 202 10
-4.8422518 6.0482316 2.0588653 292 10
-4.7900505 6.0588555 2.0525382 304 10
-4.7474265 6.0812693 2.0502605 300 10
-4.7253785 6.1302071 2.0568407 320 10
-4.6847458 6.1552367 2.0555751 272 10
-4.6451464 6.1815457 2.054816 341 10
-4.6157756 6.2215862 2.0586121 316 10
-4.5763707 6.24823 2.0581059 346 10
-4.5424805 6.2824645 2.0601306 338 10
-4.5139623 6.3243928 2.0646861 317 10
-4.4823146 6.3622527 2.0679762 321 10
-4.443192 6.389636 2.0679762 337 10
-4.4017129 6.413588 2.0669639 348 10
-4.3671594 6.4476848 2.0692418 464 10
-4.3194513 6.4622946 2.0654454 477 10
-4.2381735 6.4256821 2.0457051 349 10
-4.1955004 6.4467006 2.0441864 335 10
-4.1511612 6.4649954 2.0419087 379 10
-4.10572 6.4813547 2.0391247 425 10
-4.0489569 6.4793496 2.0307732 318 10
-2.0711021 3.3596292 1.0645037 202 10
-2.03286 3.3433402 1.0556458 128 10
-0 0 0 10 10
-0 0 0 4 10
-1.8784007 3.2213914 1.0075601 24 10
-1.8812579 3.2722785 1.019455 139 10
-1.5325301 2.7038226 0.84508109 47 10
-0 0 0 64 10
-0 0 0 61 10
-0 0 0 38 10
-0 0 0 52 10
-0 0 0 64 10
-0 0 0 81 10
-0 0 0 62 10
-0 0 0 44 10
-0 0 0 61 10
-0 0 0 59 10
-0 0 0 163 10
-0 0 0 56 10
-0 0 0 43 10
-0 0 0 67 10
-0 0 0 19 10
-0 0 0 9 10
-0 0 0 4 10
-0 0 0 4 10
-0 0 0 4 10
-0 0 0 6 10
-0 0 0 5 10
-0 0 0 6 10
-0 0 0 4 10
-0 0 0 6 10
-0 0 0 6 10
-0 0 0 5 10
-0 0 0 3 10
-0 0 0 4 10
-0 0 0 9 10
-0 0 0 7 10
-0 0 0 6 10
-0 0 0 7 10
-0 0 0 5 10
-0 0 0 4 10
-0 0 0 6 10
-0 0 0 4 10
-0 0 0 7 10
-0 0 0 6 10
-0 0 0 4 10
-0 0 0 4 10
-0.75469422 2.7909987 0.78839058 5 10
-0.73952812 2.8030608 0.79041523 11 10
-0.72231495 2.8075457 0.79041523 16 10
-0 0 0 25 10
-0 0 0 32 10
-0 0 0 29 10
-0.65014678 2.8112302 0.78687209 27 10
-0.6309765 2.8066711 0.78459436 31 10
-0.61353695 2.8095448 0.78434128 22 10
-0.5936802 2.8009527 0.78105122 32 10
-0.57609338 2.8026474 0.78054506 26 10
-0.55831927 2.803283 0.77978581 25 10
-0.54092515 2.805706 0.77953273 22 10
-0.52281356 2.8042169 0.77826726 23 10
-0.50559735 2.8073719 0.77826726 38 10
-0.48703814 2.8027959 0.77624261 30 10
-0.46599978 2.7828312 0.77016866 18 10
-0.4535296 2.8142924 0.7777611 37 10
-0.42959616 2.7739992 0.76637238 18 10
-0.41555035 2.796679 0.77168715 22 10
-0.39756534 2.7934294 0.77016866 23 10
-0.37937525 2.7881472 0.76814401 21 10
-0.35852778 2.7616401 0.76055151 13 10
-0.3414574 2.7628279 0.76029843 19 10
-0.32675129 2.7840884 0.76536006 32 10
-0.30549949 2.7485409 0.75548983 20 10
-0.28298214 2.6964817 0.74131721 13 10
-0.26557714 2.6895022 0.73903948 18 10
-0.24898064 2.6901178 0.7387864 30 10
-0.22906221 2.6520765 0.72841001 24 10
-0.21255349 2.6505389 0.72765076 31 10
-0.19393402 2.6199543 0.71929902 37 10
-0.17903098 2.6384692 0.72385454 24 10
-0.16260056 2.6356556 0.72284222 22 10
-0.14535534 2.6172843 0.71778053 19 10
-0.12838931 2.5997677 0.71297199 24 10
-0.11264326 2.6053393 0.71423739 11 10
-0.096369356 2.5982471 0.71221274 24 10
-0.079918712 2.5823507 0.7079103 29 10
-0.064024508 2.5808582 0.70740414 22 10
-0.048205364 2.5821698 0.70765722 27 10
-0.032180898 2.5679064 0.703861 22 10
-0.01633933 2.5545115 0.70031786 34 10
-0.00066525681 2.5584335 0.70133018 26 10
0.014939719 2.5429106 0.69728088 42 10
0.030507144 2.5398688 0.69652158 33 10
0.046197124 2.5454376 0.69804013 22 10
0.06238205 2.5683179 0.70411408 24 10
0.078583337 2.5823917 0.7079103 26 10
0.095989272 2.6243999 0.71904594 20 10
0 0 0 19 10
0.13680787 2.7988882 0.76510698 17 10
0.15573762 2.8298731 0.77345872 23 10
0.17700692 2.892596 0.79016215 22 10
0.18901964 2.8065135 0.76789093 47 10
0.19152619 2.6055808 0.7155028 127 10
0.21120532 2.6506467 0.72765076 76 10
0.25225222 2.9375029 0.80332249 25 10
0.27275836 2.9628739 0.81040877 12 10
0.29121727 2.9640329 0.81116802 32 10
0.31000251 2.9679635 0.8126865 25 10
0.3291665 2.9746594 0.81496429 22 10
0.34786218 2.9764273 0.81597662 30 10
0.36753851 2.985759 0.8190136 24 10
0.38560343 2.9815288 0.81850743 26 10
0.40545163 2.9906104 0.82154441 23 10
0.42420197 2.9909399 0.82230365 28 10
0.44396454 2.9978507 0.82483447 23 10
0.4627938 2.9979384 0.82559371 26 10
0.48179442 2.998863 0.82660609 25 10
0.50098324 3.0006213 0.8278715 30 10
0.51872408 2.9936781 0.82685918 29 10
0.53862345 2.9990084 0.82913691 17 10
0.55559903 2.9880381 0.82711226 27 10
0.57300878 2.9798226 0.82584679 30 10
0.59090459 2.9743531 0.82534063 23 10
0.6089493 2.9697235 0.82508755 31 10
0.62675917 2.9640381 0.82458138 35 10
0.64493436 2.9601367 0.82458138 26 10
0.66223782 2.952348 0.82356906 21 10
0.68055826 2.9491715 0.82382214 36 10
0.6988647 2.9458816 0.82407522 22 10
0.71692711 2.9415379 0.82407522 19 10
0.73731226 2.9464684 0.82660609 21 10
0.75682187 2.947511 0.82812458 26 10
0.77440029 2.9409406 0.82761842 13 10
0.79520518 2.9464076 0.83040231 22 10
0.81455868 2.9461348 0.83166772 20 10
0.83604789 2.9531822 0.83495778 26 10
0.85630733 2.9554303 0.83698243 28 10
0.87250006 2.9436278 0.83521086 17 10
0.89335275 2.9474769 0.83774167 20 10
0.96211565 3.1055017 0.88253731 49 10
1.0013056 3.1631787 0.90000004 133 10
1.0251615 3.1707826 0.90379626 201 10
1.0421709 3.1570835 0.90177161 132 10
1.0340217 3.0690367 0.87924725 9 10
0 0 0 5 10
0 0 0 4 10
1.1063027 3.0941193 0.89164829 23 10
1.1504539 3.1563501 0.91088259 124 10
1.1724951 3.1564865 0.91290724 170 10
1.1932111 3.1528521 0.91391957 158 10
1.2132303 3.1472766 0.91442573 151 10
1.2339332 3.1433752 0.91543806 156 10
0 0 0 171 10
1.2760607 3.1369572 0.91796887 186 10
1.2975055 3.1344314 0.91948736 170 10
1.3185916 3.1308687 0.92075282 153 10
1.341207 3.1307223 0.92303056 147 10
1.3654163 3.1339631 0.92632061 147 10
0 0 0 119 10
0 0 0 158 10
0 0 0 167 10
1.4533449 3.1240699 0.93340695 172 10
1.4762084 3.1229649 0.93568468 192 10
1.4986939 3.1208248 0.93770933 152 10
1.5203602 3.116787 0.93922782 182 10
0 0 0 181 10
1.5632771 3.1074011 0.94201171 243 10
0 0 0 204 10
0 0 0 210 10
1.6310265 3.098645 0.94808573 242 10
1.6522886 3.0928452 0.94935113 216 10
1.6753855 3.0903027 0.95162886 252 10
1.6961812 3.0833549 0.95264119 257 10
0 0 0 247 10
0 0 0 222 10
1.7671058 3.0767775 0.96023369 272 10
0 0 0 221 10
1.8204792 3.0815134 0.96833235 203 10
1.8497955 3.087712 0.97364706 178 10
1.8702135 3.0787842 0.9744063 182 10
1.8910991 3.0705457 0.97541863 204 10
1.9124663 3.0629871 0.97668403 156 10
1.9389869 3.0634558 0.98048031 184 10
1.9687198 3.0685992 0.98579502 185 10
1.9933137 3.0653827 0.98857892 146 10
2.0158122 3.0587485 0.99035048 157 10
2.0426033 3.0583889 0.99414676 160 10
2.0683808 3.0562131 0.99743682 156 10
2.0953028 3.0554314 1.0012331 138 10
2.1239493 3.0568171 1.0057886 145 10
2.1504631 3.0548015 1.0093317 156 10
2.1759086 3.0510001 1.0123687 187 10
2.197988 3.0422964 1.0138872 158 10
2.2223282 3.0365591 1.016418 174 10
2.2472568 3.0314143 1.0192019 177 10
2.2716246 3.0253041 1.0217328 165 10
2.2960019 3.0190084 1.0242636 175 10
2.3286533 3.0232568 1.0303376 196 10
2.3566816 3.0211155 1.0343869 196 10
2.385371 3.0195026 1.0386893 238 10
2.417151 3.0214281 1.044257 218 10
2.4423442 3.0148082 1.0470411 192 10
2.469388 3.0102363 1.0505842 192 10
2.4921396 3.0002365 1.0523558 178 10
2.524826 3.0019159 1.0581766 189 10
2.5557442 3.0010972 1.0632383 187 10
2.5829561 2.9956157 1.0667814 202 10
2.6000156 2.9782531 1.0662752 252 10
2.6419494 2.9890621 1.0756394 163 10
2.6673377 2.9807246 1.0784233 170 10
2.7011676 2.9815078 1.0844972 181 10
2.7292209 2.9755709 1.0882934 190 10
2.7612531 2.9736552 1.0936083 179 10
2.8006537 2.9792109 1.1017069 186 10
2.8315542 2.9752843 1.1065154 197 10
2.863183 2.971787 1.111577 193 10
2.8969016 2.9700904 1.117398 219 10
2.9307067 2.9680912 1.1232189 237 10
2.9598076 2.9609995 1.1272682 205 10
2.9958134 2.9604616 1.1338483 263 10
3.0284615 2.956214 1.1391631 253 10
3.0625627 2.9530194 1.144984 239 10
3.1002412 2.952853 1.1520703 221 10
3.13169 2.9463689 1.1568788 212 10
3.1702628 2.9461949 1.1642183 205 10
3.2089505 2.9456577 1.1715577 183 10
3.2434499 2.9408574 1.1773785 185 10
3.2736859 2.9318717 1.1816809 157 10
3.3090062 2.9271119 1.187755 282 10
3.3400192 2.9182096 1.1923105 210 10
3.366652 2.9052446 1.1953474 261 10
3.4109235 2.9071219 1.2044584 171 10
3.4642262 2.9160397 1.2166064 234 10
3.4976773 2.9077151 1.2219211 203 10
3.5401297 2.9064553 1.2302728 189 10
3.5826972 2.904783 1.2386246 184 10
3.6193345 2.8978603 1.2449516 205 10
3.6545031 2.8893969 1.2507725 209 10
3.6958044 2.8853726 1.2586181 236 10
3.7287643 2.8744533 1.2636797 252 10
3.7902136 2.8849151 1.2781054 318 10
3.8333676 2.8807824 1.2864572 368 10
3.8742814 2.8744988 1.2940496 329 10
3.9160421 2.8683925 1.3018951 289 10
3.9610088 2.8641486 1.3107531 295 10
4.0123696 2.863956 1.3216356 350 10
4.0504308 2.8537686 1.3282158 314 10
4.1036091 2.8537147 1.3396045 370 10
4.1425791 2.8432615 1.3464377 378 10
4.1967945 2.8427446 1.3580796 358 10
4.2447233 2.8373675 1.3676966 330 10
4.2992039 2.8357699 1.3793385 417 10
4.3424711 2.8262222 1.3874371 424 10
4.3963652 2.8230445 1.3988259 476 10
4.4454784 2.8162048 1.4086961 423 10
4.5020566 2.8134818 1.420844 429 10
4.5497079 2.8045859 1.4302081 367 10
4.607338 2.8012412 1.4426091 401 10
4.6576295 2.7928166 1.4527324 405 10
4.7146521 2.7878184 1.4648803 472 10
4.7651005 2.7783267 1.4750037 510 10
4.8097377 2.7649457 1.4833554 499 10
4.8914242 2.7721064 1.5028428 419 10
4.920166 2.7486458 1.5063859 699 10
4.9310064 2.7151384 1.5046144 553 10
4.9339681 2.6774492 1.5005651 499 10
4.9221492 2.6320717 1.4922134 384 10
4.9433422 2.604526 1.4937319 438 10
4.9266 2.5572109 1.4841146 542 10
4.9465051 2.5291355 1.4853801 483 10
4.9489689 2.4922106 1.4815838 489 10
4.9502997 2.4549212 1.4775345 518 10
4.9417963 2.4130409 1.4707013 535 10
4.9495339 2.3793206 1.4686767 437 10
4.9552951 2.3447685 1.4661458 731 10
4.9336305 2.2975767 1.4557694 332 10
4.9555507 2.2708881 1.4580472 651 10
4.9552798 2.2340775 1.4539979 643 10
4.9211369 2.1824546 1.4403313 259 10
4.9202466 2.1460307 1.436282 179 10
4.9439917 2.1203754 1.439319 308 10
4.9551258 2.0892479 1.4388129 591 10
4.9633832 2.056953 1.4375474 630 10
4.9678469 2.023176 1.4352697 666 10
4.9496274 1.9804387 1.4266649 322 10
4.7338777 1.8605175 1.362635 151 10
4.9392595 1.9063156 1.4170477 281 10
4.7663045 1.8060555 1.3654189 152 10
4.7827373 1.7787991 1.3669374 247 10
4.796288 1.7504141 1.3676966 246 10
4.7814341 1.7118231 1.3606104 95 10
4.949769 1.7378863 1.4043937 174 10
4.9749761 1.7125195 1.408443 362 10
4.9973073 1.685981 1.411733 743 10
4.9974537 1.6519471 1.4089491 182 10
4.9421453 1.6000993 1.3909802 54 10
4.9518704 1.5697447 1.3909802 74 10
4.9586368 1.5384712 1.390221 65 10
4.9642806 1.5068929 1.3892087 64 10
4.9715781 1.4758538 1.3887025 60 10
4.9768238 1.4442428 1.3876902 54 10
4.9753532 1.410776 1.3849063 70 10
4.9755244 1.3778981 1.3826286 61 10
4.9792161 1.3460809 1.3813632 54 10
4.9817686 1.3140236 1.3798447 75 10
4.9794312 1.2807811 1.3770608 58 10
4.9825039 1.249028 1.3757954 54 10
4.9806757 1.2161384 1.3732644 70 10
4.9786315 1.1833181 1.3707336 78 10
4.9810853 1.1516583 1.3694682 61 10
4.9786191 1.1189525 1.3669374 73 10
4.9816103 1.0875582 1.3659251 71 10
4.9844036 1.0561692 1.3649127 63 10
4.9917383 1.0257603 1.3651658 83 10
4.9931941 0.99416798 1.3639004 60 10
4.9954 0.96277958 1.3628881 70 10
4.9917026 0.93033838 1.3603573 72 10
4.9887481 0.89815027 1.3580796 63 10
4.9970245 0.86801946 1.3588388 56 10
4.9993939 0.83686304 1.3580796 63 10
5.0111208 0.80724812 1.3598511 80 10
5.0111995 0.77574563 1.3585857 68 10
5.0149078 0.7448408 1.3583326 69 10
5.0117211 0.71296644 1.356308 76 10
5.0064154 0.68089861 1.3537772 62 10
5.0076208 0.64979374 1.3530179 85 10
5.0124736 0.61917388 1.353271 76 10
5.0152178 0.58829361 1.3530179 71 10
5.0139251 0.55697602 1.3517525 109 10
5.005702 0.52499068 1.3487154 93 10
5.0011272 0.49350691 1.3466908 116 10
5.0059876 0.46298933 1.3471969 85 10
5.0077705 0.43218133 1.3469439 102 10
5.0112925 0.40152329 1.3471969 111 10
5.0165563 0.37098086 1.3479562 123 10
5.0187378 0.34019285 1.3479562 121 10
5.0216966 0.30945149 1.3482093 173 10
5.0215688 0.2785261 1.3477031 178 10
5.0289812 0.24799454 1.3492216 233 10
5.0294414 0.21709098 1.3489685 227 10
5.0345459 0.18636967 1.3499808 215 10
5.0307598 0.15532586 1.3487154 171 10
5.025815 0.12431169 1.3471969 152 10
5.0274506 0.093489446 1.34745 140 10
5.0395379 0.062783562 1.350487 129 10
5.0417633 0.031872436 1.3509933 115 10
5.0350919 0.00093541836 1.3492216 139 10
5.0272632 -0.029912697 1.3471969 140 10
5.0337567 -0.060841206 1.3489685 122 10
5.0439291 -0.091921337 1.3517525 108 10
5.0452042 -0.12291584 1.3522587 104 10
5.0453219 -0.15389989 1.3525118 90 10
5.047183 -0.18496102 1.353271 88 10
5.0430536 -0.21580216 1.3525118 101 10
5.0454998 -0.24693117 1.3535241 91 10
5.0467873 -0.278045 1.3542833 80 10
5.0498147 -0.30930236 1.3555487 87 10
5.0478215 -0.34028161 1.3555487 97 10
5.0466037 -0.37131912 1.3558018 82 10
5.0548382 -0.40312433 1.3585857 61 10
5.0541973 -0.43429846 1.3590919 86 10
5.0620341 -0.46627918 1.3618758 90 10
5.0658178 -0.4979935 1.3636473 85 10
5.0626664 -0.5290674 1.3636473 93 10
5.0535555 -0.55948222 1.3621289 88 10
5.0442624 -0.58980513 1.3606104 61 10
1.1239661 -0.13811444 0.32828641 57 10
1.1192597 -0.14451152 0.32727408 70 10
1.1193106 -0.15150654 0.32752717 30 10
0 -0 0 6 10
5.0477209 -0.7478056 1.3669374 13 10
5.0678964 -0.7826044 1.3735175 47 10
5.0687299 -0.8146072 1.3750361 61 10
5.0693617 -0.84664965 1.3765546 46 10
5.0688372 -0.87856519 1.37782 52 10
5.0681119 -0.91050613 1.3790854 52 10
5.0690875 -0.9428252 1.380857 53 10
5.0708075 -0.97537327 1.3828816 47 10
5.0751648 -1.0085437 1.3856655 41 10
5.0793056 -1.0418044 1.3884494 49 10
5.0860682 -1.0757545 1.3919926 63 10
5.0878792 -1.1087965 1.3942703 44 10
5.0856996 -1.1410536 1.3955357 32 10
1.1572069 -0.26679915 0.34271213 129 10
1.1611958 -0.27523524 0.34423062 100 10
1.1275284 -0.27456206 0.33562583 43 10
1.1126839 -0.27818573 0.33208266 9 10
0 -0 0 4 10
5.0907726 -1.34078 1.4092022 56 10
5.0983281 -1.3762786 1.4135046 43 10
5.1019087 -1.4108886 1.4167947 38 10
5.0996714 -1.4440122 1.4185662 30 10
5.1185908 -1.4833565 1.4261588 40 10
5.1325812 -1.5216119 1.4324858 55 10
1.1171359 -0.33834285 0.3373974 107 10
1.1011776 -0.34089497 0.33360115 128 10
1.1184336 -0.35377878 0.33891588 91 10
1.1328106 -0.3659938 0.34347138 67 10
1.129625 -0.37263432 0.3432183 46 10
4.6981378 -1.5831157 1.3289751 62 10
4.7212706 -1.6232394 1.338086 354 10
4.7139602 -1.6531386 1.3388453 332 10
4.7228575 -1.6888741 1.34416 462 10
4.7024078 -1.7141758 1.3413761 362 10
4.7235413 -1.7547911 1.3502339 583 10
4.7253523 -1.7885367 1.3537772 586 10
4.7314396 -1.8241107 1.3585857 512 10
4.7327647 -1.8580586 1.3621289 532 10
4.7320547 -1.8913729 1.3651658 451 10
4.7409706 -1.9287592 1.3709867 508 10
4.7379851 -1.9615142 1.3735175 489 10
4.7436914 -1.9980612 1.3785793 602 10
4.7340102 -2.0282736 1.3793385 132 10
4.7143807 -2.0541906 1.3773139 29 10
4.7114172 -2.0873902 1.3800977 41 10
4.7161617 -2.124207 1.3851594 40 10
4.7179923 -2.1599522 1.3894618 40 10
4.7195616 -2.1957994 1.3937641 41 10
4.7182441 -2.2305062 1.3973073 35 10
4.7227821 -2.2682118 1.4026221 21 10
4.7296429 -2.3073294 1.4086961 29 10
4.7283988 -2.3427501 1.4124923 36 10
4.7294908 -2.3795466 1.4170477 44 10
4.7311697 -2.4168847 1.4218564 45 10
4.7299914 -2.4529963 1.4259057 42 10
4.7328281 -2.4914379 1.4312204 63 10
4.725131 -2.5245347 1.4334981 52 10
4.7163553 -2.5571694 1.4355228 40 10
4.7158327 -2.5944555 1.4400783 54 10
4.7108064 -2.629473 1.4433683 35 10
4.7139449 -2.6692939 1.4491893 53 10
4.7226439 -2.7126255 1.4567817 36 10
4.7326598 -2.7571378 1.4648803 41 10
4.7389741 -2.7999058 1.4719667 39 10
4.7482605 -2.8448436 1.4800653 31 10
4.7563462 -2.889498 1.4879109 21 10
4.7541771 -2.9282689 1.4927195 23 10
4.7508903 -2.9666092 1.497275 33 10
4.7481289 -3.0055368 1.5020835 33 10
4.746696 -3.0455866 1.5073982 40 10
4.7392735 -3.0820391 1.5109414 55 10
4.7477365 -3.129164 1.5195463 38 10
4.7509718 -3.1732838 1.5266325 20 10
4.7402239 -3.2083409 1.5294164 34 10
4.7411914 -3.2515941 1.5359966 27 10
4.7386284 -3.2927706 1.5415645 18 10
4.738111 -3.3357086 1.5478915 30 10
4.7435451 -3.3832586 1.5562432 25 10
4.7368107 -3.4225001 1.5607986 21 10
4.7453856 -3.4732151 1.5704159 27 10
4.7348652 -3.510334 1.573959 26 10
4.7495947 -3.5666265 1.5858538 37 10
4.7568808 -3.6179595 1.595471 36 10
4.7606487 -3.6671536 1.6040758 35 10
4.7578893 -3.7117684 1.610656 25 10
4.7661471 -3.7654836 1.6210324 35 10
4.7641034 -3.8115816 1.6281186 34 10
4.7631764 -3.8590136 1.6357112 31 10
4.7618456 -3.9065769 1.6433036 26 10
4.762342 -3.9561234 1.6516553 32 10
4.7646298 -4.0076904 1.6607664 37 10
4.7679358 -4.0606885 1.6703835 31 10
4.7693048 -4.1126132 1.6794944 33 10
4.7731299 -4.1672525 1.6896178 32 10
4.7735639 -4.2195292 1.6987287 32 10
4.7764182 -4.2745481 1.7088521 27 10
4.7751918 -4.3265119 1.7177099 20 10
4.782774 -4.3871226 1.7298579 35 10
4.7784491 -4.4374542 1.7379565 21 10
4.7877822 -4.5011511 1.7511169 46 10
4.7831979 -4.5524554 1.7594686 30 10
4.7781634 -4.6038718 1.7678202 43 10
4.7636747 -4.6466146 1.7728819 25 10
4.7543478 -4.6947908 1.7799683 32 10
3.7826774 -3.781306 1.4312204 22 10
3.7274468 -3.7720997 1.4193255 205 10
3.6724727 -3.7623591 1.4074306 453 10
3.6426036 -3.7778573 1.4048998 411 10
3.5953364 -3.7749152 1.3957888 222 10
3.5827122 -3.8081796 1.3998382 192 10
3.602082 -3.8761585 1.4162885 196 10
3.6011262 -3.9231341 1.4251465 215 10
3.5672398 -3.9344049 1.4213502 257 10
3.5391593 -3.9518945 1.4198316 250 10
3.509717 -3.9677386 1.417807 203 10
3.4878511 -3.9921136 1.4188193 131 10
3.4759302 -4.0280895 1.4238811 144 10
3.4398541 -4.036087 1.4193255 169 10
3.4119096 -4.0534167 1.4180601 155 10
3.3987238 -4.0884113 1.4228687 185 10
3.3883054 -4.1271353 1.4289427 201 10
3.409219 -4.2049642 1.448177 123 10
3.3773077 -4.2182508 1.4456462 193 10
3.4803514 -4.4020686 1.5000589 100 10
3.6116214 -4.6261969 1.5673789 173 10
3.570765 -4.6321788 1.5620641 247 10
3.5481341 -4.6616998 1.564595 203 10
3.5177202 -4.6810627 1.5638357 220 10
3.4866259 -4.699451 1.5628234 222 10
3.4542954 -4.716073 1.5613048 193 10
3.428694 -4.7418833 1.5628234 156 10
3.4203274 -4.7919688 1.5721874 216 10
3.4181604 -4.8516197 1.5845884 215 10
3.4214642 -4.9201608 1.5997734 178 10
4.6595387 -6.7892976 2.1861658 75 10
4.5288234 -6.6863914 2.1446602 422 10
4.4791102 -6.7011843 2.1406109 417 10
4.4059505 -6.6800838 2.1254261 259 10
4.3537984 -6.6899643 2.1201112 410 10
4.3090091 -6.7108541 2.1183398 419 10
4.2475619 -6.7052927 2.1084695 386 10
4.1945481 -6.7123585 2.1026485 343 10
4.1238418 -6.6902018 2.0879698 242 10
4.0786939 -6.7087655 2.0859451 212 10
4.0185494 -6.7021351 2.076328 354 10
3.9694724 -6.7133417 2.0722787 419 10
3.9140756 -6.7133336 2.0649393 409 10
3.8593109 -6.713738 2.057853 400 10
3.8065968 -6.7170911 2.051779 312 10
3.7483263 -6.7099152 2.0426679 420 10
3.6986859 -6.7175331 2.0381124 430 10
3.6463253 -6.7196932 2.0320385 314 10
3.5927098 -6.7189045 2.0252054 443 10
3.5432994 -6.7254157 2.0206497 460 10
3.4903798 -6.7247043 2.0140696 547 10
3.4389236 -6.726182 2.0082488 552 10
3.3875813 -6.727282 2.0024278 566 10
3.3350661 -6.7254057 1.9958477 485 10
3.2852483 -6.7283549 1.9907861 534 10
3.2376156 -6.7353067 1.9869899 535 10
3.1883667 -6.73843 1.9821812 542 10
3.1379766 -6.7385716 1.9766134 550 10
3.0877051 -6.7383494 1.9710456 550 10
3.0415306 -6.7465849 1.9680086 617 10
2.9981163 -6.7606983 1.9667432 580 10
2.9418819 -6.7452688 1.957126 713 10
2.8954821 -6.7516341 1.953836 690 10
2.8498664 -6.7594671 1.9510521 733 10
2.7957466 -6.7464385 1.9424473 311 10
1.7484579 -4.2931457 1.2446985 69 10
1.7281913 -4.3190632 1.2490009 83 10
1.7020113 -4.3304863 1.249254 72 10
1.6618251 -4.3056479 1.2393838 54 10
1.6346893 -4.3139539 1.2388777 55 10
1.6142578 -4.3402252 1.2434331 86 10
1.5862699 -4.3464131 1.2424208 76 10
1.5595709 -4.3560643 1.2424208 77 10
1.5222392 -4.3354282 1.2340691 76 10
1.4965533 -4.3474312 1.2348284 72 10
1.4664487 -4.3464479 1.2320443 83 10
1.4382339 -4.3507714 1.2307789 59 10
1.4094255 -4.3530712 1.2290074 76 10
1.3850272 -4.3690152 1.231032 67 10
1.3616327 -4.3885198 1.2340691 48 10
1.328499 -4.3764253 1.2285012 71 10
1.3076762 -4.4048986 1.2340691 65 10
1.2784673 -4.4054065 1.2320443 55 10
1.2508844 -4.4113064 1.2315382 51 10
1.2199216 -4.4049129 1.227742 48 10
1.1923658 -4.4104476 1.2272358 62 10
1.1615813 -4.4036489 1.2234396 72 10
1.1345391 -4.4106932 1.2234396 63 10
1.1121577 -4.4363399 1.2285012 83 10
1.0810159 -4.427103 1.2241988 83 10
1.0578569 -4.4505949 1.2287543 77 10
1.0220321 -4.4202409 1.2188841 75 10
1.0027375 -4.4613538 1.2282481 61 10
0.98627687 -4.517518 1.2416615 59 10
0.96936482 -4.5745926 1.2553279 164 10
0.92375791 -4.4951653 1.2325505 77 10
0.90144628 -4.5273161 1.2396369 68 10
0.91080272 -4.7256069 1.2910126 129 10
1.2719505 -6.8253865 1.8483006 397 10
1.2249064 -6.8044982 1.840708 592 10
1.1851177 -6.8233242 1.843745 697 10
1.1422704 -6.8247423 1.8422265 577 10
1.0999117 -6.8287573 1.8414673 744 10
1.0566592 -6.8267732 1.8391895 776 10
1.0137566 -6.8264294 1.837418 770 10
0.97198755 -6.8334789 1.837671 842 10
0.93003976 -6.8393145 1.837671 762 10
0.88469768 -6.8189883 1.8308378 438 10
0.8434332 -6.8290892 1.8321033 848 10
0.80162746 -6.8350964 1.8323563 856 10
0.75956625 -6.8389249 1.8321033 879 10
0.71708488 -6.8386459 1.8308378 919 10
0.67492038 -6.8409915 1.8303317 854 10
0.6326651 -6.842114 1.8295724 876 10
0.59033835 -6.8420119 1.8285601 912 10
0.54811382 -6.8426123 1.8278009 927 10
0.5059042 -6.8429523 1.8270416 950 10
0.46390712 -6.8459272 1.8270416 1003 10
0.42195201 -6.8496108 1.8272947 1005 10
0.37996915 -6.8530369 1.8275478 1026 10
0.33776981 -6.8523402 1.8267885 1023 10
0.29551005 -6.8494511 1.8255231 1023 10
0.25329849 -6.8463016 1.8242577 1068 10
0.21134517 -6.8496609 1.8247639 1161 10
0.16936015 -6.8527627 1.8252701 1108 10
0.12738085 -6.857542 1.8262824 1117 10
0.085313343 -6.8591619 1.8265355 1178 10
0.043218669 -6.8585892 1.8262824 1179 10
0.0011341348 -6.8567901 1.8257762 1215 10
-0.040967513 -6.861505 1.8270416 1249 10
-0.083126977 -6.8659616 1.828307 1273 10
-0.12532496 -6.8691912 1.8293194 1297 10
-0.16754209 -6.8711944 1.8300786 1272 10
-0.20987721 -6.8758392 1.8315971 1327 10
-0.25227565 -6.8802228 1.8331156 1263 10
-0.29448715 -6.8785453 1.8331156 1277 10
-0.33697176 -6.8824062 1.8346341 1218 10
-0.3795681 -6.886971 1.8364056 1184 10
-0.42211473 -6.8893409 1.837671 1260 10
-0.46496525 -6.895308 1.8399488 1195 10
-0.50762063 -6.8971496 1.8412142 1239 10
-0.55023915 -6.8977623 1.8422265 1164 10
-0.59280133 -6.8971481 1.8429857 1124 10
-0.63555437 -6.8981977 1.8442512 1096 10
-0.678532 -6.9009075 1.8460228 1105 10
-0.72237176 -6.9110475 1.8498191 1048 10
-0.76508319 -6.9093695 1.8505783 1072 10
-0.80813843 -6.9103103 1.8520968 1008 10
-0.85135233 -6.911943 1.8538684 1050 10
-0.89474088 -6.9142647 1.855893 1015 10
-0.93831998 -6.9172721 1.8581707 1062 10
-0.98210567 -6.9209628 1.8607016 1081 10
-1.0261137 -6.9253335 1.8634855 1106 10
-1.0702124 -6.9294243 1.8662694 1075 10
-1.1137855 -6.9294133 1.8680409 1106 10
-1.1577176 -6.9310365 1.8703188 1084 10
-1.2017114 -6.9323816 1.8725965 1104 10
-1.2455941 -6.9324951 1.8746212 1077 10
-1.2893466 -6.9313793 1.8763927 1140 10
-1.3329493 -6.929038 1.8779112 1072 10
-1.3788354 -6.9378085 1.8824667 1122 10
-1.4233236 -6.9386945 1.8849975 996 10
-1.4682751 -6.9411883 1.8880345 1034 10
-1.514547 -6.9490628 1.89259 1018 10
-1.5601232 -6.9528546 1.8961332 1034 10
-1.6047146 -6.9516344 1.8984109 968 10
-1.6486795 -6.9473052 1.8999294 948 10
-1.6951728 -6.9530363 1.9042318 955 10
-1.7410934 -6.9556432 1.9077749 931 10
-1.7782031 -6.9232774 1.9019541 215 10
-1.5103489 -5.7344127 1.583323 25 10
-1.5450017 -5.7231693 1.5828168 23 10
-1.574415 -5.6930685 1.5772491 45 10
-1.6000898 -5.6507215 1.5683912 54 10
-1.6449672 -5.6761069 1.5780083 32 10
-1.6885656 -5.6955872 1.5861069 12 10
-1.7246042 -5.6888223 1.5871193 7 10
-0 -0 0 77 10
-2.2087371 -6.9759779 1.9462435 982 10
-2.2550721 -6.97334 1.9492805 905 10
-2.3054016 -6.9823384 1.9556075 905 10
-2.3531449 -6.9827294 1.9596568 928 10
-2.4009798 -6.9827971 1.9637063 896 10
-2.450505 -6.9871044 1.969021 905 10
-0 -0 0 720 10
-2.5503135 -6.9955902 1.9799035 818 10
-2.5982442 -6.993413 1.9836997 929 10
-2.6469293 -6.9927201 1.9880022 934 10
-2.6960514 -6.9925947 1.9925576 929 10
-2.7473931 -6.9975328 1.9986316 979 10
-2.8017695 -7.0092893 2.0067303 1021 10
-2.8538408 -7.0143685 2.0130572 1062 10
-2.900898 -7.0065579 2.0158412 1005 10
-2.9543517 -7.0135899 2.0229275 924 10
-3.0030468 -7.0086689 2.0267239 815 10
-2.1473413 -4.9281182 1.4383067 197 10
-2.1469669 -4.8458595 1.4185662 270 10
-2.1253991 -4.7188077 1.3859186 102 10
-2.1382022 -4.6704931 1.3757954 61 10
-2.1247785 -4.5669417 1.3497277 15 10
-2.1482117 -4.5441976 1.3469439 30 10
-2.1685138 -4.515234 1.3423884 65 10
-2.1872687 -4.4835844 1.3370737 25 10
-2.191112 -4.4224029 1.3231541 62 10
-2.215162 -4.4028258 1.3213825 75 10
-2.238174 -4.3813972 1.3191048 33 10
-2.581732 -4.9781818 1.4990466 163 10
-2.5473263 -4.8389773 1.4626026 604 10
-3.6931529 -6.9120359 2.0821488 363 10
-2.9219661 -5.3890581 1.6357112 695 10
-2.9437842 -5.3506856 1.6296371 440 10
-3.8027782 -6.8124762 2.0730379 114 10
-2.9276979 -5.170208 1.5863601 160 10
-2.9796069 -5.1873789 1.5969895 197 10
-3.0259917 -5.1940761 1.604582 501 10
-3.9668505 -6.7137675 2.0720255 323 10
-2.9308722 -4.8918262 1.5238487 327 10
-2.9447572 -4.8472934 1.5157501 412 10
-2.9145687 -4.7319374 1.4858862 261 10
-2.9722464 -4.7599163 1.5000589 343 10
-4.15799 -6.568491 2.0656984 218 10
-4.1987376 -6.5436683 2.0659516 533 10
-4.2250953 -6.4966965 2.0593715 576 10
-4.2680736 -6.4754958 2.06089 519 10
-4.3152494 -6.4604483 2.0644331 306 10
-4.3455896 -6.420229 2.0601306 506 10
-4.378335 -6.3838706 2.0570936 490 10
-4.4185271 -6.3584743 2.0575998 483 10
-4.4296103 -6.2916913 2.0449457 383 10
-4.4557719 -6.2470665 2.0393779 385 10
-4.4962859 -6.2227454 2.0403903 346 10
-4.4526668 -6.0834074 2.0041995 715 10
-4.450727 -6.0031276 1.9869899 792 10
-4.4409995 -5.9138198 1.9667432 771 10
-4.4385452 -5.8356395 1.9500397 847 10
-4.4494705 -5.7761073 1.9394102 738 10
-4.4485259 -5.7021694 1.9239722 213 10
-4.4720345 -5.6603441 1.9191637 235 10
-4.5066814 -5.6327972 1.9191637 216 10
-4.5362864 -5.5990257 1.9171391 233 10
-4.5748515 -5.5763216 1.9189106 241 10
-4.6034169 -5.5414486 1.9166329 245 10
-4.6317267 -5.5064354 1.914355 251 10
-4.6641717 -5.476439 1.9138489 242 10
-4.6970549 -5.4469843 1.9135958 232 10
-3.7644668 -4.3118401 1.5294164 168 10
-3.7575328 -4.2509699 1.5162562 538 10
-3.7628989 -4.2047663 1.5081575 635 10
-3.7730372 -4.1643929 1.5020835 615 10
-3.7749741 -4.115499 1.4929726 276 10
-4.8706594 -5.2448883 1.9044849 230 10
-4.9027495 -5.2149038 1.9044849 301 10
-3.8834383 -4.0803542 1.5056267 407 10
-4.9603338 -5.148077 1.9022071 257 10
-4.9776416 -5.1030016 1.8968924 250 10
-5.0285735 -5.0923252 1.9042318 210 10
-5.0604086 -5.0620589 1.9044849 204 10
-5.0838032 -5.0234342 1.901701 202 10
-5.1166081 -4.994173 1.9024602 185 10
-5.1401906 -4.9559698 1.8999294 213 10
-5.1719041 -4.9256711 1.9004356 180 10
-4.3578277 -4.099741 1.5972426 198 10
-4.4225898 -4.1098018 1.6114153 33 10
-3.5503616 -3.2590003 1.2927842 6 10
-3.5824766 -3.2482007 1.2970866 13 10
-3.604502 -3.2280939 1.2978458 14 10
-3.62714 -3.2084801 1.2988582 27 10
-2.7236259 -2.379755 0.97820252 26 10
-2.7044821 -2.3339269 0.96656072 119 10
-2.706234 -2.3066216 0.96225834 154 10
-2.7336595 -2.3011861 0.9668138 303 10
-2.7082961 -2.2515941 0.95340043 133 10
-2.743746 -2.2527349 0.96073985 281 10
-2.7236981 -2.2084422 0.94935113 118 10
-2.7304003 -2.1862469 0.9470734 116 10
-2.7331383 -2.1610529 0.9435302 126 10
-2.7341449 -2.1347175 0.9394809 118 10
-2.7333992 -2.1072702 0.93492544 121 10
-2.7401187 -2.0857716 0.93290079 247 10
-2.735076 -2.055553 0.92707986 119 10
-2.7414212 -2.034121 0.92505521 102 10
-2.7444844 -2.0104022 0.92201823 110 10
-2.7497125 -1.9884232 0.91974044 99 10
-2.7516241 -1.964208 0.91645038 144 10
-2.7683699 -1.9506303 0.91796887 141 10
-2.8033218 -1.9496235 0.92530829 97 10
-2.8359714 -1.9466183 0.9318884 64 10
-2.8622808 -1.9389454 0.93644392 70 10
-2.8926239 -1.9337105 0.9422648 97 10
-2.9294708 -1.9324366 0.95011038 210 10
-2.9461381 -1.9175913 0.95162886 100 10
-3.0042527 -1.9292705 0.96605456 304 10
-3.0364661 -1.9237422 0.97238165 97 10
-3.1195924 -1.9496747 0.99439985 64 10
-3.1413796 -1.9365878 0.99743682 91 10
-3.1813104 -1.9343624 1.0060416 73 10
-3.2039063 -1.9212729 1.0093317 53 10
-4.0675759 -2.4052579 1.2682352 263 10
-4.0555124 -2.3646629 1.2601366 196 10
-4.0733008 -2.3416626 1.2611489 184 10
-4.0707579 -2.3070862 1.2560872 176 10
-4.067945 -2.2726297 1.2510256 209 10
-4.0648632 -2.2382951 1.2459639 209 10
-4.0581121 -2.2022386 1.23989 193 10
-4.0587511 -2.1704547 1.2360938 243 10
-4.0677123 -2.1432555 1.2348284 215 10
-4.0807867 -2.1182561 1.2348284 202 10
-4.073895 -2.0830486 1.2290074 84 10
-4.1168427 -2.0732398 1.2378653 58 10
-4.1494217 -2.0578249 1.2436862 59 10
-4.166317 -2.0344479 1.2449516 68 10
-4.1787219 -2.0088456 1.2449516 74 10
-4.192718 -1.983995 1.2454578 65 10
-4.2004275 -1.9561898 1.2441924 68 10
-4.2017975 -1.925544 1.2411554 75 10
-4.1941295 -1.8909795 1.2355876 100 10
-4.1853123 -1.85619 1.2297666 61 10
-4.2010565 -1.832408 1.231032 53 10
-4.201551 -1.8020211 1.227995 40 10
-4.2018313 -1.7716974 1.2249581 67 10
-4.1929603 -1.737735 1.2193903 61 10
-4.2366967 -1.7254735 1.2287543 158 10
-4.2229519 -1.6897433 1.2219211 83 10
-4.2530499 -1.6715838 1.2274889 94 10
-4.2578111 -1.6433665 1.2259704 81 10
-4.2831941 -1.6230365 1.2302728 63 10
-4.3284369 -1.6098746 1.2401431 123 10
-4.2727971 -1.55941 1.2219211 63 10
-4.2841067 -1.5338153 1.2224272 78 10
-4.3162584 -1.5155102 1.2287543 96 10
-4.3108397 -1.4839605 1.224705 61 10
-4.3317809 -1.4615014 1.227995 93 10
-4.3480158 -1.4373231 1.2300197 80 10
-4.3199358 -1.3987 1.2198964 53 10
-4.3625598 -1.3829813 1.2292604 102 10
-4.3358507 -1.3452959 1.2196434 100 10
-3.6552613 -1.1096504 1.0313499 8 10
-3.6508715 -1.0838982 1.0283129 9 10
-3.6909022 -1.0711805 1.0374238 4 10
-0 -0 0 5 10
-0 -0 0 5 10
-0 -0 0 6 10
-3.6459186 -0.96177822 1.0184426 4 10
-3.6152096 -0.92999309 1.0085725 6 10
-3.6321089 -0.91061515 1.0116094 9 10
-0 -0 0 6 10
-3.6345389 -0.86396223 1.0093317 10 10
-3.6652219 -0.84752709 1.0161649 13 10
-3.6694093 -0.82480967 1.0159118 10 10
-3.6602232 -0.79918492 1.0121156 9 10
-0 -0 0 4 10
-0 -0 0 7 10
-3.7094202 -0.73866397 1.0214797 4 10
-3.7452321 -0.72192907 1.0298314 8 10
-7.0764718 -1.3187273 1.9151143 65 10
-7.0691957 -1.2725406 1.911065 684 10
-7.0721049 -1.2283133 1.9097996 689 10
-7.0795088 -1.1848966 1.9097996 690 10
-7.0837803 -1.1409738 1.9090403 473 10
-7.0925603 -1.097783 1.9095465 668 10
-7.0953345 -1.0536749 1.9085342 630 10
-7.0978351 -1.0095742 1.9075218 591 10
-7.1029372 -0.96587336 1.9072688 551 10
-7.0809073 -0.91866422 1.8999294 227 10
-4.2232251 -0.52174199 1.1452371 167 10
-4.2196212 -0.49503046 1.1434655 169 10
-7.1129632 -0.78998679 1.9042318 357 10
-7.1205635 -0.74663013 1.904991 362 10
-7.1201968 -0.70245045 1.9037256 361 10
-7.1128125 -0.65768027 1.9006886 337 10
-7.1080394 -0.61327648 1.8984109 334 10
-7.1097398 -0.56949645 1.8979048 312 10
-7.1159949 -0.52607501 1.898664 298 10
-7.1152277 -0.48214078 1.8976517 324 10
-7.1199837 -0.43859234 1.8981578 349 10
-7.1264043 -0.3951107 1.8991702 360 10
-7.1267624 -0.35128132 1.898664 404 10
-7.1278167 -0.30750406 1.8984109 353 10
-7.1208687 -0.26344138 1.8961332 386 10
-7.1223507 -0.21974359 1.8961332 356 10
-7.1264668 -0.17610908 1.8968924 459 10
-6.4193649 -0.11926626 1.7116359 186 10
-7.143569 -0.088834748 1.9009417 590 10
-7.138175 -0.044964708 1.8994232 604 10
-7.1354141 -0.001164528 1.898664 653 10
-7.1430264 0.042664219 1.9006886 723 10
-7.1600428 0.086704001 1.9052441 693 10
-7.1390634 0.13026382 1.8999294 487 10
-4.1984982 -0.31009367 1.0803494 61 11
-4.1906404 -0.28366828 1.0779335 46 11
-4.1884279 -0.25771022 1.0769672 25 11
-4.1889615 -0.23195173 1.0767256 66 11
-4.1796446 -0.20571667 1.0740682 71 11
-4.1914926 -0.18052925 1.0767256 91 11
-4.2128849 -0.15556495 1.0817989 48 11
-4.1992116 -0.12926036 1.0781752 78 11
-4.2173872 -0.10392718 1.0825236 49 11
-4.2130942 -0.077956721 1.0813158 81 11
-4.2212558 -0.052202336 1.0832484 86 11
-4.2127633 -0.026243387 1.0810741 108 11
-4.1992598 -0.00038882412 1.077692 108 11
-4.2050052 0.025410922 1.0791415 93 11
-4.2008891 0.051165678 1.0781752 82 11
-4.2034068 0.076993391 1.0788999 100 11
-4.2135262 0.10304156 1.0815573 103 11
-4.206995 0.12871689 1.0801078 108 11
-4.1896405 0.15392703 1.0760009 97 11
-4.2002511 0.18012697 1.0788999 83 11
-4.200036 0.20594309 1.0791415 117 11
-4.2035379 0.23197615 1.0803494 135 11
-4.1933184 0.25723189 1.0781752 151 11
-4.1761699 0.2819154 1.0743098 149 11
-4.1714582 0.30732149 1.073585 202 11
-4.1791673 0.33368093 1.0760009 206 11
-4.1770411 0.35931754 1.0760009 233 11
-4.1863532 0.38600656 1.0788999 244 11
-4.1916318 0.41244432 1.0808326 267 11
-4.1870923 0.43795455 1.0803494 274 11
-4.1872196 0.46395764 1.0810741 278 11
-4.1871853 0.48997873 1.0817989 235 11
-4.1869893 0.5160169 1.0825236 235 11
-4.1895189 0.54244405 1.0839732 226 11
-4.192843 0.56905192 1.0856643 205 11
-4.1950369 0.59558481 1.0871137 216 11
-4.1961031 0.622024 1.0883217 192 11
-4.2123475 0.65086532 1.0933949 306 11
-4.1967769 0.67485398 1.0904958 200 11
-4.1724567 0.6972391 1.0854226 119 11
-4.1920042 0.72696626 1.0914623 335 11
-4.1979709 0.7545597 1.0941197 394 11
-4.2066188 0.78278548 1.0975018 372 11
-4.2017365 0.80858207 1.0975018 310 11
-4.2033587 0.83567095 1.0991929 395 11
-4.1981521 0.8614465 1.0991929 281 11
-4.1927872 0.88718969 1.0991929 485 11
-4.2100205 0.91785413 1.1049908 355 11
-4.2005219 0.94282001 1.1040245 461 11
-4.2107325 0.9722833 1.1081314 457 11
-4.2112966 0.99966866 1.1098225 498 11
-4.203198 1.0250305 1.1093394 488 11
-4.2034192 1.0524496 1.1110305 513 11
-4.2053413 1.0803924 1.1132047 511 11
-4.2042637 1.1076573 1.1146542 469 11
-4.2020726 1.134697 1.1158621 393 11
-4.2090611 1.164336 1.1194859 284 11
-4.1682234 1.1806293 1.1107888 167 11
-7.4101419 2.1471388 1.9529479 258 11
-7.4107838 2.1967008 1.9565716 268 11
-7.4110961 2.2463512 1.9601953 187 11
-4.5199003 1.4008255 1.2103212 243 11
-4.5223222 1.4320452 1.2132201 180 11
-4.5106797 1.4588716 1.2124954 304 11
-4.5154662 1.4910818 1.2161192 324 11
-4.4722056 1.5073013 1.2071805 193 11
-4.5289483 1.557418 1.2245746 422 11
-4.4726028 1.5688089 1.2122538 295 11
-4.458324 1.5945898 1.2110459 207 11
-4.4885731 1.6365312 1.2216755 345 11
-4.4402394 1.6498559 1.211529 223 11
-3.8564227 1.4600807 1.0588485 30 11
-3.8274703 1.4760401 1.0535337 16 11
-3.8111148 1.4966617 1.0516009 20 11
-3.777529 1.5102984 1.0450783 11 11
-0 0 0 4 11
-3.740778 1.5491204 1.0402466 9 11
-3.7294135 1.5712913 1.0397635 14 11
-3.7161341 1.592617 1.038797 11 11
-3.7036228 1.6142263 1.0380723 12 11
-3.6980848 1.6388855 1.0392803 17 11
-3.6932683 1.6639358 1.0407298 11 11
-3.6847539 1.6873735 1.0412129 11 11
-3.6901691 1.717316 1.0455614 31 11
-3.6804397 1.7403408 1.045803 18 11
-3.6915622 1.7733893 1.0518426 46 11
-4.2929053 2.0945683 1.221434 204 11
-4.2860594 2.123884 1.2231251 160 11
-4.3197613 2.1736853 1.2361705 262 11
-4.2847362 2.1891179 1.2301309 213 11
-4.2755308 2.2176003 1.2313389 308 11
-4.2455273 2.2352073 1.2267488 433 11
-4.1803741 2.2337885 1.2122538 146 11
-4.140995 2.2455258 1.2050064 130 11
-4.0786719 2.2442398 1.191236 113 11
-4.044487 2.2578769 1.185438 83 11
-4.0390015 2.2874305 1.1878539 101 11
-4.0173163 2.307822 1.1856797 97 11
-3.9946945 2.3275452 1.1832638 46 11
-3.9276979 2.320925 1.1680441 101 11
-3.9075556 2.3414912 1.166353 75 11
-3.9063857 2.3734822 1.1702183 115 11
-3.8925753 2.3979154 1.1704599 150 11
-3.8810813 2.4238098 1.1714263 95 11
-4.5016527 2.8496845 1.3586532 116 11
-4.4832659 2.8767285 1.3584117 134 11
-4.4663439 2.9047122 1.3586532 125 11
-4.4727468 2.9480779 1.3659008 88 11
-4.4626436 2.980855 1.3683165 85 11
-4.4185505 2.9907808 1.3605859 146 11
-4.4153233 3.0282612 1.365176 129 11
-4.4046292 3.0608318 1.3675917 145 11
-4.3857651 3.0878005 1.3675917 204 11
-4.2987847 3.0662076 1.3468156 111 11
-4.3042765 3.1101396 1.3543047 110 11
-4.3344512 3.1725888 1.3695245 66 11
-4.3265972 3.2077913 1.3731482 116 11
-4.3045049 3.2325308 1.3724234 136 11
-4.3147163 3.2817862 1.3818452 217 11
-4.2968049 3.3099749 1.3825699 191 11
-4.3062582 3.3595498 1.3919917 49 11
-4.2901325 3.3895175 1.3934412 134 11
-4.2980518 3.4388082 1.4026214 295 11
-4.2859201 3.4724443 1.4055203 317 11
-6.119379 5.0197587 2.0027139 84 11
-6.1347494 5.0956469 2.0176921 187 11
-6.1055956 5.1350665 2.0184169 203 11
-6.072495 5.171175 2.0179336 181 11
-6.0369759 5.2051702 2.0167258 202 11
-6.0180836 5.2535992 2.0210743 209 11
-4.7117062 4.164722 1.5978205 86 11
-5.960393 5.3335242 2.0234902 182 11
-5.9232397 5.3660879 2.0220406 152 11
-5.8937783 5.4056101 2.0232487 184 11
-5.8633442 5.4443126 2.024215 188 11
-5.8277068 5.4781933 2.0234902 176 11
-5.7960925 5.5158548 2.024215 182 11
-5.7621388 5.5513153 2.024215 185 11
-5.7272735 5.5858893 2.0239732 156 11
-4.2398424 4.1866646 1.5156823 138 11
-5.6830058 5.6804438 2.0326703 93 11
-4.1390281 4.1886911 1.4982883 158 11
-4.1139269 4.2147031 1.4985299 214 11
-4.0980935 4.2503428 1.5021536 178 11
-4.1321807 4.3386374 1.5238961 93 11
-4.1566911 4.4183216 1.542498 43 11
-5.4700732 5.8857703 2.0326703 91 11
-5.447639 5.9342327 2.0377436 183 11
-5.4358983 5.9948602 2.0469236 221 11
-5.3646941 5.9897957 2.0341198 136 11
-5.3349137 6.0305939 2.0367773 195 11
-5.2927017 6.0573697 2.0348446 170 11
-5.2636781 6.0992804 2.0379851 289 11
-5.2104149 6.1130023 2.0319455 210 11
-5.1909342 6.1663833 2.0389514 228 11
-5.1561027 6.201849 2.0401595 241 11
-5.1247268 6.2416182 2.0428169 272 11
-5.0881662 6.2752061 2.0435414 225 11
-5.0677652 6.32903 2.0507891 261 11
-5.0228157 6.3523951 2.0483732 276 11
-4.9807572 6.379271 2.0471654 255 11
-4.9539657 6.4258494 2.0522385 245 11
-4.9050384 6.4437728 2.0483732 292 11
-4.8747373 6.4861584 2.0522385 358 11
-4.8400526 6.5229597 2.0544128 425 11
-4.7603621 6.4985261 2.0377436 289 11
-4.7090235 6.511888 2.0329118 246 11
-4.6565728 6.5232859 2.027597 310 11
-4.5963335 6.5231814 2.0189002 391 11
-4.5179834 6.4962974 2.0022309 386 11
-4.4626584 6.5014982 1.9954665 375 11
-4.5506048 6.7175374 2.0522385 349 11
-4.5244045 6.7679191 2.0590029 795 11
-4.4699655 6.7761145 2.0532048 705 11
-4.393888 6.750556 2.0375021 849 11
-4.3387485 6.7561622 2.0312209 761 11
-4.2686415 6.737577 2.0179336 717 11
-4.1870956 6.6994629 1.9990902 713 11
-2.057543 3.3386362 1.0085992 126 11
-2.0309675 3.3412495 1.0057002 117 11
-0 0 0 4 11
-0 0 0 3 11
-1.863512 3.1970155 0.95351821 23 11
-1.8801441 3.2714784 0.97163695 138 11
-0 0 0 39 11
-0 0 0 45 11
-1.4913884 2.7097185 0.80228716 45 11
-1.4441763 2.6625333 0.78634268 24 11
-0 0 0 13 11
-0 0 0 9 11
-0 0 0 8 11
-0 0 0 2 11
-0 0 0 5 11
-0 0 0 5 11
-0 0 0 4 11
-0 0 0 6 11
-0 0 0 4 11
-0 0 0 4 11
-0 0 0 5 11
-0 0 0 4 11
-0 0 0 3 11
-0 0 0 5 11
-0 0 0 6 11
-0 0 0 4 11
-0 0 0 3 11
-0 0 0 4 11
-0 0 0 7 11
-0 0 0 4 11
-1.0481247 2.7174067 0.75735265 4 11
-1.0293672 2.7183428 0.75590318 3 11
-1.0035306 2.7000525 0.74938041 4 11
-1.0208951 2.7991331 0.77402192 17 11
-0.99453783 2.7797656 0.76725757 12 11
-0 0 0 14 11
-0 0 0 33 11
-0.95965302 2.8463292 0.78006148 27 11
-0.93881816 2.8420298 0.77740407 29 11
-0.91119361 2.8163497 0.76919025 19 11
-0.89301544 2.819113 0.76846552 24 11
-0.87167275 2.8115649 0.76508331 25 11
-0.85186666 2.8085041 0.76290905 19 11
-0.83240736 2.8062365 0.76097643 23 11
-0.81192553 2.8001087 0.75807744 31 11
-0.79366952 2.8013036 0.75711107 20 11
-0.77931684 2.8164072 0.75976849 18 11
-0.76556891 2.83425 0.76315069 12 11
-0.74643022 2.8323264 0.76145959 19 11
-0.72855353 2.8349736 0.76097643 18 11
-0.71161699 2.8412728 0.76145959 15 11
-0.69393951 2.8446431 0.76121801 22 11
-0.66995966 2.8214705 0.75421208 13 11
-0.64541554 2.7943299 0.74623984 7 11
-0.62229472 2.7717292 0.73947549 8 11
-0.60299736 2.7650673 0.73681808 4 11
-0.57172555 2.7013173 0.71966571 4 11
-0 0 0 3 11
-0.52468765 2.6386585 0.70203012 4 11
-0 0 0 4 11
-0 0 0 4 11
-0.47103831 2.6201744 0.69502419 6 11
-0.4607712 2.6564765 0.70347965 6 11
-0 0 0 5 11
-0 0 0 3 11
-0 0 0 4 11
-0 0 0 4 11
-0 0 0 5 11
-0.34696734 2.5562556 0.67448962 7 11
-0.33277649 2.5698838 0.67738861 5 11
-0 0 0 4 11
-0.2989504 2.5544991 0.672557 11 11
-0.28509501 2.5726805 0.67666388 5 11
-0.27082491 2.5888574 0.68028766 26 11
-0.2541711 2.5827451 0.67835498 24 11
-0.23751299 2.5755599 0.67618072 12 11
-0.22137073 2.5731018 0.67521441 7 11
-0.20612207 2.5811825 0.67690545 7 11
-0 0 0 3 11
-0.17548436 2.5990078 0.68077081 5 11
-0 0 0 5 11
-0 0 0 3 11
-0 0 0 7 11
-0 0 0 6 11
-0 0 0 7 11
-0 0 0 4 11
-0 0 0 7 11
-0.04634266 2.5297818 0.66216892 6 11
-0.030598518 2.512553 0.6578204 8 11
-0.015174892 2.511723 0.65757883 4 11
0.00023775648 2.5098281 0.65709567 8 11
0 0 0 5 11
0 0 0 4 11
0 0 0 4 11
0 0 0 3 11
0 0 0 6 11
0.10191638 2.7631593 0.72063202 6 11
0.11990156 2.7867193 0.72667164 11 11
0.13756534 2.7975619 0.72957063 5 11
0.15887795 2.872241 0.7484141 9 11
0.17318657 2.8169718 0.73488545 10 11
0.18239713 2.6958001 0.70492911 51 11
0.19360781 2.6220467 0.68681037 154 11
0.21723516 2.7156072 0.71048552 52 11
0.24044262 2.7906029 0.72957063 47 11
0.25729442 2.7861762 0.72884583 101 11
0.29456821 2.9902482 0.78030306 13 11
0.31452134 3.0038266 0.78416842 8 11
0 0 0 3 11
0.35293445 3.0132346 0.78755057 9 11
0.3723641 3.0187173 0.78948325 5 11
0.39137694 3.020225 0.79044956 3 11
0.41068274 3.0235364 0.79189909 9 11
0.42800185 3.0123127 0.78972483 4 11
0.4459089 3.00579 0.78875846 9 11
0 0 0 4 11
0 0 0 5 11
0.50179881 3.0009017 0.78972483 7 11
0.5223546 3.0101962 0.7928654 7 11
0 0 0 4 11
0 0 0 3 11
0 0 0 3 11
0.60325164 3.032639 0.80204558 6 11
0 0 0 3 11
0.64222699 3.0335524 0.80421978 8 11
0.66289288 3.0390365 0.80663562 7 11
0.68556052 3.0529025 0.81122571 6 11
0 0 0 3 11
0.71961474 3.0300968 0.80760199 4 11
0.73842317 3.026567 0.80784357 5 11
0.76263034 3.0445724 0.81364155 4 11
0 0 0 6 11
0 0 0 4 11
0 0 0 4 11
0 0 0 4 11
0 0 0 5 11
0 0 0 3 11
0.9017517 3.039722 0.82161379 6 11
0.91391528 3.0127716 0.81605738 28 11
0.93984699 3.031208 0.82233852 25 11
1.0026288 3.165086 0.85881764 114 11
1.0205386 3.1542575 0.85760969 93 11
0 0 0 128 11
0 0 0 37 11
0 0 0 4 11
0 0 0 4 11
1.1063643 3.0922277 0.84987903 12 11
1.1508943 3.155586 0.86848092 120 11
1.1702349 3.1484649 0.86848092 123 11
0 0 0 143 11
0 0 0 116 11
0 0 0 117 11
0 0 0 125 11
1.2728419 3.1272669 0.87282944 119 11
1.2953457 3.1274679 0.8750037 122 11
1.3167701 3.1248271 0.87645316 143 11
1.3397387 3.1256092 0.878869 146 11
0 0 0 180 11
0 0 0 157 11
0 0 0 147 11
0 0 0 167 11
1.447261 3.1094389 0.8861165 148 11
1.4717022 3.1119058 0.88925707 167 11
1.4953883 3.1124399 0.89191449 151 11
1.5165842 3.1075668 0.89312243 141 11
1.5373459 3.1016812 0.89408875 165 11
0 0 0 190 11
0 0 0 134 11
1.6107006 3.1047342 0.90302736 137 11
1.634691 3.104239 0.90568477 138 11
1.6569073 3.100142 0.90737581 130 11
1.6763606 3.0907702 0.90761739 109 11
1.6943585 3.0787256 0.90713423 111 11
1.7174724 3.0758979 0.90930849 126 11
1.7463511 3.0830362 0.91438174 103 11
1.7724828 3.0848858 0.91800547 128 11
1.7943078 3.0789833 0.91945499 130 11
1.8131663 3.0679157 0.91945499 121 11
1.835945 3.0633926 0.92138767 136 11
1.8577291 3.0570464 0.92283714 126 11
1.884083 3.0579851 0.92646092 119 11
1.9089767 3.0562451 0.92935991 144 11
1.9406646 3.064975 0.93539947 108 11
1.9688641 3.0677123 0.93974799 134 11
1.9945254 3.0661507 0.94288856 144 11
2.0159707 3.0579064 0.94409645 125 11
2.0395451 3.0527425 0.9462707 126 11
2.0636756 3.0482078 0.94868654 150 11
2.0927651 3.0506949 0.95327663 124 11
2.1203015 3.0505483 0.95714194 120 11
2.1456809 3.0470037 0.96004099 133 11
2.1744764 3.0480032 0.96438944 116 11
2.1993873 3.0432568 0.96704686 142 11
2.2283325 3.0438013 0.97139537 113 11
2.254478 3.0402062 0.97453594 110 11
2.2748375 3.0286441 0.97526067 142 11
2.2998383 3.0231261 0.97791809 145 11
2.3278167 3.0212595 0.98178345 98 11
2.3534718 3.0161021 0.98468244 128 11
2.3857663 3.0191202 0.99023885 117 11
2.4127314 3.0150342 0.99362105 114 11
2.4366822 3.0069602 0.99579525 146 11
2.4624705 3.0009565 0.9986943 115 11
2.4876568 2.9940026 1.0013517 138 11
