# .PCD v0.7 - Point Cloud Data file format
VERSION 0.7
FIELDS x y z intensity ring
SIZE 4 4 4 4 1
TYPE F F F F U
COUNT 1 1 1 1 1
WIDTH 474
HEIGHT 1
VIEWPOINT 0 0 0 1 0 0 0
POINTS 474
DATA ascii
3.5558646 0.043795411 -1.2307457 26 60
3.4384058 0.14848185 -1.2324392 23 61
3.4476862 0.12769663 -1.2355646 57 61
3.4484048 0.10653963 -1.2355646 73 61
3.4480562 0.085355081 -1.2352172 65 61
3.4653919 0.064516507 -1.241468 12 61
3.7394371 -0.20591834 -0.8371464 86 50
3.7351878 -0.22868043 -0.83646238 66 50
3.7086804 -0.20545125 -0.87502253 40 51
3.7768779 -0.20930085 -0.7507605 161 48
3.7843156 -0.23301372 -0.75260097 112 48
3.7867212 -0.25649446 -0.75341892 64 48
3.7928855 -0.28030249 -0.75505489 116 48
3.7670367 -0.20735225 -0.79672164 82 49
3.7617955 -0.23022512 -0.79585588 101 49
3.7515452 -0.2527149 -0.79390788 69 49
3.6880383 0.18197162 -0.82483381 123 50
3.6861672 0.15921308 -0.82414979 99 50
3.6899936 0.13670002 -0.82483381 82 50
3.6956289 0.11420593 -0.82597387 56 50
3.6982069 0.091575831 -0.8264299 119 50
3.6948051 0.068810225 -0.82551783 121 50
3.6922371 0.046101868 -0.82483381 123 50
3.6943977 0.023458019 -0.82528985 87 50
3.7430894 -0.022173092 -0.83669037 11 50
3.7370415 -0.045068789 -0.83532232 24 50
3.7240391 -0.067766391 -0.83235818 117 50
3.7157662 -0.090425082 -0.8305341 82 50
3.6908114 -0.11247887 -0.82483381 6 50
3.668725 -0.15688662 -0.82004559 8 50
3.6706109 -0.17953755 -0.82072961 7 50
3.6633642 0.1795233 -0.86354041 146 51
3.6818578 0.15779583 -0.86784619 48 51
3.6652913 0.13455468 -0.86354041 6 51
3.6718709 0.11224219 -0.86497569 9 51
3.6739428 0.067192294 -0.86521488 9 51
3.6956456 0.044914473 -0.87047756 34 51
3.6948805 0.022231424 -0.8702383 7 51
3.6978602 -0.00043978341 -0.87095594 4 51
3.7084684 -0.023192858 -0.87358731 6 51
3.7189362 -0.046076126 -0.87621862 13 51
3.6816928 -0.068222314 -0.86712855 101 51
3.6812048 -0.090811476 -0.86712855 122 51
3.68349 -0.11348599 -0.86784619 117 51
3.6963086 -0.136583 -0.8711952 23 51
3.6604781 -0.15776651 -0.86258358 5 51
3.6914449 -0.18178976 -0.87047756 91 51
3.65242 0.18021791 -0.90681881 121 52
3.6611943 0.15813707 -0.90882456 112 52
3.6340411 0.13463305 -0.90155369 38 52
3.6073544 0.089335613 -0.89428288 20 52
3.6552615 0.068077914 -0.90656805 101 52
3.6594822 0.045696311 -0.90757096 136 52
3.6655021 0.023277564 -0.90907526 128 52
3.665576 0.00078602729 -0.90907526 129 52
3.6674478 -0.021717208 -0.90957671 127 52
3.6730535 -0.044290479 -0.91108102 97 52
3.67852 -0.066933356 -0.91258532 118 52
3.6790078 -0.08952672 -0.91283602 115 52
3.6812921 -0.11218777 -0.91358817 106 52
3.6853714 -0.13495128 -0.91484177 121 52
3.6777039 -0.15727152 -0.91308677 94 52
3.7134118 -0.18163553 -0.92261404 23 52
3.6143308 0.1777344 -0.94136548 104 53
3.6163175 0.15559573 -0.94162732 129 53
3.6229908 0.13361879 -0.94319844 99 53
3.6276009 0.11150586 -0.94424582 91 53
3.6590908 0.090014592 -0.9526251 14 53
3.6258013 0.066926852 -0.94346029 91 53
3.632899 0.044763502 -0.94529325 131 53
3.6360006 0.022490451 -0.94607884 133 53
3.6447561 0.00018316841 -0.94843549 94 53
3.6360028 -0.022130564 -0.94607884 15 53
3.6470368 -0.066957124 -0.94922101 7 53
3.6581352 -0.089613587 -0.95236325 35 53
3.6536579 -0.11194081 -0.95131588 123 53
3.6509733 -0.13428679 -0.95079213 107 53
3.5913234 0.17720975 -0.97952712 39 54
3.5875375 0.1549634 -0.97816235 91 54
3.5980346 0.13330291 -0.98089188 53 54
3.6170547 0.11178596 -0.98607796 7 54
3.6070933 0.089329176 -0.9830755 7 54
3.596993 0.066998847 -0.98007303 10 54
3.6040702 0.045010224 -0.98198366 7 54
3.6158226 0.022967311 -0.98525912 54 54
3.6081991 0.00077976851 -0.9830755 70 54
3.6052501 -0.021342346 -0.98225665 6 54
3.6079371 -0.043498445 -0.9830755 10 54
3.5989454 -0.065477088 -0.98061889 9 54
3.6234813 -0.088169679 -0.98771566 57 54
3.6334493 -0.11072474 -0.99071813 80 54
3.5337889 0.17374769 -1.005834 5 55
3.563529 0.15330738 -1.0143445 100 55
3.5682356 0.13158169 -1.0154792 105 55
3.5574744 0.1093277 -1.0120749 63 55
3.5868371 0.08821404 -1.0205854 4 55
3.5771022 0.04405804 -1.0174649 84 55
3.5773051 0.022108525 -1.0174649 140 55
3.5879216 0.00016208948 -1.0205854 107 55
3.5974441 -0.021908268 -1.0234222 111 55
3.6029949 -0.044049829 -1.0251243 91 55
3.6074507 -0.066243038 -1.0265427 72 55
3.5983486 -0.088168092 -1.0239896 42 55
3.5698309 0.19873808 -1.062284 52 56
3.5643024 0.17650019 -1.0602199 85 56
3.5586357 0.15433761 -1.0581558 103 56
3.5556962 0.13235757 -1.0569762 108 56
3.5564415 0.11053773 -1.0569762 98 56
3.5455899 0.088429078 -1.0534377 69 56
3.5508425 0.066761382 -1.0549121 14 56
3.5540519 0.045008555 -1.0557967 30 56
3.5580831 0.023224993 -1.0569762 123 56
3.567714 0.001395278 -1.059925 112 56
3.5752995 -0.020540565 -1.062284 109 56
3.5779727 -0.042512171 -1.0631686 111 56
3.5805106 -0.064517349 -1.0640532 29 56
3.5280662 0.17407894 -1.0921984 5 57
3.5376296 0.15280049 -1.0949481 29 57
3.537549 0.13105556 -1.0946425 82 57
3.529721 0.10907955 -1.0918928 56 57
3.5369871 0.087586746 -1.0940315 5 57
3.5492208 0.044322327 -1.0976979 6 57
3.5589476 0.022607503 -1.1007532 8 57
3.5580671 0.00076926581 -1.1004477 23 57
3.5599091 -0.021073284 -1.1010587 80 57
3.5844679 -0.043206383 -1.1090025 16 57
3.5269012 0.17342356 -1.1345881 4 58
3.5203159 0.15145423 -1.1320603 12 58
3.5069571 0.12932824 -1.1273205 55 58
3.5190644 0.108156 -1.1311123 110 58
3.5244043 0.086677507 -1.1326922 85 58
3.5229726 0.065015733 -1.1320603 20 58
3.5612528 0.043861184 -1.1446995 7 58
3.5244539 0.021784306 -1.1323762 51 58
3.5197773 0.00015856395 -1.1307963 74 58
3.4709339 0.19199239 -1.1594126 50 59
3.492815 0.17171954 -1.1665969 6 59
3.4853044 0.14991638 -1.1636579 69 59
3.4927702 0.12877411 -1.1659437 79 59
3.495384 0.10739914 -1.1665969 76 59
3.496922 0.085973389 -1.1669235 86 59
3.4983289 0.064532809 -1.16725 85 59
3.4967687 0.043042354 -1.1665969 83 59
3.5035832 0.021628823 -1.1688828 43 59
3.4698563 0.1919737 -1.2017696 83 60
3.4672072 0.1704949 -1.2004219 81 60
3.468188 0.14921731 -1.2004219 78 60
3.473743 0.12810706 -1.2021066 82 60
3.4763458 0.1068478 -1.2027804 92 60
3.4769359 0.085515335 -1.2027804 74 60
3.4830434 0.064283259 -1.204802 93 60
3.7906718 0.18636447 -0.66088855 6 46
3.791744 0.16310184 -0.66088855 9 46
3.766485 0.1839534 -0.70260525 96 47
3.7802866 0.16138721 -0.70511472 57 47
3.7763031 0.13800807 -0.70414954 90 47
3.7780595 0.11486464 -0.70434254 107 47
3.7786932 0.091680743 -0.70434254 120 47
3.7791846 0.068493389 -0.70434254 107 47
3.7893448 0.045424081 -0.7062729 78 47
3.7767971 0.022093698 -0.70376343 11 47
3.7915013 -0.024345059 -0.70665902 128 47
3.7321899 0.18284507 -0.74114919 46 48
3.6882546 0.15801872 -0.73174232 9 48
3.6823072 0.13513447 -0.73031086 5 48
3.713398 0.11346127 -0.73665023 8 48
3.7502317 0.091554299 -0.74421662 40 48
3.7428932 0.068399325 -0.74258065 57 48
3.7569456 0.045596957 -0.74544358 6 48
3.7679219 0.022607397 -0.74769306 8 48
3.7738628 -0.00051397143 -0.74892002 7 48
3.7737887 -0.023669949 -0.74892002 6 48
3.7706361 -0.046788294 -0.74830651 96 48
3.7741928 -0.06999661 -0.74912453 106 48
3.776628 -0.093226083 -0.74973798 20 48
3.7750065 -0.11636702 -0.74953347 9 48
3.7663958 -0.13923772 -0.74789751 13 48
3.7654705 -0.16234526 -0.74789751 97 48
3.7673366 -0.1855915 -0.74851102 130 48
3.7193964 0.18358299 -0.78589964 43 49
3.7253296 0.16097002 -0.78698182 6 49
3.7270246 0.11524236 -0.78698182 7 49
3.7169256 0.092102192 -0.78460103 89 49
3.7203491 0.069349341 -0.78525031 90 49
3.7207046 0.046520401 -0.78525031 103 49
3.7189674 0.023676665 -0.78481746 87 49
3.6985404 0.00084588217 -0.78027219 18 49
3.7316697 -0.022033522 -0.78763115 103 49
3.7461076 -0.045101926 -0.79087776 127 49
3.7545457 -0.068243705 -0.7928257 128 49
3.7540562 -0.091279879 -0.7928257 119 49
3.7544014 -0.11434203 -0.79304212 93 49
3.7467995 -0.13712864 -0.79152709 30 49
3.7546663 -0.16048847 -0.79347503 84 49
3.7633624 -0.18399738 -0.79563946 85 49
3.8565166 -0.21426685 -0.62549537 122 45
3.8580804 -0.23810719 -0.62600392 89 45
3.8526137 -0.26150966 -0.62532586 83 45
3.8336585 -0.21178493 -0.66905051 89 46
3.8303237 -0.23518309 -0.66868776 7 46
3.8278275 -0.25861469 -0.66850638 33 46
3.866379 -0.28506568 -0.6759429 135 46
3.8704388 -0.30925453 -0.67703116 148 46
3.8655291 -0.33274397 -0.67648703 133 46
3.8399127 -0.35428536 -0.67213392 28 46
3.8121915 -0.21181755 -0.71187097 6 47
3.7980886 -0.23442283 -0.70936149 4 47
3.8223248 -0.28303403 -0.7147665 9 47
3.8175819 -0.30624756 -0.71418738 95 47
3.8293171 -0.33084431 -0.71688986 18 47
3.9199781 0.19218045 -0.4430829 138 41
3.9240584 0.16825274 -0.44344798 140 41
3.9180737 0.14391491 -0.44259611 144 41
3.9198751 0.11990199 -0.44271779 166 41
3.9324441 0.096142471 -0.44417816 154 41
3.9389143 0.072122432 -0.44490832 125 41
3.9313428 0.047853347 -0.44393477 94 41
3.9089935 0.19216947 -0.48945308 165 42
3.910099 0.16818072 -0.48945308 158 42
3.9061055 0.14400358 -0.48878485 139 42
3.9098873 0.12012446 -0.48918578 145 42
3.8511066 0.094676204 -0.48116738 26 42
3.8555787 0.071117185 -0.48170194 12 42
3.9025173 0.048027001 -0.48798302 37 42
3.9146307 0.024152894 -0.48958671 158 42
3.9028127 0.00013349435 -0.48798302 166 42
3.9027402 -0.023813717 -0.48798302 131 42
3.9183757 -0.047955655 -0.49012128 19 42
3.8645961 0.19012219 -0.53216916 7 43
3.8528411 0.16584891 -0.53027236 8 43
3.8794901 0.14316148 -0.53406602 40 43
3.8743625 0.1191704 -0.53319055 27 43
3.8453512 0.094656147 -0.52881324 10 43
3.8438814 0.071022578 -0.52852142 9 43
3.8870022 0.024123693 -0.53479558 82 43
3.8752055 0.0002686381 -0.53304464 128 43
3.8899736 -0.023594731 -0.53523332 154 43
3.8966801 -0.047545128 -0.53625464 132 43
3.8933475 -0.071400285 -0.53581697 133 43
3.8918471 -0.095264159 -0.53567106 116 43
3.8921783 -0.11917228 -0.53581697 25 43
3.8723197 0.19037022 -0.58090097 19 44
3.8457913 0.16542113 -0.57648218 110 44
3.8496943 0.14192952 -0.57695562 149 44
3.8593757 0.11857761 -0.57837594 167 44
3.862005 0.094943032 -0.57869154 155 44
3.8615274 0.071226314 -0.57853377 126 44
3.861892 0.047531087 -0.57853377 102 44
3.8719854 0.023894012 -0.58011186 175 44
3.8710716 0.0001355718 -0.57995409 172 44
3.8759367 -0.023647498 -0.58074313 175 44
3.8846054 -0.047538996 -0.58216345 90 44
3.9039865 -0.071738407 -0.5853197 7 44
3.9034729 -0.095691465 -0.5853197 13 44
3.8978772 -0.11948915 -0.58453065 92 44
3.8921366 -0.14322177 -0.58374161 125 44
3.8862517 -0.16688845 -0.5829525 131 44
3.883182 -0.19063386 -0.58263689 78 44
3.8184912 0.18650945 -0.61871451 18 45
3.8077483 0.16256805 -0.61668026 14 45
3.8264015 0.13985442 -0.61973161 87 45
3.8262026 0.11634317 -0.61956209 119 45
3.8288147 0.092912257 -0.61990112 77 45
3.8165033 0.069181234 -0.61769736 7 45
3.8237541 0.045847118 -0.61888403 5 45
3.8506379 -0.0010790975 -0.62346107 14 45
3.818037 -0.024507303 -0.61786687 44 45
3.8828547 -0.048730657 -0.62905532 7 45
3.8962777 -0.072808154 -0.6314286 7 45
3.897728 -0.096762218 -0.63176763 10 45
3.8950908 -0.12061599 -0.6314286 9 45
3.8529131 -0.14299092 -0.62430871 122 45
3.852948 -0.16667156 -0.62447822 132 45
3.8538215 -0.19040634 -0.62481725 111 45
3.7995527 0.140086 -0.66215819 13 46
3.8052554 0.11692025 -0.66306508 120 46
3.8088505 0.093641646 -0.66360921 131 46
3.8093536 0.070269212 -0.66360921 97 46
3.8421631 0.047290258 -0.66959465 9 46
3.8522151 0.023773996 -0.67140841 15 46
3.8129518 0.00013937574 -0.66415334 134 46
3.8187811 -0.02329305 -0.6652416 163 46
3.8234832 -0.046784874 -0.66614848 155 46
3.8290236 -0.070353441 -0.66723675 198 46
3.8275366 -0.09382236 -0.66705537 144 46
3.8278718 -0.11733615 -0.66723675 131 46
3.8359246 -0.14114767 -0.66886914 136 46
3.8349862 -0.16468181 -0.66886914 166 46
3.8348858 -0.18825805 -0.66905051 156 46
3.8102219 -0.0010799792 -0.71032667 51 47
3.7961862 -0.047668912 -0.7076242 118 47
3.7938602 -0.070924893 -0.70723808 66 47
3.845341 -0.095477335 -0.71746898 7 47
3.8397791 -0.11891972 -0.7165038 9 47
3.8184249 -0.16518858 -0.71264309 19 47
3.7987192 -0.18770054 -0.70897543 43 47
3.9624076 0.17042542 -0.39923599 129 40
3.9544389 0.14578064 -0.39824995 147 40
3.6771574 0.50021607 -0.82916605 60 50
3.6867087 0.43256024 -0.82939404 19 50
3.7250988 0.41390559 -0.83783042 7 50
3.6927075 0.38738757 -0.82962203 16 50
3.6630394 0.3615694 -0.82209766 58 50
3.6739147 0.33989295 -0.82414979 98 50
3.6623504 0.31617284 -0.82095766 133 50
3.6603391 0.29338437 -0.82004559 137 50
3.6678965 0.27134982 -0.82141364 25 50
3.6724067 0.24903624 -0.82209766 28 50
3.6758094 0.22661771 -0.82255369 116 50
3.6829636 0.20438218 -0.8239218 105 50
3.6290882 0.53787398 -0.8637796 19 51
3.6198235 0.51381826 -0.86066985 119 51
3.6296427 0.49251384 -0.86234432 120 51
3.6316335 0.47010854 -0.86210513 88 51
3.6315589 0.44745925 -0.86138749 101 51
3.6371291 0.4255074 -0.86210513 106 51
3.6377413 0.40296796 -0.86162668 119 51
3.6420767 0.38084218 -0.86210513 67 51
3.6540079 0.35944128 -0.86449724 117 51
3.6580782 0.3371928 -0.86497569 111 51
3.6484699 0.31373894 -0.86210513 103 51
3.6454868 0.29095864 -0.8609091 118 51
3.6229956 0.26679441 -0.85492879 45 51
3.6507204 0.24633236 -0.86138749 10 51
3.6550705 0.22410652 -0.86210513 20 51
3.6738274 0.20264331 -0.86641091 93 51
3.6128464 0.55938625 -0.90656805 57 52
3.6123803 0.53663915 -0.9055652 53 52
3.5811019 0.50955814 -0.89653939 7 52
3.6216462 0.47005612 -0.9055652 62 52
3.6206191 0.44735083 -0.90456235 106 52
3.617527 0.42445046 -0.90305805 86 52
3.6364198 0.40406147 -0.90732026 5 52
3.6333973 0.35864663 -0.90531451 7 52
3.6394539 0.31419858 -0.9058159 25 52
3.6413131 0.29186139 -0.9058159 12 52
3.6468971 0.26979852 -0.90681881 12 52
3.6512454 0.20262535 -0.90681881 27 52
3.5660486 0.5739553 -0.93953252 80 53
3.6076522 0.55797642 -0.9500066 22 53
3.5976434 0.53384227 -0.94634068 6 53
3.5951185 0.51094085 -0.94476956 6 53
3.6067924 0.49004415 -0.94712621 8 53
3.6039889 0.46715784 -0.94555509 9 53
3.5560238 0.43875518 -0.93167692 71 53
3.5634415 0.41749063 -0.9329862 97 53
3.5985487 0.39924681 -0.94188917 23 53
3.5990109 0.37695733 -0.94136548 10 53
3.6185439 0.35657626 -0.94607884 5 53
3.6100926 0.33338696 -0.94319844 57 53
3.5861094 0.30898422 -0.93612844 121 53
3.5917857 0.28728351 -0.93717581 122 53
3.5992558 0.26566744 -0.93874693 124 53
3.6287417 0.2454758 -0.94634068 66 53
3.6244001 0.22284842 -0.94476956 42 53
3.6112449 0.19980091 -0.94084173 115 53
3.5537081 0.57258534 -0.98061889 76 54
3.559056 0.5510636 -0.98116481 104 54
3.5547574 0.52808517 -0.9789812 107 54
3.5522161 0.50545114 -0.9773435 81 54
3.5619235 0.48455262 -0.97925413 47 54
3.5552893 0.46145073 -0.97652465 125 54
3.556144 0.43939146 -0.97597873 150 54
3.5606842 0.41778713 -0.97652465 113 54
3.5689175 0.39656815 -0.97816235 126 54
3.5760677 0.37516358 -0.97952712 113 54
3.5945778 0.35481897 -0.98416728 20 54
3.5794442 0.33116296 -0.97925413 86 54
3.5804503 0.30911103 -0.9789812 96 54
3.5851564 0.28736627 -0.97980005 101 54
3.5897305 0.26557538 -0.98061889 114 54
3.5663369 0.24185452 -0.97352219 32 54
3.623446 0.22339496 -0.98935336 13 54
3.6420386 0.20211539 -0.99426651 7 54
3.5225062 0.52266824 -1.0126424 33 55
3.5265963 0.50117993 -1.012926 110 55
3.5315053 0.47979054 -1.0134934 93 55
3.5315301 0.45774189 -1.0126424 86 55
3.5314174 0.435711 -1.0117913 113 55
3.535929 0.41425821 -1.0123587 108 55
3.5469816 0.39350879 -1.0149118 62 55
3.5798469 0.37494382 -1.0239896 10 55
3.5897141 0.353726 -1.0262591 5 55
3.5813138 0.33071992 -1.0231385 7 55
3.5851865 0.30890441 -1.0237058 6 55
3.5678976 0.28536505 -1.0180323 36 55
3.5638435 0.26304206 -1.0163302 12 55
3.5481696 0.23999928 -1.0112239 6 55
3.5199535 0.45749021 -1.0543224 31 56
3.5084696 0.43412501 -1.0498992 117 56
3.5167613 0.41325778 -1.0516685 93 56
3.5192308 0.39167154 -1.0516685 94 56
3.5149157 0.36937225 -1.0496044 47 56
3.5637105 0.35240069 -1.0640532 9 56
3.5239751 0.30485833 -1.0504889 49 56
3.5362566 0.2840704 -1.0537326 93 56
3.5350742 0.26215529 -1.052848 98 56
3.541383 0.24078313 -1.0543224 99 56
3.555192 0.21981432 -1.0581558 68 56
3.4927721 0.38809106 -1.0863932 56 57
3.4931936 0.3664532 -1.0857822 61 57
3.498219 0.345294 -1.0866988 77 57
3.5040643 0.32417497 -1.0879209 72 57
3.5078847 0.30283275 -1.088532 77 57
3.511575 0.28145584 -1.089143 88 57
3.5160847 0.26011562 -1.0900596 98 57
3.5185645 0.23860118 -1.0903652 88 57
3.5560758 0.21924564 -1.1019752 32 57
3.4859698 0.3219142 -1.1244767 49 58
3.4944963 0.30108801 -1.1266886 92 58
3.496278 0.2796405 -1.1266886 91 58
3.4979281 0.25818247 -1.1266886 85 58
3.5202718 0.23812112 -1.1336402 19 58
3.5292425 0.21698159 -1.136168 6 58
3.4715247 0.25619781 -1.1610454 66 59
3.4768035 0.23514849 -1.1623516 80 59
3.476294 0.21369419 -1.1616986 83 59
3.7789187 0.3723321 -0.66125131 56 46
3.7781944 0.34886712 -0.66070718 36 46
3.7400925 0.32222128 -0.65327072 7 46
3.7486687 0.27666172 -0.65417761 5 46
3.763051 0.25451651 -0.65653551 10 46
3.7910442 0.23304853 -0.66143268 43 46
3.7806199 0.20913215 -0.65925616 11 46
3.7754226 0.41759962 -0.70801026 12 47
3.7525415 0.39176941 -0.70299131 81 47
3.7382751 0.36710155 -0.69970971 119 47
3.738503 0.34397662 -0.69932365 96 47
3.731745 0.32027328 -0.6975863 38 47
3.7414646 0.29799533 -0.69913059 14 47
3.7442012 0.27510473 -0.69932365 14 47
3.7565873 0.25285372 -0.70144701 99 47
3.7580678 0.22979899 -0.70144701 94 47
3.7594073 0.20673558 -0.70144701 105 47
3.7016375 0.43300599 -0.73910421 59 48
3.713954 0.4113616 -0.74114919 116 48
3.7154346 0.38846377 -0.74094468 106 48
3.7177482 0.365659 -0.74094468 117 48
3.7286947 0.34364802 -0.74278516 107 48
3.7395105 0.32151645 -0.74462557 120 48
3.7228732 0.2970877 -0.74074018 57 48
3.7233086 0.25118259 -0.74012667 60 48
3.728688 0.22857122 -0.74094468 98 48
3.7309976 0.20574191 -0.74114919 112 48
3.6638401 0.4527401 -0.77875715 79 49
3.6859412 0.43253249 -0.78308594 26 49
3.6870878 0.38685903 -0.78222018 8 49
3.6903636 0.36432442 -0.78243661 20 49
3.6944737 0.34185442 -0.78286952 90 49
3.6828847 0.31799901 -0.77983934 17 49
3.6847665 0.29539528 -0.77983934 6 49
3.683589 0.27256337 -0.77919 5 49
3.6881142 0.25015527 -0.77983934 8 49
3.6915286 0.22764152 -0.78027219 9 49
3.7074773 0.20580272 -0.78351879 92 49
3.6270509 0.47075701 -0.81662542 128 50
3.635669 0.44920874 -0.81799346 107 50
3.9484563 0.21787876 -0.44673377 36 41
3.8875465 0.23897095 -0.48691389 94 42
3.9037826 0.21593244 -0.48891851 62 42
3.8436625 0.26008406 -0.52968872 99 43
3.8590097 0.23734932 -0.53173143 8 43
3.858418 0.21355647 -0.5314396 10 43
3.8351278 0.3067047 -0.57616657 102 44
3.8359528 0.28309444 -0.57600874 142 44
3.8326914 0.25921947 -0.57521969 113 44
3.8371668 0.23587911 -0.57569313 138 44
3.8385417 0.21233025 -0.57569313 50 44
3.8060932 0.32667738 -0.6182059 99 45
3.8109732 0.30355313 -0.61871451 82 45
3.8058839 0.27965608 -0.61752784 113 45
3.8085115 0.25636485 -0.61769736 101 45
3.8149312 0.2332937 -0.618545 120 45
3.823179 0.21026225 -0.61973161 81 45
