# .PCD v0.7 - Point Cloud Data file format
VERSION 0.7
FIELDS x y z intensity ring
SIZE 4 4 4 4 1
TYPE F F F F U
COUNT 1 1 1 1 1
WIDTH 296
HEIGHT 1
VIEWPOINT 0 0 0 1 0 0 0
POINTS 296
DATA ascii
3.9558716 1.2016265 -1.2347854 82 56
3.9824061 1.1830436 -1.2409778 31 56
4.003355 1.1625817 -1.2454009 16 56
4.017767 1.1400818 -1.2477599 131 56
4.0366578 1.1187242 -1.2515932 103 56
3.9749691 1.1803455 -1.2892646 52 57
3.9894516 1.158059 -1.2917088 68 57
3.9181833 1.2937626 -0.82253861 171 48
3.9428132 1.2751169 -0.8262195 125 48
3.9561622 1.2526727 -0.82744652 130 48
4.0058503 1.2414095 -0.83664882 72 48
4.0190129 1.2185103 -0.83787578 86 48
4.0292292 1.1946616 -0.83848929 115 48
4.0496464 1.17373 -0.84135222 122 48
4.0661907 1.1515261 -0.8433972 40 48
4.1090317 1.1364671 -0.85116804 9 48
4.1253781 1.1137837 -0.85321301 127 48
4.135921 1.0894469 -0.85403097 101 48
4.152009 1.0664833 -0.85607594 8 48
4.1926599 1.0495411 -0.86343783 10 48
3.8172991 1.3934436 -0.86122066 21 49
3.8064773 1.3630774 -0.85667539 86 49
3.8746068 1.3340771 -0.86879599 4 49
3.9092233 1.2925644 -0.87312478 16 49
3.9152234 1.2679514 -0.87269193 128 49
3.9210684 1.2433134 -0.87225902 28 49
3.9892259 1.2380574 -0.88632762 4 49
4.0051541 1.2161119 -0.88827556 41 49
4.0190916 1.1934611 -0.88979065 98 49
4.050714 1.175861 -0.89541811 86 49
4.0691228 1.1541842 -0.89801538 30 49
4.0930624 1.1338911 -0.90191126 62 49
4.1253867 1.1156436 -0.90775514 107 49
4.1434817 1.0933018 -0.91035241 96 49
4.1661844 1.0719975 -0.91403192 97 49
3.8330879 1.3459069 -0.91147798 122 50
3.8532429 1.3264811 -0.91444212 36 50
3.8640771 1.3037467 -0.9151262 31 50
3.8895693 1.2858175 -0.91945839 109 50
3.9020174 1.2634265 -0.92059845 135 50
3.9347565 1.2474025 -0.92675471 20 50
3.9926262 1.2120291 -0.93724322 25 50
4.0055885 1.1891701 -0.93861133 101 50
4.06424 1.1794906 -0.95115191 7 50
4.1144915 1.1667455 -0.96164042 6 50
4.131319 1.1169287 -0.96232444 25 50
4.1409192 1.0923032 -0.96300852 5 50
4.1522584 1.0680867 -0.96414852 11 50
4.1672339 1.044719 -0.96620065 12 50
3.8457417 1.3226336 -0.96185631 90 51
3.8510249 1.2980804 -0.96113867 125 51
3.8672144 1.2771693 -0.96329153 108 51
3.886987 1.2573048 -0.96640128 114 51
3.9131398 1.2392994 -0.97118551 112 51
3.9401448 1.221308 -0.97620898 86 51
3.980083 1.2069801 -0.98458135 98 51
4.0060306 1.1880627 -0.98936558 90 51
4.0262995 1.1672484 -0.99271452 83 51
4.0511346 1.1475544 -0.99725956 32 51
4.074007 1.1270812 -1.0013262 90 51
4.0930314 1.1053566 -1.0044359 100 51
4.1156969 1.0844314 -1.0085025 78 51
4.1918597 1.0770571 -1.0262041 6 51
3.8612077 1.3027788 -1.015129 84 52
3.8672905 1.2784548 -1.0146275 83 52
3.9518998 1.2528355 -1.0334314 11 52
3.9807785 1.2351598 -1.0391979 4 52
3.9743872 1.2064942 -1.0354371 56 52
3.992852 1.1853902 -1.0384457 82 52
3.9991205 1.1605985 -1.038195 5 52
4.0238624 1.1410547 -1.0429586 6 52
4.0681067 1.1266751 -1.0529873 126 52
4.0768123 1.1021976 -1.0534887 137 52
4.1349821 1.0907376 -1.0672783 46 52
4.1547227 1.0687203 -1.0707884 29 52
3.8629901 1.276518 -1.0633886 59 53
3.8753407 1.2542783 -1.0646979 81 53
3.9418397 1.2491519 -1.0814564 7 53
3.927309 1.2180738 -1.0751719 47 53
3.956872 1.2006854 -1.0814564 103 53
3.9734161 1.1791321 -1.084075 53 53
4.1370678 1.1726995 -1.1262332 6 53
4.0549002 1.1225486 -1.1010953 55 53
4.0794125 1.1024358 -1.1060705 23 53
4.0982313 1.0805864 -1.1094747 6 53
4.1197386 1.0592693 -1.1136643 5 53
4.1121192 1.0304483 -1.1097364 20 53
4.1858659 1.0216928 -1.1285899 126 53
3.8848727 1.257877 -1.1179137 34 54
3.9227812 1.2436073 -1.1269212 102 54
3.9349322 1.2209392 -1.1282859 136 54
3.9478731 1.1984481 -1.1299236 112 54
3.97452 1.1799496 -1.1356556 135 54
4.0140228 1.1649219 -1.145209 61 54
4.0294251 1.1426316 -1.1476655 143 54
4.0493402 1.1214796 -1.1514869 125 54
4.0710049 1.1006281 -1.1558541 135 54
4.1074491 1.0834775 -1.1645886 84 54
4.1382442 1.0644833 -1.1716852 131 54
4.143765 1.0388376 -1.1714123 105 54
3.9568772 1.2539219 -1.1871059 26 55
3.9324439 1.219668 -1.1771771 86 55
3.9838946 1.2088937 -1.1907938 35 55
4.0202317 1.1395465 -1.1953326 15 55
4.0594912 1.1238209 -1.2052615 74 55
4.0746412 1.1011449 -1.2078146 70 55
4.0859566 1.0773464 -1.209233 80 55
3.9587755 1.3349215 -0.42257246 117 40
3.9763303 1.313723 -0.42366806 155 40
4.002285 1.2951127 -0.42574972 129 40
4.0310035 1.2771336 -0.42816004 118 40
4.062499 1.2597334 -0.43089908 125 40
4.080615 1.2379559 -0.43210423 131 40
4.0805106 1.2106333 -0.43122774 25 40
4.1012278 1.1894479 -0.43276161 19 40
4.1428771 1.174014 -0.4367058 103 40
4.1557508 1.1501619 -0.43736318 111 40
4.1924772 1.1326751 -0.44075954 42 40
3.8813596 1.3883941 -0.46730042 58 41
3.9001074 1.3681695 -0.46863908 128 41
3.9140599 1.3461516 -0.46936926 126 41
3.9419961 1.3287736 -0.47192487 73 41
3.947248 1.3036263 -0.47155979 5 41
3.9504509 1.2778533 -0.47095129 6 41
4.0367489 1.2784853 -0.48105207 41 41
4.063477 1.2595749 -0.483486 104 41
4.0749283 1.2357714 -0.48397279 99 41
4.0158277 1.1909711 -0.47545406 11 41
4.1221962 1.1950784 -0.48811045 73 41
4.1428204 1.1735535 -0.48981419 106 41
4.1604652 1.1510257 -0.49115285 93 41
4.1818223 1.1293615 -0.4929783 111 41
4.1857939 1.1029216 -0.4926132 44 41
3.8593831 1.3810375 -0.51444381 106 42
3.8780708 1.3609396 -0.51591384 135 42
3.9004056 1.3419535 -0.51791847 146 42
3.9217138 1.3224279 -0.5197894 159 42
3.9721007 1.3123261 -0.52580321 36 42
3.9659343 1.2833536 -0.52379858 5 42
4.0190835 1.2733582 -0.53021336 87 42
4.0164084 1.2454458 -0.52874333 107 42
4.0315619 1.2230792 -0.5298124 14 42
4.0674944 1.2067728 -0.53382164 10 42
4.1582775 1.1783766 -0.54451287 42 42
4.1291342 1.1427978 -0.53943449 4 42
3.879606 1.3617288 -0.56791723 59 43
3.8953712 1.3404757 -0.56908453 111 43
3.9147708 1.3203461 -0.57083541 102 43
3.9519155 1.3059314 -0.57535863 13 43
3.9749124 1.2865369 -0.57769322 61 43
4.0006485 1.2678064 -0.5804655 127 43
4.01969 1.246755 -0.58221644 100 43
4.0443029 1.2272427 -0.5848428 89 43
4.0564985 1.2038128 -0.58557236 93 43
4.0932603 1.1874526 -0.59009558 116 43
4.1176004 1.1671754 -0.592722 95 43
4.1342182 1.1445305 -0.59418106 56 43
3.8743913 1.3864064 -0.61893398 8 44
3.8716438 1.3586848 -0.61704022 57 44
3.8892453 1.338115 -0.61861837 94 44
3.9357476 1.3271587 -0.62508869 10 44
3.9977746 1.2936537 -0.63282156 7 44
4.0056372 1.2690995 -0.63282156 56 44
4.02844 1.2491754 -0.63534659 14 44
4.0691028 1.2344644 -0.64087003 3 44
4.0784941 1.2100352 -0.64118564 8 44
4.0886869 1.1858121 -0.64165908 107 44
4.0987363 1.1615095 -0.64213252 124 44
4.1238689 1.1413412 -0.64513099 20 44
4.1698804 1.1265721 -0.65160137 49 44
3.8225009 1.393085 -0.66092533 26 45
3.8281929 1.3686082 -0.66041678 78 45
3.8662763 1.3555359 -0.66584146 138 45
3.8773167 1.3327491 -0.66635007 127 45
3.893826 1.3117673 -0.66787571 99 45
3.9392328 1.3002172 -0.67465657 46 45
3.9518249 1.277539 -0.67550421 114 45
3.9736819 1.2577319 -0.678047 103 45
3.9992092 1.2388719 -0.68126792 69 45
4.1180196 1.2480702 -0.70127147 6 45
4.0670209 1.2053996 -0.69076115 25 45
4.0989504 1.1875595 -0.69516867 100 45
4.0938334 1.1588933 -0.69296491 42 45
4.1654549 1.1516277 -0.70449239 5 45
3.8697236 1.3580111 -0.7172969 83 46
3.8668242 1.3304031 -0.71512038 32 46
3.8926203 1.3126204 -0.7185666 5 46
3.9267476 1.2973467 -0.72364515 15 46
3.9505405 1.2783738 -0.72672856 120 46
3.9601851 1.2547035 -0.72709131 141 46
4.0128965 1.2443572 -0.73579741 62 46
4.039278 1.2254193 -0.73942494 21 46
4.0504923 1.2017303 -0.74015045 103 46
4.0681791 1.1798664 -0.74214566 127 46
4.0895348 1.1589029 -0.74486631 128 46
4.1325855 1.1437528 -0.75175864 97 46
4.1585135 1.1235024 -0.75538617 137 46
4.1786423 1.1014731 -0.75792545 156 46
3.8177381 1.3913476 -0.76012987 15 47
3.8141935 1.3635988 -0.75762045 61 47
3.8252661 1.3411444 -0.75819951 89 47
3.8556907 1.3253088 -0.7628324 50 47
3.899081 1.3135393 -0.77016777 8 47
3.9154522 1.2923605 -0.77190506 6 47
3.9335771 1.2716342 -0.77402848 66 47
3.9628191 1.2542903 -0.77846831 35 47
3.9451373 1.222105 -0.7732563 5 47
3.9741571 1.2044266 -0.77769613 3 47
4.0068703 1.1875541 -0.78290808 12 47
4.0932403 1.1859034 -0.79912311 38 47
4.1216693 1.1395096 -0.80201864 4 47
4.1465812 1.1190603 -0.80568635 47 47
4.16855 1.0975977 -0.80877489 98 47
3.7948015 1.3835106 -0.80433846 137 48
3.8087494 1.3621774 -0.80556542 133 48
3.8216546 1.3404011 -0.80658787 138 48
3.8436928 1.3216999 -0.80965537 120 48
3.872138 1.3049661 -0.81415427 67 48
3.8096316 1.4162109 -0.5097664 85 42
3.8433881 1.401976 -0.51337469 135 42
3.7945442 1.4108267 -0.55857897 55 43
3.8444743 1.4023721 -0.61530429 18 44
4.0990453 1.6102473 -0.77316117 12 46
3.9288783 1.4605273 -0.73398364 4 46
3.8749409 1.4134823 -0.72165 4 46
3.843133 1.4279008 -0.8170172 60 48
4.0828795 1.2652729 -0.32816523 40 38
4.1048689 1.244532 -0.32944387 92 38
4.1181598 1.2210205 -0.32995534 117 38
4.1389723 1.1996107 -0.33114874 106 38
4.0056343 1.2957205 -0.37358925 80 39
4.0192018 1.2729225 -0.37417266 144 39
4.0497499 1.2553157 -0.3765063 108 39
4.0773754 1.2365142 -0.37854823 30 39
4.0562625 1.2029752 -0.37563118 5 39
4.1645555 1.1797168 -0.38516027 73 39
4.304462 0.99328673 -0.8298158 104 47
4.3315372 0.97158641 -0.83406258 72 47
4.3394113 0.97375494 -0.88961327 8 48
4.3041778 0.93815029 -0.88081998 41 48
4.3615685 0.92265797 -0.89186275 34 48
4.2682786 0.98727298 -0.9315635 44 49
4.2999725 0.96685427 -0.93740737 87 49
4.3420668 0.94837797 -0.9456321 143 49
4.3525791 0.92273128 -0.94671428 110 49
4.3801527 0.90053475 -0.9516924 47 49
4.2015281 0.99867868 -0.9714449 37 50
4.2350874 0.97923827 -0.97805721 6 50
4.2780652 0.96155775 -0.98694962 49 50
4.3352532 0.94650036 -0.99926227 135 50
4.3524098 0.92230302 -1.0019984 117 50
4.3637094 0.89675522 -1.0033665 141 50
4.3949127 0.87509465 -1.0095228 69 50
4.2312198 0.97714037 -1.0297923 7 51
4.2873445 0.96244478 -1.0424706 38 51
4.3178334 0.94150484 -1.04869 117 51
4.3197298 0.91418827 -1.0477332 61 51
4.2532682 0.98344034 -1.0903443 123 52
4.2611117 0.95774865 -1.0908457 63 52
4.2938261 0.99202776 -0.7737053 144 46
4.2461939 1.0348701 -0.82055008 132 47
4.2763295 1.0144649 -0.82537597 127 47
4.237062 1.0330671 -0.87161767 33 48
4.2433209 1.0070496 -0.87161767 44 48
4.1982503 1.052833 -0.91987574 91 49
4.2273917 1.0326194 -0.92507029 99 49
4.2478943 1.0100526 -0.92831689 129 49
4.2095094 1.0279032 -0.97486508 123 50
4.1974478 1.05108 -1.025965 73 51
4.2104211 1.0269173 -1.0276394 103 51
4.2109747 0.99971622 -1.0262041 14 51
4.1950068 1.051679 -1.0798142 114 52
4.2136068 1.0289034 -1.0830735 109 52
4.2330265 1.0061626 -1.0865836 139 52
4.2145901 1.0013498 -1.1348743 69 53
4.2078247 1.1368198 -0.54945755 8 42
4.2635951 1.1238581 -0.55627322 20 42
4.2416153 1.0902771 -0.55226398 59 42
4.1957788 1.1063358 -0.60147661 57 43
4.2254815 1.086489 -0.60497844 125 43
4.2387857 1.0622265 -0.60599983 92 43
4.1996312 1.1070036 -0.65538889 138 44
4.2120829 1.0826888 -0.65633577 157 44
4.2272677 1.0589824 -0.65775609 144 44
4.2912469 1.0470639 -0.66722488 94 44
4.194521 1.1044436 -0.7072047 25 45
4.2126727 1.0816298 -0.70923901 8 45
4.2297463 1.0583953 -0.71110374 4 45
4.2342458 1.0319549 -0.71076465 5 45
4.3028235 1.0207574 -0.72178358 103 45
4.1967521 1.0787495 -0.76010197 138 46
4.2338185 1.0606228 -0.7659061 18 46
4.2650876 1.0406834 -0.7706219 85 46
4.2742629 1.0151752 -0.77116603 167 46
4.1951628 1.0771289 -0.81282866 33 47
4.2035961 1.0518445 -0.81321472 21 47
