# .PCD v0.7 - Point Cloud Data file format
VERSION 0.7
FIELDS x y z intensity ring
SIZE 4 4 4 4 1
TYPE F F F F U
COUNT 1 1 1 1 1
WIDTH 472
HEIGHT 1
VIEWPOINT 0 0 0 1 0 0 0
POINTS 472
DATA ascii
3.5568061 0.043806903 -1.2310826 23 60
3.4477746 0.14888962 -1.2359118 21 61
3.4430006 0.1275215 -1.2338282 64 61
3.442781 0.10636397 -1.2334809 76 61
3.4433689 0.085237458 -1.2334809 60 61
3.4860189 0.064907506 -1.2491078 26 61
3.7199936 -0.20484564 -0.83258617 63 50
3.7381032 -0.22885923 -0.8371464 75 50
3.7193449 -0.20603868 -0.8776539 41 51
3.7921691 -0.32764614 -0.70955455 29 47
3.7788327 -0.20940937 -0.75116944 154 48
3.7774765 -0.23259191 -0.75116944 104 48
3.7798848 -0.25603071 -0.75198746 61 48
3.7811713 -0.27943555 -0.75260097 106 48
3.7631373 -0.20713884 -0.79585588 85 49
3.7656934 -0.23046245 -0.79672164 97 49
3.7729754 -0.25415179 -0.79866958 70 49
3.6870658 0.18192375 -0.82460582 119 50
3.7007585 0.15984178 -0.82756996 98 50
3.7016697 0.13713135 -0.82756996 80 50
3.690763 0.11405607 -0.82483381 51 50
3.6982069 0.091575831 -0.8264299 130 50
3.7006462 0.068918392 -0.82688594 131 50
3.7000258 0.046198305 -0.82665789 98 50
3.7012131 0.023500582 -0.82688594 85 50
3.7152777 -0.067606047 -0.83030611 121 50
3.7196598 -0.090520233 -0.83144611 87 50
3.6812947 -0.13480157 -0.82278174 5 50
3.6910331 -0.18053859 -0.82551783 7 50
3.6517267 0.17894931 -0.86066985 109 51
3.652756 0.15653937 -0.86066985 48 51
3.6507368 0.13401574 -0.85995221 7 51
3.6602249 0.11188249 -0.86210513 8 51
3.668608 0.089613825 -0.8640188 7 51
3.6671472 0.067065857 -0.86354041 6 51
3.673315 0.044636037 -0.86497569 46 51
3.6715777 0.022083862 -0.86449724 8 51
3.6706731 -0.00044512158 -0.86425805 6 51
3.6735141 -0.022985242 -0.86497569 5 51
3.6733041 -0.04552507 -0.86497569 5 51
3.6904302 -0.068381451 -0.86928147 67 51
3.6899409 -0.09102422 -0.86928147 154 51
3.6893129 -0.11366355 -0.86928147 131 51
3.6507039 -0.13491224 -0.85995221 17 51
3.6439867 -0.157061 -0.85851699 7 51
3.7040524 -0.18240663 -0.87358731 89 51
3.65242 0.18021791 -0.90681881 92 52
3.6505556 0.15767868 -0.90606666 95 52
3.6514542 0.13527632 -0.90606666 40 52
3.6580212 0.11304767 -0.90757096 14 52
3.667356 0.090815112 -0.90982741 15 52
3.6659083 0.068275087 -0.90932596 111 52
3.6652904 0.045768224 -0.90907526 105 52
3.6655021 0.023277564 -0.90907526 141 52
3.6694481 0.0007864497 -0.91007811 138 52
3.6771283 -0.021775549 -0.91208386 107 52
3.6817653 -0.044396445 -0.91333747 114 52
3.6814237 -0.066986494 -0.91333747 134 52
3.6732011 -0.089384809 -0.91133171 124 52
3.6696806 -0.1118327 -0.91057956 131 52
3.6805344 -0.13477364 -0.91358817 119 52
3.6835067 -0.15752028 -0.91459107 107 52
3.7018089 -0.1810668 -0.91960543 22 52
3.6124029 0.17763898 -0.94084173 119 53
3.6095681 0.15530315 -0.93979436 112 53
3.6065953 0.13300881 -0.93874693 122 53
3.6169899 0.11117627 -0.94136548 96 53
3.6185689 0.089004792 -0.94162732 19 53
3.6296611 0.066999346 -0.94450772 88 53
3.6193886 0.044592686 -0.94162732 128 53
3.6176639 0.022371136 -0.94110364 121 53
3.6254539 0.00017600958 -0.94319844 96 53
3.6331074 -0.022113871 -0.94529325 8 53
3.624218 -0.044302415 -0.9429366 5 53
3.6619945 -0.08970689 -0.95341069 27 53
3.6440113 -0.11164834 -0.94869733 132 53
3.642293 -0.13397031 -0.94843549 112 53
3.6481521 -0.15660405 -0.95026845 10 53
3.5999713 0.17763554 -0.98198366 29 54
3.6134882 0.15608154 -0.98553205 96 54
3.5836139 0.1327702 -0.97679758 48 54
3.5968616 0.11116406 -0.98034596 9 54
3.5849733 0.088783748 -0.97679758 3 54
3.5892982 0.06685634 -0.97788942 7 54
3.5973365 0.044926848 -0.98007303 6 54
3.6081264 0.022919247 -0.9830755 60 54
3.5966549 0.00077850919 -0.97980005 61 54
3.6177561 -0.02141772 -0.98580498 10 54
3.6214044 -0.043662254 -0.98689681 8 54
3.6417542 -0.088616267 -0.99290174 65 54
3.6440268 -0.1110482 -0.99372059 64 54
3.6037045 0.17720841 -1.0265427 5 55
3.5759833 0.15384728 -1.0180323 94 55
3.5797348 0.13200951 -1.0188833 124 55
3.5804775 0.11004218 -1.0188833 40 55
3.5667059 0.087712385 -1.0146281 7 55
3.5422494 0.065357678 -1.0072525 6 55
3.6029909 0.044385362 -1.0251243 85 55
3.6003187 0.022258272 -1.0242733 110 55
3.5946341 0.000164579 -1.0225712 114 55
3.5859373 -0.02184193 -1.0200181 99 55
3.5819004 -0.043798767 -1.0188833 97 55
3.5873168 -0.065879844 -1.0205854 92 55
3.6232731 -0.08877071 -1.0313653 41 55
3.5621982 0.198314 -1.059925 53 56
3.5595305 0.17626441 -1.0587455 101 56
3.5586357 0.15433761 -1.0581558 99 56
3.5604706 0.13253477 -1.0584506 124 56
3.5621719 0.11071522 -1.0587455 83 56
3.5637395 0.088879779 -1.0590403 96 56
3.5575302 0.066886395 -1.0569762 14 56
3.5464082 0.04491258 -1.0534377 28 56
3.5724158 0.023317004 -1.0613993 98 56
3.5696251 0.0013958199 -1.0605147 123 56
3.5705218 -0.020512605 -1.0608096 91 56
3.5722399 -0.042443439 -1.0613993 96 56
3.6235025 -0.065296628 -1.0773226 32 56
3.5727637 0.17629921 -1.1065582 5 57
3.5414348 0.1529661 -1.0961702 31 57
3.5432582 0.13126895 -1.0964757 95 57
3.54019 0.10940655 -1.0952536 69 57
3.5741105 0.088518336 -1.1059471 6 57
3.5615983 0.044480979 -1.1016697 4 57
3.5618041 0.022626588 -1.1016697 5 57
3.568541 0.00077497849 -1.1038084 21 57
3.5494354 -0.02101473 -1.0976979 95 57
3.5682819 -0.043016568 -1.1038084 36 57
3.5039823 0.19385794 -1.1273205 5 58
3.497525 0.17198232 -1.1247927 4 58
3.5098891 0.15100679 -1.1285845 8 58
3.521179 0.12985112 -1.1320603 70 58
3.5143228 0.1080108 -1.1295325 100 58
3.5253527 0.08670073 -1.1330081 72 58
3.5419445 0.065363765 -1.1383798 12 58
3.5479712 0.043699056 -1.1402757 9 58
3.5443776 0.021905253 -1.1390119 47 58
3.5302136 0.0001578809 -1.1342721 85 58
3.4784837 0.19241254 -1.1620251 50 59
3.5409601 0.17410265 -1.1832514 11 59
3.4909701 0.15016198 -1.1656172 70 59
3.4946592 0.1288444 -1.1665969 78 59
3.495384 0.10739914 -1.1665969 87 59
3.498812 0.086020485 -1.1675766 70 59
3.4973838 0.064515062 -1.1669235 89 59
3.5014942 0.0431021 -1.1682297 82 59
3.5139799 0.021696474 -1.172475 55 59
3.4679761 0.19186988 -1.2010958 77 60
3.4737902 0.17081785 -1.2027804 84 60
3.4719508 0.14937876 -1.2017696 107 60
3.4699793 0.12796868 -1.2007588 79 60
3.469758 0.10664606 -1.2004219 81 60
3.4712884 0.085377067 -1.2007588 76 60
3.4764538 0.064162374 -1.2024435 96 60
3.7742712 0.16112855 -0.6109165 10 45
3.7928545 0.068745352 -0.61362886 4 45
3.7851295 0.046594046 -0.65907478 12 46
3.768445 0.18404974 -0.70299131 92 47
3.7636216 0.16067061 -0.70183307 59 47
3.7743418 0.1379358 -0.70376343 78 47
3.7780595 0.11486464 -0.70434254 109 47
3.7786932 0.091680743 -0.70434254 116 47
3.7782035 0.068475306 -0.70414954 107 47
3.7785525 0.045291398 -0.70414954 99 47
3.7169454 0.021725144 -0.69198829 8 47
3.7895389 -0.02433306 -0.7062729 138 47
3.7912805 -0.047608815 -0.70665902 132 47
3.7286143 -0.092614405 -0.69449776 6 47
3.7397447 -0.11585192 -0.69681418 4 47
3.7575934 -0.13948217 -0.70048183 6 47
3.7811739 -0.16358843 -0.70530772 25 47
3.7488108 0.1836576 -0.74462557 48 48
3.7694266 0.1614878 -0.74871552 10 48
3.7703464 0.138356 -0.74871552 6 48
3.7681892 0.1151296 -0.74810201 7 48
3.7756746 0.092172779 -0.74953347 46 48
3.7722542 0.068932809 -0.74871552 49 48
3.7471576 0.045479182 -0.74339861 7 48
3.7346411 0.022411173 -0.74074018 7 48
3.735687 -0.0005048099 -0.74094468 7 48
3.7326772 -0.023407822 -0.74033117 16 48
3.7706361 -0.046788294 -0.74830651 102 48
3.7692993 -0.069905348 -0.74810201 131 48
3.7472711 -0.092498355 -0.74360311 26 48
3.7456546 -0.11545917 -0.74339861 4 48
3.7605267 -0.13902013 -0.74667054 8 48
3.7820959 -0.16306378 -0.75137395 112 48
3.7820017 -0.18631548 -0.75157845 147 48
3.7174463 0.18348612 -0.78546679 33 49
3.7526402 0.16215868 -0.79304212 7 49
3.7475169 0.11588244 -0.79152709 12 49
3.7218056 0.09222465 -0.78568321 110 49
3.7281582 0.069497362 -0.78698182 150 49
3.7343717 0.046695586 -0.78828049 115 49
3.7365406 0.023794077 -0.78871334 83 49
3.7200191 0.00085759687 -0.78503388 16 49
3.7472901 -0.02212085 -0.79109418 139 49
3.7382979 -0.045010339 -0.78914624 127 49
3.7379513 -0.067947254 -0.78914624 114 49
3.7442961 -0.091045603 -0.79066133 114 49
3.7534256 -0.11431262 -0.7928257 119 49
3.7097247 -0.13578333 -0.78330237 23 49
3.7575927 -0.16061264 -0.79412436 85 49
3.7594619 -0.18380789 -0.79477364 99 49
3.6630487 -0.044168789 -0.81799346 14 50
3.8624208 -0.2145931 -0.62651247 102 45
3.8659499 -0.23859049 -0.62736011 109 45
3.8585134 -0.26190835 -0.62634295 65 45
3.8248212 -0.21129583 -0.66741812 112 46
3.7959692 -0.23307022 -0.66233957 8 46
3.8386202 -0.259345 -0.67050153 35 46
3.8497064 -0.28383476 -0.67285949 132 46
3.8596556 -0.30839187 -0.67503601 131 46
3.879246 -0.33392611 -0.67902631 136 46
3.881041 -0.3580842 -0.67975181 19 46
3.7955368 -0.21089724 -0.70858938 6 47
3.8147376 -0.23544531 -0.71264309 5 47
3.8164537 -0.28260109 -0.71360826 13 47
3.8283408 -0.30710736 -0.7163108 87 47
3.8301237 -0.30669922 -0.76323473 12 48
3.9170039 0.19203375 -0.44271779 138 41
3.9171169 0.16795304 -0.44259611 149 41
3.9180737 0.14391491 -0.44259611 134 41
3.9149146 0.11974878 -0.44210932 182 41
3.9185524 0.095798723 -0.4424744 158 41
3.9270058 0.071900852 -0.44344798 134 41
3.9452376 0.048026599 -0.44563851 85 41
3.8981051 0.19163528 -0.48798302 164 42
3.8952472 0.1675434 -0.48744845 177 42
3.899173 0.14374869 -0.48784938 196 42
3.8980005 0.11976044 -0.48758209 160 42
3.8659678 0.095040053 -0.48317197 26 42
3.8674688 0.071335308 -0.4833056 9 42
3.8737795 0.047676198 -0.48410746 47 42
3.9205768 0.024188988 -0.49038854 164 42
3.9176784 0.00013252141 -0.48998761 169 42
3.9067042 -0.0238383 -0.48851758 137 42
3.9021435 0.19198073 -0.53771377 11 43
3.9002509 0.14393385 -0.53713012 40 43
3.8615079 0.11877112 -0.53129369 18 43
3.8463402 0.094680794 -0.52895916 11 43
3.8135788 0.047047913 -0.5239982 4 43
3.8731525 0.024033573 -0.53275281 87 43
3.8831201 0.0002715734 -0.53421193 145 43
3.8850272 -0.023566214 -0.53450376 132 43
3.8907447 -0.047474489 -0.53537923 128 43
3.8973041 -0.071471654 -0.53640056 125 43
3.9037154 -0.095551103 -0.53742194 94 43
3.8921783 -0.11917228 -0.53581697 26 43
3.887114 0.19109604 -0.58326817 12 44
3.8329659 0.16487077 -0.57443058 128 44
3.8437734 0.14171185 -0.57600874 158 44
3.8445706 0.11812422 -0.57600874 141 44
3.851146 0.094677173 -0.57695562 167 44
3.8536291 0.071081422 -0.57727122 153 44
3.8757155 0.047699831 -0.58074313 102 44
3.8709979 0.023888018 -0.57995409 145 44
3.8572471 0.00013647662 -0.57774466 161 44
3.8640873 -0.023574013 -0.57884938 156 44
3.8767061 -0.047441535 -0.58090097 107 44
3.9395292 -0.072395071 -0.59100103 7 44
3.8791242 -0.1189124 -0.58153218 80 44
3.8872027 -0.14303972 -0.5829525 128 44
3.8793459 -0.1665912 -0.58184785 139 44
3.9117842 -0.19204088 -0.58721352 83 44
3.8017573 0.18568699 -0.61583263 12 45
3.8175378 0.13952775 -0.6182059 78 45
3.815367 0.11601039 -0.61769736 131 45
3.8278296 0.09288805 -0.61973161 75 45
3.8099577 0.045677502 -0.61651069 12 45
3.8357894 0.022456964 -0.62091827 7 45
3.8427536 -0.0010792696 -0.62210494 11 45
3.8288777 -0.024573585 -0.61973161 42 45
3.8582184 -0.048428845 -0.62481725 8 45
3.8637607 -0.07221023 -0.62583441 8 45
3.8740826 -0.096182272 -0.62769914 6 45
3.8763745 -0.12004201 -0.62820768 11 45
3.8460193 -0.14273715 -0.62312204 109 45
3.8460557 -0.16637549 -0.62329155 99 45
3.8548057 -0.19045468 -0.62498677 125 45
3.8084466 0.16381858 -0.66397196 6 46
3.7966044 0.13997759 -0.66161406 17 46
3.7944429 0.11658913 -0.66106993 107 46
3.7980363 0.093376875 -0.66161406 154 46
3.8034539 0.070160992 -0.66252095 83 46
3.8020618 0.023469537 -0.66215819 18 46
3.8178689 0.00013905391 -0.66506022 128 46
3.8266485 -0.023341838 -0.66669261 161 46
3.8234832 -0.046784874 -0.66614848 163 46
3.8172245 -0.070135452 -0.66506022 146 46
3.8196716 -0.093628779 -0.66560435 115 46
3.8327866 -0.1174873 -0.66814363 142 46
3.8339591 -0.14107515 -0.66850638 154 46
3.8369513 -0.16476639 -0.66923189 155 46
3.8378325 -0.18840301 -0.66959465 159 46
3.7974665 -0.0010802575 -0.7078172 42 47
3.7997463 -0.071033128 -0.70839632 84 47
3.7957792 -0.18755618 -0.70839632 34 47
3.9395671 0.16944526 -0.39671609 145 40
3.9335794 0.1450137 -0.39594918 154 40
3.6337419 0.49431473 -0.81890553 82 50
3.6453967 0.47313616 -0.82095766 145 50
3.6520965 0.4512367 -0.82186967 101 50
3.6499612 0.42825255 -0.82072961 15 50
3.6950152 0.36472225 -0.82962203 50 50
3.6690671 0.33944497 -0.82300973 125 50
3.6672006 0.31659105 -0.82209766 115 50
3.675868 0.2946274 -0.82369375 116 50
3.708679 0.27436259 -0.83099014 45 50
3.7112641 0.25166717 -0.83121812 28 50
3.6816401 0.22697657 -0.8239218 93 50
3.6732419 0.20384371 -0.82164168 102 50
3.6371267 0.51628 -0.86497569 84 51
3.631567 0.49277556 -0.86282277 98 51
3.6277821 0.46960869 -0.8611483 114 51
3.6267407 0.44686404 -0.86019146 98 51
3.6390579 0.42573366 -0.86258358 107 51
3.655112 0.40489778 -0.86593252 107 51
3.6517336 0.38185507 -0.86449724 55 51
3.6414464 0.35820156 -0.86138749 100 51
3.6406751 0.33558306 -0.86066985 106 51
3.651372 0.31398943 -0.86282277 111 51
3.6619406 0.29227716 -0.86497569 123 51
3.6839998 0.27130643 -0.86999911 40 51
3.6579778 0.22428572 -0.86282277 22 51
3.6486211 0.20124495 -0.86019146 99 51
3.5908427 0.55598176 -0.90080154 67 52
3.6008894 0.53493333 -0.9025566 53 52
3.584161 0.48757532 -0.89653939 7 52
3.615886 0.46930912 -0.9040609 55 52
3.6158152 0.44675779 -0.90330875 136 52
3.6261802 0.42546484 -0.90531451 87 52
3.5960095 0.39957559 -0.89679009 6 52
3.5977519 0.35513195 -0.89603794 6 52
3.6317379 0.31353328 -0.9038102 29 52
3.6249087 0.29054826 -0.90155369 14 52
3.6237268 0.26808682 -0.90080154 10 52
3.6348135 0.2017152 -0.9025566 17 52
3.5596044 0.59534681 -0.93874693 9 53
3.5670016 0.57410896 -0.93979436 96 53
3.5923927 0.55561131 -0.94581693 14 53
3.5941629 0.51080477 -0.94450772 7 53
3.6000984 0.48913249 -0.94529325 7 53
3.5981672 0.44396895 -0.94319844 88 53
3.5979481 0.42154479 -0.94241285 108 53
3.6043036 0.3998872 -0.94346029 22 53
3.5932519 0.37635225 -0.93979436 7 53
3.6139367 0.33374318 -0.94424582 61 53
3.6005321 0.31023163 -0.9400562 101 53
3.6052539 0.28836513 -0.94084173 132 53
3.6136928 0.26673776 -0.94267476 103 53
3.5979295 0.24338147 -0.9379614 59 53
3.6032081 0.22153857 -0.93900877 44 53
3.6160631 0.20006905 -0.94215101 109 53
3.5565574 0.57304412 -0.98143774 79 54
3.5533516 0.55018103 -0.97952712 110 54
3.5461931 0.52681381 -0.97652465 128 54
3.5665028 0.50748241 -0.98143774 79 54
3.5848017 0.48766243 -0.98580498 33 54
3.5695999 0.46330658 -0.98061889 85 54
3.5676014 0.44080588 -0.97925413 120 54
3.57215 0.41913119 -0.97980005 120 54
3.577523 0.39752343 -0.98061889 110 54
3.5770245 0.37526387 -0.97980005 102 54
3.5687284 0.35227019 -0.97679758 33 54
3.5689068 0.3301892 -0.97625166 89 54
3.5727825 0.30844986 -0.97679758 101 54
3.5832386 0.28721273 -0.97925413 121 54
3.5964465 0.2660715 -0.98252958 111 54
3.5845737 0.24308929 -0.97870827 35 54
3.6138439 0.222804 -0.98662388 6 54
3.6141825 0.20057246 -0.98635089 4 54
3.580364 0.53127259 -1.0299469 35 55
3.531343 0.50185609 -1.0143445 86 55
3.5343559 0.48017874 -1.0143445 98 55
3.5362847 0.45835972 -1.0140607 87 55
3.5390306 0.43665287 -1.0140607 96 55
3.5406909 0.41481766 -1.013777 105 55
3.5374513 0.39244831 -1.0120749 61 55
3.5340707 0.37013432 -1.0103729 9 55
3.5334125 0.3481597 -1.0095218 4 55
3.5469401 0.32753438 -1.012926 7 55
3.5574813 0.30650824 -1.0154792 5 55
3.5736325 0.28582561 -1.0197344 26 55
3.5781879 0.26410553 -1.0205854 11 55
3.5950484 0.24318567 -1.0251243 8 55
3.6041298 0.22159554 -1.0273937 8 55
3.5758607 0.46475035 -1.07172 24 56
3.5283842 0.43658698 -1.0560917 107 56
3.5186594 0.41348061 -1.0522583 114 56
3.5097339 0.39061564 -1.0487198 121 56
3.5244188 0.37036985 -1.0525532 49 56
3.5247233 0.3485496 -1.0519633 9 56
3.5258441 0.32682765 -1.0516685 7 56
3.5277829 0.30518734 -1.0516685 57 56
3.5381615 0.2842232 -1.0543224 100 56
3.5426977 0.26271981 -1.055207 99 56
3.5490096 0.24130085 -1.0566814 100 56
3.5532846 0.21969658 -1.0575659 94 56
3.5249472 0.39167699 -1.0967813 49 57
3.5111859 0.36834672 -1.0915873 91 57
3.5124323 0.34670171 -1.0912818 86 57
3.5107009 0.32479119 -1.0900596 78 57
3.5069361 0.30275053 -1.0882264 87 57
3.5068295 0.2810739 -1.0876154 77 57
3.5113368 0.25976282 -1.088532 88 57
3.5176144 0.23853645 -1.0900596 74 57
3.5389695 0.21818532 -1.0964757 38 57
3.5114782 0.32426691 -1.1330081 37 58
3.4944963 0.30108801 -1.1266886 74 58
3.496278 0.2796405 -1.1266886 86 58
3.4960356 0.25804302 -1.1260567 81 58
3.4852471 0.23575583 -1.1219488 28 58
3.4762378 0.25654721 -1.1626782 61 59
3.4768035 0.23514849 -1.1623516 81 59
3.4828978 0.21410234 -1.1639844 83 59
3.7730467 0.37175414 -0.66016304 75 46
3.7576301 0.34697038 -0.65689826 41 46
3.7332339 0.3216311 -0.65200108 4 46
3.7272947 0.29809198 -0.65055007 5 46
3.7290537 0.2752161 -0.65055007 5 46
3.7728629 0.25517911 -0.65834928 10 46
3.7747283 0.20880686 -0.6581679 5 46
3.7691312 0.39350656 -0.7062729 81 47
3.7597573 0.36921784 -0.70395648 106 47
3.7590208 0.34587085 -0.70337737 99 47
3.7454312 0.32145214 -0.70028883 40 47
3.7546291 0.25272134 -0.70106095 119 47
3.7610059 0.22997954 -0.70202613 122 47
3.7643056 0.20700648 -0.70241219 112 47
3.6987207 0.43266511 -0.7384907 66 48
3.7110353 0.41103864 -0.74053568 108 48
3.7144611 0.38836208 -0.74074018 118 48
3.7187223 0.36575469 -0.74114919 127 48
3.7238209 0.34319937 -0.74176264 108 48
3.727807 0.32051146 -0.74217165 92 48
3.7316551 0.29778758 -0.74258065 69 48
3.7626991 0.27703822 -0.74871552 8 48
3.7447951 0.25262985 -0.74462557 43 48
3.7404125 0.22928871 -0.74339861 108 48
3.7476132 0.20665643 -0.74462557 138 48
3.6667466 0.4531002 -0.77940643 88 49
3.649096 0.42819706 -0.77486122 11 49
3.6371005 0.40417647 -0.77161461 5 49
3.6433957 0.38226077 -0.77248037 8 49
3.6699612 0.3623037 -0.7778914 22 49
3.7012787 0.34248626 -0.78438455 80 49
3.6799667 0.31774613 -0.77919 18 49
3.6944981 0.29617852 -0.7820037 6 49
3.7098765 0.27451685 -0.78503388 6 49
3.7066209 0.25141641 -0.7839517 7 49
3.7217357 0.22951388 -0.78698182 11 49
3.6996791 0.20536737 -0.78178728 102 49
3.6452582 0.38241482 -0.8184495 7 50
3.9127789 0.21589948 -0.44235271 36 41
3.872709 0.23806036 -0.4849093 86 42
3.880034 0.2146212 -0.48571113 71 42
3.8545196 0.26082203 -0.53129369 98 43
3.9014685 0.23997363 -0.53800559 6 43
3.9018798 0.2159752 -0.53785968 7 43
3.8282375 0.30615437 -0.57506186 74 44
3.8290594 0.2825864 -0.57490402 138 44
3.8366325 0.2594856 -0.5758509 121 44
3.8381524 0.23593959 -0.5758509 146 44
3.8424857 0.212548 -0.57632434 52 44
3.8041294 0.32650822 -0.61786687 87 45
3.8090084 0.30339605 -0.61837542 82 45
3.8117812 0.2800912 -0.618545 114 45
3.8114614 0.25656432 -0.6182059 109 45
3.8149312 0.2332937 -0.618545 117 45
3.8212109 0.21015342 -0.61939257 85 45
3.7959521 0.23334973 -0.66233957 42 46
3.8019345 0.27936468 -0.71071273 17 47
