# .PCD v0.7 - Point Cloud Data file format
VERSION 0.7
FIELDS x y z intensity ring
SIZE 4 4 4 4 1
TYPE F F F F U
COUNT 1 1 1 1 1
WIDTH 447
HEIGHT 1
VIEWPOINT 0 0 0 1 0 0 0
POINTS 447
DATA ascii
3.7838097 0.13950717 -1.2195867 7 58
3.7895308 0.069905579 -1.2208507 105 58
3.7889397 0.04664056 -1.2205347 88 58
3.783251 -0.046288494 -1.2186388 77 58
3.7979224 0.18672019 -1.2249584 87 58
3.8151107 0.16410455 -1.2303301 31 58
3.8222785 0.18802753 -1.2805657 56 59
3.8507447 0.16575803 -1.2900358 13 59
3.8553231 0.11857902 -1.2910155 9 59
3.8531432 0.094850324 -1.2900358 4 59
3.8016772 0.070229955 -1.2720752 44 59
3.7944758 0.046806384 -1.2694627 95 59
3.7946916 0.023523036 -1.2694627 88 59
3.8363521 0.00025422804 -1.2838312 29 59
3.8632669 0.16617104 -1.3419329 13 60
3.8143463 0.1406299 -1.3240756 54 60
3.8207841 0.11739579 -1.3260971 61 60
3.8223736 0.093972735 -1.326434 69 60
3.8257024 0.070569128 -1.3274449 25 60
3.7122161 -0.20441656 -0.83076209 101 50
3.7322721 -0.22850163 -0.83577836 29 50
3.7335169 -0.22980587 -0.88148123 56 51
3.7281616 -0.2524488 -0.8805244 81 51
3.719764 -0.27482095 -0.87884992 7 51
3.7528241 -0.2066569 -0.93314415 88 52
3.7427893 -0.2291466 -0.9308877 122 52
3.7297225 -0.2513254 -0.9278791 123 52
3.7339027 -0.27463248 -0.9293834 129 52
3.7321472 -0.2975381 -0.9293834 77 52
3.7375031 -0.20638734 -0.97514439 98 53
3.7371297 -0.22937515 -0.97540629 81 53
3.7433553 -0.2528193 -0.97750109 104 53
3.7436585 -0.27592462 -0.97802478 100 53
3.7495916 -0.29950246 -0.98011959 92 53
3.7534528 -0.32299855 -0.9816907 97 53
3.7610109 -0.34690669 -0.98430926 32 53
3.7439451 -0.20616706 -1.0231994 12 54
3.7282064 -0.22825228 -1.0191051 92 54
3.7324946 -0.2515125 -1.0207429 104 54
3.7337594 -0.2746219 -1.0215617 107 54
3.6946039 -0.29454112 -1.0109166 21 54
3.7624667 -0.20775802 -1.0739174 81 55
3.7601638 -0.23078172 -1.0736337 54 55
3.7298551 0.18403052 -0.8346383 46 50
3.7328594 0.16122492 -0.83509433 109 50
3.7347515 0.13835344 -0.83532232 78 50
3.7108605 0.091887847 -0.82939404 10 50
3.7152486 0.069188811 -0.83030611 21 50
3.7214446 0.046463501 -0.83167416 117 50
3.7226334 0.023634354 -0.83190215 129 50
3.7275765 0.00079279055 -0.8330422 128 50
3.7275112 -0.022079203 -0.8330422 52 50
3.7191715 -0.067677312 -0.83121812 91 50
3.7138195 -0.090377502 -0.83007807 126 50
3.708329 -0.11301456 -0.82893801 128 50
3.7075658 -0.13576631 -0.82893801 113 50
3.7241728 -0.15926358 -0.8330422 83 50
3.7309053 -0.18249303 -0.83486629 39 50
3.7390077 0.18325433 -0.88219887 72 51
3.7487924 0.1606857 -0.88435179 128 51
3.72545 0.13678229 -0.87837154 37 51
3.7074347 0.090574592 -0.87358731 5 51
3.7088914 0.067842565 -0.8738265 5 51
3.7102089 0.045096062 -0.8740657 19 51
3.7288637 0.022446617 -0.87861073 76 51
3.7201924 -0.00043539848 -0.87645781 6 51
3.7210908 -0.02326783 -0.876697 7 51
3.7315578 -0.046228547 -0.87932837 7 51
3.7190614 -0.091733366 -0.87645781 13 51
3.7106645 -0.11431462 -0.87454414 24 51
3.6982493 -0.13665409 -0.87167358 6 51
3.7089822 -0.15984157 -0.87454414 10 51
3.7529764 0.18516892 -0.93289346 122 52
3.7550092 0.16217929 -0.93314415 118 52
3.7530313 0.13902871 -0.932392 111 52
3.7470405 0.11578933 -0.930637 97 52
3.7467127 0.09277188 -0.9303863 110 52
3.7510829 0.069852434 -0.93138915 116 52
3.7436972 0.046739023 -0.9293834 129 52
3.7371371 0.02372493 -0.9276284 145 52
3.7343082 0.00079352484 -0.92687625 132 52
3.7381148 -0.022143112 -0.9278791 49 52
3.7379086 -0.045079336 -0.9278791 36 52
3.7482085 -0.068208709 -0.930637 131 52
3.7477195 -0.091205999 -0.930637 126 52
3.7509599 -0.11431821 -0.93163985 150 52
3.7521226 -0.13740258 -0.9321413 115 52
3.7918301 -0.16216396 -0.94267148 11 52
3.7434971 0.18412796 -0.97645366 50 53
3.7416637 0.16102943 -0.97566813 69 53
3.7695858 0.13907264 -0.98299998 3 53
3.7517123 0.092322692 -0.97776294 8 53
3.7522082 0.069300883 -0.97776294 18 53
3.7409825 0.046130046 -0.9746207 102 53
3.7382998 0.023156101 -0.97383517 97 53
3.7287204 0.00021430933 -0.97121662 28 53
3.7489185 -0.022781534 -0.97671551 6 53
3.7516034 -0.045818493 -0.97750109 9 53
3.7444968 -0.068715192 -0.97566813 92 53
3.7459345 -0.091736354 -0.97619182 104 53
3.745301 -0.11471924 -0.97619182 104 53
3.7435622 -0.13766265 -0.97592998 63 53
3.7444828 -0.18373255 -0.97671551 42 53
3.7575529 0.18539426 -1.0267478 113 54
3.7615032 0.16245909 -1.0275667 86 54
3.7614677 0.13934037 -1.0272937 67 54
3.7878995 0.093787454 -1.0343904 9 54
3.7682047 0.070169508 -1.0286585 66 54
3.7656784 0.047011185 -1.0278395 120 54
3.7687819 0.023922555 -1.0286585 95 54
3.746731 0.00079487998 -1.0223806 7 54
3.7457035 -0.022188848 -1.0221076 5 54
3.7653484 -0.068522379 -1.0278395 25 54
3.7725511 -0.091812871 -1.0300232 95 54
3.7498002 -0.11428276 -1.0237453 30 54
3.7163978 -0.15893027 -1.014738 4 54
3.7249613 -0.18220167 -1.0174674 8 54
3.7703524 0.18545724 -1.0759032 86 55
3.7714193 0.16231932 -1.0759032 84 55
3.7694695 0.13906831 -1.0750521 95 55
3.7785611 0.092991762 -1.0773215 73 55
3.7790606 0.069805197 -1.0773215 103 55
3.7717471 0.046519015 -1.0750521 105 55
3.7671671 0.023343937 -1.0736337 95 55
3.7662804 0.00022823966 -1.07335 111 55
3.7623754 -0.022859115 -1.0722153 67 55
3.763123 -0.045955598 -1.0724989 86 55
3.7627702 -0.069044821 -1.0724989 84 55
3.7680275 -0.092270508 -1.074201 112 55
3.7702661 -0.11547613 -1.0750521 88 55
3.7694864 -0.13860787 -1.0750521 65 55
3.730243 -0.16010164 -1.0637048 30 55
3.7684596 -0.18490154 -1.0753357 80 55
3.7828536 0.18729904 -1.1277461 58 56
3.7495644 0.16259757 -1.1171306 12 56
3.7609951 0.13997747 -1.1203742 5 56
3.7703791 0.11716404 -1.123028 6 56
3.7891765 0.094477922 -1.1286306 5 56
3.792551 0.071279772 -1.1295153 10 56
3.7642531 0.047647867 -1.1206691 56 56
3.7553449 -0.067686424 -1.1180152 58 56
3.7758746 -0.091237448 -1.1245024 127 56
3.7771537 -0.11446214 -1.1250921 121 56
3.7792451 -0.13774087 -1.1259768 117 56
3.7477794 -0.15962303 -1.1165408 77 56
3.78579 0.18688101 -1.1749967 89 57
3.7916219 0.16385533 -1.1765244 98 57
3.7267268 0.11523306 -1.1551373 6 57
3.7730541 0.093510702 -1.1698027 75 57
3.7726047 0.070339873 -1.1694971 83 57
3.7767739 0.047239095 -1.1707193 82 57
3.7760403 0.024057996 -1.1704137 79 57
3.7408862 0.00086897815 -1.1591092 6 57
3.7398689 -0.022079362 -1.1588037 4 57
3.7710829 -0.045394808 -1.1688862 39 57
3.7850139 -0.068787992 -1.1734691 82 57
3.7778571 -0.091851167 -1.1713303 116 57
3.7724638 -0.11488649 -1.1698027 38 57
3.777956 0.11608423 -1.2173749 4 58
3.7681639 0.092645511 -1.2138991 36 58
3.7806158 0.02333935 -1.2176908 88 58
3.7778416 0.00014167369 -1.216743 105 58
3.7806175 -0.02305638 -1.2176908 95 58
3.6912286 0.18148567 -0.46005222 12 42
3.6922729 0.1588333 -0.46005222 8 42
3.6634672 0.13508257 -0.456043 66 42
3.6612554 0.11251042 -0.45564207 108 42
3.6816914 0.090528391 -0.4583149 20 42
3.7163827 0.18278584 -0.51028264 30 43
3.6551671 0.15727985 -0.50109029 112 43
3.6550748 0.13481241 -0.50094438 133 43
3.6686878 0.11278204 -0.50284117 145 43
3.653487 0.089874946 -0.50050664 119 43
3.6361654 0.067121498 -0.49788025 78 43
3.5989518 0.19910157 -0.53734446 6 44
3.6829536 0.18107967 -0.55060077 55 44
3.6790624 0.15826641 -0.54981172 145 44
3.6839116 0.13583425 -0.55044299 123 44
3.6777666 0.11301606 -0.54933828 163 44
3.6803651 0.090495922 -0.54965389 96 44
3.6699908 0.067712694 -0.54791796 41 44
3.6614506 0.045084301 -0.54649764 104 44
3.6626458 0.022623207 -0.54665548 77 44
3.6571019 0.15609029 -0.59074342 14 45
3.6757183 0.13430113 -0.59379482 31 45
3.6804135 0.11186583 -0.59447294 6 45
3.6898975 0.089498997 -0.59599859 6 45
3.6893919 0.066838361 -0.59582907 5 45
3.6926889 0.044235766 -0.59633768 5 45
3.6771226 0.021479923 -0.59362531 30 45
3.6840839 -0.0010827312 -0.59481198 104 45
3.6613412 -0.023549236 -0.59091294 42 45
3.7071822 0.18226837 -0.64547145 116 46
3.7003708 0.15918079 -0.64402044 149 46
3.6865366 0.13593076 -0.64129978 130 46
3.6774716 0.11300702 -0.63948601 130 46
3.6938257 0.090825476 -0.64238805 35 46
3.692347 0.068122804 -0.64202529 10 46
3.7074456 0.045645759 -0.64474595 92 46
3.6938882 0.022812866 -0.64220667 135 46
3.6910086 0.0001473569 -0.64166254 152 46
3.6879897 -0.022481954 -0.64111841 126 46
3.6877823 -0.045110609 -0.64111841 132 46
3.6776037 -0.067555912 -0.63930464 20 46
3.7194445 0.18164143 -0.69333953 49 47
3.6812778 0.15712984 -0.6856181 103 47
3.6860945 0.13468353 -0.68639022 115 47
3.68489 0.11200331 -0.68600416 119 47
3.7031641 0.08982496 -0.68947881 18 47
3.7085507 0.067191489 -0.69044399 18 47
3.6971197 0.044290241 -0.68812758 115 47
3.698303 0.021610348 -0.68832058 117 47
3.6973848 -0.001082441 -0.68812758 156 47
3.6894593 -0.023721155 -0.68658328 137 47
3.6853197 -0.046310727 -0.6858111 75 47
3.6859472 -0.068940595 -0.68600416 102 47
3.6923211 -0.091724247 -0.6873554 83 47
3.6813493 0.18035968 -0.73051536 12 48
3.7146599 0.15914722 -0.73726374 71 48
3.7155664 0.1363515 -0.73726374 42 48
3.7257671 0.090959601 -0.73910421 5 48
3.7350636 0.068257056 -0.74094468 4 48
3.7383485 0.045373186 -0.74155813 12 48
3.7238736 0.022347689 -0.7384907 27 48
3.7161098 -0.00050011167 -0.73685473 28 48
3.7365925 -0.023432788 -0.74114919 12 48
3.729527 -0.046273917 -0.73971772 7 48
3.7179139 -0.091770634 -0.73746824 16 48
3.6967344 -0.11394611 -0.73317385 131 48
3.7096605 -0.1371344 -0.73603678 76 48
3.7232969 0.18377674 -0.7867654 89 49
3.7194774 0.1607153 -0.78568321 96 49
3.7116132 0.13756178 -0.78373528 121 49
3.7104356 0.1147242 -0.78330237 112 49
3.7364454 0.092592031 -0.78892982 24 49
3.6959462 0.068886772 -0.77983934 62 49
3.7255857 0.046582967 -0.78633255 106 49
3.717015 0.02366362 -0.78438455 138 49
3.7200191 0.00085759687 -0.78503388 136 49
3.7277646 -0.022011692 -0.7867654 76 49
3.7428319 -0.068034448 -0.79022843 31 49
3.7091596 -0.090202227 -0.78286952 114 49
3.7017052 -0.1127536 -0.78135443 131 49
3.7038708 -0.13557091 -0.7820037 116 49
3.7088218 -0.15854321 -0.78330237 110 49
3.6951022 -0.18068129 -0.78048867 35 49
3.7946312 -0.18561672 -0.94367433 18 52
3.8477483 -0.16510811 -1.0044719 5 53
3.8334081 0.11844932 -1.0474921 4 54
3.8085902 0.11712747 -1.0863993 18 55
3.8237166 0.024930261 -1.1389513 7 56
3.8235278 -0.045456082 -1.1389513 5 56
3.798265 0.14080068 -1.1783575 53 57
3.6366463 0.17880778 -0.36340961 69 40
3.640414 0.17839132 -0.40876457 39 41
3.6622643 0.15694989 -0.41132021 96 41
3.6433208 0.13374114 -0.40888628 35 41
3.7834425 0.20928802 -1.2205347 92 58
3.8000798 0.23360306 -1.2265383 49 58
3.7323806 0.5544529 -0.84375876 93 50
3.7241449 0.52989632 -0.84102261 28 50
3.6848757 0.50126523 -0.83099014 7 50
3.7157199 0.43596104 -0.83623439 33 50
3.70768 0.41197196 -0.83372623 44 50
3.7043278 0.38860539 -0.83235818 6 50
3.7066426 0.36586875 -0.83235818 10 50
3.729178 0.34499979 -0.8371464 5 50
3.726337 0.29866722 -0.83555031 50 50
3.7319834 0.27608418 -0.83646238 27 50
3.7477241 0.23104376 -0.83942652 6 50
3.7500432 0.20809765 -0.83965456 6 50
3.7313328 0.52968282 -0.88841838 17 51
3.7422094 0.50782472 -0.8903321 76 51
3.7337003 0.48335391 -0.88746154 65 51
3.7346685 0.46019718 -0.8869831 92 51
3.7354932 0.43704677 -0.88650471 97 51
3.7400346 0.41433239 -0.8869831 111 51
3.7376781 0.39086974 -0.88578707 68 51
3.7052202 0.36449543 -0.87717545 13 51
3.7460606 0.34533095 -0.8867439 31 51
3.7394028 0.32158759 -0.88459098 89 51
3.7461448 0.29902479 -0.88578707 97 51
3.7508142 0.27624813 -0.88650471 91 51
3.7379074 0.25224322 -0.88291651 21 51
3.7403538 0.22936283 -0.88315576 6 51
3.7387824 0.20624678 -0.88243812 6 51
3.7464488 0.48624092 -0.93815851 27 52
3.7532048 0.46371841 -0.93916142 122 52
3.7492492 0.43989152 -0.93740636 86 52
3.7480292 0.41645104 -0.93640351 122 52
3.7322209 0.39152861 -0.93163985 23 52
3.7249191 0.36767083 -0.9291327 4 52
3.7406003 0.34605533 -0.93264276 26 52
3.7397599 0.32284746 -0.93189061 103 52
3.7387755 0.29966292 -0.93113846 136 52
3.7395785 0.27664524 -0.9308877 100 52
3.7460346 0.25402141 -0.9321413 59 52
3.7243333 0.22960415 -0.9261241 21 52
3.7498364 0.20808619 -0.932392 88 52
3.7666469 0.44136515 -0.98849887 62 53
3.7501004 0.41611049 -0.98326182 33 53
3.6956208 0.34131315 -0.96650326 7 53
3.7361062 0.32195723 -0.97697741 16 53
3.7582135 0.30064929 -0.98247629 33 53
3.7702956 0.39551884 -1.0349363 94 54
3.7707367 0.37218851 -1.0343904 85 54
3.7700756 0.34877914 -1.0335716 108 54
3.7587261 0.3244828 -1.0297502 126 54
3.7520156 0.30072272 -1.0272937 101 54
3.7557089 0.27783689 -1.0278395 113 54
3.7727003 0.25582686 -1.0322068 43 54
3.7847614 0.23332326 -1.0352093 23 54
3.7592263 0.20860629 -1.0275667 105 54
3.7646408 0.34770948 -1.0776052 98 55
3.7695694 0.32485142 -1.0784563 90 55
3.7667124 0.30133185 -1.0770378 90 55
3.7713594 0.27842677 -1.0778888 54 55
3.7835207 0.2559962 -1.0810094 4 55
3.7681859 0.20853493 -1.0756195 82 55
3.7368181 0.25404981 -1.1147716 8 56
3.7344916 0.23088087 -1.1135921 8 56
3.7358379 0.20796211 -1.1135921 16 56
3.7870131 0.23356003 -1.1762189 86 57
3.778868 0.2097882 -1.1731635 95 57
3.6820054 0.33999527 -0.46031949 97 42
3.665262 0.31578219 -0.45778033 143 42
3.6533003 0.29218197 -0.45590937 132 42
3.6520593 0.26954174 -0.45550844 131 42
3.6496892 0.24686095 -0.45497388 40 42
3.6887236 0.22676906 -0.46005222 7 42
3.6900456 0.2041312 -0.46005222 7 42
3.656354 0.38298211 -0.50371665 98 43
3.6596196 0.36063725 -0.50386256 119 43
3.6627486 0.33826676 -0.50400847 141 43
3.6657407 0.31587145 -0.50415438 142 43
3.668596 0.29345211 -0.5043003 143 43
3.6653945 0.27057078 -0.50357074 125 43
3.6571155 0.24740438 -0.50211167 129 43
3.6417787 0.22392257 -0.49963117 83 43
3.725069 0.20613541 -0.51174176 11 43
3.6772943 0.45369852 -0.55344141 84 44
3.6741242 0.43043774 -0.55249453 104 44
3.6717889 0.40734175 -0.55170548 129 44
3.683058 0.38572919 -0.5531258 66 44
3.6942 0.36399364 -0.55454612 9 44
3.693414 0.34104753 -0.55407268 10 44
3.7042916 0.31914064 -0.555493 3 44
3.6835403 0.2945973 -0.55186331 83 44
3.684294 0.27191737 -0.55170548 148 44
3.6898339 0.24957201 -0.55233675 93 44
3.680454 0.22626154 -0.55060077 42 44
3.7090805 0.52585936 -0.60549182 28 45
3.6975889 0.50110114 -0.60294896 95 45
3.6957073 0.47777045 -0.60210139 105 45
3.686832 0.45363709 -0.60006714 107 45
3.6826942 0.43020397 -0.59888047 103 45
3.686244 0.40770793 -0.59904999 98 45
3.7180812 0.38816097 -0.60413563 61 45
3.711566 0.36447036 -0.60260993 14 45
3.7069221 0.31813511 -0.60108423 7 45
3.6940684 0.29420561 -0.59854144 27 45
3.6800785 0.27037334 -0.59582907 108 45
3.6679022 0.24685688 -0.59345579 23 45
3.6221318 0.22144459 -0.58531874 9 45
3.7020695 0.57253247 -0.65181971 81 46
3.7084312 0.55023897 -0.65236384 122 46
3.7088168 0.52705932 -0.65181971 121 46
3.7197766 0.50535077 -0.65327072 70 46
3.6730688 0.47607568 -0.64402044 9 46
3.6983693 0.45629647 -0.64819211 88 46
3.7001226 0.4334808 -0.64801073 111 46
3.7075999 0.41131076 -0.64891762 108 46
3.7100539 0.38855362 -0.64891762 127 46
3.7074747 0.36530021 -0.64801073 109 46
3.6988747 0.34155115 -0.64601558 78 46
3.6950219 0.31834301 -0.64492732 120 46
3.6988664 0.29582137 -0.64529008 110 46
3.7006118 0.27311999 -0.64529008 111 46
3.6992745 0.25020954 -0.64474595 126 46
3.6909244 0.22690411 -0.64293218 117 46
3.7030482 0.20484912 -0.64492732 53 46
3.704854 0.59502095 -0.69893754 111 47
3.7045567 0.57167739 -0.69816542 113 47
3.7099359 0.5492239 -0.69855148 106 47
3.7142074 0.52658784 -0.69874454 13 47
3.7319524 0.50576901 -0.70164007 4 47
3.722297 0.45801207 -0.69855148 4 47
3.7045722 0.43276668 -0.69449776 23 47
3.7130091 0.41067672 -0.69565594 64 47
3.689111 0.38512743 -0.69044399 15 47
3.6809113 0.31589463 -0.68754846 8 47
3.7131004 0.29572737 -0.69353259 97 47
3.7060385 0.27228883 -0.69179523 122 47
3.6900182 0.24835235 -0.68832058 64 47
3.6777618 0.2248635 -0.6856181 6 47
3.6869097 0.20272638 -0.6871624 5 47
3.7144241 0.59713817 -0.74646604 104 48
3.7180183 0.57433569 -0.74646604 102 48
3.7175992 0.55093795 -0.74564809 105 48
3.7170329 0.52756697 -0.74483007 110 48
3.71826 0.50448674 -0.74442112 76 48
3.6999283 0.47890037 -0.73992217 14 48
3.7251425 0.45893961 -0.74462557 78 48
3.7220547 0.43539214 -0.74339861 127 48
3.714927 0.41146925 -0.74135369 124 48
3.7193289 0.38887054 -0.74176264 94 48
3.6641686 0.36039484 -0.72969741 14 48
3.6565635 0.33700779 -0.72765243 7 48
3.7112274 0.31908771 -0.7386952 37 48
3.706285 0.2957657 -0.73726374 101 48
3.70803 0.27301878 -0.73726374 101 48
3.7106121 0.25032738 -0.73746824 34 48
3.6710427 0.22504359 -0.72887939 10 48
3.6635578 0.20203011 -0.72703892 5 48
3.7128665 0.57494462 -0.79325861 93 49
3.7114961 0.55143321 -0.79217637 106 49
3.7148099 0.52864951 -0.79217637 75 49
3.6774514 0.47735414 -0.78243661 11 49
3.6948445 0.45658129 -0.78568321 48 49
3.7237558 0.43698201 -0.79152709 94 49
3.7205453 0.41347641 -0.79022843 109 49
3.7210705 0.39043543 -0.78979558 103 49
3.666075 0.36191884 -0.77702564 34 49
3.7022507 0.3425765 -0.78460103 54 49
3.7179 0.3210336 -0.78763115 94 49
3.7207732 0.29829326 -0.78784758 123 49
3.7215598 0.27538508 -0.78763115 90 49
3.7202573 0.25234571 -0.78698182 121 49
3.7158892 0.22915149 -0.78568321 79 49
3.7191749 0.20645574 -0.78611606 101 49
3.6663375 0.63507181 -0.69276041 21 47
3.7088754 0.61903691 -0.70048183 108 47
3.7318935 0.64701998 -0.75178295 39 48
3.7077937 0.61943465 -0.74585259 95 48
3.7246897 0.60020542 -0.79672164 59 49
3.7982097 0.25699461 -0.99242669 5 53
3.7945912 0.2333677 -1.0838462 10 55
3.7934251 0.30470097 -1.1333487 69 56
3.7990549 0.28114396 -1.1811073 44 57
3.7940586 0.25737494 -1.1789685 65 57
3.6460836 0.22415221 -0.36472434 96 40
3.638458 0.20128286 -0.3637383 121 40
3.678741 0.29362345 -0.41436261 24 41
3.6438482 0.26833674 -0.40985984 97 41
3.6424553 0.24577203 -0.40949476 124 41
3.6409228 0.22323455 -0.40912968 111 41
3.644206 0.20100002 -0.40937307 38 41
