# .PCD v0.7 - Point Cloud Data file format
VERSION 0.7
FIELDS x y z intensity ring
SIZE 4 4 4 4 1
TYPE F F F F U
COUNT 1 1 1 1 1
WIDTH 1226
HEIGHT 1
VIEWPOINT 0 0 0 1 0 0 0
POINTS 1226
DATA ascii
-5.9409666 -7.7081594 0.049746361 290 31
-6.0176816 -7.7094026 0.049813382 211 31
-6.0946341 -7.7099929 0.049880404 105 31
-6.1843162 -7.7255425 0.04997535 53 31
-6.2700095 -7.7348423 0.050060522 26 31
-6.3547797 -7.7418327 0.050142899 15 31
-6.4328403 -7.7396126 0.050209921 12 31
-6.5169063 -7.7436109 0.050289508 18 31
-6.5902371 -7.7339268 0.050345358 41 31
-6.6943922 -7.7592225 0.050466832 17 31
-6.7806854 -7.7624393 0.050549213 15 31
-6.8513713 -7.7469082 0.050598081 11 31
-6.9294577 -7.738996 0.050662309 12 31
-7.0218062 -7.7459769 0.050755858 22 31
-7.1665573 -7.8088498 0.050956924 78 31
-7.2136559 -7.7639966 0.050955527 105 31
-7.2789707 -7.7385287 0.050991829 118 31
-7.3794098 -7.7494884 0.051099341 175 31
-7.490665 -7.7703047 0.051227797 253 31
-7.5640407 -7.7506795 0.051279459 217 31
-7.7063255 -7.8001666 0.051467955 399 31
-7.7802038 -7.7788982 0.051519617 302 31
-7.8598013 -7.7626381 0.051582448 269 31
-8.2501116 -8.0487947 0.052251257 223 31
-8.0833464 -7.7898254 0.051832378 55 31
-8.4069242 -8.0028009 0.052364353 364 31
-8.493021 -7.9860063 0.052435566 366 31
-8.6466293 -8.0310717 0.05263523 282 31
-8.718585 -7.9988256 0.052678514 77 31
-9.5002871 -8.6093655 0.05405942 86 31
-9.5782652 -8.5735893 0.054106891 88 31
-6.3180776 -5.5853848 0.047932617 211 31
-2.7091384 -2.3646255 0.041178893 70 31
-2.6789219 -2.3094199 0.041096512 152 31
-2.7090268 -2.3065579 0.041125834 390 31
-2.6841059 -2.257056 0.041054625 145 31
-2.7071333 -2.2482138 0.041071381 296 31
-2.6953683 -2.2106254 0.041025303 148 31
-2.6987824 -2.1858597 0.041007154 137 31
-2.7043366 -2.1630104 0.040993188 106 31
-2.7026513 -2.1345949 0.04096666 114 31
-2.7038732 -2.1087427 0.040945716 121 31
-2.7167611 -2.0921125 0.040945716 326 31
-2.7080598 -2.0590541 0.040908016 154 31
-2.7046525 -2.0303862 0.040880091 109 31
-2.7114375 -2.0095825 0.040870316 102 31
-2.7180691 -1.9887723 0.040860545 119 31
-2.7261686 -1.969128 0.040853564 129 31
-2.7333155 -1.9488785 0.040845186 137 31
-2.7427695 -1.930343 0.040840998 143 31
-2.7898688 -1.9380217 0.040901035 77 31
-2.8173749 -1.9316162 0.040927567 69 31
-2.8482187 -1.9271883 0.040959679 83 31
-2.8807766 -1.9235654 0.040994585 102 31
-2.9250841 -1.9273216 0.041049041 344 31
-2.9511046 -1.9186082 0.041072775 127 31
-2.9981661 -1.9231523 0.041131418 313 31
-3.0589108 -1.9357506 0.041212402 75 31
-3.0987182 -1.9344292 0.04125848 64 31
-3.1232996 -1.9232485 0.041279424 73 31
-3.1623871 -1.9206681 0.041324105 72 31
-3.4357162 -2.0580349 0.041749965 33 31
-3.4379489 -2.0308087 0.041733209 48 31
-3.449481 -2.009172 0.041731812 12 31
-0 -0 0 4 31
-0 -0 0 4 31
-0 -0 0 4 31
-0 -0 0 4 31
-9.5341616 -5.1705246 0.0513018 101 31
-9.5568886 -5.1072125 0.051287837 364 31
-9.5632715 -5.0354285 0.05124874 276 31
-9.4848108 -4.9200063 0.051077001 235 31
-9.4809837 -4.8444219 0.051023941 268 31
-9.4756947 -4.768621 0.050969489 349 31
-9.4707298 -4.693512 0.05091643 263 31
-9.4652014 -4.6186442 0.05086337 246 31
-9.5285149 -4.5773711 0.050917827 160 31
-9.573597 -4.5269432 0.050944354 169 31
-9.5495186 -4.4440603 0.050864767 295 31
-9.5447865 -4.3708062 0.050815899 349 31
-9.5495443 -4.3022976 0.05078239 418 31
-9.4870863 -4.2043114 0.05064695 213 31
-9.4668713 -4.1260381 0.050577138 213 31
-9.379879 -4.0198035 0.050406795 304 31
-9.3877802 -3.9551835 0.05038166 303 31
-9.3841562 -3.8860257 0.050339773 281 31
-9.3605871 -3.809144 0.050268564 294 31
-9.3559284 -3.7404966 0.050226677 233 31
-9.4587488 -3.7144637 0.050346754 177 31
-9.3768682 -3.6160455 0.050190374 279 31
-9.3773699 -3.5502958 0.050158259 305 31
-9.3755445 -3.4839797 0.050123353 531 31
-9.3826542 -3.4212465 0.050102409 563 31
-9.3545094 -3.346092 0.050029803 274 31
-9.3607111 -3.283664 0.050008859 260 31
-9.3485327 -3.2151046 0.049961384 131 31
-9.58887 -3.2321312 0.050286714 74 31
-9.7936773 -3.2344062 0.050558988 125 31
-10.038828 -3.2472177 0.050889902 633 31
-8.3473921 -2.6434219 0.048383608 987 31
-8.351038 -2.5883033 0.048365459 1015 31
-8.3504944 -2.5320783 0.048341721 957 31
-8.3524523 -2.4768109 0.048322175 952 31
-8.3578882 -2.4227293 0.048308212 999 31
-8.3629751 -2.3686743 0.04829425 972 31
-8.3715696 -2.3157151 0.048285872 1047 31
-8.3817587 -2.2632611 0.048280284 1032 31
-8.3896866 -2.2102597 0.048271909 659 31
-6.2152133 -1.5963653 0.045117751 443 31
-6.2161613 -1.5560124 0.045105185 603 31
-6.2838817 -1.5320642 0.04518896 195 31
-6.3174872 -1.4992552 0.045223866 385 31
-6.3421569 -1.4640652 0.045246206 305 31
-9.9425592 -2.2317121 0.050385851 656 31
-9.9296865 -2.1649091 0.050348151 422 31
-9.157198 -1.9376136 0.049226951 384 31
-9.1777315 -1.8831998 0.04923952 351 31
-9.1538057 -1.8198268 0.049189251 468 31
-9.1392679 -1.7587095 0.049152952 421 31
-9.1194115 -1.696924 0.049109668 413 31
-9.108984 -1.6372188 0.049080346 209 31
-9.1070347 -1.5792446 0.049063589 205 31
-9.057375 -1.5134391 0.048979815 352 31
-9.061554 -1.4570411 0.04897283 425 31
-9.063406 -1.4003434 0.048963059 763 31
-9.0658932 -1.3438245 0.048954681 790 31
-9.0036736 -1.2781837 0.048855547 336 31
-9.0083742 -1.2225102 0.048851356 302 31
-9.0980177 -1.17788 0.048967246 66 31
-9.0088034 -1.1101576 0.048831809 67 31
-9.0074997 -1.053929 0.048820641 40 31
-9.0048523 -0.99764794 0.048808072 396 31
-8.9750004 -0.93862724 0.048757806 268 31
-8.9716339 -0.88265771 0.048745241 46 31
-8.9529819 -0.82538581 0.048711732 73 31
-0 -0 0 7 31
-8.9265518 -0.71258748 0.048661467 344 31
-1.6424096 0.039753336 0.017720466 30 32
-1.6461326 0.049952477 0.017675089 33 32
-1.660784 0.060602456 0.017504921 21 32
-1.6374035 0.069806688 0.017765842 28 32
-1.6379431 0.079901248 0.017754499 33 32
-1.6434125 0.090280466 0.017686432 25 32
-1.6388354 0.10011773 0.01773181 26 32
-1.6411833 0.11037354 0.017697778 22 32
-1.6404752 0.12044157 0.017697778 31 32
-1.6416987 0.13066421 0.017675089 31 32
-1.6468437 0.14124912 0.017607022 23 32
-1.6439545 0.15116772 0.017629711 30 32
-1.6509571 0.1620352 0.017538955 27 32
-1.6529154 0.17247425 0.017504921 27 32
-1.657789 0.18327375 0.017436856 19 32
-1.6516675 0.19286129 0.017493578 17 32
-1.6554152 0.20360357 0.017436856 17 32
-1.6571097 0.21414232 0.017402822 17 32
-8.5729132 1.162999 -0.061792411 22 32
-8.539875 1.2119255 -0.061497457 62 32
-8.5579958 1.2681143 -0.061792411 242 32
-8.5500536 1.3206013 -0.061792411 623 32
-8.54179 1.3730386 -0.061792411 763 32
-8.5332041 1.4254242 -0.061792411 1542 32
-9.4228296 1.6335653 -0.072138503 331 32
-8.4914494 1.5257871 -0.061520144 269 32
-8.5173178 1.5844461 -0.061928544 2524 32
-8.4907427 1.6334654 -0.06173569 1937 32
-8.4893866 1.6872877 -0.061837789 1996 32
-8.4778948 1.7391448 -0.061826445 1869 32
-8.4729338 1.7923734 -0.06189451 1342 32
-8.4666615 1.8453935 -0.061951235 1350 32
-8.4298115 1.8916157 -0.061656278 988 32
-8.418046 1.9433045 -0.061656278 224 32
-8.394289 1.9921489 -0.061520144 974 32
-8.3819075 2.0436177 -0.061520144 1352 32
-8.3808498 2.097924 -0.061656278 652 32
-8.3678198 2.1493084 -0.061656278 1110 32
-8.3564081 2.2011213 -0.061678968 757 32
-8.3572254 2.256264 -0.061849132 547 32
-8.3470783 2.3085668 -0.06189451 466 32
-8.3510361 2.3649175 -0.062110055 387 32
-8.3565369 2.4219604 -0.062348288 277 32
-8.3798656 2.484561 -0.062802061 524 32
-8.4438858 2.5600154 -0.063743651 191 32
-8.3840837 2.5981607 -0.063221805 284 32
-8.4166012 2.6649516 -0.063800372 348 32
-9.1450434 2.9574943 -0.072683029 155 32
-8.3937092 2.7714846 -0.063925155 238 32
-8.4286613 2.8405011 -0.064549103 180 32
-8.344883 2.8694019 -0.063754991 353 32
-9.1404762 3.2058578 -0.073533863 201 32
-8.3288145 2.9786625 -0.063993223 266 32
-8.3075628 3.0286834 -0.063959189 229 32
-9.1698999 3.406997 -0.074622922 192 32
-8.3053064 3.1438556 -0.064390279 173 32
-8.2979889 3.1994338 -0.064537756 193 32
-8.2977467 3.2579641 -0.064775988 189 32
-8.3082399 3.3210661 -0.06515035 187 32
-8.2969675 3.375751 -0.0652638 160 32
-8.2483826 3.4151199 -0.064923465 436 32
-8.2383308 3.4703255 -0.065059595 222 32
-8.2609987 3.5397151 -0.065604128 289 32
-8.184124 3.5663671 -0.064923465 707 32
-8.8001957 3.8992875 -0.072841853 199 32
-8.1917095 3.6899412 -0.065570094 222 32
-8.1725512 3.7418003 -0.065615475 202 32
-8.1439981 3.7893445 -0.065547407 258 32
-8.1621771 3.8589056 -0.066069253 141 32
-8.8188553 4.2358055 -0.074634269 692 32
-8.8160648 4.3012381 -0.074929222 948 32
-8.8029461 4.3619113 -0.075099386 981 32
-8.7947741 4.4252825 -0.075337619 941 32
-8.7808113 4.4859872 -0.07550779 935 32
-8.7646599 4.5457659 -0.075655267 1019 32
-8.7392569 4.6008568 -0.075689301 811 32
-8.4489336 4.5144262 -0.072320014 348 32
-8.3903093 4.5494995 -0.071922958 972 32
-8.3718729 4.6061983 -0.072047748 960 32
-8.3792486 4.677465 -0.072512865 289 32
-8.4382687 4.7785606 -0.073658653 15 32
-8.229311 4.7271399 -0.071310364 13 32
-7.9418235 4.6270251 -0.067918383 125 32
-8.760376 5.1762323 -0.079081275 537 32
-8.8099346 5.2787156 -0.080158994 681 32
-8.8585625 5.3819995 -0.081236705 770 32
-8.8807106 5.4703436 -0.081974097 892 32
-8.869029 5.5385032 -0.08226905 531 32
-2.7062821 1.7128637 2.32066e-05 43 32
-2.7075031 1.7369975 -0.00013561496 24 32
-2.7035 1.7579393 -0.00022637013 45 32
-2.7068553 1.7838502 -0.00041922487 39 32
-2.7066681 1.8076464 -0.00056670205 39 32
-2.7071183 1.8320676 -0.00072552357 49 32
-2.7106688 1.8588246 -0.00092972274 43 32
-2.7172768 1.8879764 -0.0011792994 33 32
-2.7203579 1.914976 -0.0013834987 41 32
-2.7215815 1.9409227 -0.001565009 50 32
-2.7185359 1.9640279 -0.0016897973 46 32
-2.7072406 1.9812622 -0.0017011417 26 32
-2.7030652 2.003792 -0.0018145856 54 32
-2.6907191 2.02034 -0.0018145856 68 32
-2.6583757 2.0216773 -0.0015309758 41 32
-2.6253257 2.022084 -0.0012360214 29 32
-2.6018319 2.0295432 -0.0010771999 42 32
-2.5657926 2.0268714 -0.00073686801 40 32
-2.5345695 2.0275831 -0.00046460246 45 32
-2.5042119 2.0286179 -0.00020368134 46 32
-2.4739377 2.0293572 5.7239791e-05 34 32
-2.4460568 2.0317187 0.00028412772 33 32
-2.4144146 2.0305965 0.00056773762 42 32
-2.3866854 2.0324051 0.00079462561 31 32
-2.3605397 2.0352564 0.00099882472 42 32
-2.3344493 2.0378637 0.0012030238 40 32
-2.3069179 2.0389035 0.0014299118 28 32
-2.2802076 2.0403495 0.0016454554 27 32
-2.2565305 2.0442307 0.0018156213 36 32
-2.2284713 2.0438426 0.0020538536 42 32
-2.2027001 2.0452292 0.0022580528 44 32
-2.182096 2.0511718 0.0023828412 40 32
-2.1578808 2.0534916 0.0025643515 49 32
-2.1301196 2.0521226 0.0028025839 45 32
-2.1060357 2.053982 0.0029840942 51 32
-2.0812981 2.0549209 0.003176949 35 32
-2.0573361 2.0563412 0.0033584593 43 32
-2.0242989 2.0482981 0.0036874467 32 32
-1.994931 2.0435057 0.0039597121 36 32
-1.892828 1.9628434 0.0054231393 78 32
-1.8407532 1.9324213 0.0060811145 11 32
-1.8864114 2.0048604 0.0051281853 31 32
-1.8631842 2.0046768 0.0053096954 62 32
-1.858286 2.0241752 0.005184907 44 32
-1.8606061 2.0518374 0.0049353302 32 32
-1.8566527 2.0728996 0.0047878535 43 32
-1.8564854 2.098484 0.0045723096 44 32
-1.8554156 2.1233909 0.0043681106 35 32
-1.8541096 2.1483631 0.0041639116 46 32
-1.850621 2.1711156 0.0039937454 35 32
-1.8488541 2.1962006 0.0037895464 41 32
-1.8455703 2.2198074 0.0036080361 40 32
-1.8414316 2.2426832 0.0034378699 49 32
-1.8383408 2.2671449 0.0032450154 48 32
-1.8350186 2.2916527 0.0030521606 41 32
-1.8320845 2.3169889 0.0028479614 41 32
-1.8282931 2.3415866 0.0026551066 39 32
-1.82671 2.3693924 0.0024168743 33 32
-1.8266706 2.3996537 0.0021446089 33 32
-1.8257276 2.4292033 0.0018836877 41 32
-1.8256816 2.4604373 0.0016000777 24 32
-1.8194125 2.4836941 0.0014299118 26 32
-1.8111687 2.5045352 0.001293779 34 32
-1.8033183 2.5261822 0.0011463019 24 32
-1.7935426 2.5453742 0.0010328579 37 32
-2.6860869 3.8625224 -0.017016077 199 32
-2.6713889 3.8921227 -0.017197588 203 32
-2.5868998 3.8190243 -0.015972393 85 32
-2.5673072 3.8406448 -0.016051803 89 32
-2.5569055 3.8763592 -0.016324069 133 32
-2.5347087 3.8944893 -0.016358102 153 32
-2.504282 3.8998713 -0.01622197 99 32
-2.4669294 3.8940456 -0.01593836 122 32
-2.379936 3.8081961 -0.014588377 41 32
-2.1671262 3.5154285 -0.010493049 47 32
-2.0333214 3.3440993 -0.0080426596 134 32
-2.0055659 3.3445058 -0.0078838384 91 32
-0 0 -0 4 32
-0 0 -0 7 32
-0 0 -0 6 32
-1.8494322 3.2630911 -0.0061935228 82 32
-1.8293755 3.2743776 -0.0061935228 136 32
-1.7846552 3.2408667 -0.0056149587 31 32
-1.7871487 3.2930646 -0.0061481451 74 32
-1.7584229 3.2880957 -0.0059439461 124 32
-1.7480012 3.3174016 -0.0061821784 620 32
-1.7216253 3.3165269 -0.0060347011 183 32
-1.6989673 3.3225765 -0.0059779794 155 32
-1.6740515 3.3240073 -0.0058645355 164 32
-1.6447405 3.3162994 -0.0056376476 134 32
-1.5651385 3.2050221 -0.0041061537 33 32
-1.5367801 3.1965404 -0.0038792659 24 32
-1.5094403 3.1896398 -0.0036750669 18 32
-1.5067235 3.2351012 -0.0041288426 157 32
-1.4822634 3.2342856 -0.0040040542 30 32
-1.542519 3.4210823 -0.0062162117 151 32
-1.5142028 3.4140286 -0.0060120127 162 32
-1.4904284 3.4168394 -0.0059326016 188 32
-1.4678588 3.4222441 -0.0058872243 139 32
-1.4402294 3.4155223 -0.0056943693 175 32
-1.4154176 3.4150572 -0.0055809254 192 32
-1.3951906 3.42553 -0.0056036143 159 32
-1.3455483 3.3625391 -0.0047300956 89 32
-0 0 -0 78 32
-0 0 -0 155 32
-0 0 -0 154 32
-0 0 -0 80 32
-0 0 -0 343 32
-0.97083843 2.7112329 0.0036874467 5538 32
-0.93828732 2.6718509 0.0042319777 6212 32
-0.93749434 2.7229426 0.0036874467 3432 32
-0 0 -0 124 32
-0 0 -0 183 32
-0 0 -0 234 32
-0 0 -0 129 32
-0.84197426 2.7131717 0.0041298782 113 32
-0 0 -0 124 32
-0 0 -0 99 32
-0 0 -0 37 32
-0.78740799 2.776309 0.0036193803 7 32
-0.76902407 2.7762697 0.0036761023 7 32
-0.75562704 2.7944503 0.0035172808 4 32
-0.73693669 2.7932329 0.0035853472 10 32
-0.72077996 2.8015759 0.0035399697 12 32
-0 0 -0 6 32
-0 0 -0 3 32
-0 0 -0 4 32
-0.6421262 2.7765279 0.0040277787 11 32
-0 0 -0 6 32
-0.60672635 2.7783372 0.0040958449 6 32
-0.5772351 2.7233138 0.004776509 5 32
-0 0 -0 5 32
-0.54103976 2.7164624 0.0049353302 5 32
-0.51622766 2.6775103 0.0054231393 11 32
-0 0 -0 5 32
-0 0 -0 4 32
-0.46377695 2.6688251 0.0056273388 6 32
-0.44359738 2.6489375 0.00588826 32 32
-0.4257459 2.6417372 0.0060017039 17 32
-0.40983427 2.646276 0.005979015 14 32
-0.39461711 2.6556647 0.0058996039 10 32
-0.37930015 2.6649659 0.0058201933 20 32
-0.3640185 2.6751697 0.0057294383 9 32
-0.3486259 2.6852858 0.0056386832 11 32
-0.33447045 2.7062302 0.0054231393 9 32
-0.31820831 2.711211 0.0053891065 11 32
-0.30255955 2.7220569 0.0052870065 25 32
-0.29293883 2.7914872 0.0045155878 16 32
-0.26677808 2.7016821 0.0055592721 45 32
-0.24817158 2.6813629 0.0058088489 41 32
-0.22948097 2.6569328 0.0061038034 49 32
-0.21133894 2.6353657 0.0063647246 59 32
-0.19516465 2.6366129 0.0063647246 34 32
-0.17871283 2.6337702 0.0064101019 48 32
-0.16267182 2.6368132 0.006387413 48 32
-0.14654487 2.6387601 0.0063760686 41 32
-0.12976091 2.627625 0.0065122014 31 32
-0.11531439 2.6673331 0.0060697701 50 32
-0.099536397 2.6839786 0.00588826 51 32
-0.083312191 2.6925344 0.0057975044 80 32
-0.06723322 2.7109883 0.0055933055 68 32
-0.051634461 2.7673366 0.0049580191 67 32
-0.034789611 2.7785997 0.0048332307 40 32
-0.020843334 3.2757192 -0.00080493436 160 32
-0.00073554524 3.20279 2.32066e-05 95 32
0.015312622 2.6047838 0.0068071559 145 32
0.031513896 2.6226382 0.0066029569 77 32
0.047020022 2.5904028 0.0069659776 128 32
0.06281583 2.586067 0.0070113549 131 32
0.078529634 2.5806355 0.0070680771 140 32
0.094252549 2.5771074 0.0071021104 131 32
0.10997796 2.5744824 0.0071247988 141 32
0 0 -0 131 32
0 0 -0 123 32
0 0 -0 136 32
0 0 -0 140 32
0.18772273 2.5539417 0.0073063094 127 32
0.20323075 2.5507483 0.0073289983 154 32
0.21862097 2.5464644 0.0073630312 137 32
0.23424168 2.5450752 0.0073630312 150 32
0.24975565 2.5425947 0.0073743756 125 32
0.26566404 2.543998 0.0073403427 139 32
0.28170913 2.5462954 0.007294965 121 32
0.29756001 2.5465052 0.0072722761 140 32
0.31330177 2.545624 0.0072609317 139 32
0.32878715 2.5426619 0.0072722761 115 32
0.34397906 2.5376241 0.0073063094 149 32
0.35968369 2.5364559 0.007294965 151 32
0.37568015 2.5371685 0.0072609317 121 32
0.40314984 2.611896 0.0063760686 73 32
0.41821611 2.6034496 0.0064441352 183 32
0.51773375 3.1008697 0.00069252599 28 32
0.51163661 2.9528053 0.0023601523 69 32
0.46854267 2.6090889 0.0062853135 63 32
0.45417804 2.4429765 0.0081684832 115 32
0.46934825 2.4411256 0.0081571387 112 32
0 0 -0 143 32
0 0 -0 111 32
0 0 -0 95 32
0 0 -0 86 32
0.55167276 2.459728 0.0077600852 215 32
0.5692296 2.4670141 0.0076352968 93 32
0.58551085 2.4683394 0.0075785751 133 32
0.6015929 2.4685862 0.0075331973 100 32
0.61745709 2.4677584 0.007499164 94 32
0.63283616 2.4648917 0.0074878195 96 32
0.64845806 2.4628961 0.0074651311 122 32
0.66199386 2.4530787 0.0075331973 125 32
0.67516708 2.4422245 0.0076126079 115 32
0.68060207 2.4043627 0.0080096619 71 32
0.69923973 2.4135869 0.0078508407 110 32
0.71318322 2.4063749 0.007884874 139 32
0.72996616 2.4086521 0.0078054629 115 32
0.74561971 2.4069932 0.0077714296 107 32
0.76248789 2.4090457 0.007692019 95 32
0.77694744 2.4033704 0.0077033634 101 32
0.79230672 2.4004569 0.0076806745 48 32
0.86259252 2.5604255 0.0057067494 7 32
1.0737237 3.1233792 -0.001111233 28 32
0.88302553 2.5185096 0.0060811145 6 32
0 0 -0 5 32
1.108083 3.0401442 -0.00035115849 11 32
1.1723427 3.1560764 -0.0018372745 155 32
1.1952263 3.1581752 -0.0019507185 178 32
1.2167406 3.1563797 -0.0020187849 165 32
1.2353539 3.1469932 -0.001996096 211 32
1.2546402 3.139354 -0.001996096 200 32
1.2761407 3.1371536 -0.0020641624 178 32
1.2976612 3.1348076 -0.0021322288 207 32
1.3219185 3.1387656 -0.0022797058 172 32
1.3454852 3.1407056 -0.0024044942 200 32
1.3667283 3.1369739 -0.0024612164 212 32
1.3883815 3.1340139 -0.0025292826 206 32
1.410871 3.1327295 -0.0026200379 177 32
1.4308991 3.1258318 -0.0026427268 180 32
1.4513175 3.1197131 -0.0026767598 209 32
1.472997 3.116173 -0.0027448263 219 32
1.5037799 3.1314123 -0.003051125 290 32
1.5216501 3.1194303 -0.0030170917 199 32
1.5447578 3.1180987 -0.0031191914 204 32
1.5679064 3.1166005 -0.0032212909 225 32
1.5856352 3.10425 -0.0031872578 711 32
1.5931423 3.0722713 -0.0029036477 70 32
1.6096342 3.0580144 -0.0028469258 53 32
1.6231835 3.0383792 -0.0027221374 86 32
1.6441795 3.0327573 -0.0027788593 138 32
1.6169617 2.9393854 -0.0017011417 53 32
0 0 -0 52 32
1.6110252 2.8453643 -0.00073686801 40 32
0 0 -0 35 32
1.5416147 2.646538 0.0016114222 100 32
1.5639288 2.6473594 0.0014752893 84 32
1.5806574 2.6385713 0.001463945 88 32
1.6175867 2.6630051 0.0010101692 46 32
1.6328472 2.6513271 0.0010328579 35 32
1.6506737 2.6438026 0.00099882472 26 32
1.6673996 2.6344693 0.00098748028 28 32
1.6921737 2.6376536 0.00080596999 68 32
1.7121426 2.6330886 0.0007265592 79 32
1.7315687 2.6275427 0.00065849285 73 32
1.7509911 2.6218574 0.00059042644 72 32
1.7704087 2.6160326 0.00052236003 71 32
1.7915175 2.6125417 0.00042026048 74 32
1.8189272 2.6179221 0.00019337256 106 32
1.8384103 2.6116178 0.00012530618 148 32
1.8456899 2.5880775 0.00029547213 165 32
1.8586069 2.5726516 0.0003521941 153 32
1.8619542 2.544255 0.00059042644 214 32
1.8793172 2.535192 0.00055639324 223 32
1.9002417 2.5308089 0.00045429368 182 32
1.9254209 2.5318353 0.00027278333 231 32
1.9525146 2.5350237 5.7239791e-05 189 32
1.9766439 2.5340326 -0.00010158176 198 32
1.9977347 2.5289178 -0.00020368134 180 32
2.0200863 2.5252006 -0.0003284697 179 32
2.0424674 2.5213039 -0.00045325808 170 32
2.0636077 2.5156815 -0.00055535766 250 32
2.0911458 2.5175853 -0.00077090116 163 32
2.2063284 2.623311 -0.0025292826 37 32
2.4622874 2.891377 -0.0067267097 69 32
2.4786761 2.8746996 -0.0067040208 87 32
2.4870608 2.8488917 -0.0065451991 60 32
2.4733667 2.7983673 -0.0060120127 103 32
2.4864893 2.7786677 -0.0059439461 83 32
2.5538497 2.8189318 -0.0067947758 40 32
2.7536099 3.0021563 -0.0098577626 113 32
2.782186 2.9961941 -0.010027929 140 32
2.8073676 2.9863515 -0.010141373 147 32
2.8346012 2.9784851 -0.01028885 150 32
2.8660066 2.9747169 -0.010504394 141 32
2.8988683 2.9721065 -0.010742626 147 32
2.9275899 2.9649353 -0.010912792 169 32
3.0093558 3.0105586 -0.011933788 45 32
3.1600752 3.1227553 -0.014043845 49 32
3.2256911 3.1487033 -0.014781231 95 32
3.2593482 3.1427317 -0.015008119 81 32
3.2966733 3.1399128 -0.015291729 78 32
3.3340859 3.1367538 -0.015575339 85 32
3.3686531 3.1305304 -0.01581357 80 32
3.4003222 3.1212962 -0.016006427 117 32
3.4423759 3.1211929 -0.016358102 89 32
3.4912598 3.1266935 -0.016811877 100 32
3.5313516 3.1237614 -0.017129522 85 32
3.5632541 3.1132181 -0.017322376 69 32
3.6133301 3.1180775 -0.017787496 115 32
3.6438105 3.1055763 -0.017957663 91 32
3.6811585 3.0986128 -0.018229928 77 32
3.7208645 3.0932248 -0.018536227 77 32
3.7536862 3.0817556 -0.018740425 82 32
3.7872834 3.0706294 -0.018955968 52 32
0 0 -0 4 32
0 0 -0 4 32
0 0 -0 5 32
3.7949727 2.9254837 -0.018003039 6 32
3.8255832 2.9118321 -0.01818455 8 32
3.8633633 2.9033206 -0.01846816 20 32
3.8770897 2.8765821 -0.018411439 105 32
3.9422641 2.8875964 -0.019080758 27 32
3.9793561 2.877413 -0.019353023 23 32
4.0237961 2.8721106 -0.019727388 17 32
4.0691371 2.8669462 -0.020113098 7 32
4.1153865 2.8619037 -0.020510152 9 32
4.1468854 2.8462167 -0.020703007 15 32
4.1783462 2.8302505 -0.020895861 10 32
4.2047787 2.8106711 -0.021020649 20 32
4.226119 2.7875707 -0.021077372 6 32
4.3596411 2.8373952 -0.022654243 123 32
4.4022121 2.8267984 -0.022994574 130 32
4.4574876 2.8238113 -0.023505073 114 32
4.5078025 2.8170722 -0.023947503 147 32
4.5692677 2.8166416 -0.024537412 154 32
4.6240597 2.8114064 -0.025036566 131 32
4.670382 2.8004622 -0.025422275 122 32
4.7244902 2.7936349 -0.025910085 121 32
4.7735057 2.7832265 -0.026329827 120 32
4.8321061 2.7778025 -0.026874358 205 32
4.8681989 2.7589459 -0.027123936 334 32
4.8675761 2.7192712 -0.026897047 234 32
4.8666506 2.679708 -0.02667016 214 32
4.8671808 2.6412129 -0.02646596 188 32
4.8674231 2.6028123 -0.02626176 197 32
4.8673773 2.5645087 -0.026057562 169 32
4.8634958 2.5244613 -0.025807984 256 32
4.8628678 2.4863791 -0.025603786 195 32
4.8682079 2.4515479 -0.025478998 216 32
4.893909 2.4269614 -0.02561513 166 32
4.9338684 2.4091704 -0.025932774 150 32
4.9755955 2.3918464 -0.026273105 243 32
4.9883699 2.3604164 -0.026250416 217 32
4.9973202 2.3272314 -0.02618235 195 32
4.9960518 2.2894442 -0.025989495 316 32
4.9771876 2.2439528 -0.025581097 160 32
4.9341884 2.1882417 -0.024877744 186 32
4.9942675 2.1783094 -0.025456309 387 32
5.0038633 2.1460478 -0.025410932 300 32
4.9994302 2.1079245 -0.025195388 281 32
4.9993372 2.0718501 -0.025036566 268 32
5.0128818 2.041513 -0.025047909 345 32
5.018815 2.0081162 -0.024968499 320 32
5.011498 1.969604 -0.024730267 303 32
5.0076299 1.9326974 -0.024537412 360 32
4.9913421 1.8913076 -0.024197081 280 32
4.9981666 1.8589032 -0.024140358 254 32
5.0085392 1.8278573 -0.024129014 266 32
5.0130701 1.7947322 -0.024049604 306 32
5.0192704 1.7622828 -0.023992881 261 32
5.0252619 1.7298251 -0.02393616 309 32
5.0187263 1.6932056 -0.02373196 292 32
5.0081334 1.6554766 -0.023482384 240 32
5.0048785 1.620405 -0.023323562 31 32
5.0080543 1.5875505 -0.023244152 38 32
5.0138807 1.5556068 -0.023198774 15 32
5.0204611 1.5239419 -0.02316474 18 32
5.0162969 1.4891253 -0.02300592 14 32
5.0214982 1.4572034 -0.022960542 22 32
5.0245724 1.4247284 -0.022892475 22 32
5.0187645 1.3898693 -0.022722309 14 32
5.0185103 1.3567007 -0.022620209 15 32
5.0190053 1.3238425 -0.022529455 15 32
5.0241284 1.2922745 -0.022495421 12 32
5.0251737 1.2597212 -0.02241601 8 32
5.0201802 1.2257811 -0.022268534 15 32
5.0237155 1.1940302 -0.022223156 17 32
5.0309472 1.1631827 -0.022223156 12 32
5.045795 1.1340451 -0.022313911 10 32
5.0438657 1.1011446 -0.022211811 15 32
5.0446577 1.0689319 -0.022143744 19 32
5.0511217 1.0379584 -0.022143744 7 32
5.0515113 1.0057746 -0.022075679 12 32
5.0399137 0.97135526 -0.021871479 15 32
5.0329995 0.93803191 -0.021724002 12 32
5.0160255 0.90305907 -0.021463081 7 32
5.0096498 0.8702116 -0.021326948 8 32
5.0237713 0.84094167 -0.021429047 16 32
5.0357471 0.81121325 -0.021508459 20 32
5.0435944 0.7807579 -0.021542491 24 32
5.0285082 0.74685973 -0.021315604 9 32
5.0478458 0.71810263 -0.02148577 15 32
5.0491843 0.68671209 -0.021451736 17 32
5.0473533 0.65494639 -0.021383669 25 32
5.0413527 0.62273896 -0.021270227 18 32
5.0262094 0.58958209 -0.021054683 11 32
5.0237694 0.55806881 -0.020986617 16 32
5.0320716 0.52775419 -0.021043338 20 32
5.0342197 0.49676991 -0.021031994 23 32
5.0232334 0.46458301 -0.020873172 12 32
5.0449181 0.43538439 -0.021088716 25 32
5.0534749 0.40489987 -0.021156782 38 32
5.0558643 0.37388471 -0.021156782 27 32
5.0610561 0.34305811 -0.021190815 21 32
5.0590739 0.3117519 -0.021145437 18 32
5.0678802 0.28109124 -0.021224849 19 32
5.0705085 0.25003919 -0.021236192 27 32
5.0689502 0.21879329 -0.02120216 40 32
5.0691977 0.18764977 -0.021190815 34 32
5.0672555 0.15644988 -0.021156782 34 32
5.0631218 0.12523159 -0.021100061 32 32
5.0547972 0.093995869 -0.02099796 22 32
5.0512791 0.06292893 -0.020952582 28 32
5.0515704 0.03193368 -0.020952582 35 32
5.0486712 0.00093689963 -0.02091855 27 32
0 -0 -0 29 32
5.0633006 -0.061200559 -0.021088716 26 32
5.0728273 -0.092450202 -0.02120216 33 32
5.0701656 -0.12352588 -0.021179471 24 32
5.0813055 -0.15500027 -0.021315604 40 32
5.0782604 -0.18610227 -0.021292916 39 32
5.078022 -0.21730122 -0.021304259 23 32
5.0815868 -0.24870005 -0.021360982 30 32
0 -0 -0 37 32
5.0921249 -0.31189713 -0.021519803 25 32
5.08812 -0.34300128 -0.021497114 35 32
5.1098533 -0.37597778 -0.02176938 18 32
5.1014695 -0.40684676 -0.021701314 20 32
5.1018658 -0.43839818 -0.021735346 17 32
5.1229768 -0.47189745 -0.022007613 7 32
5.1020727 -0.50156033 -0.021803413 18 32
5.1148114 -0.53452069 -0.021984924 11 32
5.098515 -0.56446314 -0.021837447 20 32
5.1038942 -0.59678227 -0.021939546 18 32
5.1021214 -0.6283325 -0.021962235 16 32
5.1011448 -0.66001183 -0.021996267 22 32
5.1009622 -0.69183731 -0.022041645 17 32
5.0946412 -0.72284216 -0.022018956 19 32
5.0950556 -0.75482172 -0.022075679 15 32
5.0903282 -0.78607017 -0.022075679 13 32
5.0844221 -0.81713033 -0.022064334 23 32
5.0911474 -0.85028988 -0.022200467 11 32
5.1075096 -0.88527113 -0.022450043 16 32
5.1137915 -0.91871619 -0.022586176 14 32
5.1257534 -0.95336908 -0.022790376 15 32
5.1384635 -0.98839223 -0.02300592 13 32
5.1352444 -1.0204875 -0.023039952 12 32
5.1279063 -1.0517766 -0.023028608 18 32
5.1252694 -1.084049 -0.023073986 17 32
5.1243834 -1.1167547 -0.023142051 21 32
5.1232886 -1.1494901 -0.023210118 17 32
5.1210103 -1.1820292 -0.023266841 17 32
5.1233902 -1.2157383 -0.023380283 23 32
5.1148629 -1.246915 -0.02336894 15 32
5.1236057 -1.2824043 -0.023561794 23 32
5.1224198 -1.3155596 -0.023641204 23 32
5.1200528 -1.3484939 -0.023709271 17 32
5.1174746 -1.3814486 -0.023777338 22 32
5.0963731 -1.4093572 -0.023629861 10 32
5.1059093 -1.445779 -0.023845404 22 32
5.1603284 -1.4954551 -0.024594134 45 32
5.128047 -1.5202674 -0.024321869 130 32
5.1540279 -1.5624398 -0.024741612 396 32
5.0440574 -1.562952 -0.023550451 168 32
4.9581099 -1.5697218 -0.022642897 169 32
4.8808351 -1.578266 -0.021837447 176 32
4.8140893 -1.5893711 -0.021156782 154 32
4.7587633 -1.6035497 -0.020612251 299 32
4.7497802 -1.633044 -0.020623596 365 32
4.7519369 -1.66646 -0.020771073 369 32
4.7519794 -1.6992905 -0.020895861 385 32
4.7508574 -1.7318414 -0.021009305 358 32
4.7635746 -1.7696669 -0.021292916 474 32
4.7507558 -1.7981542 -0.021270227 377 32
4.7554936 -1.8333865 -0.021463081 474 32
4.7609081 -1.86911 -0.021667279 553 32
4.7660627 -1.9049687 -0.021871479 464 32
4.7681775 -1.9398301 -0.022041645 557 32
4.7681952 -1.9740238 -0.022189122 518 32
4.7633648 -2.0063496 -0.022279877 463 32
4.7426929 -2.0319943 -0.022177778 66 32
4.7484684 -2.0690467 -0.022404665 60 32
4.7987633 -2.1260967 -0.023187429 29 32
4.7892742 -2.1571443 -0.023232806 25 32
4.7723117 -2.1848249 -0.023187429 38 32
4.776041 -2.2220817 -0.023402972 26 32
4.7713561 -2.2556195 -0.023516417 29 32
4.7700448 -2.290915 -0.023675239 29 32
4.7612906 -2.3227713 -0.023743305 37 32
4.7729311 -2.3648181 -0.024072291 27 32
4.7726226 -2.4012516 -0.024253802 33 32
4.7764983 -2.4400446 -0.024492035 26 32
4.780077 -2.4789755 -0.024730267 30 32
4.7798176 -2.5161784 -0.024923122 35 32
4.781045 -2.5544133 -0.025138665 34 32
4.7819824 -2.5927582 -0.025354208 35 32
4.7843809 -2.6321743 -0.025592441 41 32
4.7925868 -2.6751289 -0.025910085 27 32
4.7865233 -2.7103984 -0.026046216 34 32
4.7854095 -2.748683 -0.026250416 33 32
4.7909169 -2.7910826 -0.02654537 23 32
4.7943616 -2.8326354 -0.026817637 19 32
4.832643 -2.8954082 -0.027555022 8 32
4.8019681 -2.9172177 -0.027384857 13 32
4.7975998 -2.9550185 -0.027566366 16 32
4.8141508 -3.0061173 -0.028031487 11 32
4.8032188 -3.0404136 -0.028133586 14 32
4.8038282 -3.0822494 -0.028394507 19 32
4.8183551 -3.1334751 -0.028848283 5 32
4.8115606 -3.1712358 -0.029018449 13 32
4.8111358 -3.2134745 -0.02927937 15 32
4.7896714 -3.2418137 -0.029256681 8 32
4.8100953 -3.298856 -0.029812558 21 32
4.8094697 -3.3420038 -0.030084822 23 32
4.8076777 -3.384692 -0.030345744 30 32
4.8193812 -3.4373553 -0.030799519 12 32
4.8168402 -3.4803321 -0.03106044 19 32
4.8244414 -3.531085 -0.031468838 17 32
4.8291907 -3.5802746 -0.031843204 15 32
4.82792 -3.6254513 -0.032138158 15 32
4.82548 -3.6701412 -0.032421768 15 32
4.8242569 -3.7161577 -0.032728069 18 32
4.8297453 -3.7678328 -0.033136465 18 32
4.8253651 -3.8122749 -0.033408731 20 32
4.8440433 -3.8755467 -0.034021329 9 32
4.8341565 -3.9165273 -0.034225527 17 32
4.83709 -3.9683149 -0.03462258 18 32
4.8380313 -4.0190072 -0.034996945 14 32
4.8415918 -4.0724339 -0.035416689 20 32
4.8500066 -4.1305938 -0.035915844 15 32
4.8510737 -4.1831322 -0.036312897 16 32
4.8494177 -4.2338648 -0.036675919 17 32
4.8518162 -4.2887077 -0.037107006 20 32
4.8537226 -4.3437381 -0.037538093 17 32
4.8529129 -4.3969388 -0.037935145 19 32
4.8567901 -4.4550233 -0.03841161 24 32
4.8594027 -4.51264 -0.038876731 32 32
4.8622189 -4.5711398 -0.039353196 19 32
4.8616018 -4.6270857 -0.039784282 17 32
4.8640804 -4.6866646 -0.040272091 23 32
4.8724518 -4.7527308 -0.040861998 19 32
4.8759251 -4.8148594 -0.04138384 15 32
4.8774042 -4.8757939 -0.041882996 30 32
4.8733978 -4.9319477 -0.042302739 22 32
4.868187 -4.9875193 -0.042711135 14 32
4.8763571 -5.0576096 -0.043346424 20 32
4.8810902 -5.1250896 -0.043936331 25 32
4.8892884 -5.1971869 -0.044594306 25 32
4.8961029 -5.2688437 -0.045240935 15 32
4.9083066 -5.3474083 -0.045989666 23 32
4.9029384 -5.4077983 -0.046454787 20 32
4.9090199 -5.4817314 -0.047124106 23 32
4.9104023 -5.5514474 -0.047725361 29 32
4.9229541 -5.6349401 -0.048530813 29 32
4.9222531 -5.7044096 -0.04912072 30 32
4.9254236 -5.7794085 -0.04979004 30 32
4.9246383 -5.8508339 -0.050402638 39 32
4.9257169 -5.9255419 -0.051060613 35 32
4.9273319 -6.0020275 -0.051741276 26 32
4.9451938 -6.0997272 -0.052728239 30 32
4.9501672 -6.1830373 -0.053499658 37 32
4.9518223 -6.2634988 -0.054225698 40 32
4.9366775 -6.3237176 -0.054656785 50 32
4.9411235 -6.4101205 -0.055462237 50 32
4.9810266 -6.5445571 -0.056948353 96 32
4.9365716 -6.5694013 -0.056868944 86 32
4.9831491 -6.7168188 -0.058525227 238 32
4.9956055 -6.8206811 -0.059557565 461 32
4.9724073 -6.8771362 -0.059920587 469 32
4.9701962 -6.9636774 -0.060703348 169 32
4.9440742 -7.0177493 -0.061032336 118 32
5.0579004 -7.273725 -0.064152047 28 32
5.0516477 -7.3606873 -0.064923465 15 32
5.0220885 -7.4147267 -0.065241106 26 32
5.0192814 -7.5094166 -0.066114627 28 32
5.022656 -7.6152005 -0.067135625 29 32
5.0303736 -7.7296867 -0.068270065 26 32
5.0341721 -7.840344 -0.069347776 37 32
5.0480366 -7.9690752 -0.070663728 36 32
5.0329552 -8.0541716 -0.071389772 34 32
5.0411525 -8.1785383 -0.072637655 28 32
5.0319085 -8.2768183 -0.073533863 35 32
5.0468411 -8.4173126 -0.074985944 38 32
5.0551476 -8.5496902 -0.076324582 35 32
5.0494275 -8.6608858 -0.077379614 44 32
5.0639577 -8.8096094 -0.078922451 50 32
5.0645266 -8.9370823 -0.080181681 47 32
5.0861497 -9.1050482 -0.081962749 51 32
5.0899849 -9.2447042 -0.083369456 61 32
5.0803742 -9.3627729 -0.084492549 72 32
5.0770478 -9.4951782 -0.085797153 48 32
5.0997825 -9.6800871 -0.08777108 63 32
5.1029329 -9.8319016 -0.089313917 66 32
5.1080513 -9.9912367 -0.090947509 41 32
5.1239953 -10.176007 -0.092898749 56 32
5.1280885 -10.341635 -0.094600409 37 32
5.1263919 -10.499603 -0.096199967 30 32
5.1238132 -10.659739 -0.097822219 29 32
5.1502495 -10.885312 -0.10026126 31 32
5.1551137 -11.070812 -0.10218981 27 32
5.1470637 -11.23314 -0.1038234 28 32
5.1376247 -11.396693 -0.10546834 47 32
0 -0 -0 85 32
0 -0 -0 304 32
5.1649947 -12.044412 -0.11232036 43 32
5.2603459 -12.477612 -0.11726651 21 32
5.2583237 -12.689792 -0.11947867 20 32
5.2606807 -12.919079 -0.12189502 16 32
5.2711892 -13.175789 -0.12464037 19 32
5.2809362 -13.438689 -0.12745377 5 32
5.3502874 -13.864521 -0.13224111 5 32
0 -0 -0 31 32
5.3351755 -14.347142 -0.13730071 10 32
5.3495226 -14.660478 -0.1406927 7 32
5.3487639 -14.942509 -0.14369896 17 32
5.3447428 -15.225074 -0.14670523 28 32
5.3625069 -15.580946 -0.15058501 19 32
5.3556476 -15.876959 -0.15373875 34 32
5.4222269 -16.406075 -0.15967187 41 32
5.4252324 -16.759638 -0.16349493 210 32
5.320785 -16.787846 -0.1634382 525 32
5.2153063 -16.812536 -0.16334745 60 32
5.0984011 -16.799248 -0.16281426 10 32
5.5343428 -18.646784 -0.1843119 40 32
5.408401 -18.641016 -0.18384677 156 32
5.3132825 -18.742155 -0.18465222 42 32
5.3086381 -19.173368 -0.1893488 57 32
5.2587223 -19.45656 -0.19229835 32 32
0 -0 -0 4 32
4.334518 -16.855471 -0.16108991 16 32
4.2210474 -16.841982 -0.1606248 246 32
4.1154933 -16.858822 -0.1605227 573 32
4.0085049 -16.869164 -0.16035253 537 32
3.8986173 -16.866161 -0.16003489 546 32
3.7902327 -16.868303 -0.15978532 466 32
3.6828218 -16.873657 -0.15958111 345 32
3.5742447 -16.872459 -0.15930885 480 32
3.4694428 -16.888195 -0.15924078 532 32
3.364192 -16.90132 -0.15915002 516 32
3.2613699 -16.926554 -0.15920675 390 32
3.2728243 -17.56555 -0.16635372 112 32
3.2859421 -18.25746 -0.17410193 394 32
3.1692359 -18.250679 -0.17379564 475 32
3.0542221 -18.252029 -0.17359143 438 32
2.9339066 -18.21909 -0.17300153 241 32
2.813499 -18.181412 -0.17236625 422 32
2.6980693 -18.172615 -0.17207129 267 32
2.5786312 -18.13339 -0.17143601 489 32
2.4631431 -18.118155 -0.17108433 495 32
2.3485823 -18.107145 -0.17078938 457 32
2.2338817 -18.092436 -0.17046039 455 32
2.1185191 -18.069056 -0.17004065 478 32
2.0030863 -18.040968 -0.16957553 511 32
1.8892246 -18.023085 -0.1692352 492 32
1.7744805 -17.992542 -0.16875874 336 32
1.6605505 -17.965256 -0.16832764 361 32
1.5483967 -17.953188 -0.16807806 472 32
1.4365333 -17.94142 -0.16783984 488 32
1.3239888 -17.916988 -0.16746546 469 32
1.2120008 -17.894846 -0.16712514 511 32
1.1004574 -17.874001 -0.16680749 529 32
0.98943663 -17.856453 -0.16653523 567 32
0.87842685 -17.833225 -0.16620624 547 32
0.76756722 -17.805313 -0.16583188 555 32
0.6574524 -17.786705 -0.16557096 515 32
0.54781038 -17.774412 -0.16538945 539 32
0.43824533 -17.757446 -0.16516255 500 32
0.32892767 -17.740805 -0.16494702 451 32
0.21973169 -17.715494 -0.16464071 494 32
0.11087745 -17.692511 -0.16436845 526 32
0.0023132213 -17.665859 -0.16406214 617 32
-0.10588363 -17.632544 -0.16368778 571 32
-0.21363507 -17.595568 -0.16327938 607 32
-0.32135755 -17.580929 -0.16313191 632 32
-0.42890847 -17.56563 -0.16298443 656 32
-0.53625315 -17.548676 -0.16282561 613 32
-0.64355278 -17.535061 -0.16271217 604 32
-0.75023443 -17.509804 -0.16247393 616 32
-0.85702199 -17.491886 -0.16232646 622 32
-0.96361798 -17.47332 -0.16217898 607 32
-1.0700184 -17.454103 -0.1620315 629 32
-1.1762867 -17.435238 -0.16189536 625 32
-1.2822168 -17.413731 -0.16173655 644 32
-1.3875295 -17.386597 -0.161521 677 32
-1.4935857 -17.370781 -0.16144159 687 32
-1.599592 -17.355316 -0.16137353 686 32
-1.7052689 -17.337214 -0.16128278 731 32
-1.8088077 -17.299572 -0.16097647 680 32
-1.9096367 -17.240442 -0.16043194 648 32
-1.9922618 -17.030762 -0.15817441 1601 32
-2.0732424 -16.827669 -0.15599628 669 32
-2.1791523 -16.835457 -0.15623452 658 32
-2.2849665 -16.840595 -0.15645006 622 32
-2.3905039 -16.842098 -0.15663157 635 32
-2.496146 -16.842939 -0.15681309 619 32
-2.6017354 -16.842129 -0.15698324 654 32
-2.7080438 -16.844606 -0.15719879 642 32
-2.8143158 -16.845425 -0.15740299 597 32
-2.920187 -16.842619 -0.15757315 640 32
-3.0275447 -16.847019 -0.15783407 575 32
-2.2687531 -12.194953 -0.10436793 465 32
-2.303669 -11.973618 -0.10197426 795 32
-2.3778741 -11.963181 -0.10201965 918 32
-2.4546509 -11.965016 -0.1022125 836 32
-2.5319533 -11.968317 -0.10242804 870 32
-2.6098149 -11.973073 -0.10266627 887 32
-2.6860778 -11.969518 -0.10281375 901 32
-2.7621703 -11.964502 -0.10294988 940 32
-2.8348384 -11.94441 -0.10291585 185 32
-6.1820655 -25.352468 -0.25969541 25 32
-6.344552 -25.342188 -0.2600244 20 32
-6.5046563 -25.321182 -0.26023996 12 32
-0 -0 -0 5 32
-0 -0 -0 6 32
-0 -0 -0 7 32
-0 -0 -0 4 32
-0 -0 -0 4 32
-7.5789423 -25.559282 -0.26609364 14 32
-0 -0 -0 4 32
-0 -0 -0 3 32
-0 -0 -0 6 32
-2.3152699 -7.1594558 -0.049007278 577 32
-2.356334 -7.1365695 -0.048905175 1586 32
-2.3988013 -7.1181865 -0.048859797 1768 32
-2.448611 -7.1212997 -0.049075343 1163 32
-2.5088096 -7.1533198 -0.049642563 977 32
-0 -0 -0 820 32
-0 -0 -0 1632 32
-2.5804954 -6.9456477 -0.04770267 1566 32
-2.6258967 -6.9371648 -0.047793426 1517 32
-2.6763279 -6.9414473 -0.048043001 1445 32
-2.7232554 -6.9360638 -0.048179135 1489 32
-2.7420068 -6.8598008 -0.047453094 1293 32
-2.7780159 -6.8280277 -0.047271583 1844 32
-0 -0 -0 1201 32
-2.931865 -6.9602141 -0.049324919 1719 32
-2.9816062 -6.9586372 -0.04952912 1702 32
-3.0266447 -6.9457116 -0.049597185 683 32
-5.4638433 -12.330817 -0.11665391 177 32
-5.426043 -12.045432 -0.11352286 29 32
-5.4644647 -11.934633 -0.11255859 26 32
-5.48106 -11.779398 -0.11103844 25 32
-5.4998055 -11.632547 -0.10962038 29 32
-5.5360074 -11.525574 -0.10870149 30 32
-5.5728593 -11.422192 -0.10782798 21 32
-5.6033239 -11.308042 -0.10681833 81 32
-5.6793456 -11.286846 -0.10698849 422 32
-5.7157364 -11.187674 -0.10617169 1559 32
-5.806375 -11.194999 -0.10671622 2333 32
-5.7985573 -11.014055 -0.10485574 1534 32
-5.8132467 -10.879494 -0.10358517 2118 32
-5.8512926 -10.790879 -0.10290451 4746 32
-5.8884706 -10.702209 -0.10222384 2629 32
-5.866291 -10.50872 -0.10018185 837 32
-5.8833547 -10.388999 -0.099092789 2030 32
-5.8812404 -10.238254 -0.097595327 1628 32
-5.9137454 -10.150136 -0.096914664 2652 32
-5.9148698 -10.010355 -0.095553339 2238 32
-5.8466592 -9.7577257 -0.092694551 987 32
-5.8399596 -9.6122847 -0.091242462 73 32
-5.5757604 -9.0518341 -0.084254317 78 32
-5.6015348 -8.9699564 -0.083619028 67 32
-5.6233058 -8.8830357 -0.082915679 69 32
-5.6345015 -8.7810402 -0.082008123 73 32
-5.6392074 -8.6708612 -0.080987133 68 32
-5.654882 -8.5793257 -0.080215715 75 32
-5.6318769 -8.431385 -0.078672871 145 32
-5.6829443 -8.3958416 -0.078661531 249 32
-5.7518868 -8.3863764 -0.079013206 1026 32
-5.7370405 -8.2556763 -0.077697255 108 32
-5.9090576 -8.3928318 -0.080090925 217 32
-5.995285 -8.4052591 -0.080771588 839 32
-6.0649014 -8.3934393 -0.081123263 887 32
-6.1310544 -8.3762398 -0.081406876 780 32
-6.2317672 -8.4051294 -0.082348458 70 32
-5.7866173 -7.7055049 -0.072966643 62 32
-6.3961911 -8.4092007 -0.083505586 585 32
-6.4952688 -8.4315815 -0.084390447 793 32
-6.5745616 -8.4270449 -0.084900945 822 32
-6.6652007 -8.4359732 -0.085615642 731 32
-6.7449503 -8.4300518 -0.086126141 625 32
-6.8418741 -8.4444437 -0.086942941 728 32
-6.9335184 -8.451005 -0.087657638 227 32
-7.0657563 -8.5052118 -0.089087032 103 32
-6.8796387 -8.1785774 -0.084889606 148 32
-6.9270983 -8.1331663 -0.084844224 190 32
-6.919404 -8.0238733 -0.083845921 174 32
-6.8777471 -7.8773222 -0.08228039 228 32
-6.9305882 -7.8402171 -0.082359806 188 32
-7.6594443 -8.5582733 -0.093942434 46 32
-7.7212129 -8.5214882 -0.09410125 45 32
-7.8220243 -8.5270042 -0.09491805 112 32
-7.8959727 -8.5022945 -0.095281072 191 32
-8.0110092 -8.5207071 -0.096324757 88 32
-0 -0 -0 11 32
-8.0095034 -8.3123131 -0.094600409 4 32
-0 -0 -0 11 32
-0 -0 -0 12 32
-0 -0 -0 6 32
-0 -0 -0 4 32
-8.015975 -7.8238554 -0.090720624 12 32
-8.193409 -7.8994441 -0.092762612 25 32
-8.4198599 -8.0186567 -0.095553339 444 32
-8.5300837 -8.0243931 -0.096506268 295 32
-8.6172514 -8.0072956 -0.097096175 207 32
-9.3992329 -8.6270189 -0.10838385 81 32
-9.4653254 -8.5812731 -0.10858805 63 32
-6.3086119 -5.6494322 -0.059716389 544 32
-6.3064556 -5.5781569 -0.059160512 407 32
-2.7265973 -2.3823507 -0.0047187512 47 32
-2.6798396 -2.3126655 -0.003799855 141 32
-2.7107232 -2.310447 -0.004049432 322 32
-2.680476 -2.2564261 -0.0033914568 138 32
-2.7127264 -2.2552764 -0.0036637224 306 32
-2.7040994 -2.2201905 -0.0033347348 142 32
-2.7044663 -2.192852 -0.00314188 139 32
-2.7038193 -2.164968 -0.002937681 134 32
-2.7060704 -2.1396556 -0.0027788593 135 32
-2.7002306 -2.1082444 -0.0025065939 149 32
-2.7012358 -2.0824802 -0.002336428 265 32
-2.7068014 -2.0604165 -0.0022343283 149 32
-2.7137971 -2.0395644 -0.0021549177 116 32
-2.7182295 -2.016917 -0.0020414735 110 32
-2.7232933 -1.9948829 -0.001939374 116 32
-2.72981 -1.9740345 -0.0018599633 127 32
-2.7369876 -1.9537624 -0.0017918969 151 32
-2.7464716 -1.9352043 -0.0017578637 133 32
-2.776356 -1.9308741 -0.0020074404 86 32
-2.8071141 -1.9268154 -0.0022683616 81 32
-2.8412383 -1.9246943 -0.0025746603 91 32
-2.8812604 -1.9261159 -0.0029603697 94 32
-2.9180672 -1.9249159 -0.0033007017 334 32
-2.9734051 -1.9353346 -0.0038906103 95 32
-3.0012114 -1.927318 -0.0041061537 307 32
-3.0585968 -1.9377596 -0.0047187512 80 32
-3.0958693 -1.9348519 -0.005059083 71 32
-3.1255591 -1.9268371 -0.0052973153 71 32
-3.19628 -1.9434625 -0.0060800789 55 32
-3.4139729 -2.0472131 -0.0088027343 46 32
-3.4695079 -2.0516713 -0.0093699535 46 32
-3.5139942 -2.0489774 -0.0097896969 59 32
-3.4978914 -2.0109339 -0.0094153313 4 32
-0 -0 -0 4 32
-0 -0 -0 3 32
-0 -0 -0 6 32
-9.5148239 -5.1628718 -0.086455129 158 32
-9.5136957 -5.0869489 -0.086035386 179 32
-9.5252666 -5.0182252 -0.085785814 163 32
-9.5017395 -4.9315877 -0.085093804 89 32
-9.5175743 -4.865911 -0.084912293 70 32
-9.4740162 -4.7705469 -0.08398205 122 32
-9.4789209 -4.7003322 -0.08367575 104 32
-9.4941053 -4.6355019 -0.083505586 115 32
-9.5458012 -4.5884223 -0.083800539 86 32
-9.5972767 -4.5408821 -0.084095493 85 32
-9.6158934 -4.4776883 -0.08398205 83 32
-9.605916 -4.4015255 -0.083516933 124 32
-9.5607252 -4.3100395 -0.082620725 139 32
-9.5202618 -4.2217069 -0.081792586 162 32
-9.4616613 -4.1264396 -0.080748901 69 32
-9.3517075 -4.0103788 -0.079081275 178 32
-9.3613968 -3.9467075 -0.078899764 156 32
-9.3752747 -3.8849823 -0.078774974 183 32
-9.3618917 -3.8123002 -0.078321196 168 32
-9.3693247 -3.7484713 -0.078128345 154 32
-9.4154148 -3.7000539 -0.078411952 140 32
-9.4034243 -3.6288934 -0.077992208 141 32
-9.3806295 -3.5541229 -0.077447683 187 32
-9.376955 -3.4870882 -0.077141382 177 32
-9.3728123 -3.4202325 -0.076835081 182 32
-9.3493738 -3.3468201 -0.076301895 186 32
-9.3404856 -3.2791235 -0.07595022 162 32
-9.3519201 -3.218821 -0.075848117 93 32
-9.5875216 -3.2342436 -0.078434639 51 32
-9.871129 -3.2625816 -0.081588387 152 32
-10.028906 -3.2466023 -0.083233319 476 32
-8.3280907 -2.6397316 -0.062756687 940 32
-8.3489065 -2.5900629 -0.062813409 1069 32
-8.3512459 -2.5347211 -0.062654585 987 32
-8.3551378 -2.4800172 -0.062518455 991 32
-8.355793 -2.4245253 -0.062348288 1056 32
-8.3522329 -2.3680279 -0.062132742 977 32
-8.3550415 -2.3135333 -0.061996609 1006 32
-8.364254 -2.2609198 -0.061939888 947 32
-8.385704 -2.2115948 -0.062030643 615 32
-8.6044245 -2.2128911 -0.064435653 372 32
-9.9796391 -2.5013244 -0.080363192 355 32
-9.9753704 -2.4353013 -0.080136299 902 32
-9.9726143 -2.3698869 -0.079932101 561 32
-9.9489717 -2.2998698 -0.079489671 63 32
-9.9365549 -2.2328625 -0.07918337 597 32
-9.119668 -1.9906281 -0.069540635 30 32
-9.1170368 -1.9315253 -0.069370471 27 32
-9.1150045 -1.8727311 -0.069211647 30 32
-9.1106319 -1.8136443 -0.069030136 32 32
-9.1019516 -1.7539251 -0.068803251 31 32
-9.0948477 -1.6947471 -0.068599053 28 32
-9.085393 -1.6353683 -0.06837216 41 32
-9.0706263 -1.5753142 -0.068088554 45 32
-9.0465899 -1.5140178 -0.067702845 45 32
-9.0241184 -1.4533939 -0.067339823 44 32
-9.0061855 -1.3938675 -0.067033522 37 32
-8.9977541 -1.3360842 -0.066840671 25 32
-8.9840031 -1.2777532 -0.066591091 17 32
-8.9916735 -1.2226044 -0.066591091 16 32
-8.9900818 -1.1662521 -0.066488989 20 32
-1.6989418 -0.21012174 0.016937703 13 32
-1.6684188 -0.19596784 0.017300723 28 32
-1.6636268 -0.18506499 0.01736879 34 32
-1.6637365 -0.17474946 0.017380133 23 32
-1.6627872 -0.16434143 0.017402822 27 32
-1.6597816 -0.15376763 0.0174482 24 32
-1.6557126 -0.143151 0.017504921 35 32
-1.6605468 -0.13330819 0.017459545 22 32
-1.6523585 -0.12245374 0.017561644 41 32
-1.6500858 -0.11211011 0.017595677 31 32
-1.6467505 -0.10173756 0.017641054 26 32
-1.6423516 -0.091354869 0.017697778 30 32
-1.6308966 -0.080685787 0.017833909 28 32
-1.636356 -0.070892498 0.017777188 27 32
-1.6387587 -0.0609245 0.017754499 30 32
-1.6331049 -0.050683428 0.017822566 29 32
-1.628387 -0.040538687 0.017879287 21 32
-1.6356034 -0.030675931 0.017799877 8 32
-4.3953719 -0.054807771 -0.013510658 16 32
-4.4006248 -0.02786847 -0.013567381 21 32
-1.6678889 -0.00056811346 0.017436856 61 32
-1.6258645 0.0094127618 0.017913321 8 32
-1.6087785 0.019181952 0.018106176 14 32
-1.619628 0.029254133 0.017981386 24 32
-1.5823117 -0.11558677 -0.00056281162 66 33
-1.5909708 -0.10641529 -0.00074989384 44 33
-1.583611 -0.096160665 -0.00056281162 61 33
-1.5801785 -0.086221196 -0.00046927051 63 33
-1.5786808 -0.076425627 -0.00042249993 60 33
-1.5721283 -0.066436946 -0.00025880299 66 33
-1.5765026 -0.056936573 -0.0003523441 54 33
-1.5678289 -0.04698607 -0.00014187658 55 33
-1.6010687 -0.038175527 -0.00091359083 18 33
-0 -0 -0 4 33
-1.6144121 -0.018684845 -0.0012175995 6 33
-0 -0 -0 5 33
-0 -0 -0 4 33
-1.6014863 0.010954907 -0.00091359083 9 33
-1.6083865 0.02086696 -0.0010772878 4 33
-0 0 -0 7 33
-1.5920185 0.040210564 -0.00070312328 9 33
-1.5677596 0.049242776 -0.00014187658 41 33
-1.5544404 0.058383364 0.00016213207 107 33
-1.574029 0.068778224 -0.00030557354 57 33
-1.580567 0.078778215 -0.00046927051 60 33
-1.5810521 0.088530071 -0.00049265579 63 33
-1.5814769 0.098290838 -0.00051604107 65 33
-1.5788492 0.10785794 -0.00046927051 77 33
-1.5791546 0.11761707 -0.00049265579 84 33
-1.5903618 0.12826003 -0.00077327911 49 33
-1.5895449 0.1380159 -0.00077327911 65 33
-1.5826951 0.1472154 -0.00063296745 73 33
-1.5946959 0.15819745 -0.00093697611 46 33
-1.5956838 0.16818748 -0.00098374661 48 33
-1.5995901 0.1785261 -0.0011006731 55 33
-1.6024363 0.1888027 -0.0011942142 58 33
-1.6022398 0.19875386 -0.0012175995 52 33
-1.5999987 0.20845284 -0.0011942142 61 33
-1.6076052 0.21947703 -0.0014046817 48 33
-1.6091976 0.22975877 -0.0014748375 54 33
-1.6117133 0.24021497 -0.0015683786 48 33
-1.610209 0.25009972 -0.0015683786 54 33
-1.6185144 0.261563 -0.0018022314 41 33
-1.6139209 0.27099457 -0.0017320756 40 33
-1.6230628 0.28277212 -0.0019893136 32 33
-1.6232651 0.29307961 -0.0020360842 34 33
-1.6243848 0.30358315 -0.00210624 35 33
-1.6283817 0.31467846 -0.0022465517 33 33
-1.6489722 0.32914945 -0.0027844133 21 33
-1.6547559 0.34086937 -0.0029714955 19 33
-1.646765 0.34977415 -0.0028311838 26 33
-1.6641231 0.36413255 -0.0032988894 14 33
-1.6725873 0.37674579 -0.0035561274 11 33
-1.6790109 0.38902649 -0.0037665949 9 33
-8.3802958 1.9911921 -0.16493794 47 33
-8.3679199 2.0425751 -0.16493794 112 33
-8.4337807 2.1135557 -0.16683215 294 33
-8.4216213 2.1655133 -0.16685554 282 33
-8.398509 2.2145989 -0.16662169 298 33
-8.3731804 2.2629611 -0.16634107 308 33
-8.833189 2.4454718 -0.17784663 202 33
-8.3572845 2.3690853 -0.16664506 414 33
-8.3569927 2.4244964 -0.16699585 291 33
-8.3812561 2.487385 -0.16795464 150 33
-8.3648787 2.5384743 -0.16793126 155 33
-8.453228 2.6220219 -0.17048025 298 33
-8.3788443 2.6554246 -0.16905375 262 33
-8.3291025 2.6960151 -0.16823527 196 33
-8.3162003 2.7483251 -0.16832881 183 33
