# .PCD v0.7 - Point Cloud Data file format
VERSION 0.7
FIELDS x y z intensity ring
SIZE 4 4 4 4 1
TYPE F F F F U
COUNT 1 1 1 1 1
WIDTH 468
HEIGHT 1
VIEWPOINT 0 0 0 1 0 0 0
POINTS 468
DATA ascii
3.5826681 0.19820246 -1.2422013 75 60
3.5791147 0.17598522 -1.2405167 70 60
3.5726018 0.15369794 -1.2378212 59 60
3.6224041 0.13357283 -1.2553416 26 60
3.6051769 0.1766533 -0.84918773 9 51
3.6275344 0.15545043 -0.85445035 6 51
3.5750532 0.13121326 -0.84129375 39 51
3.5631745 0.10888501 -0.838184 105 51
3.5579515 0.086875618 -0.83674872 93 51
3.6118116 0.066036269 -0.84990537 20 51
3.6082652 0.043824941 -0.84894854 14 51
3.5443835 0.021278424 -0.83316058 90 51
3.5415344 -0.00047047788 -0.83244294 106 51
3.5327265 -0.022149013 -0.83029002 119 51
3.5199025 -0.043672577 -0.82718027 110 51
3.50986 -0.065092653 -0.82478815 119 51
3.5113358 -0.086674802 -0.8252666 63 51
3.6214795 0.17869452 -0.89879584 39 52
3.5751169 0.15442823 -0.88651067 124 52
3.5750296 0.13245308 -0.88625991 128 52
3.5748074 0.11048482 -0.88600922 72 52
3.59622 0.066984527 -0.89127427 7 52
3.5984993 0.044941247 -0.89177573 9 52
3.6025794 0.022884605 -0.89277858 30 52
3.5271432 0.00077092665 -0.87322259 113 52
3.5261135 -0.020865398 -0.87297189 108 52
3.5249512 -0.042489059 -0.87272114 114 52
3.5197847 -0.064028382 -0.87146759 27 52
3.5057766 -0.085293047 -0.86795753 57 52
3.5071225 -0.10686166 -0.86845893 96 52
3.5834851 0.17620757 -0.9329862 99 53
3.5816061 0.15409102 -0.93220061 122 53
3.5728397 0.13175298 -0.92958212 100 53
3.5639346 0.10952835 -0.92696357 100 53
3.5249825 0.086672641 -0.91622764 36 53
3.5209553 0.043348156 -0.91491836 32 53
3.5404568 0.021868758 -0.92015541 79 53
3.5356989 0.00014272101 -0.91884619 74 53
3.5153663 -0.021435082 -0.91334724 8 53
3.5093784 -0.042935647 -0.91177619 7 53
3.5148385 -0.064572416 -0.91334724 9 53
3.5070288 -0.10749531 -0.91151428 70 53
3.5043743 -0.12894167 -0.9109906 50 53
3.5951669 0.17739899 -0.98061889 23 54
3.5711982 0.15425938 -0.97352219 99 54
3.5768843 0.1325216 -0.97488689 43 54
3.5882075 0.11089752 -0.97788942 11 54
3.575356 0.088546604 -0.97406805 12 54
3.5508237 0.066143833 -0.96697134 78 54
3.542505 0.044247951 -0.96451473 108 54
3.5321279 0.02244463 -0.96151227 105 54
3.5273888 0.00077095343 -0.9601475 116 54
3.5215552 -0.020837925 -0.9585098 84 54
3.4925022 -0.042094368 -0.95032126 5 54
3.4931402 -0.063540772 -0.95059419 10 54
3.5109575 -0.085419662 -0.95578027 26 54
3.488251 -0.10628457 -0.94950241 72 54
3.4884946 -0.12772138 -0.94977534 103 54
3.4953344 -0.1494536 -0.95195895 62 54
3.6008313 0.17706619 -1.0256916 113 55
3.5970597 0.15476093 -1.0242733 70 55
3.6056077 0.13297208 -1.0265427 5 55
3.5700531 0.065879852 -1.0154792 10 55
3.5473781 0.043682225 -1.0086708 105 55
3.5389493 0.021858947 -1.0061177 116 55
3.5303864 0.00014075071 -1.0035646 96 55
3.528403 -0.02151024 -1.0029972 23 55
3.5109453 -0.042954296 -0.99789095 46 55
3.4991105 -0.064288706 -0.99448681 101 55
3.4900224 -0.085549034 -0.99193364 101 55
3.4827225 -0.10675839 -0.98994792 95 55
3.4781687 -0.12798619 -0.98881316 96 55
3.479234 -0.14940707 -0.98938054 88 55
3.4792097 -0.17079914 -0.9896642 36 55
3.5824354 0.17739616 -1.0658225 97 56
3.57391 0.15499841 -1.0628737 103 56
3.5585608 0.13246389 -1.0578609 64 56
3.5994201 0.11186891 -1.0702456 12 56
3.5398583 0.088286757 -1.0516685 62 56
3.5365121 0.066493496 -1.0504889 87 56
3.5406754 0.0448406 -1.0516685 91 56
3.5036187 0.022875352 -1.0401684 24 56
3.4903157 0.0013733265 -1.0360402 6 56
3.4883473 -0.020031689 -1.0354505 9 56
3.508857 -0.063218549 -1.0419376 50 56
3.4883428 -0.084260538 -1.0357453 107 56
3.4820294 -0.10548878 -1.0339761 97 56
3.4736776 -0.12657294 -1.031617 95 56
3.4690168 -0.1477216 -1.0304376 101 56
3.469954 -0.16909754 -1.0310273 104 56
3.4583559 -0.18980841 -1.0277836 47 56
3.5687625 0.19805874 -1.1056416 66 57
3.5661066 0.17596854 -1.1044195 41 57
3.5300193 0.15246926 -1.0925039 6 57
3.5382864 0.1093471 -1.0946425 51 57
3.530324 0.08741954 -1.0918928 94 57
3.5307939 0.065756232 -1.0918928 105 57
3.524466 0.044005025 -1.0897541 99 57
3.5056264 0.022251241 -1.0836436 59 57
3.5114102 0.00074381835 -1.0854766 13 57
3.5054421 -0.04227965 -1.0836436 5 57
3.4879801 -0.063481711 -1.078144 62 57
3.4846694 -0.084813811 -1.0772274 65 57
3.4764693 -0.10596424 -1.0747832 61 57
3.4690928 -0.12705176 -1.0726445 68 57
3.4615886 -0.14805275 -1.0705057 49 57
3.5462105 -0.17344812 -1.0980034 17 57
3.5788209 0.19799006 -1.152283 65 58
3.6216638 0.17807274 -1.1661861 7 58
3.6236362 0.15588795 -1.1665021 7 58
3.5310435 0.086840056 -1.134904 60 58
3.5485849 0.065485574 -1.1405917 104 58
3.5327921 0.043513764 -1.1352201 91 58
3.5197101 0.021755509 -1.1307963 98 58
3.5017507 0.00015974379 -1.1247927 106 58
3.4903009 -0.021255994 -1.1210009 101 58
3.4901047 -0.042671677 -1.1210009 91 58
3.4840856 -0.063980602 -1.1191051 41 58
3.5860672 0.19839974 -1.1992527 72 59
3.5806091 0.17606522 -1.1969668 48 59
3.5806775 0.15405077 -1.1966403 12 59
3.5673876 0.13155015 -1.1917419 54 59
3.5397859 0.10877828 -1.1819451 91 59
3.5299931 0.086797506 -1.178353 95 59
3.5276241 0.065082997 -1.1773733 94 59
3.5241766 0.043388885 -1.1760671 76 59
3.5187056 0.021727225 -1.1741078 36 59
3.7091048 0.1595556 -0.46232408 13 42
3.6129587 0.13322556 -0.44922733 87 42
3.6206419 0.11126669 -0.45016283 146 42
3.6024327 0.088587888 -0.44762367 57 42
3.6244907 0.1782373 -0.49671295 129 43
3.6245277 0.15595163 -0.49656704 125 43
3.6214619 0.13356189 -0.49598342 119 43
3.6152916 0.11112352 -0.49496204 136 43
3.6099713 0.088790543 -0.49408656 130 43
3.5966005 0.066378437 -0.49204382 41 43
3.6395571 0.17895059 -0.543657 48 44
3.6208553 0.1557686 -0.5405007 122 44
3.6148353 0.13329455 -0.53939605 143 44
3.591897 0.11038642 -0.53560853 99 44
3.6142244 0.08887659 -0.53908038 36 44
3.6107526 0.066626005 -0.53844917 118 44
3.5962825 0.044288792 -0.53608197 42 44
3.602921 0.17591445 -0.58158928 90 45
3.5862095 0.15304194 -0.57853788 57 45
3.6107175 0.13190559 -0.58260643 6 45
3.596683 0.10929438 -0.58006358 7 45
3.5913746 0.087078243 -0.57904649 7 45
3.5918412 0.065040343 -0.57904649 24 45
3.5773909 0.042818263 -0.57650363 98 45
3.5894125 0.02093982 -0.57853788 21 45
3.6325326 0.17860596 -0.63168681 131 46
3.6227524 0.15585002 -0.62969166 146 46
3.6197095 0.13347377 -0.62896615 59 46
3.5788007 0.088009305 -0.62116688 11 46
3.5910723 0.066264987 -0.62334341 62 46
3.5805945 0.044097289 -0.62134826 121 46
3.578831 0.022114405 -0.62098551 122 46
3.6536388 0.00014980274 -0.63477021 27 46
3.6193109 0.19898807 -0.67384291 96 47
3.6077235 0.17615049 -0.67133343 116 47
3.617559 0.15438996 -0.67307079 58 47
3.606672 0.13175648 -0.67075431 9 47
3.5868173 0.10899138 -0.6667006 91 47
3.5805521 0.086812325 -0.66534936 81 47
3.5751312 0.06473235 -0.66419113 94 47
3.5744801 0.042782474 -0.66399807 106 47
3.5648634 0.020788653 -0.66206771 87 47
3.5639429 -0.0010853523 -0.66187471 89 47
3.5560198 -0.022905281 -0.66033041 15 47
3.6119328 0.17696615 -0.71599615 17 48
3.6100166 0.15467502 -0.71538264 7 48
3.6099195 0.13248567 -0.71517819 7 48
3.6077292 0.11024376 -0.71456468 7 48
3.5740876 0.087272502 -0.7074073 98 48
3.5765131 0.065376237 -0.7078163 146 48
3.5690167 0.043335713 -0.70618033 104 48
3.5936866 0.021580106 -0.71129274 46 48
3.5790684 -0.00046722408 -0.70822531 31 48
3.5564847 -0.02228442 -0.70352191 77 48
3.6140864 0.17835186 -0.76252419 72 49
3.5468366 0.15320122 -0.7473734 5 49
3.5701489 0.13227409 -0.75235152 16 49
3.5904098 0.11097518 -0.75668031 69 49
3.5812633 0.088697828 -0.75451589 105 49
3.5846684 0.066777453 -0.75516522 18 49
3.5647161 0.022646045 -0.75062001 6 49
3.5617969 -0.021083837 -0.74997067 42 49
3.5498857 -0.042800836 -0.7473734 82 49
3.5672755 0.19797435 -0.79678845 20 50
3.5450838 0.17493308 -0.79131621 11 50
3.5733275 0.15435113 -0.79770052 46 50
3.5790722 0.13260242 -0.79884058 132 50
3.5739794 0.11045931 -0.79747248 140 50
3.5697229 0.088407703 -0.79633242 117 50
3.5740921 0.066574745 -0.79724449 127 50
3.5909843 0.0448482 -0.8011207 28 50
3.623322 0.023014145 -0.80864501 10 50
3.5941854 0.0007782398 -0.80180472 28 50
3.5347302 -0.02091733 -0.78789604 94 50
3.5316148 -0.042570107 -0.78721201 132 50
3.5225255 -0.064078547 -0.78515989 94 50
3.6323881 0.15565999 -0.31748435 75 39
3.6495526 0.17944098 -0.36483389 117 40
3.6476057 0.15691653 -0.3645052 103 40
3.63956 0.1342036 -0.36351916 84 40
3.6761475 0.15754928 -0.41302395 9 41
3.6145561 0.13267601 -0.40535709 103 41
3.6093495 0.11031117 -0.40462691 65 41
3.6092703 0.35563439 -1.2560155 44 60
3.6095095 0.3333087 -1.2553416 33 60
3.6067581 0.28846464 -1.2529831 4 60
3.5924973 0.26515213 -1.2472553 15 60
3.5856023 0.24253303 -1.2442229 55 60
3.5842037 0.22035459 -1.2432121 68 60
3.6006563 0.3331435 -1.2970301 37 61
3.5998299 0.31080112 -1.2959883 60 61
3.5913868 0.28787956 -1.2921684 61 61
3.5753171 0.26451737 -1.2855704 58 61
3.5675168 0.24193709 -1.2820978 60 61
3.5726781 0.22027472 -1.2834868 27 61
3.7102294 0.55116457 -0.83851451 81 50
3.7106495 0.52797747 -0.83783042 124 50
3.7041714 0.50388801 -0.83555031 100 50
3.6946409 0.47952232 -0.83258617 109 50
3.6839852 0.45517331 -0.82939404 83 50
3.6838076 0.43222016 -0.82871002 103 50
3.6834872 0.40928635 -0.828026 126 50
3.6752772 0.38556084 -0.82551783 104 50
3.676605 0.36290696 -0.82528985 116 50
3.7140296 0.52722108 -0.8841126 66 51
3.6797783 0.47635636 -0.8740657 5 51
3.6864865 0.45424488 -0.87502253 10 51
3.6660597 0.42890134 -0.86928147 32 51
3.6618671 0.40564826 -0.867607 102 51
3.6584933 0.3825641 -0.86617172 102 51
3.6540079 0.35944128 -0.86449724 97 51
3.6513102 0.33656678 -0.86330122 105 51
3.6387961 0.31290397 -0.85971302 29 51
3.6358082 0.29018307 -0.85851699 80 51
3.6307421 0.26736736 -0.85684246 115 51
3.6216581 0.24436209 -0.85421115 110 51
3.5756021 0.2192086 -0.84248978 25 51
3.6973512 0.50296098 -0.9261241 67 52
3.6773274 0.47727704 -0.92010683 9 52
3.6588705 0.42929691 -0.91383892 12 52
3.6864517 0.4096154 -0.92035758 41 52
3.6446073 0.3823466 -0.90882456 10 52
3.6375248 0.31403226 -0.90531451 19 52
3.6364882 0.29147518 -0.90456235 91 52
3.6353121 0.26894265 -0.9038102 111 52
3.6291671 0.24610859 -0.90180445 98 52
3.6199803 0.22318166 -0.89904654 109 52
3.5922842 0.19935955 -0.89152503 19 52
3.6727757 0.49903068 -0.96519405 31 53
3.6767256 0.47660995 -0.96545589 85 53
3.6747918 0.45344853 -0.96414661 91 53
3.6717539 0.43021619 -0.9625755 91 53
3.672406 0.40746519 -0.96205181 95 53
3.670038 0.38441983 -0.96074253 45 53
3.5906916 0.35382262 -0.93848509 4 53
3.6081707 0.33320883 -0.94267476 5 53
3.6197624 0.31189483 -0.94529325 6 53
3.6572025 0.29253712 -0.9549818 33 53
3.62043 0.26723725 -0.94450772 55 53
3.6162243 0.24462499 -0.9429366 16 53
3.5743101 0.21975242 -0.93115324 5 53
3.6035359 0.1993719 -0.93874693 20 53
3.6831303 0.47802958 -1.0131001 46 54
3.6583056 0.45200321 -1.0051845 124 54
3.6629212 0.42977175 -1.0057305 97 54
3.6616645 0.40686384 -1.0046387 97 54
3.6526105 0.38318536 -1.0013633 65 54
3.642447 0.35953897 -0.99781489 58 54
3.6474583 0.33744812 -0.99863374 74 54
3.646585 0.31481346 -0.99781489 70 54
3.6436532 0.29204869 -0.99645013 91 54
3.6300259 0.26855215 -0.99208289 55 54
3.6090429 0.2225085 -0.98525912 6 54
3.6132219 0.20051926 -0.98607796 5 54
3.6703601 0.45290029 -1.0532087 51 55
3.6864033 0.43193737 -1.0571802 13 55
3.6965921 0.36429259 -1.0580312 4 55
3.6347842 0.33567521 -1.0390246 68 55
3.6358202 0.31328365 -1.038741 82 55
3.6223805 0.28974056 -1.0342021 84 55
3.6154835 0.26687053 -1.031649 86 55
3.6160963 0.24461628 -1.0313653 34 55
3.6089153 0.22189131 -1.0288122 66 55
3.6044641 0.19942355 -1.0271101 99 55
3.6591141 0.42997015 -1.0958997 71 56
3.6588345 0.40719336 -1.095015 22 56
3.6698167 0.38563338 -1.0976689 9 56
3.6711631 0.36301461 -1.097374 9 56
3.6343112 0.33687016 -1.0852841 30 56
3.6477337 0.31555113 -1.0888226 17 56
3.7129846 0.2524319 -1.1073997 5 56
3.5876186 0.22181571 -1.0681815 64 56
3.5898662 0.19985133 -1.0684763 97 56
3.6403985 0.40454406 -1.1340559 68 57
3.627661 0.38060483 -1.1291673 80 57
3.6223476 0.35758796 -1.1267232 69 57
3.6112001 0.33412251 -1.1224457 78 57
3.6084392 0.31154725 -1.120918 74 57
3.5789621 0.28687954 -1.1108356 11 57
3.5660634 0.24183804 -1.1056416 3 57
3.5655794 0.21983472 -1.1050305 11 57
3.6185813 0.37898332 -1.1702938 84 58
3.6208384 0.35677299 -1.1702938 91 58
3.6116223 0.33350357 -1.1665021 75 58
3.610765 0.31109276 -1.1655542 61 58
3.5974736 0.28772306 -1.1604985 41 58
3.5944405 0.2652953 -1.1589186 68 58
3.5846412 0.24246812 -1.1551268 81 58
3.5784857 0.22000368 -1.152599 93 58
3.6133728 0.37846628 -1.2136213 33 59
3.6212707 0.35684586 -1.2155806 21 59
3.6205685 0.3343578 -1.2146009 7 59
3.6300519 0.29035664 -1.2165602 4 59
3.5808654 0.26430401 -1.1989262 42 59
3.5795906 0.24213497 -1.1979465 63 59
3.5838389 0.2203414 -1.1989262 79 59
3.7062361 0.45726624 -0.46526417 17 42
3.7148778 0.43520784 -0.46606603 102 42
3.7194483 0.41262394 -0.4663333 95 42
3.7031827 0.38783473 -0.46379414 143 42
3.6956301 0.3641344 -0.46245775 97 42
3.7165449 0.34318095 -0.4649969 50 42
3.6998203 0.31875589 -0.46245775 83 42
3.6829367 0.29454908 -0.45991856 143 42
3.662931 0.27034298 -0.45697847 148 42
3.655622 0.2472616 -0.45577571 139 42
3.6541028 0.22464435 -0.45537481 107 42
3.7137942 0.20544246 -0.46325958 7 42
3.7161739 0.52818507 -0.51509768 79 43
3.7301276 0.50684166 -0.51670271 119 43
3.7262998 0.48305207 -0.51568133 112 43
3.7203574 0.45908567 -0.51436812 112 43
3.7142613 0.43521041 -0.51305491 116 43
3.7099793 0.41164607 -0.51203352 125 43
3.6809509 0.38556641 -0.50736439 29 43
3.674387 0.36209726 -0.50605124 8 43
3.670629 0.3389971 -0.50517577 7 43
3.6617982 0.31553045 -0.50357074 8 43
3.6419706 0.29131386 -0.50036073 75 43
3.6752605 0.27130222 -0.50502986 129 43
3.6719208 0.2484107 -0.5043003 145 43
3.6388166 0.22373948 -0.49919343 73 43
3.6193776 0.20025352 -0.49612933 51 43
3.7631385 0.58197045 -0.56985402 108 44
3.7568707 0.55742103 -0.56827587 106 44
3.7455554 0.53227633 -0.56590867 38 44
3.6763422 0.49945456 -0.55423051 7 44
3.7204678 0.48221415 -0.56085867 21 44
3.7458978 0.4621554 -0.56448835 75 44
3.7231629 0.43617758 -0.56038523 111 44
3.7100658 0.41158405 -0.5578602 101 44
3.7017181 0.38768148 -0.55612427 108 44
3.6617703 0.36080173 -0.54933828 20 44
3.6540823 0.33741981 -0.54776013 17 44
3.6629705 0.31558502 -0.54886484 62 44
3.6599164 0.29271042 -0.5480758 108 44
3.6478565 0.269232 -0.54586637 45 44
3.6267796 0.24531381 -0.54223669 5 44
3.6255729 0.20057142 -0.54160541 6 44
3.7549415 0.57946867 -0.61464596 105 45
3.7496526 0.55511618 -0.61312026 86 45
3.7090805 0.52585936 -0.60549182 8 45
3.7083311 0.50256032 -0.60481375 4 45
3.7181864 0.48068359 -0.60600036 9 45
3.7063942 0.45605028 -0.60345757 36 45
3.7052073 0.43284106 -0.60277945 104 45
3.7117116 0.4105328 -0.60345757 53 45
3.7468741 0.36794868 -0.60871273 18 45
3.6842918 0.33897176 -0.59752429 103 45
3.6656828 0.31458288 -0.59396434 131 45
3.6567376 0.29122069 -0.59209961 116 45
3.6505928 0.26819772 -0.59074342 124 45
3.6226714 0.24379838 -0.58565778 30 45
3.6978743 0.2260996 -0.59837192 7 45
3.6371987 0.19997728 -0.58769208 25 45
3.7642696 0.58214521 -0.66342783 125 46
3.7560973 0.55730635 -0.66125131 105 46
3.7312105 0.53023928 -0.65599138 65 46
3.7324448 0.50707048 -0.65562862 74 46
3.7306097 0.48352757 -0.65472174 108 46
3.719842 0.45894346 -0.65218246 100 46
3.70696 0.43428108 -0.64928037 73 46
3.6900063 0.40936083 -0.64565283 9 46
3.6914706 0.38660935 -0.64547145 9 46
3.669497 0.33884156 -0.64057428 22 46
3.6479919 0.31429613 -0.63622123 132 46
3.6674969 0.29331589 -0.63948601 85 46
3.6398051 0.26863861 -0.63404471 11 46
3.6286294 0.24543874 -0.63168681 13 46
3.634975 0.22347046 -0.63259369 137 46
3.6362779 0.20116247 -0.63259369 139 46
3.7520704 0.57902467 -0.7076242 6 47
3.7368138 0.50642937 -0.70260525 58 47
3.7067671 0.4792037 -0.696042 99 47
3.7047684 0.45584974 -0.69507682 106 47
3.6938524 0.43151101 -0.69237435 100 47
3.6993561 0.40916234 -0.69295347 43 47
3.6920385 0.38543397 -0.69102311 39 47
3.6679695 0.36017552 -0.6858111 89 47
3.6642482 0.33712131 -0.68465292 128 47
3.6369207 0.31210539 -0.67886186 80 47
3.6211619 0.28837609 -0.6753872 4 47
3.6199276 0.26593503 -0.67480808 7 47
3.6165965 0.24338759 -0.67384291 5 47
3.6170423 0.2211318 -0.67364991 16 47
3.6912289 0.59341174 -0.74155813 35 48
3.7180183 0.57433569 -0.74646604 29 48
3.7340603 0.55337566 -0.74912453 5 48
3.740293 0.53086585 -0.74973798 11 48
3.7502699 0.50882638 -0.75116944 8 48
3.7465258 0.48492676 -0.74973798 27 48
3.7562315 0.4627665 -0.75116944 11 48
3.7810862 0.4187901 -0.75525939 10 48
3.6570203 0.38236251 -0.72867489 80 48
3.671962 0.36116052 -0.73133337 130 48
3.6575382 0.33709753 -0.72785693 113 48
3.6517355 0.31397894 -0.72622097 111 48
3.6545691 0.29164419 -0.72642547 64 48
3.6230979 0.2667743 -0.71947259 15 48
3.6422462 0.24572249 -0.72315353 67 48
3.6260989 0.22229323 -0.71947259 114 48
3.6215301 0.19971696 -0.71824563 92 48
3.7418089 0.57943565 -0.79975176 56 49
3.7201869 0.55272722 -0.79412436 98 49
3.7177093 0.52906305 -0.7928257 113 49
3.7150815 0.50545013 -0.79152709 92 49
3.7152085 0.48226738 -0.79087776 117 49
3.7258489 0.46042252 -0.79260927 25 49
3.6699612 0.3623037 -0.7778914 74 49
3.6633661 0.3389661 -0.7759434 46 49
3.6595411 0.31597596 -0.77464479 11 49
3.6456182 0.26974162 -0.77074885 71 49
3.630646 0.24623907 -0.7670694 124 49
3.6203954 0.22323242 -0.76447213 125 49
3.6080501 0.20025203 -0.76144195 107 49
3.6419203 0.33693635 -0.81662542 27 50
3.6322784 0.31357989 -0.81388927 8 50
3.6253991 0.29058754 -0.8118372 13 50
3.6086648 0.26697412 -0.80750501 8 50
3.6141207 0.24508984 -0.80841702 81 50
3.6126411 0.22272997 -0.807733 84 50
3.7751927 0.63136178 -0.57301027 91 44
3.7702212 0.60677451 -0.57158995 108 44
3.7708275 0.65320492 -0.61939257 91 45
3.7660162 0.62859231 -0.61786687 118 45
3.7600725 0.60390687 -0.61617166 111 45
3.7743018 0.63121283 -0.66669261 105 46
3.7693653 0.60663682 -0.66506022 133 46
3.7437146 0.62486291 -0.70743114 22 47
3.7377908 0.60032123 -0.70550078 71 47
3.8165879 0.56640261 -0.53056419 19 43
3.6565402 0.2473236 -0.36603907 108 40
3.6550126 0.22470018 -0.36571038 119 40
3.6503677 0.20194043 -0.36505303 157 40
3.6798024 0.33920223 -0.41497108 117 41
3.6699476 0.31559277 -0.41351074 139 41
3.6698363 0.29290986 -0.41326734 110 41
3.6656253 0.26994741 -0.41253716 143 41
3.6602807 0.2469805 -0.41168529 129 41
3.6904571 0.22628751 -0.41521448 9 41
3.6858299 0.20330916 -0.41448429 6 41
