# .PCD v0.7 - Point Cloud Data file format
VERSION 0.7
FIELDS x y z intensity ring
SIZE 4 4 4 4 1
TYPE F F F F U
COUNT 1 1 1 1 1
WIDTH 389
HEIGHT 1
VIEWPOINT 0 0 0 1 0 0 0
POINTS 389
DATA ascii
3.7882075 -0.023103449 -1.2202188 89 58
3.66184 0.13506411 -1.2243977 45 59
3.6701574 0.11282769 -1.2270101 43 59
3.6608706 0.067585483 -1.223418 7 59
3.7474337 0.023215534 -1.2531348 56 59
3.7437248 0.00021987419 -1.2518286 73 59
3.7446008 -0.022756644 -1.2521552 39 59
3.6843262 0.11321694 -1.2772422 31 60
3.7000115 0.090976924 -1.2826331 54 60
3.7117965 0.06847959 -1.2866762 44 60
3.7215614 0.045818072 -1.2900455 51 60
3.7189479 0.022964992 -1.2890347 27 60
3.698854 0.068941891 -1.3279365 30 61
3.8003275 -0.046499182 -1.2243265 71 58
3.8047137 -0.069904305 -1.2259064 23 58
3.6978402 0.15971604 -0.82688594 69 50
3.6929126 0.13680784 -0.82551783 16 50
3.711834 0.091911845 -0.82962203 14 50
3.7434797 0.069711626 -0.83691841 82 50
3.7545464 0.046873353 -0.83942652 32 50
3.7596316 0.023865411 -0.84056658 6 50
3.6662736 0.17966682 -0.86425805 86 51
3.6770077 0.15758643 -0.86665016 96 51
3.6914895 0.13552476 -0.86999911 90 51
3.7184553 0.11368098 -0.87645781 92 51
3.7384961 0.091343217 -0.88124204 102 51
3.7477236 0.068565078 -0.88339496 118 51
3.7558408 0.045665037 -0.88530862 111 51
3.7871206 0.022815522 -0.89296341 44 51
3.6611221 0.18064636 -0.90907526 61 52
3.6437855 0.15738697 -0.9043116 9 52
3.6911178 0.13674153 -0.91634607 9 52
3.7228506 0.11504431 -0.92436904 6 52
3.7263896 0.092270754 -0.92512119 68 52
3.7297893 0.069458097 -0.92587334 82 52
3.7591848 0.046930786 -0.93339491 28 52
3.7614138 0.00079648162 -0.93389636 57 52
3.6490321 0.17945208 -0.95079213 97 53
3.6915252 0.15885594 -0.96205181 10 53
3.7394996 0.11498149 -0.9746207 7 53
3.7285569 0.091745667 -0.97147846 75 53
3.7155406 0.068612233 -0.96781254 43 53
3.7737935 0.046544887 -0.98352367 7 53
3.644171 0.17981176 -0.99453944 93 54
3.669234 0.15848348 -1.0013633 50 54
3.681674 0.13639267 -1.0046387 73 54
3.6997497 0.11433285 -1.0095518 92 54
3.7119224 0.091914028 -1.0128273 98 54
3.7287683 0.069439188 -1.0174674 99 54
3.7454774 0.046761066 -1.0221076 79 54
3.7639718 0.023892516 -1.0272937 63 54
3.7813642 0.00079865783 -1.0322068 101 54
3.6678734 0.18038468 -1.0455493 21 55
3.6916585 0.11349551 -1.0517902 44 55
3.7124164 0.091343448 -1.0577476 76 55
3.7541332 0.069337033 -1.0699458 22 55
3.7679117 0.046470523 -1.0739174 7 55
3.7575781 0.023281543 -1.0707968 47 55
3.7768285 0.00023215177 -1.0764705 92 55
3.7445538 -0.068716213 -1.067109 13 55
3.71223 0.18380946 -1.1059253 8 56
3.7304392 0.13884334 -1.1109382 11 56
3.6911075 0.11470876 -1.0985535 77 56
3.6993837 0.092248157 -1.1009125 54 56
3.7558749 0.024494743 -1.1180152 13 56
3.7702875 0.0014527311 -1.1224383 71 56
3.7845583 -0.021765226 -1.1268615 18 56
3.6469426 0.17998394 -1.1303895 63 57
3.66415 0.15830721 -1.1355834 57 57
3.6764705 0.13624822 -1.1392498 67 57
3.688658 0.11404398 -1.1429162 57 57
3.7035666 0.091766953 -1.1474991 78 57
3.7231002 0.069401488 -1.1536096 58 57
3.7377374 0.046738729 -1.1581926 54 57
3.7541406 0.023911674 -1.1633866 84 57
3.7684994 0.00088403886 -1.1679696 94 57
3.7865252 -0.022340195 -1.1737746 87 57
3.6587083 0.15739296 -1.1781933 57 58
3.6652939 0.13514975 -1.1800892 78 58
3.6736407 0.11288971 -1.1826171 70 58
3.6941824 0.090834208 -1.1892526 31 58
3.6750963 0.045250874 -1.1826171 15 58
3.7578459 0.023201123 -1.2101073 79 58
3.7721491 0.00014204628 -1.2148471 88 58
3.7296963 0.15986124 -0.41959554 116 41
3.7405257 0.13734052 -0.42081249 122 41
3.7492349 0.11463163 -0.42178607 124 41
3.6852896 0.18119429 -0.45925036 42 42
3.727917 0.16036287 -0.46486327 123 42
3.745667 0.1381048 -0.46713513 120 42
3.7523873 0.11530122 -0.46793699 127 42
3.7599592 0.092444628 -0.46887246 99 42
3.7539301 0.18464437 -0.51582724 9 43
3.7688296 0.16220705 -0.51786995 11 43
3.7460272 0.13819617 -0.51436812 106 43
3.7547152 0.11545409 -0.51553541 95 43
3.7500207 0.18437007 -0.56133211 5 44
3.7135921 0.15974815 -0.55533516 50 44
3.7243705 0.13732179 -0.55691332 119 44
3.7458701 0.11510164 -0.56022739 54 44
3.7168906 0.091390178 -0.555493 5 44
3.7621651 0.046313718 -0.56259459 13 44
3.792074 0.00014074218 -0.56732899 8 44
3.6708405 0.17925259 -0.59328628 68 45
3.6964865 0.15778382 -0.59752429 117 45
3.7023094 0.13528112 -0.59837192 103 45
3.7099652 0.1127734 -0.59955853 102 45
3.7214248 0.090273634 -0.60142332 71 45
3.7593524 0.068127848 -0.6078651 115 45
3.7774377 0.045277692 -0.6109165 112 45
3.6806619 0.18096724 -0.64057428 10 46
3.7406535 0.16090943 -0.65145695 63 46
3.7091398 0.13676181 -0.64547145 97 46
3.7393978 0.11490344 -0.65091282 16 46
3.7778895 0.069692031 -0.65780514 32 46
3.7821794 0.046558037 -0.65853065 113 46
3.6861243 0.18000378 -0.68677628 56 47
3.7146075 0.15856302 -0.69218129 103 47
3.7302182 0.13630967 -0.69507682 65 47
3.7610369 0.091246918 -0.70086789 3 47
3.7889948 0.068674207 -0.7062729 10 47
3.682327 0.18040746 -0.73071986 106 48
3.6951005 0.15831129 -0.73317385 97 48
3.7096972 0.13613673 -0.73603678 80 48
3.7261174 0.11384856 -0.73930871 80 48
3.7482746 0.09150672 -0.74380761 97 48
3.7624674 0.068754978 -0.74667054 96 48
3.7755427 0.045820724 -0.74932903 119 48
3.7884779 0.022728596 -0.75198746 106 48
3.6794176 0.1815971 -0.77702564 21 49
3.681438 0.15905966 -0.77724206 73 49
3.6960032 0.13697831 -0.78027219 8 49
3.7335174 0.092518553 -0.78828049 21 49
3.7662268 0.070218973 -0.79542297 93 49
3.7734203 0.047196109 -0.79693806 86 49
3.7892592 0.024146317 -0.80040109 27 49
3.656919 0.18043943 -0.81753749 109 50
3.9600544 -0.21791659 -0.83957666 58 49
3.9620664 -0.21820083 -0.88936096 16 50
3.9888361 -0.24423589 -0.89597327 87 50
3.9578414 -0.21917568 -0.93649989 28 51
3.995188 -0.24583042 -0.94606835 80 51
4.0032921 -0.27099276 -0.94846046 66 51
3.9741733 -0.21886876 -0.99055856 116 52
3.9833841 -0.24390154 -0.99331647 118 52
3.9963007 -0.26931629 -0.99707723 106 52
4.0109854 -0.29504094 -1.0013394 105 52
3.9840097 -0.31764349 -0.99482077 19 52
3.9398708 -0.21749885 -1.0301334 38 53
3.9760313 -0.24396348 -1.0403457 89 53
3.9850519 -0.26906744 -1.043226 81 53
3.9775507 -0.29309034 -1.0416549 33 53
3.9504671 -0.21756089 -1.081884 96 54
3.9202511 -0.24002978 -1.0736955 40 54
3.8887463 -0.094512828 -0.82269436 29 49
3.8763831 -0.11801896 -0.82009709 104 49
3.9097338 -0.14304087 -0.82767248 121 49
3.9263399 -0.16777284 -0.83156842 101 49
3.9408391 -0.19261922 -0.83503145 84 49
3.800601 0.00080075627 -0.85014302 11 50
3.8151388 -0.022607328 -0.85356319 8 50
3.8295321 -0.046193786 -0.85698336 23 50
3.8418322 -0.06992209 -0.8599475 8 50
3.8929193 -0.094754606 -0.87203211 8 50
3.9206533 -0.14359152 -0.87887245 66 50
3.9459631 -0.16877143 -0.88502872 15 50
3.9613857 -0.1937906 -0.88890493 11 50
3.795928 -0.00042052785 -0.89511633 77 51
3.815273 -0.023827238 -0.89990056 105 51
3.8218513 -0.047318935 -0.90157503 107 51
3.8418758 -0.071139798 -0.90659845 43 51
3.9403763 -0.097122863 -0.93099803 5 51
3.9047678 -0.12023336 -0.92238641 107 51
3.9039564 -0.1441903 -0.92238641 96 51
3.9456818 -0.16996786 -0.93291169 30 51
3.8174846 0.024226706 -0.94843799 6 52
3.8136222 -0.022598188 -0.94743508 117 52
3.8201878 -0.046080127 -0.94919014 124 52
3.8701637 -0.070440575 -0.96222746 24 52
3.8628843 -0.094020568 -0.96047246 48 52
3.8970685 -0.11878623 -0.96949828 107 52
3.9078753 -0.14312227 -0.97250688 89 52
3.9204638 -0.16767831 -0.97601694 79 52
3.9328978 -0.1923942 -0.979527 62 52
3.8001385 0.000240797 -0.99059367 9 53
3.7933128 -0.023037471 -0.98876071 33 53
3.8452122 -0.046932582 -1.0029007 4 53
3.9015768 -0.11945722 -1.0186119 32 53
3.8891966 -0.1429726 -1.0154697 16 53
3.8718543 -0.16613518 -1.0110182 6 53
3.8669062 -0.1897013 -1.0099708 5 53
3.795728 -0.022490341 -1.0363011 121 54
3.8157196 -0.046025779 -1.0420331 84 54
3.8701918 -0.07044109 -1.0575913 23 54
3.8716102 -0.094233826 -1.0581373 99 54
3.875767 -0.11813483 -1.059502 105 54
3.8816988 -0.142161 -1.0614127 98 54
3.9884017 -0.17059071 -1.0919833 7 54
3.9315493 -0.1923281 -1.0761521 29 54
3.8016903 -0.023085769 -1.0838462 97 55
3.7986007 -0.046377834 -1.0829952 25 55
3.8590982 -0.094472371 -1.1011508 114 55
3.8843248 -0.11893418 -1.1088101 111 55
3.9017293 -0.14342956 -1.1142 89 55
3.90365 -0.16748987 -1.115051 94 55
3.9073377 -0.19167255 -1.1164695 46 55
3.8226819 -0.09237323 -1.1389513 21 56
3.8631122 -0.11707574 -1.1516309 84 56
3.8623211 -0.14077716 -1.1516309 59 56
3.7996464 -0.045729775 -1.1780519 14 57
3.8078625 -0.069196172 -1.1808017 70 57
3.8111739 -0.092650868 -1.1820239 73 57
3.8133891 -0.11612011 -1.1829405 9 57
3.8123803 0.093171485 -0.42945293 20 41
3.8406672 0.070294417 -0.4328604 7 41
3.8440037 0.046764329 -0.43322551 6 41
3.8412406 0.023158228 -0.4328604 11 41
3.8323774 -0.00041337105 -0.43176514 76 41
3.8139622 0.070353761 -0.47608903 48 42
3.8024306 0.046805244 -0.47448537 105 42
3.8145385 0.023545278 -0.47608903 131 42
3.8255124 0.00013855365 -0.47755909 135 42
3.8363423 -0.023401955 -0.47902912 108 42
3.8196373 0.094015367 -0.52501959 15 43
3.85674 0.071264073 -0.53041828 6 43
3.8056653 0.046947856 -0.5228309 70 43
3.828635 0.023743903 -0.52618688 113 43
3.8386016 0.0002550623 -0.52764595 114 43
3.8513916 -0.023372302 -0.5295428 51 43
3.8511755 -0.047003556 -0.5295428 85 43
3.8334749 0.023660231 -0.57395715 55 44
3.8216271 -0.023310699 -0.57206339 5 44
3.831286 -0.046881147 -0.57364154 10 44
3.8812785 -0.071318865 -0.58169001 75 44
3.7973547 0.022220289 -0.61430693 115 45
3.8082602 -0.0010800221 -0.61617166 60 45
3.8318341 -0.024591662 -0.62024021 8 45
3.8493493 -0.048320193 -0.62329155 83 45
3.8755851 -0.072427653 -0.62786865 111 45
3.8839347 -0.096423917 -0.62939435 135 45
3.8030453 0.023475507 -0.66233957 139 46
3.8208191 0.00013886082 -0.66560435 20 46
3.8217313 -0.023311345 -0.66578573 36 46
3.8569167 -0.047197375 -0.6723153 121 46
3.8801522 -0.071298063 -0.67666841 137 46
3.8993042 -0.095588855 -0.68029594 124 46
3.9133885 -0.11996619 -0.6830166 91 46
3.9174924 -0.14415734 -0.68392348 41 46
3.7971938 0.045520578 -0.7078172 57 47
3.8386109 0.022474337 -0.71592468 8 47
3.8514321 -0.0010790802 -0.71843415 5 47
3.8896186 -0.024944967 -0.72596258 6 47
3.8736944 -0.04861844 -0.72287399 26 47
3.8507595 -0.071971163 -0.71843415 39 47
3.8885005 -0.096535899 -0.72596258 6 47
3.8987894 -0.14467964 -0.72827899 38 47
3.9095917 -0.16910474 -0.73059541 36 47
3.868813 -0.00053675781 -0.76875615 25 48
3.822731 -0.023982005 -0.75914484 112 48
3.8234909 -0.047449637 -0.75934929 113 48
3.828021 -0.071000509 -0.7603718 132 48
3.896013 -0.09618549 -0.77468652 21 48
3.9199724 -0.14493118 -0.78000343 81 48
3.9336786 -0.16961494 -0.78307086 101 48
3.9374523 -0.19398968 -0.78409332 71 48
3.8117909 0.00090765062 -0.80537921 14 49
3.8224638 -0.022541113 -0.80776006 116 49
3.8281109 -0.046063576 -0.80905867 120 49
3.8472791 -0.069900312 -0.81338745 116 49
3.7547839 0.13844 -0.37622821 96 40
3.7645042 0.11567229 -0.37721428 117 40
3.7671304 0.092620209 -0.37743339 133 40
3.711792 0.18191195 -0.41752669 124 41
3.8007958 0.092884824 -0.33372268 117 39
3.8012941 0.069561832 -0.33372268 115 39
3.8235435 0.046509214 -0.33586186 77 39
3.8073804 0.070233017 -0.38181582 19 40
3.8077397 0.046870049 -0.38181582 16 40
3.8318107 0.02365013 -0.38444528 84 40
3.6845558 0.22715601 -0.82460582 5 50
3.5564141 0.3498098 -0.84033692 31 51
3.5536594 0.32753432 -0.83914083 83 51
3.5633411 0.30639127 -0.84105456 105 51
3.5777364 0.28552952 -0.84416425 102 51
3.5939457 0.26464584 -0.84775245 91 51
3.6158457 0.24396802 -0.85277587 54 51
3.6269658 0.22237433 -0.85516798 49 51
3.6534684 0.20151386 -0.86138749 87 51
3.6316738 0.33598948 -0.9043116 14 52
3.5680821 0.30804458 -0.88726282 86 52
3.571835 0.28629991 -0.88776422 48 52
3.6092455 0.26701701 -0.89704078 5 52
3.6122503 0.22270592 -0.89704078 5 52
3.6483457 0.20246473 -0.90606666 24 52
3.5898619 0.28712898 -0.93665212 89 53
3.5973308 0.26552472 -0.93822324 32 53
3.617187 0.24469043 -0.94319844 7 53
3.6272898 0.22302702 -0.94555509 23 53
3.6334081 0.20103434 -0.94686437 83 53
3.5810957 0.26493749 -0.97816235 50 54
3.6047301 0.24445403 -0.98444027 95 54
3.610003 0.2225676 -0.98553205 87 54
3.6189852 0.20083849 -0.98771566 97 54
3.6027021 0.24370588 -1.0273937 36 55
3.6127436 0.22212794 -1.0299469 96 55
3.6197832 0.20027608 -1.031649 105 55
3.6242125 0.20175976 -1.0790918 52 56
3.7205164 0.20523344 -0.41874367 76 41
3.6263621 0.26764789 -0.45203379 24 42
3.6407902 0.24625999 -0.45377111 93 42
3.655092 0.22470506 -0.45550844 108 42
3.6603599 0.20249215 -0.456043 129 42
3.714036 0.32004842 -0.51130402 25 43
3.628165 0.29020512 -0.49831799 95 43
3.6288908 0.2678645 -0.49817207 120 43
3.630466 0.245593 -0.49817207 106 43
3.6931243 0.22709616 -0.50721848 23 43
3.7438366 0.20717984 -0.51451403 4 43
3.5733254 0.3520965 -0.53513509 71 44
3.5921347 0.33170614 -0.5378179 114 44
3.6068921 0.31075954 -0.53986949 96 44
3.6234961 0.28980151 -0.54223669 98 44
3.6370237 0.26843363 -0.54413044 114 44
3.6533806 0.24711023 -0.54649764 134 44
3.6577849 0.22487032 -0.54697108 115 44
3.715296 0.20552537 -0.55596644 32 44
3.5446784 0.41403741 -0.57497793 23 45
3.5246234 0.38978097 -0.57107896 81 45
3.5328298 0.36876276 -0.57209605 82 45
3.5438528 0.34794837 -0.57362175 96 45
3.5753617 0.32891515 -0.5787074 41 45
3.5958295 0.28635055 -0.58158928 18 45
3.6289701 0.26660225 -0.58701396 98 45
3.6374207 0.24479571 -0.58820063 110 45
3.6418052 0.22265367 -0.58870918 117 45
3.6490068 0.20063029 -0.58972633 42 45
3.5082483 0.45473048 -0.61336768 71 46
3.5148764 0.43367699 -0.61409318 79 46
3.5243084 0.41290224 -0.61536282 87 46
3.5316627 0.39181137 -0.61626971 111 46
3.5418251 0.37095276 -0.61772072 97 46
3.5557787 0.35036945 -0.61989725 61 46
3.6019282 0.33260944 -0.62805927 5 46
3.6078203 0.31083941 -0.62878478 6 46
3.5851524 0.28673896 -0.62425029 4 46
3.6103826 0.26647022 -0.6286034 23 46
3.614893 0.24451108 -0.62914753 19 46
3.6251595 0.22286807 -0.63077992 6 46
3.6362779 0.20116247 -0.63259369 7 46
3.5207183 0.43314525 -0.65859312 80 47
3.5203862 0.41119191 -0.658014 119 47
3.5335703 0.39077336 -0.66013736 84 47
3.5427325 0.36979973 -0.66148865 94 47
3.5478642 0.34834355 -0.66206771 103 47
3.5597053 0.32746974 -0.66399807 63 47
3.6036832 0.30924243 -0.67229861 27 47
3.594754 0.28626457 -0.67017525 84 47
3.616992 0.26571843 -0.67422897 110 47
3.6332388 0.24451293 -0.6771245 92 47
3.6405466 0.22257634 -0.67828274 31 47
3.5178823 0.41153044 -0.70045447 72 48
3.5193682 0.38982973 -0.70024997 95 48
3.5285089 0.36893976 -0.70168144 95 48
3.5365512 0.34785655 -0.7029084 53 48
3.5327706 0.32561174 -0.70168144 7 48
3.5405538 0.30443144 -0.7029084 10 48
3.6009016 0.28736714 -0.71517819 93 48
3.6084545 0.26569766 -0.71640515 88 48
3.61783 0.24407788 -0.71804112 103 48
3.6192596 0.2218747 -0.71804112 45 48
3.6303267 0.20020111 -0.7200861 46 48
3.5284281 0.39206496 -0.7473734 66 49
3.5249417 0.36979443 -0.74607474 40 49
3.6048679 0.35585675 -0.76338995 6 49
3.62837 0.33571672 -0.76815158 4 49
3.6313343 0.31353143 -0.76836801 3 49
3.6643305 0.29375046 -0.77529413 6 49
3.6426973 0.26952457 -0.77009958 19 49
3.660841 0.24829674 -0.77377903 8 49
3.6691167 0.22625235 -0.77529413 7 49
3.6909063 0.2048776 -0.77983934 5 49
3.5309923 0.37043965 -0.7915442 54 50
3.5361056 0.34905353 -0.79222822 71 50
3.5459371 0.32806659 -0.79405236 34 50
3.5624342 0.30755758 -0.79747248 75 50
3.5797832 0.28693613 -0.8011207 102 50
3.5950706 0.26596987 -0.80431283 95 50
3.615092 0.24515562 -0.80864501 58 50
3.6576872 0.20298216 -0.81799346 55 50
