# .PCD v0.7 - Point Cloud Data file format
VERSION 0.7
FIELDS x y z intensity ring
SIZE 4 4 4 4 1
TYPE F F F F U
COUNT 1 1 1 1 1
WIDTH 1329
HEIGHT 1
VIEWPOINT 0 0 0 1 0 0 0
POINTS 1329
DATA ascii
12.879407 -1.3469695 2.613584 186 15
12.881622 -1.4271576 2.6157336 163 15
12.879441 -1.5069681 2.6171017 192 15
12.882607 -1.5875247 2.6196423 175 15
12.886239 -1.6683025 2.6223783 163 15
12.890337 -1.7493166 2.6253099 212 15
12.8881 -1.829617 2.6270688 257 15
12.891183 -1.9108182 2.6300004 280 15
12.89957 -1.9930239 2.6341045 315 15
12.909369 -2.0757155 2.6385994 385 15
12.910899 -2.15731 2.6415308 380 15
12.915779 -2.2396712 2.6452441 385 15
12.918203 -2.3218267 2.6485665 423 15
12.920105 -2.4040959 2.6518888 374 15
12.046056 -2.3180985 2.4775629 180 15
12.018139 -2.389292 2.4748268 184 15
11.99941 -2.4622009 2.474045 112 15
0.90481621 -0.1925571 0.217384 119 15
0.90265942 -0.19789651 0.21718857 122 15
0.90238512 -0.20364608 0.217384 119 15
0.90016299 -0.20895863 0.21718857 123 15
0.89695543 -0.21402515 0.21679769 165 15
0.90324783 -0.22138287 0.21836115 119 15
0.90377522 -0.22739714 0.21875203 115 15
0.9033128 -0.23318227 0.21894746 104 15
0.90186501 -0.23872049 0.21894746 122 15
0.90322375 -0.24501649 0.21953376 113 15
0.94140357 -0.26153207 0.22774193 11 15
0 -0 0 7 15
12.984904 -3.7640026 2.7271304 35 15
5.1460266 -1.5267292 1.102694 150 15
5.0605397 -1.5352311 1.086864 186 15
4.9732714 -1.5421618 1.0706431 165 15
4.9366012 -1.5640643 1.0649755 133 15
4.9157133 -1.5907046 1.0626303 55 15
4.9161043 -1.6242187 1.06478 73 15
4.9227748 -1.6599897 1.0682979 560 15
4.8633423 -1.6732647 1.0579399 316 15
4.7252703 -1.6582876 1.0309702 244 15
4.6789913 -1.6743718 1.0233483 238 15
4.5866241 -1.6731575 1.0059549 278 15
4.5339823 -1.685559 0.99696493 260 15
4.4905348 -1.7008497 0.98992932 105 15
0.97529083 -0.37724072 0.24142222 126 15
0.97113198 -0.38250113 0.24103135 100 15
0.96330267 -0.38626879 0.23985876 135 15
0.95909762 -0.39143312 0.23946789 135 15
0.94036728 -0.39055839 0.2359501 179 15
0.93072259 -0.39327559 0.23438664 193 15
0.92558759 -0.39782035 0.23380034 176 15
0.91683561 -0.40074995 0.23243232 213 15
0.9107728 -0.40477902 0.23165058 213 15
0.9038009 -0.40834606 0.23067342 196 15
0.8986032 -0.41265932 0.23008712 182 15
0.89427584 -0.41733789 0.22969626 207 15
0.8934716 -0.42365548 0.23008712 151 15
0.89615959 -0.43167716 0.23125972 131 15
0.89701968 -0.43888772 0.23204145 130 15
0.89606738 -0.44525424 0.23243232 139 15
0.8941946 -0.45118478 0.23262775 142 15
0.89752287 -0.45978591 0.23399578 108 15
0.89816725 -0.46709031 0.23477751 94 15
0.93433648 -0.49314949 0.24357198 10 15
0.95464814 -0.51135093 0.24884866 5 15
4.5259838 -2.455188 1.0591125 9 15
4.5211449 -2.4885855 1.0614578 18 15
4.5066466 -2.5167577 1.0616531 21 15
4.512454 -2.5564432 1.0665389 17 15
4.5102901 -2.5918984 1.0696659 16 15
4.5087075 -2.6279163 1.0729883 18 15
4.5017862 -2.6610193 1.075138 21 15
4.507247 -2.7016962 1.0802193 27 15
4.5107012 -2.7415216 1.0849096 22 15
4.5138354 -2.7814906 1.0896 23 15
4.5166488 -2.8216007 1.0942904 34 15
4.5174813 -2.8608007 1.0985899 32 15
4.5213037 -2.902235 1.1036712 27 15
4.5288982 -2.9464967 1.1097295 16 15
4.5328431 -2.9888015 1.1150062 14 15
4.5282831 -3.0258179 1.1183286 13 15
4.532373 -3.0689373 1.1238008 8 15
4.5231624 -3.1033456 1.126146 10 15
4.5249753 -3.1455908 1.1312271 17 15
0 -0 0 0 15
0 -0 0 0 15
0 -0 0 0 15
0 -0 0 0 15
0 -0 0 0 15
0 -0 0 0 15
0 -0 0 0 15
0 -0 0 0 15
0 -0 0 0 15
0 -0 0 0 15
0 -0 0 0 15
0 -0 0 0 15
0 -0 0 0 15
0 -0 0 0 15
0 -0 0 0 15
0 -0 0 0 15
4.5249119 -3.9032059 1.2238623 16 15
4.5333838 -3.9592757 1.2324613 24 15
4.5413365 -4.0155954 1.2410604 38 15
4.5516915 -4.0747766 1.2504411 43 15
4.5462265 -4.1204071 1.2557178 23 15
4.552659 -4.177393 1.2643168 27 15
4.5578437 -4.2339444 1.2727205 18 15
4.5525012 -4.2813115 1.2783879 23 15
4.557404 -4.338913 1.2869869 23 15
4.56177 -4.3967347 1.295586 31 15
4.5340042 -4.4239578 1.2953906 10 15
4.5632997 -4.5075092 1.3112206 15 15
4.5674624 -4.5673175 1.3202106 26 15
4.565547 -4.6217651 1.327637 33 15
4.5699844 -4.6833777 1.3370178 35 15
4.5636258 -4.7346282 1.343467 25 15
4.5628967 -4.792367 1.3516752 23 15
4.5623021 -4.8509884 1.3600788 28 15
4.5705056 -4.9198394 1.3712184 20 15
4.5773711 -4.9882498 1.3821627 21 15
4.5802736 -5.0532951 1.3921298 24 15
4.583858 -5.1200242 1.4024878 28 15
4.5835457 -5.1833129 1.4118685 19 15
4.5832734 -5.2475276 1.4214447 25 15
4.5939174 -5.3252974 1.4345386 24 15
4.6031418 -5.4026475 1.4474372 24 15
4.6052723 -5.472806 1.4583814 29 15
4.6054606 -5.5416846 1.4689348 24 15
4.5968852 -5.6009159 1.4769475 32 15
4.5945497 -5.6686296 1.48711 43 15
4.5958462 -5.7418828 1.4986405 27 15
4.6128378 -5.8361344 1.5154477 22 15
4.6125488 -5.9099374 1.5269783 28 15
4.6276927 -6.0049257 1.5437856 21 15
4.6222415 -6.0745673 1.5541434 20 15
4.6284819 -6.160831 1.5686054 32 15
4.6256547 -6.236371 1.5803314 36 15
4.607585 -6.2923269 1.5871716 24 15
4.6470428 -6.4285617 1.6137505 10 15
3.9237854 -5.4990816 1.3792312 6 15
0 -0 0 4 15
3.8453691 -5.5315204 1.375518 6 15
4.6477132 -6.7735405 1.670035 10 15
4.6737151 -6.9018035 1.6940732 95 15
4.642179 -6.9466572 1.697982 85 15
4.6648083 -7.0740681 1.7216293 39 15
0 -0 0 5 15
3.6778474 -5.7295508 1.3897846 4 15
0 -0 0 6 15
3.5547652 -5.6902537 1.3700459 4 15
4.2443938 -6.8874097 1.645215 26 15
4.2091866 -6.925055 1.6479511 111 15
3.5159988 -5.8657455 1.395843 114 15
3.4809394 -5.8888969 1.3962338 116 15
3.4462223 -5.9126863 1.3968202 151 15
3.4064565 -5.9277692 1.3954521 179 15
3.3608325 -5.9323483 1.3917389 228 15
3.3195858 -5.9442964 1.3897846 342 15
3.2712235 -5.9430761 1.3848988 291 15
3.2295504 -5.9535546 1.382749 254 15
3.2123833 -6.0095811 1.3909571 226 15
3.2111073 -6.0968552 1.4062009 211 15
3.2165611 -6.1991348 1.424767 245 15
3.4329567 -6.7164731 1.5361637 299 15
3.3885927 -6.7312794 1.5347956 350 15
3.3393834 -6.7361298 1.5312778 290 15
3.3027222 -6.7661872 1.5334276 348 15
3.2687919 -6.8022346 1.5369453 208 15
3.247128 -6.8647146 1.5463262 288 15
3.2496617 -6.980525 1.5674329 310 15
4.5219707 -9.8702526 2.1965306 149 15
4.4621291 -9.8996019 2.1969216 197 15
4.3965311 -9.9160366 2.1945763 220 15
4.328547 -9.9266453 2.1910586 222 15
4.2598252 -9.9349918 2.1871498 240 15
4.1964989 -9.9555206 2.1859772 138 15
4.126698 -9.9602451 2.1814823 213 15
4.0618062 -9.9762955 2.179528 224 15
4.0016093 -10.003762 2.1801143 226 15
3.9379995 -10.022651 2.1789417 199 15
3.87219 -10.035645 2.1765964 239 15
3.7907312 -10.006943 2.1654568 161 15
3.7460105 -10.075054 2.1750331 251 15
3.6837845 -10.096929 2.1748376 188 15
3.6161416 -10.103645 2.1715152 257 15
3.549855 -10.113614 2.1689746 208 15
3.4886899 -10.137987 2.1695609 234 15
3.409802 -10.109952 2.1592031 128 15
3.1737883 -9.604579 2.0487835 139 15
3.1135876 -9.6201401 2.0480018 143 15
3.0556865 -9.6428032 2.0487835 142 15
2.9947181 -9.6557512 2.047611 134 15
2.9322815 -9.6636219 2.0454612 126 15
2.8659537 -9.6579285 2.0405753 135 15
2.8088264 -9.6828661 2.0421388 126 15
2.7488256 -9.6980314 2.041748 101 15
2.6876972 -9.7090445 2.0405753 126 15
2.6275611 -9.7234602 2.0401845 142 15
2.5660987 -9.7327614 2.0388165 127 15
2.5029109 -9.7350264 2.0360804 129 15
2.4385996 -9.7321262 2.0323672 156 15
2.3744185 -9.7288046 2.0286539 157 15
2.313545 -9.7384195 2.0276768 129 15
2.2552941 -9.75912 2.0290449 125 15
2.1919298 -9.7574654 2.025918 145 15
2.1318085 -9.7697725 2.0257225 151 15
2.0722289 -9.7845888 2.0261133 140 15
2.0107708 -9.7903948 2.0247452 125 15
1.9508518 -9.8035097 2.0249407 123 15
1.8886201 -9.8047028 2.0227909 116 15
1.8264474 -9.805501 2.0206413 114 15
1.7671164 -9.8213491 2.0216184 117 15
1.7029599 -9.8097839 2.0171235 100 15
1.6255722 -9.7175188 1.9964076 64 15
1.2898226 -8.0135384 1.6504917 20 15
1.240028 -8.0174255 1.6497101 43 15
1.1906666 -8.0239124 1.6495146 68 15
1.1405815 -8.0252419 1.648342 57 15
1.0878816 -8.0068235 1.6432607 18 15
1.3464352 -10.384454 2.1197257 219 15
1.2888243 -10.442159 2.1296926 403 15
1.2244996 -10.447923 2.1293018 379 15
1.1615605 -10.465961 2.1314516 397 15
0.61505312 -5.8750138 1.210182 465 15
0.5788005 -5.8767252 1.2097911 538 15
0.54218876 -5.8743067 1.2086185 597 15
0.50790548 -5.8980417 1.2127225 494 15
0.83644742 -10.452676 2.1226571 194 15
0.77316332 -10.469348 2.1250024 391 15
0.70207745 -10.373112 2.1048727 127 15
0.6058979 -9.8496189 1.9995345 88 15
0.54800355 -9.8991747 2.0087199 168 15
0.48657665 -9.8886375 2.0059838 183 15
0.42534202 -9.8786993 2.0034432 181 15
0.36475575 -9.882103 2.0036385 167 15
0.30368957 -9.8704319 2.0009024 207 15
0.24280465 -9.8593636 1.9983619 183 15
0.18197575 -9.8430185 1.9948441 189 15
0.1214422 -9.8331623 1.9926944 198 15
0.061073713 -9.8288193 1.9917172 218 15
0.00076444994 -9.8309698 1.9921081 202 15
-0.059586387 -9.8356934 1.9930853 189 15
-0.11980568 -9.8243551 1.9909354 173 15
-0.17967378 -9.8008823 1.9864405 178 15
-0.23985523 -9.8015566 1.9868314 175 15
-0.29963323 -9.7881374 1.9844862 179 15
-0.35943514 -9.779254 1.9831182 206 15
-0.41951659 -9.7788239 1.9835091 195 15
-0.47840807 -9.7535362 1.979014 176 15
-0.53824562 -9.7504177 1.979014 186 15
-0.59764332 -9.7400789 1.977646 187 15
-0.65581322 -9.7127447 1.9729557 194 15
-0.71489346 -9.7016916 1.9715877 191 15
-0.77557778 -9.7117863 1.9745191 179 15
-0.83406222 -9.6941423 1.9719785 179 15
-0.89190966 -9.6712637 1.9684607 103 15
-0.95056307 -9.6587763 1.9670926 115 15
-1.0084853 -9.6400824 1.964552 174 15
-1.067293 -9.6307878 1.9639658 154 15
-1.1249998 -9.6123695 1.9616206 131 15
-1.2658228 -10.270094 2.0951011 259 15
-1.32806 -10.256298 2.0939286 277 15
-1.3889896 -10.233378 2.090997 272 15
-1.4503767 -10.214953 2.0890427 284 15
-1.5114464 -10.19519 2.0868928 248 15
-1.5724778 -10.176032 2.0849385 280 15
-1.635354 -10.169097 2.0855248 310 15
-1.6857654 -10.087289 2.0710628 197 15
-1.7581791 -10.137633 2.0833752 290 15
-1.8182685 -10.115071 2.0810299 318 15
-1.8785061 -10.094083 2.0790756 288 15
-1.9376283 -10.06792 2.0761442 283 15
-1.9959269 -10.038527 2.0726264 316 15
-2.0513763 -9.9963093 2.0665679 190 15
-1.7204117 -8.1288347 1.6887965 29 15
-2.172848 -9.9655914 2.0655909 117 15
-2.2350283 -9.9568567 2.0665679 243 15
-2.2954185 -9.9400883 2.0659816 252 15
-2.3520646 -9.9076862 2.0622685 254 15
-2.4149032 -9.9016438 2.0640273 350 15
-2.4775181 -9.8942499 2.0655909 367 15
-2.5376935 -9.8769627 2.0651999 439 15
-2.6004975 -9.8697414 2.0669587 480 15
-2.6625416 -9.8592796 2.0681314 448 15
-2.7263849 -9.8550453 2.070672 92 15
-1.6702613 -5.8947372 1.2539588 7 15
-1.7175908 -5.9229984 1.2619716 5 15
-1.743588 -5.8775578 1.2547406 14 15
-1.7764896 -5.8564248 1.2525909 10 15
-1.8025218 -5.8135633 1.2459462 18 15
-1.883743 -5.9463811 1.2760428 49 15
-1.9464444 -6.0158949 1.2930454 70 15
-1.9710226 -5.9665871 1.2852281 46 15
-1.9477825 -5.7768703 1.2479005 20 15
-1.983192 -5.7648101 1.2479005 10 15
-2.0282631 -5.7802968 1.2537634 14 15
-2.0676546 -5.7788243 1.2561086 16 15
-2.1141577 -5.7964354 1.2625579 17 15
-2.1681263 -5.8329978 1.2731112 28 15
-2.329546 -6.1516175 1.3438579 51 15
-2.3549006 -6.1051807 1.3370178 58 15
-2.3614957 -6.0121078 1.3202106 29 15
-2.3728626 -5.9337573 1.3065302 96 15
-2.3948138 -5.8836579 1.2989084 92 15
-2.8956518 -6.9915581 1.5410495 94 15
-2.9442067 -6.987216 1.543981 966 15
-2.9986107 -6.9960632 1.5498439 1228 15
-3.0516665 -7.0009084 1.5549252 1006 15
-3.1021135 -6.9990888 1.5586385 914 15
-3.169971 -7.0353632 1.5707552 1128 15
-3.2245097 -7.0407486 1.5762273 1200 15
-3.2246268 -6.9283543 1.5559024 559 15
-3.0642157 -6.4793043 1.4613129 478 15
-3.0767417 -6.403801 1.4488052 541 15
-3.0686784 -6.2878447 1.4273076 582 15
-3.0893514 -6.2328677 1.419295 551 15
-3.1085842 -6.1761227 1.4108913 488 15
-3.1223302 -6.1097708 1.4003379 294 15
-3.6649747 -7.0647125 1.6190271 850 15
-3.7288108 -7.0811434 1.6278216 1385 15
-3.7777352 -7.068511 1.6301668 727 15
-3.8294497 -7.0607166 1.6336845 710 15
-3.8868828 -7.0628648 1.6395476 710 15
-3.9478319 -7.0705676 1.6467786 827 15
-3.9780946 -7.023169 1.6415019 511 15
-4.032836 -7.0190377 1.6461922 490 15
-3.7534666 -6.4408021 1.5185747 488 15
-3.7659779 -6.3720541 1.5080214 540 15
-3.7702274 -6.2907777 1.4945365 436 15
-3.7782054 -6.2172351 1.4828105 287 15
-4.3676229 -7.089098 1.6923144 479 15
-4.4349322 -7.100431 1.7013042 357 15
-3.930294 -6.20713 1.4970771 385 15
-3.9412971 -6.1408 1.48711 638 15
-3.3902545 -5.2112961 1.2719387 778 15
-3.4270239 -5.1977658 1.2736976 717 15
-4.7584996 -7.1225266 1.7399999 378 15
-4.821352 -7.1216216 1.7468401 783 15
-4.8766069 -7.1088891 1.7509441 801 15
-4.9609861 -7.1376252 1.7652107 986 15
-5.0255766 -7.1367226 1.7724417 1020 15
-5.0914812 -7.1368914 1.7800636 911 15
-5.1615963 -7.1420836 1.7890536 962 15
-5.231966 -7.1466827 1.7980434 955 15
-5.2949924 -7.1404438 1.8044927 977 15
-5.3522501 -7.1258574 1.8089876 469 15
-4.1758566 -5.4887342 1.4073735 489 15
-4.1789351 -5.4233837 1.3974065 624 15
-4.1886082 -5.3674831 1.3897846 751 15
-4.2086964 -5.3255205 1.3856804 786 15
-4.1935067 -5.2398639 1.3704368 528 15
-4.2280483 -5.2170825 1.3712184 579 15
-4.2686882 -5.2016563 1.3739545 586 15
-4.3011513 -5.1761208 1.3741499 551 15
-4.3353553 -5.1526341 1.3749317 362 15
-4.3516293 -5.1080165 1.3702413 493 15
-4.3790469 -5.0767627 1.3690687 498 15
-4.4043102 -5.0431485 1.3673098 457 15
-4.4377694 -5.0189686 1.3680916 459 15
-4.4625955 -4.9850674 1.3663327 336 15
-4.4753208 -4.9379678 1.361056 385 15
-4.5061984 -4.9111376 1.3612514 307 15
-4.2225995 -4.5456266 1.2693981 370 15
-4.2248859 -4.4924788 1.2619716 563 15
-4.2300601 -4.443027 1.2555224 533 15
-4.2490768 -4.4085135 1.2531772 466 15
-4.2287979 -4.3339162 1.2396923 559 15
-4.2373948 -4.2897429 1.234611 597 15
-4.198463 -4.198463 1.2162404 272 15
-4.185081 -4.1340194 1.2052962 270 15
-4.2391415 -4.1363497 1.2133089 442 15
-4.2722077 -4.1177487 1.2154586 495 15
-4.3158574 -4.1090436 1.2205399 470 15
-4.3617029 -4.1019731 1.2262074 254 15
-4.4061866 -4.0931582 1.2314842 82 15
-4.3987074 -4.0362015 1.2226896 42 15
-3.7150195 -3.3668525 1.0321428 18 15
-3.7356081 -3.3439941 1.0321428 10 15
-3.7553215 -3.3203602 1.0319474 7 15
-3.771193 -3.2933838 1.0307747 7 15
-3.7972698 -3.2753081 1.0323383 10 15
-3.8016207 -3.2385876 1.0282341 16 15
-3.8101664 -3.2057269 1.0253026 26 15
-3.8388145 -3.189811 1.0276479 19 15
-2.9146264 -2.3914216 0.78433418 20 15
-2.9444809 -2.3858457 0.78824282 96 15
-2.949878 -2.3603783 0.78589761 172 15
-2.9596896 -2.3385842 0.78472501 218 15
-2.9484732 -2.3004637 0.77827573 139 15
-2.9703002 -2.2883165 0.7802301 260 15
-2.9647758 -2.2551982 0.77534425 106 15
-2.9683657 -2.2293048 0.77280366 108 15
-2.9685993 -2.2011151 0.7694813 107 15
-2.9693904 -2.1735864 0.76635438 106 15
-2.9683664 -2.1449819 0.76283658 161 15
-2.9710948 -2.1193209 0.76029593 144 15
-2.9728191 -2.0931425 0.7575599 92 15
-2.9759443 -2.0681431 0.75521469 72 15
-2.9788754 -2.0431843 0.75286949 93 15
-2.9872961 -2.0221179 0.75189233 80 15
-2.9996474 -2.0037501 0.75189233 91 15
-3.0217094 -1.9917868 0.75423753 90 15
-3.0577109 -1.9887227 0.7599051 46 15
-3.0979135 -1.9879407 0.76654983 58 15
-3.1257935 -1.9788668 0.77026302 82 15
-3.17946 -1.9856375 0.78003466 277 15
-3.216629 -1.9815305 0.78589761 66 15
-3.2387826 -1.9678705 0.78824282 235 15
-3.3155601 -1.9867959 0.80329114 52 15
-3.3411953 -1.9744016 0.80641806 72 15
-3.4049273 -1.9839969 0.81833947 43 15
-3.4314907 -1.9713767 0.82166183 46 15
-4.5381961 -2.5706935 1.0724019 48 15
-4.5324798 -2.5308414 1.0675161 79 15
-4.5642462 -2.5119708 1.0712293 54 15
-4.5468187 -2.4661424 1.0638028 78 15
-7.975327 -4.2635927 1.8351756 55 15
-7.9961324 -4.211834 1.8340031 79 15
-7.9957118 -4.1491361 1.82814 128 15
-8.0533285 -4.1165171 1.835371 68 15
-8.0661726 -4.0608497 1.832635 126 15
-8.0803938 -4.0060515 1.8302898 94 15
-8.103941 -3.9559653 1.8300943 98 15
-8.1050806 -3.8951182 1.8250132 159 15
-8.1536493 -3.8570585 1.8304852 59 15
-8.1780519 -3.8073702 1.8306807 143 15
-8.1932354 -3.7534418 1.8289218 139 15
-8.6416779 -3.8949723 1.9219477 202 15
-8.7039642 -3.8589716 1.9303514 425 15
-8.727478 -3.8054924 1.9303514 636 15
-8.7479601 -3.7507102 1.929765 763 15
-8.7545433 -3.6901045 1.9262472 749 15
-8.7607126 -3.6295595 1.9227295 771 15
-8.7601118 -3.5664885 1.9178437 830 15
-8.7645302 -3.505748 1.9141304 807 15
-8.7630577 -3.4429352 1.9092447 861 15
-8.7629747 -3.3809793 1.9047496 820 15
-8.7679644 -3.3212392 1.9014273 155 15
-8.7477331 -3.2523348 1.8928282 232 15
-8.7454138 -3.1905289 1.8881379 403 15
-8.7555923 -3.1335022 1.8861835 128 15
-5.6757097 -1.9916188 1.2316796 42 15
-5.6952415 -1.9593095 1.233243 80 15
-7.0954585 -2.3927314 1.5252194 292 15
-7.1267676 -2.3546903 1.5287372 356 15
-7.157876 -2.3163545 1.5322549 269 15
-7.2084141 -2.2839494 1.5398768 365 15
-7.315022 -2.2684481 1.5592247 340 15
-7.4601841 -2.2634034 1.5865853 317 15
-7.6741858 -2.277036 1.6282125 301 15
-7.866024 -2.2815652 1.6651492 362 15
-8.0987711 -2.2953289 1.7104896 290 15
-8.3423719 -2.3091991 1.7579798 288 15
-8.6205206 -2.3293781 1.8125055 541 15
-8.6488762 -2.2801917 1.815437 328 15
-8.694047 -2.2351427 1.8218862 647 15
-8.7675285 -2.1967793 1.8341985 666 15
-8.8189516 -2.152247 1.8420157 1083 15
-8.8129091 -2.0935585 1.8381071 997 15
-8.7978792 -2.0330372 1.8324395 590 15
-8.8245411 -1.9822421 1.835371 765 15
-8.8154583 -1.9234563 1.8310715 967 15
-8.8251753 -1.8689228 1.8306807 968 15
-8.8220673 -1.8117762 1.8277491 903 15
-8.8224382 -1.7555041 1.8255994 887 15
-8.8378582 -1.7022657 1.8265766 961 15
-8.8394604 -1.6463883 1.8248177 989 15
-8.8436041 -1.5910767 1.8236451 991 15
-8.8474035 -1.5357763 1.8224725 991 15
-8.8218384 -1.4756315 1.815437 437 15
-6.6057281 -1.0630203 1.3663327 43 15
-8.8276529 -1.3654624 1.8130918 639 15
-8.8436251 -1.3124239 1.8146552 1131 15
-8.8524828 -1.258274 1.8148507 1071 15
-8.8532343 -1.2030072 1.8134826 1077 15
-8.8633671 -1.1490407 1.8140689 1147 15
-8.8546772 -1.0927106 1.8109419 1130 15
-8.8543968 -1.0375589 1.809574 1208 15
-8.8615713 -0.98331815 1.8097694 1133 15
-8.8625612 -0.92841452 1.8087922 1204 15
-8.8651628 -0.87372845 1.808206 1233 15
-8.8732872 -0.81958735 1.8087922 1192 15
-8.8703327 -0.7644518 1.8072288 1218 15
-8.8680124 -0.70946169 1.8058608 1270 15
-8.9130888 0.21899872 1.7001579 1024 16
-8.9155073 0.27380514 1.700893 972 16
-8.91366 0.32850453 1.700893 959 16
-8.8928175 0.38238838 1.6974012 343 16
-8.901103 0.43747774 1.6994228 989 16
-8.9227877 0.49344361 1.7040173 787 16
-8.9127245 0.54776114 1.7027308 1004 16
-8.9160604 0.60290277 1.7040173 1002 16
-8.9259176 0.65861261 1.7065902 1029 16
-8.9324865 0.7142309 1.7086117 1054 16
-8.9279356 0.76902616 1.7086117 1019 16
-8.9269648 0.82415414 1.7093469 1015 16
-8.9344568 0.88016677 1.7117361 1029 16
-8.9308434 0.93517584 1.7121036 1021 16
-8.9347067 0.99104095 1.7139413 1052 16
-8.9391966 1.047103 1.715963 998 16
-8.9413834 1.1030167 1.717617 1069 16
-8.9480944 1.1596284 1.7201899 1126 16
-8.9456806 1.2151729 1.7211088 1080 16
-8.9419489 1.2705929 1.721844 1124 16
-8.9466248 1.3273116 1.724233 1165 16
-8.9528828 1.384436 1.7269897 1152 16
-8.9500427 1.440281 1.7280924 1170 16
-8.9526711 1.4971164 1.7302978 1206 16
-8.9578438 1.5545424 1.7330545 1181 16
-8.9636154 1.6122624 1.7359949 1165 16
-8.967083 1.6697515 1.7385678 1147 16
-8.9682512 1.726972 1.7407732 1132 16
-8.9372406 1.7779392 1.7369138 455 16
-8.9791212 1.8436195 1.7470218 1086 16
-8.9637928 1.8978649 1.7462866 1003 16
-8.9615831 1.9549255 1.7481245 1001 16
-8.965723 2.0135384 1.7512487 323 16
-8.9800158 2.0747099 1.7563945 628 16
-8.9919825 2.1356778 1.7611728 1068 16
-8.9834833 2.1919768 1.7620916 1121 16
-8.9679575 2.2465792 1.7617241 522 16
-8.986372 2.3098848 1.7679726 1229 16
-8.9900894 2.3697419 1.7714645 1200 16
-8.9924603 2.4294748 1.7747725 1162 16
-8.9963312 2.4898505 1.7784481 1187 16
-8.9969616 2.5495605 1.7815723 1143 16
-8.9981413 2.6096461 1.7848804 1078 16
-9.0045757 2.6715195 1.7892911 1001 16
-9.0058861 2.7321429 1.7927829 986 16
-9.0096073 2.7937562 1.7968261 956 16
-9.0063515 2.8534393 1.7995827 897 16
-9.0073776 2.914701 1.8032584 938 16
-9.0145235 2.9782412 1.8082204 1066 16
-9.0072565 3.0372665 1.8104258 1010 16
-8.9522009 3.0800035 1.8032584 688 16
-8.7902994 3.084744 1.7749562 585 16
-8.6610727 3.0992079 1.7530864 511 16
-8.5089188 3.1037815 1.7266222 562 16
-8.3459835 3.1024959 1.6979525 505 16
-8.2192402 3.1129091 1.6764503 546 16
-8.1073599 3.1275465 1.6578885 537 16
-7.9507833 3.1233165 1.6303216 594 16
-7.8511543 3.1399183 1.614149 542 16
-7.7161183 3.1409609 1.5908089 576 16
-7.6176944 3.1555154 1.57482 534 16
-7.5030808 3.1621094 1.5555232 584 16
-7.4085522 3.1759386 1.5402695 114 16
-6.3148861 2.7530282 1.3212039 28 16
-6.2861929 2.7865446 1.3188149 28 16
-6.0386658 2.7212601 1.2715834 91 16
-5.9566178 2.7283754 1.2581675 481 16
-5.9433293 2.7665327 1.2589027 429 16
-5.9075823 2.7941213 1.2550433 175 16
-5.877037 2.8239303 1.2522866 91 16
-5.8242655 2.8426898 1.2449354 26 16
-5.7811742 2.8657115 1.2396058 52 16
-5.7134366 2.8759356 1.2291303 58 16
-5.7158136 2.9212284 1.2333572 24 16
-5.6960363 2.9553394 1.2329897 23 16
-5.6812744 2.9920664 1.2337248 21 16
-5.6628084 3.0268698 1.2337248 37 16
-5.6562257 3.0681214 1.2362977 26 16
-5.1266508 2.8216715 1.1273162 103 16
-5.0543165 2.8223994 1.1155543 476 16
-5.0026941 2.8339767 1.1082032 415 16
-4.9315195 2.8337619 1.0966251 361 16
-4.8928084 2.8515925 1.0920305 320 16
-4.8439107 2.8630524 1.0852307 199 16
-4.8355265 2.8982797 1.0872523 125 16
-4.8235316 2.9314692 1.0885388 163 16
-4.8414369 2.9831862 1.0964413 267 16
-4.8197064 3.0107532 1.0957061 279 16
-4.7803817 3.0271213 1.0911117 231 16
-4.724494 3.0325 1.0828416 270 16
-4.6769609 3.0426686 1.0764093 299 16
-4.6434326 3.0615683 1.0731013 191 16
-4.6989317 3.1397028 1.0898252 102 16
-8.6782951 5.8763514 1.9927354 248 16
-8.638833 5.9272652 1.9920002 246 16
-8.6636391 6.0228047 2.0059674 109 16
-6.1835093 4.3550482 1.4472769 110 16
-8.5786762 6.1212449 2.0035784 168 16
-8.5608711 6.1881642 2.0081728 211 16
-8.5274982 6.2440605 2.0092754 188 16
-8.4763927 6.2868972 2.006335 124 16
-8.452589 6.3500071 2.0098269 214 16
-8.4314585 6.4154425 2.0140538 170 16
-8.4145145 6.4844575 2.0193834 89 16
-5.5788035 4.3538351 1.356306 134 16
-8.2980623 6.5585794 2.0107458 189 16
-8.2361765 6.5921726 2.0056 144 16
-7.8198738 6.3380542 1.9151802 103 16
-7.8355427 6.430819 1.9284124 164 16
-7.8223953 6.5007658 1.9348447 127 16
-4.9025955 4.1252103 1.2311518 433 16
-4.8465152 4.1290765 1.2236168 419 16
-4.7905736 4.1324105 1.216082 378 16
-4.7377357 4.1378007 1.209282 456 16
-4.6813312 4.1394434 1.2015634 468 16
-4.6272836 4.142518 1.1943959 507 16
-4.5821147 4.153008 1.1894338 435 16
-4.5543733 4.1790514 1.1888825 450 16
-4.547369 4.2243133 1.1936607 475 16
-4.6323452 4.3565221 1.2221466 207 16
-4.6966457 4.4716277 1.2456704 297 16
-4.6754894 4.5065012 1.2473245 311 16
-4.6547847 4.5419703 1.2491623 313 16
-4.6282268 4.5718274 1.2495298 243 16
-4.6098175 4.6098709 1.2521027 165 16
-4.6070027 4.6639462 1.2589027 290 16
-4.5638833 4.677351 1.2550433 362 16
-4.5330515 4.7031431 1.2544919 158 16
-4.2445302 4.4581895 1.1841042 23 16
-4.2137284 4.4805694 1.1831853 27 16
-4.1794672 4.4991379 1.1813475 25 16
-4.1464663 4.5189033 1.1798773 33 16
-4.1173406 4.5428038 1.1795098 26 16
-4.0874224 4.5657845 1.1789584 28 16
-4.0599813 4.5915146 1.1791422 16 16
-2.9041414 3.3250816 0.85863024 87 16
-2.8978083 3.3592143 0.8626734 94 16
-2.8918028 3.3941422 0.86690032 92 16
-2.8829458 3.4261134 0.87039214 91 16
-2.8712921 3.4550788 0.87314886 99 16
-2.8606381 3.4855499 0.8762731 114 16
-2.8664274 3.5366395 0.88435942 158 16
-2.8544996 3.5664406 0.8872999 146 16
-2.8514555 3.6077964 0.89299703 163 16
-2.8504293 3.6523483 0.89942932 182 16
-2.8519628 3.7009158 0.90678054 191 16
-2.8440793 3.7379034 0.91137505 196 16
-2.8346682 3.773361 0.91560197 245 16
-2.8231719 3.8064744 0.91927755 233 16
-2.8433111 3.8832111 0.93306106 154 16
-4.8311644 6.6842217 1.5751877 269 16
-4.489212 6.2920294 1.4783357 354 16
-4.4556136 6.3266897 1.4799898 446 16
-4.6119399 6.634799 1.5439451 314 16
-0 0 0 4 16
-0 0 0 2 16
-2.1158834 3.1663918 0.74523813 6 16
-2.1521409 3.2638447 0.76416743 117 16
-2.1127784 3.2473254 0.75755131 155 16
-2.0795405 3.2395465 0.75295687 96 16
-0 0 0 6 16
-0 0 0 36 16
-0 0 0 37 16
-0 0 0 54 16
-0 0 0 60 16
-0 0 0 77 16
-1.5341836 2.6319811 0.60280877 87 16
-1.5135981 2.6336744 0.60115474 65 16
-1.4935341 2.6360695 0.59968448 67 16
-0 0 0 25 16
-0 0 0 7 16
-0 0 0 13 16
-0 0 0 8 16
-0 0 0 4 16
-0 0 0 7 16
-0 0 0 7 16
-0 0 0 4 16
-0 0 0 15 16
-0 0 0 38 16
-0 0 0 49 16
-0 0 0 48 16
-0 0 0 71 16
-0 0 0 92 16
-0 0 0 88 16
-0 0 0 74 16
-0 0 0 72 16
-0 0 0 49 16
-0 0 0 41 16
-0 0 0 37 16
-0 0 0 52 16
-0 0 0 44 16
-1.0191473 2.5939507 0.55429089 127 16
-1.0003823 2.5928183 0.55282062 41 16
-0 0 0 37 16
-0 0 0 29 16
-0.96023309 2.6320329 0.55704761 27 16
-0.94936258 2.6526835 0.55998808 19 16
-0.93469518 2.6630967 0.56090695 19 16
-0.90970504 2.6436846 0.55594492 28 16
-0.8783946 2.6045063 0.54712349 43 16
-0 0 0 45 16
-0 0 0 42 16
-0 0 0 54 16
-0.79704058 2.5698841 0.53628045 64 16
-0.78781849 2.5963614 0.54050738 124 16
-0.76544416 2.5794713 0.53628045 55 16
-0.74960238 2.5841196 0.53628045 65 16
-0.731857 2.5820501 0.53499401 64 16
-0.71442741 2.5808079 0.53389132 54 16
-0.69704068 2.5794492 0.53278863 61 16
-0.67869574 2.5741723 0.53095084 58 16
-0.66166502 2.5735281 0.53003198 81 16
-0.64132488 2.5594225 0.52654016 59 16
-0.62234753 2.5499399 0.52396721 57 16
-0.60124028 2.5307572 0.51955652 36 16
-0.5861429 2.5363142 0.51992404 38 16
-0.57035398 2.538904 0.51974028 43 16
-0.5530895 2.5346725 0.51827008 52 16
-0.55319774 2.612067 0.53242111 19 16
-0.54269326 2.6423733 0.5375669 11 16
-0.52474439 2.6369767 0.53591293 17 16
-0.50948328 2.644973 0.5368318 17 16
-0.49198541 2.6412847 0.53554535 18 16
-0 0 0 3 16
-0.44273707 2.5502725 0.51716739 4 16
-0.42853892 2.5616667 0.51882142 6 16
-0.41218841 2.5603662 0.51808625 10 16
-0.39256713 2.5375898 0.51330799 4 16
-0.37410602 2.520504 0.50963241 9 16
-0.35766608 2.5159395 0.50834596 13 16
-0.34592411 2.5453596 0.51349175 90 16
-0.33029959 2.5474343 0.51349175 92 16
-0.31430182 2.5464864 0.51294047 108 16
-0.29855669 2.5473907 0.51275665 101 16
-0.28248742 2.5452666 0.51202154 112 16
-0.26625094 2.5410862 0.51091886 84 16
-0.25046155 2.5407157 0.51055127 80 16
-0.23414508 2.534374 0.50908107 93 16
-0.21825294 2.5318456 0.50834596 85 16
-0.19856589 2.4812052 0.49860561 12 16
-0.18290427 2.476495 0.49750292 13 16
-0.16876504 2.4932625 0.5004434 6 16
-0.15533006 2.5246658 0.50614059 8 16
-0.1397277 2.5236084 0.50577301 7 16
-0.12530018 2.5460176 0.50981617 9 16
-0.11115075 2.5811107 0.51624846 6 16
-0.096069694 2.6023726 0.52010787 4 16
-0.083349541 2.7090237 0.53995609 37 16
-0.066461064 2.6986747 0.53793448 12 16
-0.049792882 2.693135 0.5368318 36 16
-0.032691266 2.6462109 0.52801037 48 16
-0.016501542 2.6542253 0.52948064 44 16
-0.00021829894 2.607094 0.52065921 61 16
0.015687099 2.5923021 0.51790249 73 16
0.031495854 2.5842938 0.51643223 79 16
0 0 0 75 16
0.06289231 2.5709381 0.51404309 83 16
0.079058923 2.5832763 0.51643223 70 16
0.09784393 2.6623089 0.53131843 39 16
0.11451588 2.6695149 0.53278863 36 16
0.13074867 2.6658165 0.53223729 23 16
0.1463972 2.6522052 0.52984816 40 16
0.15597028 2.5423534 0.50944865 178 16
0 0 0 262 16
0 0 0 315 16
0 0 0 307 16
0 0 0 292 16
0.2331598 2.528542 0.50797838 300 16
0.24867025 2.5270638 0.50797838 284 16
0.26437616 2.5274458 0.50834596 260 16
0 0 0 261 16
0 0 0 290 16
0 0 0 262 16
0 0 0 291 16
0 0 0 302 16
0 0 0 316 16
0.3715021 2.5059843 0.50687569 304 16
0.38672128 2.5026863 0.50669193 299 16
0.40175775 2.4983253 0.50632435 265 16
0.41756615 2.4987216 0.50687569 254 16
0.43339449 2.499018 0.50742704 326 16
0.44854596 2.4953442 0.50724328 262 16
0.46438861 2.4954441 0.50779462 253 16
0.47987753 2.4935129 0.50797838 240 16
0.49555206 2.4924495 0.50834596 241 16
0.51103389 2.490325 0.50852972 228 16
0.52671188 2.4890656 0.5088973 201 16
0.54218411 2.4867473 0.50908107 203 16
0.55678606 2.4804964 0.50852972 204 16
0.57133168 2.4741602 0.50797838 171 16
0.58400303 2.4600883 0.50595683 149 16
0.57088792 2.3409107 0.48371944 44 16
0.73431683 2.9323435 0.59839803 17 16
0.77799428 3.0277436 0.61769491 18 16
0 0 0 7 16
0.80278289 2.9724197 0.60887349 9 16
0.80684566 2.9162815 0.59894937 8 16
0.69150865 2.4412546 0.5076108 7 16
0.89788735 3.0968595 0.63607287 104 16
0.91743171 3.0931766 0.63644046 151 16
0.9363938 3.0874891 0.63644046 148 16
0.95619416 3.084502 0.6369918 155 16
0.97628999 3.082325 0.6377269 160 16
0.99578977 3.0781469 0.63809448 166 16
1.0165086 3.077579 0.63919717 142 16
1.037886 3.0787351 0.64066738 140 16
1.0586762 3.0778859 0.64177006 150 16
1.0791695 3.0759695 0.64268899 172 16
0 0 0 161 16
0 0 0 144 16
0 0 0 121 16
0 0 0 127 16
0 0 0 156 16
1.2020801 3.0606956 0.6480186 164 16
1.2212026 3.0541749 0.64820236 118 16
1.2406609 3.048445 0.64856994 143 16
0 0 0 153 16
0 0 0 165 16
0 0 0 154 16
0 0 0 153 16
0 0 0 157 16
0 0 0 179 16
1.3917001 3.0388319 0.65812647 169 16
1.4115645 3.0329087 0.65867782 149 16
0 0 0 182 16
0 0 0 171 16
0 0 0 223 16
0 0 0 178 16
0 0 0 191 16
0 0 0 189 16
1.5608643 3.0087636 0.6669479 195 16
1.5838773 3.0078266 0.66878569 183 16
0 0 0 181 16
0 0 0 193 16
0 0 0 168 16
0 0 0 206 16
0 0 0 197 16
0 0 0 155 16
1.7467136 2.9973385 0.68183404 152 16
1.7660725 2.9882569 0.68220162 158 16
1.7858911 2.9798934 0.68275297 165 16
1.8097579 2.9781191 0.68477452 156 16
1.83728 2.9820213 0.68808258 144 16
1.8643969 2.9848638 0.69120681 133 16
1.887936 2.981672 0.69304466 141 16
1.9093819 2.9749949 0.69414729 140 16
1.932961 2.9714622 0.69598514 152 16
1.958192 2.9702139 0.69837427 162 16
1.9829339 2.9679499 0.70057958 137 16
2.0082726 2.9663076 0.70296872 127 16
2.0325534 2.9628448 0.70499033 144 16
2.0535004 2.9543531 0.70590919 146 16
2.0749857 2.9465191 0.70701188 153 16
2.0998778 2.9433334 0.70921725 152 16
2.1248088 2.9399529 0.71142262 143 16
2.1515193 2.9387558 0.71417934 149 16
2.1794658 2.9389205 0.71730357 167 16
2.2069046 2.9380662 0.72024405 141 16
2.2391768 2.9432435 0.72465473 160 16
2.2673945 2.9426844 0.72777903 128 16
2.2938752 2.9395649 0.73035192 134 16
2.3191833 2.9346883 0.7325573 111 16
2.3488176 2.9349835 0.73604912 150 16
2.3754478 2.9312069 0.73862201 137 16
2.4021194 2.9272134 0.74119496 162 16
2.4256899 2.9192228 0.74284893 262 16
2.4473536 2.9087968 0.74395162 100 16
2.4842813 2.9161711 0.74946505 149 16
2.5162539 2.9172468 0.75350821 158 16
2.5366929 2.9047139 0.75424331 112 16
2.5590265 2.8942487 0.75552976 124 16
2.5905066 2.8938711 0.75938916 135 16
2.6339607 2.9063249 0.76655656 142 16
2.667695 2.9074898 0.77096725 121 16
2.6981969 2.9047489 0.77445906 115 16
2.7301121 2.9031746 0.77831846 109 16
2.7546525 2.893487 0.78015625 124 16
2.7771301 2.881484 0.7814427 109 16
2.8091755 2.879163 0.7853021 150 16
2.8412962 2.8765569 0.78916144 167 16
2.8714049 2.8715792 0.7924695 155 16
2.9001603 2.8649583 0.79540998 183 16
2.9247205 2.8539736 0.79724777 159 16
2.9704885 2.8632584 0.80459899 230 16
2.9944088 2.8510776 0.80625302 181 16
2.9753253 2.7983088 0.79688025 109 16
2.9837966 2.7719724 0.79467487 99 16
2.9906087 2.7443085 0.79210192 104 16
3.0161316 2.7338278 0.79430729 109 16
3.0496948 2.7303481 0.79853421 85 16
3.1083663 2.7486961 0.80900967 75 16
3.1518281 2.7528477 0.81562573 69 16
3.1969452 2.7578526 0.82260936 105 16
3.3170693 2.8261485 0.84797102 175 16
3.3508956 2.819664 0.85201418 194 16
3.3862789 2.8141267 0.85642487 161 16
3.41868 2.8057668 0.86010045 181 16
3.4503417 2.7964957 0.86359227 127 16
3.4981349 2.7998388 0.87094349 135 16
3.529902 2.7899015 0.87443531 141 16
3.5686529 2.7851214 0.87958115 135 16
3.6043625 2.7775707 0.88399184 155 16
3.6401134 2.769686 0.88840258 168 16
3.6979091 2.7779961 0.89795911 190 16
3.7440989 2.7769172 0.90475893 157 16
3.7848613 2.771311 0.91027236 171 16
3.8328655 2.7704904 0.91743976 188 16
3.8697979 2.7611918 0.92203426 192 16
3.917208 2.7589014 0.9290179 243 16
3.9502056 2.7460339 0.93269348 224 16
3.9904876 2.7378695 0.93802309 250 16
4.0536084 2.7447431 0.94849855 254 16
4.1014323 2.7405691 0.95548218 256 16
4.1427913 2.7315824 0.96099555 270 16
4.1874895 2.7243347 0.96724409 296 16
4.2388716 2.7208879 0.97496283 295 16
4.287046 2.7148092 0.98194647 351 16
4.3236318 2.7009506 0.98635721 323 16
4.3886628 2.7042751 0.99701643 175 16
4.4303741 2.6926095 1.0025299 215 16
4.4746366 2.6820493 1.0085945 238 16
4.5324745 2.6790483 1.0175997 259 16
4.5963879 2.6789019 1.0278914 394 16
4.6195574 2.654566 1.0293616 389 16
4.6366138 2.6266553 1.0295454 425 16
4.642344 2.5924058 1.0273401 410 16
4.645246 2.5567634 1.0245833 385 16
4.6427007 2.5183716 1.0207241 389 16
4.6433282 2.4819608 1.0175997 364 16
4.6462932 2.4470115 1.0150268 342 16
4.6507497 2.4130247 1.0128214 347 16
4.650588 2.3768392 1.0096972 372 16
4.6501575 2.3407466 1.006573 360 16
4.6512218 2.3056221 1.0038162 229 16
4.7386031 2.3128197 1.01907 364 16
4.7509327 2.2828493 1.0187024 435 16
4.7612963 2.2519743 1.0179673 443 16
4.7527452 2.2123482 1.0133728 300 16
4.7644429 2.1823258 1.0130053 438 16
4.7723665 2.1506279 1.0119026 455 16
4.7755871 2.1169238 1.009881 417 16
4.7479377 2.0699072 1.0016109 213 16
4.7786183 2.04848 1.0052865 474 16
4.7838511 2.016067 1.0038162 459 16
4.7825089 1.9810343 1.0010595 457 16
4.7763648 1.9442415 0.99738395 490 16
4.7699504 1.9075991 0.99370837 539 16
4.7568622 1.8685935 0.98874635 503 16
4.7709894 1.8404318 0.98929769 631 16
4.7812729 1.8107749 0.98911387 650 16
4.7729445 1.7742126 0.98525453 438 16
4.7754297 1.7418621 0.9836005 620 16
4.7795486 1.7102101 0.98231405 648 16
4.7890248 1.6805258 0.98213023 450 16
4.7843742 1.6459939 0.97918975 640 16
4.7897263 1.6150366 0.97827089 710 16
4.7911453 1.5828425 0.97661686 759 16
4.787674 1.5491791 0.97404397 279 16
4.7483606 1.5043397 0.96448737 29 16
4.7762794 1.4809968 0.96816301 74 16
4.8059716 1.4579384 0.97220612 234 16
4.9118934 1.4572108 0.99113548 193 16
4.9915485 1.4475731 1.0049189 163 16
13.174467 3.7325163 2.5933278 306 16
13.177227 3.6461048 2.5894682 270 16
13.155699 3.5533929 2.5810144 295 16
13.11547 3.4563241 2.5690687 338 16
13.095493 3.3652651 2.5611663 328 16
13.067266 3.2726717 2.5517936 263 16
13.064181 3.1868405 2.5473828 319 16
13.057667 3.1004896 2.5424206 294 16
13.046755 3.0134542 2.5367236 326 16
13.015126 2.9221482 2.5271671 374 16
13.008801 2.8369985 2.5225725 388 16
12.999999 2.7516294 2.5176103 398 16
12.99064 2.6664755 2.5126483 384 16
12.989403 2.5832655 2.5093403 362 16
12.986669 2.4999855 2.5058484 310 16
12.972773 2.4148581 2.5003352 350 16
12.962192 2.3306911 2.4955568 331 16
12.944288 2.245569 2.4894922 302 16
12.931645 2.161727 2.48453 247 16
12.921374 2.078593 2.4801192 221 16
12.905714 1.9949161 2.4747896 268 16
12.897292 1.9126631 2.4709303 291 16
12.884456 1.8300358 2.4663358 307 16
12.872065 1.7477704 2.461925 327 16
12.864025 1.6663574 2.4584334 327 16
12.848642 1.584267 2.453655 307 16
12.83469 1.5026568 2.4492443 329 16
12.82999 1.4223604 2.4466715 338 16
12.822834 1.3419738 2.4437308 301 16
12.798545 1.2600917 2.4376662 264 16
12.780587 1.1791903 2.432888 238 16
12.775829 1.0997367 2.4306827 197 16
12.780377 1.0211685 2.430315 183 16
12.781501 0.94236904 2.4293962 151 16
12.772331 0.86293203 2.4266393 169 16
12.765613 0.78382367 2.4244342 147 16
12.805514 0.7074315 2.4310501 356 16
12.814524 0.62908584 2.4319689 328 16
12.827963 0.55086696 2.4338069 186 16
12.815385 0.47156784 2.4308662 194 16
12.811159 0.39271465 2.42958 196 16
12.82512 0.31438816 2.4317853 208 16
12.83467 0.23583302 2.4332554 208 16
12.829978 0.15700454 2.4321527 198 16
12.821853 0.078224614 2.4304988 215 16
12.832905 -0.00045097878 2.4325204 228 16
12.841507 -0.07924705 2.4341743 233 16
12.848641 -0.15813658 2.4356446 250 16
12.848413 -0.23698954 2.4358284 260 16
12.841803 -0.31570053 2.4349096 210 16
12.842571 -0.39458105 2.4354608 258 16
12.848749 -0.47370037 2.437115 205 16
12.845601 -0.55252987 2.437115 215 16
12.85375 -0.63191819 2.4393203 229 16
12.865335 -0.71164453 2.4422607 253 16
12.870537 -0.79117471 2.4440985 227 16
12.869363 -0.87039739 2.4448335 227 16
12.870642 -0.94985259 2.44612 212 16
12.878289 -1.029905 2.448693 242 16
12.886417 -1.1101712 2.4514496 228 16
12.889151 -1.1901239 2.4532876 237 16
12.893345 -1.2703449 2.4554927 231 16
12.890196 -1.3499451 2.4564118 223 16
12.893394 -1.4303133 2.4586172 201 16
12.894137 -1.5105428 2.4604549 219 16
12.895357 -1.5909556 2.4624765 230 16
12.898026 -1.6716928 2.4648657 229 16
12.904083 -1.7530522 2.4679899 226 16
12.898923 -1.8330271 2.4690926 213 16
12.90299 -1.9144477 2.472033 190 16
12.892943 -1.9938834 2.4724007 210 16
12.900846 -2.076236 2.4762599 230 16
12.912101 -2.1594093 2.4808545 180 16
12.91023 -2.240613 2.4830599 228 16
12.91462 -2.3230937 2.4865515 220 16
12.901089 -2.4024725 2.4867353 184 16
12.049253 -2.3204014 2.3273983 223 16
12.009724 -2.3893032 2.3226202 187 16
11.993874 -2.4627507 2.3224363 105 16
0.89851177 -0.18988028 0.20492551 88 16
0.89252794 -0.19434217 0.2040066 119 16
0.89323676 -0.20024581 0.20437416 139 16
0.8900758 -0.20528021 0.2040066 152 16
0.88975585 -0.21096495 0.20419039 146 16
0.88939959 -0.21665345 0.20437416 151 16
0.88709998 -0.22186773 0.20419039 158 16
0.89143401 -0.22877519 0.20529306 125 16
0.89476591 -0.23549356 0.20621197 115 16
0.89709985 -0.24200496 0.20694709 56 16
0.90412414 -0.249865 0.2086011 19 16
0.902574 -0.2554079 0.2086011 8 16
12.948063 -3.7553825 2.5538151 20 16
5.1569362 -1.5298105 1.0389183 122 16
5.0900745 -1.5440146 1.0277077 208 16
4.9631481 -1.5388216 1.0047351 145 16
4.919879 -1.5585567 0.99811912 112 16
4.9336033 -1.5962819 1.0027136 35 16
4.9134493 -1.6231314 1.000692 84 16
4.928546 -1.6617305 1.0056541 495 16
4.8522635 -1.6692322 0.99260569 285 16
4.7668028 -1.672606 0.97771955 321 16
4.689815 -1.6779758 0.96448737 290 16
4.6166372 -1.6838121 0.95199037 294 16
4.5168476 -1.6788808 0.93416375 383 16
4.4945111 -1.7020376 0.93177456 395 16
0.98074353 -0.37797138 0.22973578 117 16
0.97566116 -0.38290367 0.22918443 123 16
0.9696427 -0.38742277 0.22844931 131 16
0.96178478 -0.39114124 0.22734664 147 16
0.94029617 -0.38913456 0.22348726 212 16
0.94332558 -0.3971875 0.22458994 165 16
0.92731923 -0.39715806 0.22183324 212 16
0.92035961 -0.40087613 0.22091435 212 16
0.9142881 -0.40492222 0.22017923 174 16
0.90820175 -0.40890893 0.21944411 165 16
0.90031374 -0.41201749 0.21834143 172 16
0.89331305 -0.4154596 0.21742253 196 16
0.8916356 -0.42135337 0.21760631 159 16
0.89169133 -0.42809373 0.21815765 144 16
0.90141457 -0.43959385 0.22073057 119 16
0.90134233 -0.44642639 0.2212819 104 16
0.90912193 -0.45725265 0.22348726 81 16
0.90542388 -0.46237493 0.22330348 86 16
0.90082479 -0.46701628 0.22293593 48 16
4.5506687 -2.3965409 0.99481106 15 16
4.5393457 -2.4262717 0.99554616 15 16
4.5321488 -2.4582975 0.99720019 10 16
4.5281744 -2.4922223 0.99958932 24 16
4.5265279 -2.5276287 1.0025299 19 16
4.5229068 -2.5621393 1.0051028 22 16
4.5215888 -2.5981696 1.008227 21 16
4.5199986 -2.63428 1.0113512 32 16
4.5172887 -2.6699679 1.0142918 31 16
4.5159965 -2.7067325 1.0175997 32 16
4.5135827 -2.7430708 1.0207241 33 16
4.5134029 -2.781028 1.0243996 19 16
4.5137606 -2.819607 1.0282589 40 16
4.5154748 -2.8593464 1.032486 21 16
4.519352 -2.9008057 1.0372642 22 16
4.5187697 -2.9397392 1.0411235 21 16
4.5203414 -2.9803979 1.0455343 27 16
4.5191317 -3.0195475 1.0493937 27 16
4.5159831 -3.0576916 1.0528854 26 16
4.5165887 -3.0986912 1.0572962 20 16
4.5160537 -3.1392517 1.0615231 25 16
4.5248332 -3.1867144 1.0679554 18 16
4.5299988 -3.2321184 1.0736526 11 16
4.5323868 -3.2759776 1.0787984 24 16
4.5264759 -3.3141797 1.0821065 14 16
4.5321083 -3.3612161 1.0881712 18 16
4.5334034 -3.4054935 1.093317 25 16
4.5366721 -3.4516985 1.0990142 30 16
4.5340934 -3.493871 1.1034249 23 16
4.5404654 -3.5433989 1.110041 18 16
4.544086 -3.5913069 1.1161057 19 16
4.5495911 -3.6412349 1.1227218 25 16
4.5500717 -3.6876512 1.1282352 30 16
4.5379963 -3.7242312 1.1308081 17 16
4.5498338 -3.7809072 1.139262 22 16
4.5438471 -3.8233101 1.1434889 24 16
4.5419998 -3.8696067 1.1488185 30 16
0 -0 0 0 16
0 -0 0 0 16
0 -0 0 0 16
0 -0 0 0 16
0 -0 0 0 16
0 -0 0 0 16
0 -0 0 0 16
0 -0 0 0 16
0 -0 0 0 16
0 -0 0 0 16
0 -0 0 0 16
0 -0 0 0 16
0 -0 0 0 16
0 -0 0 0 16
0 -0 0 0 16
0 -0 0 0 16
4.56985 -4.7999282 1.2723186 28 16
4.5699401 -4.8593864 1.2804048 40 16
4.5808444 -4.9312692 1.2916154 37 16
4.5757523 -4.9868073 1.298599 28 16
4.5879726 -5.0621343 1.3105447 54 16
4.5935388 -5.1312051 1.3208364 30 16
4.594522 -5.196115 1.3300254 54 16
4.5903544 -5.2560458 1.3379279 42 16
4.5907593 -5.3220749 1.3473006 35 16
4.5937128 -5.3920469 1.3575923 32 16
4.600409 -5.4675188 1.3691705 29 16
4.6088629 -5.5462985 1.3814838 26 16
4.6071687 -5.6139874 1.3910403 44 16
4.6079106 -5.6856813 1.4015157 44 16
4.6153145 -5.7668042 1.4141965 33 16
4.6164098 -5.8412886 1.4252234 30 16
4.630672 -5.933826 1.440477 23 16
4.6349711 -6.0150762 1.4529741 32 16
4.6247573 -6.0786071 1.4612442 21 16
4.638732 -6.1752477 1.4772331 39 16
4.6405683 -6.2572846 1.48973 56 16
4.6508608 -6.3522649 1.5051675 53 16
4.6434641 -6.4245005 1.5152755 45 16
4.6245079 -6.481679 1.5218915 33 16
4.6101174 -6.5460987 1.5301616 46 16
4.5687428 -6.572648 1.529794 37 16
4.5144267 -6.5802932 1.5251995 221 16
4.4607401 -6.5883341 1.5207888 199 16
4.4054875 -6.5935121 1.5158268 164 16
4.3303218 -6.5678964 1.5040649 40 16
4.2840447 -6.585279 1.5020432 17 16
4.2217898 -6.5775242 1.4945083 15 16
4.2228923 -6.6689138 1.5090269 14 16
0 -0 0 4 16
4.1324868 -6.7068429 1.5060865 33 16
4.3250451 -7.1168098 1.5902575 191 16
4.3712373 -7.2932949 1.6229703 31 16
4.2388854 -7.1718874 1.5908089 132 16
4.2492394 -7.2911835 1.6110247 43 16
4.1902208 -7.2924023 1.6056951 57 16
3.6086292 -6.3703046 1.4020671 44 16
3.5483894 -6.3545637 1.3939807 190 16
3.5045927 -6.3676047 1.392143 444 16
3.4593637 -6.3777556 1.3897538 500 16
3.3960733 -6.3537812 1.3801973 637 16
3.3538175 -6.3684115 1.3789108 681 16
3.3069835 -6.3740368 1.3757865 758 16
3.2570763 -6.3732004 1.3713758 652 16
3.2099557 -6.3772612 1.3680679 661 16
3.1624715 -6.3801031 1.364576 620 16
3.1831858 -6.5221796 1.3901213 395 16
3.4632022 -7.2078786 1.5283238 182 16
3.4348783 -7.2627602 1.5353074 319 16
3.3881764 -7.2792439 1.5343885 434 16
3.3434482 -7.2998962 1.5343885 509 16
3.2913256 -7.304142 1.5310805 414 16
3.2591913 -7.3529572 1.5369614 299 16
3.2513251 -7.4584203 1.5544205 321 16
4.5549693 -10.626873 2.1948931 128 16
4.4904418 -10.656433 2.1952608 154 16
4.4212093 -10.674704 2.1934228 164 16
4.348958 -10.685243 2.1901147 186 16
4.2778387 -10.698035 2.1873581 205 16
4.2121162 -10.724082 2.1873581 212 16
4.1437593 -10.743305 2.1860716 238 16
4.0676675 -10.74187 2.180742 151 16
4.0047617 -10.774919 2.1823962 204 16
3.9301538 -10.776202 2.1778016 131 16
3.8576674 -10.782529 2.1743097 215 16
3.7904584 -10.803213 2.1737585 237 16
3.720583 -10.816043 2.171737 203 16
3.6535189 -10.836805 2.1713693 232 16
3.5820243 -10.844086 2.1684289 215 16
3.513906 -10.861184 2.16751 188 16
3.2477469 -10.252817 2.0440099 106 16
3.1923428 -10.296963 2.0487881 125 16
3.1276753 -10.311654 2.0478692 164 16
3.0562398 -10.303321 2.0425396 157 16
2.9926887 -10.320936 2.0423558 157 16
2.9311795 -10.345725 2.0436423 137 16
2.8644989 -10.352147 2.0414369 140 16
2.7963123 -10.352447 2.0381289 140 16
2.7284803 -10.353251 2.0350046 141 16
2.6683273 -10.383126 2.0375776 159 16
2.602896 -10.392629 2.0362911 146 16
2.5316255 -10.377845 2.0304103 124 16
2.4672194 -10.390314 2.0298588 133 16
2.4043038 -10.409088 2.0305939 142 16
2.3412509 -10.427481 2.0313292 122 16
2.2770157 -10.44069 2.0311453 146 16
2.2106712 -10.443887 2.0291238 136 16
2.1441755 -10.4457 2.0269184 136 16
2.0775495 -10.446126 2.0245292 123 16
2.0083981 -10.432615 2.0195673 129 16
1.9391309 -10.416718 2.0142376 129 16
1.8753526 -10.429387 2.0144215 141 16
1.807628 -10.419391 2.0103781 99 16
1.7410692 -10.414774 2.0074377 73 16
1.2956514 -8.0533695 1.5582799 22 16
1.2465127 -8.0631113 1.5586475 15 16
1.1948524 -8.0560226 1.5558908 21 16
1.1463665 -8.070015 1.5571772 16 16
1.097225 -8.0798187 1.5577285 6 16
1.4386102 -11.105437 2.1268945 223 16
1.3122346 -10.641873 2.0379453 287 16
1.210688 -10.340237 1.979687 163 16
1.2288625 -11.084118 2.118257 207 16
0.65462404 -6.2531524 1.2087307 181 16
0.61653191 -6.2599859 1.209282 311 16
0.57765836 -6.2587571 1.2083632 314 16
0.53983438 -6.2690392 1.2096497 379 16
0.50143641 -6.2732134 1.2098334 161 16
0.8167308 -11.076744 2.109803 146 16
0.74656415 -11.049183 2.1037383 104 16
0.64515525 -10.506089 2.0011892 97 16
0.57921582 -10.483351 1.9962271 169 16
0.51483214 -10.485725 1.9960433 193 16
0.45052537 -10.489669 1.9962271 219 16
0.38600904 -10.488307 1.995492 174 16
0.32128567 -10.478688 1.9932867 164 16
0.25667083 -10.467688 1.9908975 189 16
0.19261776 -10.478893 1.9927354 184 16
0.12819688 -10.470049 1.9908975 167 16
0.063945487 -10.469655 1.9907137 180 16
-0.00029612426 -10.466902 1.9901624 170 16
-0.064495437 -10.462771 1.9894273 180 16
-0.12853493 -10.449401 1.9870381 181 16
-0.19237646 -10.433674 1.9842814 181 16
-0.25661036 -10.44114 1.9859354 167 16
-0.32042941 -10.43151 1.9844652 190 16
-0.38352382 -10.40479 1.9798708 181 16
-0.44697875 -10.393402 1.9782168 168 16
-0.51050156 -10.385554 1.9772978 166 16
-0.57345605 -10.368486 1.9747249 161 16
-0.63603932 -10.348094 1.9716007 148 16
-0.69919026 -10.339092 1.9706818 152 16
-0.76326793 -10.343431 1.9723358 149 16
-0.82836586 -10.359129 1.9761951 173 16
-0.89157504 -10.349934 1.9754601 159 16
-0.95361775 -10.328608 1.9725195 103 16
-1.0184212 -10.337235 1.9752762 100 16
-1.078348 -10.297553 1.9690278 170 16
-1.2130622 -10.935543 2.0903225 265 16
-1.2801385 -10.927895 2.0903225 287 16
-1.3475279 -10.92276 2.0908737 308 16
-1.4141442 -10.911362 2.0903225 272 16
-1.4767008 -10.870337 2.0842576 262 16
-1.5417123 -10.849393 2.0820522 295 16
-1.6076766 -10.83584 2.0813172 299 16
-1.6624137 -10.750001 2.0669823 156 16
-1.7324048 -10.764831 2.0717607 253 16
-1.8006943 -10.767571 2.0743337 299 16
-1.8672333 -10.759225 2.0748849 280 16
-1.9295604 -10.727249 2.0710256 234 16
-1.9935454 -10.705544 2.0691876 207 16
-2.0603113 -10.698902 2.0702903 270 16
-2.1170955 -10.641711 2.0618365 199 16
-1.6723746 -8.1452732 1.5878685 24 16
-1.7219143 -8.1329355 1.5875009 38 16
-1.7669652 -8.1001282 1.583274 94 16
-1.8200802 -8.1044788 1.5862144 64 16
-2.4429743 -10.573678 2.0622041 126 16
-2.5150771 -10.589092 2.068085 285 16
-2.5732448 -10.545768 2.0627553 216 16
-2.6393375 -10.535501 2.063858 256 16
-2.7049115 -10.522916 2.0645933 251 16
-2.7674232 -10.498517 2.063123 298 16
-2.8284554 -10.469003 2.0607338 248 16
-2.8947365 -10.459029 2.0622041 279 16
-2.956445 -10.432559 2.06055 252 16
-3.0182116 -10.40667 2.0590799 256 16
-3.0834072 -10.392666 2.0599988 349 16
-3.1476882 -10.375432 2.0603664 363 16
-3.2115824 -10.356862 2.06055 254 16
-3.273289 -10.331339 2.0594473 125 16
-3.3338952 -10.302643 2.0577934 134 16
-2.3167231 -7.0125198 1.4140128 196 16
-2.3157306 -6.8677731 1.3882836 247 16
-2.3072937 -6.7065768 1.3592464 54 16
-2.249115 -6.4094057 1.3031936 30 16
-2.3483496 -6.5629978 1.3364577 65 16
-2.3575819 -6.4635086 1.3195499 117 16
-2.3399918 -6.2950554 1.2888588 34 16
-2.3810108 -6.2870135 1.2901452 101 16
-2.7829208 -7.2141252 1.4788871 446 16
-0 -0 0 805 16
-0 -0 0 1179 16
-2.8529692 -7.0087299 1.448012 1247 16
-2.9000587 -7.0010815 1.4500335 1263 16
-2.9494524 -6.9985538 1.4531579 1280 16
-2.9985368 -6.9947796 1.4560983 1439 16
-3.0468998 -6.9888639 1.4586712 1355 16
-3.0833509 -6.9556589 1.4557308 1015 16
-3.0455949 -6.758275 1.4191586 510 16
-3.067764 -6.6974583 1.4105209 491 16
-3.0893023 -6.6366258 1.4018832 415 16
-3.1068475 -6.5686746 1.3917754 282 16
-3.4791982 -7.2405429 1.5351237 296 16
-3.5985892 -7.3727598 1.5671014 657 16
-3.6485627 -7.3602281 1.5691229 514 16
-3.6896772 -7.3298006 1.5674689 465 16
-3.7198188 -7.2781396 1.5614041 544 16
-3.7336195 -7.1958489 1.5489072 597 16
-3.7291439 -7.0806165 1.5294265 499 16
-3.7289577 -6.9761157 1.5121511 630 16
-3.7374744 -6.8900313 1.4987352 517 16
