# .PCD v0.7 - Point Cloud Data file format
VERSION 0.7
FIELDS x y z intensity ring
SIZE 4 4 4 4 1
TYPE F F F F U
COUNT 1 1 1 1 1
WIDTH 263
HEIGHT 1
VIEWPOINT 0 0 0 1 0 0 0
POINTS 263
DATA ascii
5.6243324 0.20709561 -1.3465081 5 51
5.5801468 0.068412021 -1.3347868 18 51
5.5416236 0.03392566 -1.3252183 60 51
5.5180154 0.068707854 -1.3889494 14 52
5.4863877 0.034649152 -1.3806757 6 52
5.6749043 0.070581399 -1.4993727 8 53
5.1194134 -0.12672624 -0.84197432 17 45
5.1106591 -0.15789431 -0.84061813 22 45
5.1145182 -0.18943103 -0.84146577 31 45
5.1299982 -0.22152857 -0.84434766 143 45
5.1118083 -0.25217977 -0.84146577 15 45
5.1141009 -0.28375798 -0.84214383 29 45
5.1142311 -0.31525299 -0.84248286 27 45
5.1122003 -0.34662738 -0.84248286 321 45
5.1060457 -0.37769884 -0.8418048 328 45
5.0957732 -0.40839377 -0.84044862 331 45
5.0902257 -0.43939954 -0.83994007 207 45
5.1527767 -0.12644197 -0.91155213 83 46
5.1578016 -0.15823781 -0.91264039 327 46
5.1459236 -0.18948364 -0.91064525 397 46
5.1368036 -0.22071655 -0.90919423 389 46
5.1353531 -0.25223124 -0.90919423 337 46
5.1307626 -0.28357339 -0.9086501 271 46
5.1151843 -0.31420466 -0.90611082 396 46
5.0886312 -0.34392518 -0.90157634 272 46
5.1332583 -0.12706582 -0.97092491 23 47
5.1314015 -0.15853043 -0.97073191 18 47
5.1185656 -0.18958001 -0.96841544 193 47
5.0918188 -0.21988854 -0.96339655 316 47
5.0982137 -0.2515122 -0.96494079 315 47
5.1065001 -0.12619194 -1.0276481 358 48
5.0987811 -0.15731065 -1.0262166 396 48
5.0947852 -0.18848442 -1.0256032 89 48
5.2255673 -0.12842003 -0.4729639 528 39
5.2306495 -0.16066308 -0.47354731 472 39
5.2275763 -0.19268185 -0.47335285 405 39
5.2348018 -0.12846094 -0.53925472 447 40
5.2219925 -0.160212 -0.53794003 266 40
5.2119718 -0.19192067 -0.53695399 25 40
5.1938138 -0.22317044 -0.5350914 160 40
5.1863899 -0.25474188 -0.53443408 134 40
5.2154341 -0.12817326 -0.60153121 432 41
5.1788335 -0.15908308 -0.59715015 130 41
5.197598 -0.19158359 -0.5995841 27 41
5.1913662 -0.22325972 -0.5989756 55 41
5.2008038 -0.25564274 -0.60031426 358 41
5.1882358 -0.28694895 -0.5989756 277 41
5.213367 -0.12793334 -0.66492271 394 42
5.207531 -0.15976723 -0.66425455 66 42
5.2054625 -0.19168049 -0.66412085 78 42
5.1952772 -0.22323343 -0.66291809 316 42
5.1819315 -0.25452256 -0.66131443 365 42
5.1792827 -0.28625873 -0.66118079 312 42
5.1616025 -0.31705946 -0.65904254 232 42
5.149672 -0.34805545 -0.65770614 85 42
5.1637125 -0.12601471 -0.72331178 259 43
5.1915188 -0.1585657 -0.72754318 12 43
5.1756182 -0.18987657 -0.72535449 20 43
5.1555762 -0.22082986 -0.72258222 225 43
5.1600528 -0.25274879 -0.72345769 73 43
5.1574173 -0.28435129 -0.72331178 21 43
5.1516256 -0.31575003 -0.72272813 20 43
5.1446557 -0.34702209 -0.72199857 48 43
5.1256566 -0.37735158 -0.71951807 263 43
5.1680374 -0.1268176 -0.78747869 250 44
5.1572919 -0.15822214 -0.78590053 39 44
5.1680655 -0.19030064 -0.78779429 368 44
5.1589084 -0.221668 -0.78653181 390 44
5.1564651 -0.25326976 -0.78637397 351 44
5.1439681 -0.28430423 -0.78463805 270 44
5.1440983 -0.31598291 -0.78495365 325 44
5.1371365 -0.34720725 -0.78416461 368 44
5.1319547 -0.37850344 -0.78369117 371 44
5.12363 -0.40951291 -0.78274429 327 44
5.135778 -0.44221503 -0.78511149 61 44
5.2300324 0.25588489 -0.86180836 272 45
5.2246118 0.22349282 -0.86062169 432 45
5.2091422 0.19081396 -0.85773981 412 45
5.2062745 0.15872668 -0.85706174 414 45
5.2012391 0.12663333 -0.85604459 316 45
5.1910791 0.09451697 -0.85417986 379 45
5.1836777 0.062566407 -0.85282367 436 45
5.181993 0.030746641 -0.85248464 429 45
5.1525183 -0.0010506948 -0.847399 96 45
5.150444 -0.032653883 -0.84705997 72 45
5.1649284 -0.064436883 -0.84960282 431 45
5.143743 -0.095746584 -0.84604287 334 45
5.2291551 0.22478449 -0.92624372 68 46
5.1980052 0.19150239 -0.92025822 176 46
5.1980996 0.15957433 -0.92007685 10 46
5.1950483 0.12758011 -0.91935134 22 46
5.1918006 0.095629342 -0.91862583 30 46
5.182456 0.063651219 -0.91681206 385 46
5.1817656 0.031845096 -0.91663069 50 46
5.1818633 4.9780676e-05 -0.91663069 19 46
5.1699653 -0.031672355 -0.91445416 168 46
5.1686907 -0.06338194 -0.91427279 436 46
5.1662378 -0.095058903 -0.91391003 360 46
5.1697145 0.15760387 -0.97826028 285 47
5.1470428 0.1253017 -0.97362745 217 47
5.1663542 0.094061241 -0.9772951 365 47
5.1668339 0.062359322 -0.9772951 436 47
5.1514206 0.030558379 -0.97420651 130 47
5.1544547 -0.0010506526 -0.97478563 23 47
5.1111794 -0.032413814 -0.96629208 179 47
5.1412992 -0.064147413 -0.97227615 385 47
5.1359034 -0.095602423 -0.97131097 23 47
5.1495986 0.1255708 -1.036646 244 48
5.1561446 0.094077796 -1.0378729 375 48
5.1478152 0.062332522 -1.0360324 242 48
5.0786028 0.030335182 -1.0215132 23 48
5.1335096 -0.00084026321 -1.0329651 107 48
5.1304712 -0.032320149 -1.0323515 363 48
5.1223459 -0.06370154 -1.0307156 391 48
5.112072 -0.094947942 -1.0286707 399 48
5.1659837 0.096752003 -1.1057974 83 49
5.1235266 0.064501725 -1.096274 169 49
5.1335888 0.03312837 -1.0984385 18 49
5.119051 0.0016206505 -1.0951918 27 49
5.1257987 -0.029827492 -1.096707 358 49
5.121614 -0.061232448 -1.0958412 393 49
5.0850248 -0.09201172 -1.0878329 241 49
5.259707 0.065509595 -1.1919316 21 50
5.1003332 0.032238211 -1.1545378 328 50
5.0936193 0.00094180269 -1.1529417 270 50
5.3251972 0.2607213 -0.4186081 627 38
5.3276925 0.22808415 -0.41869333 534 38
5.3060908 0.19455175 -0.41673273 62 38
5.3121638 0.16214216 -0.41715896 26 38
5.301106 0.12925373 -0.41613603 384 38
5.2928338 0.09656141 -0.41536885 402 38
5.2973118 0.064131327 -0.41570982 31 38
5.2906308 0.031585302 -0.41511312 23 38
5.2847471 -0.00087655761 -0.41460165 46 38
5.2647152 -0.033176087 -0.41289681 185 38
5.2783608 -0.065653674 -0.41409022 38 38
5.2748699 -0.097984113 -0.41383448 33 38
5.3103204 0.26075724 -0.48171511 559 39
5.3148031 0.22829761 -0.48200682 421 39
5.2972069 0.19498254 -0.48015934 34 39
5.2883558 0.16216858 -0.47918698 305 39
5.2842765 0.12959369 -0.47870082 405 39
5.2889524 0.097241595 -0.47908974 438 39
5.2924352 0.064824589 -0.47938144 275 39
5.2688475 0.032198343 -0.4770478 452 39
5.2669554 -0.00013169232 -0.47685334 428 39
5.268846 -0.032460943 -0.4770478 416 39
5.2595906 -0.064681202 -0.47617269 218 39
5.2630754 -0.097024724 -0.47656164 226 39
5.2916207 0.26000288 -0.54604751 512 40
5.2643175 0.22629339 -0.54287022 196 40
5.2874594 0.19479133 -0.54528058 21 40
5.2726588 0.16185762 -0.5435276 129 40
5.2576542 0.12911288 -0.54177463 478 40
5.2702727 0.097068869 -0.54308939 28 40
5.2658 0.064668596 -0.54254156 24 40
5.2561579 0.032296699 -0.54144597 31 40
5.2602329 4.4651399e-05 -0.54188418 252 40
5.2472129 -0.032151401 -0.54045993 26 40
5.2389655 -0.064248987 -0.53958344 28 40
5.2315159 -0.096264936 -0.53881651 37 40
5.2880578 0.25965917 -0.61102355 414 41
5.2717018 0.22643673 -0.60883301 78 41
5.2997732 0.19507757 -0.61211878 147 41
5.2720995 0.1616665 -0.60858959 400 41
5.2650542 0.12911803 -0.60761601 349 41
5.2697167 0.096883692 -0.6081028 356 41
5.2672348 0.064510368 -0.60773772 333 41
5.248673 0.032070592 -0.60542548 407 41
5.2428155 -0.00013643214 -0.60469532 389 41
5.2447014 -0.03231753 -0.60493869 312 41
5.2146292 -0.064138241 -0.60128784 69 41
5.2101679 -0.096061096 -0.60080105 386 41
5.273982 0.25913751 -0.67374301 310 42
5.2962651 0.22766434 -0.67654943 21 42
5.2945914 0.19505353 -0.67614853 33 42
5.2629995 0.16156182 -0.67173839 450 42
5.2609196 0.12919284 -0.67133749 61 42
5.2536864 0.096764602 -0.67026836 45 42
5.24229 0.064381607 -0.66866463 24 42
5.2207842 0.032081958 -0.66572458 196 42
5.2010622 4.8524136e-05 -0.66305178 100 42
5.2178116 -0.03196907 -0.66532367 21 42
5.2076077 -0.063862093 -0.66398722 38 42
5.2170262 -0.095997237 -0.66532367 370 42
5.2528596 0.25883934 -0.73717326 197 43
5.2681861 0.22720337 -0.73921597 33 43
5.2526746 0.19424884 -0.73673552 433 43
5.2409129 0.16161612 -0.73483866 395 43
5.2348833 0.12928291 -0.73381728 400 43
5.2355781 0.09715984 -0.73381728 325 43
5.2182693 0.064807981 -0.73119092 436 43
5.2165904 0.032775186 -0.7308991 370 43
5.2117467 0.00076433783 -0.73016953 371 43
5.2126427 -0.031220058 -0.73031545 23 43
5.198504 -0.063038819 -0.72827274 249 43
5.198019 -0.094935052 -0.72827274 420 43
5.2432528 0.2576299 -0.80026156 25 44
5.2378287 0.22515669 -0.79915684 20 44
5.2223363 0.19239697 -0.79647404 211 44
5.2174964 0.16016833 -0.79552716 124 44
5.231214 0.12846556 -0.79757875 20 44
5.219069 0.096129566 -0.79552716 21 44
5.2047496 0.063923351 -0.79315996 75 44
5.196157 0.031932458 -0.79173964 258 44
5.19033 4.9226535e-05 -0.79079276 24 44
5.1783834 -0.031724557 -0.788899 22 44
5.178091 -0.063497923 -0.788899 250 44
5.196363 -0.095615469 -0.79189748 371 44
5.2492681 -0.12973098 -0.41170341 145 38
5.2224803 -0.1611366 -0.40948707 244 38
5.3424258 0.064518102 -0.21969667 531 35
5.3377271 0.031705622 -0.21945678 528 35
5.3258348 -0.0010469137 -0.21888104 388 35
5.3347368 0.16282947 -0.28649536 579 36
5.3266544 0.12987477 -0.28595063 607 36
5.3173709 0.097007252 -0.28534538 626 36
5.2969065 0.064126447 -0.28407434 193 36
5.2972002 0.031624034 -0.28407434 25 36
5.2943001 -0.00087885011 -0.28389275 30 36
5.3061724 -0.033440419 -0.28461906 117 36
5.2928925 -0.065835498 -0.28383222 411 36
5.3583484 0.26219144 -0.35380998 368 37
5.3349457 0.22823715 -0.35199207 558 37
5.3352489 0.19546151 -0.35191938 389 37
5.3203974 0.16223152 -0.3507559 37 37
5.3123193 0.12936263 -0.35010147 429 37
5.312016 0.096746035 -0.35002875 464 37
5.3085203 0.064101256 -0.34973788 443 37
5.3108087 0.031539861 -0.34988332 284 37
5.2899575 -0.0010476965 -0.34835628 452 37
5.2878571 -0.033494052 -0.34821084 471 37
5.2855573 -0.065914668 -0.34806544 451 37
5.2800674 -0.098253317 -0.34770185 490 37
5.3562784 0.36117414 -0.42176208 277 38
5.3345256 0.32684121 -0.41971624 493 38
5.3304615 0.29377449 -0.41920477 545 38
5.3566184 0.4611738 -0.48754925 125 39
5.3424821 0.42694604 -0.48589623 550 39
5.339046 0.39371669 -0.48531282 518 39
5.3205085 0.35953578 -0.48327088 63 39
5.3176475 0.32657686 -0.48278469 24 39
5.3096137 0.29339096 -0.48181233 58 39
5.3686152 0.4955574 -0.55634624 82 40
5.3151069 0.45774955 -0.55010128 411 40
5.3158336 0.42496976 -0.54988211 455 40
5.3163586 0.39219832 -0.54966301 439 40
5.31569 0.35936946 -0.54933435 415 40
5.2741418 0.32406721 -0.54451364 59 40
5.2998505 0.29301473 -0.5471431 471 40
5.3072863 0.42412564 -0.61467439 455 41
5.30088 0.39089388 -0.61357915 107 41
5.3041692 0.35842806 -0.61370081 16 41
5.3052778 0.32581449 -0.61357915 29 41
5.2893381 0.29226613 -0.61138862 379 41
5.280859 0.38958204 -0.67574757 222 42
5.288094 0.35750583 -0.6764158 69 42
5.2595239 0.3231701 -0.67227292 352 42
5.2752609 0.29165706 -0.67414391 518 42
5.261024 0.35642269 -0.73921597 114 43
5.2789102 0.32511145 -0.74155056 473 43
5.2808056 0.29271454 -0.74155056 444 43
5.2652364 0.29110357 -0.80404907 334 44
