# .PCD v0.7 - Point Cloud Data file format
VERSION 0.7
FIELDS x y z intensity ring
SIZE 4 4 4 4 1
TYPE F F F F U
COUNT 1 1 1 1 1
WIDTH 443
HEIGHT 1
VIEWPOINT 0 0 0 1 0 0 0
POINTS 443
DATA ascii
3.4197328 -1.6949745 -1.2296982 109 58
3.3999467 -1.7112328 -1.2262224 103 58
3.3800898 -1.7273122 -1.2227466 88 58
3.3610063 -1.7436495 -1.2195867 117 58
3.395005 -1.6826082 -1.2675034 41 59
3.3608425 -1.822095 -0.85538727 13 50
3.3475809 -1.8684213 -0.85789543 32 50
3.3021648 -1.8697337 -0.84877497 123 50
3.2830317 -1.8855951 -0.8467229 121 50
3.2688763 -1.9042333 -0.84603882 126 50
3.2638366 -1.9282176 -0.84786296 112 50
3.2477679 -1.9457055 -0.8467229 120 50
3.2357681 -1.9655968 -0.8467229 28 50
3.3603671 -1.8232232 -0.90181422 3 51
3.3423107 -1.8400637 -0.89990056 6 51
3.3267183 -1.8581709 -0.89870447 4 51
3.3093398 -1.8751993 -0.89703 57 51
3.2859838 -1.8886994 -0.89368105 144 51
3.273494 -1.9083375 -0.8934418 61 51
3.2316282 -1.9106072 -0.88483024 8 51
3.2306721 -1.9368873 -0.88793999 36 51
3.2353237 -1.9667561 -0.89272422 75 51
3.2016997 -1.9733316 -0.88650471 6 51
3.3543639 -1.8185818 -0.94793653 95 52
3.3329644 -1.8335294 -0.94492793 114 52
3.3216512 -1.8539455 -0.94492793 123 52
3.3085284 -1.8733377 -0.94442648 100 52
3.2516437 -1.8675632 -0.9308877 36 52
3.2744169 -1.9074616 -0.94116718 5 52
3.2584844 -1.9250548 -0.93991357 6 52
3.2499325 -1.9470026 -0.94091642 6 52
3.209796 -1.9498161 -0.932392 56 52
3.2060139 -1.9745518 -0.93489921 79 52
3.3250754 -1.8298289 -0.98928446 102 53
3.3070428 -1.846435 -0.98718959 126 53
3.2906115 -1.8638395 -0.98561853 107 53
3.2774394 -1.8830341 -0.98509479 114 53
3.2533135 -1.8958238 -0.98116702 28 53
3.2432816 -1.9167316 -0.9816907 44 53
3.2182121 -1.9286622 -0.97750109 87 53
3.2046676 -1.9473706 -0.97697741 125 53
3.1869056 -1.9634556 -0.97514439 119 53
3.163336 -1.9758189 -0.97147846 66 53
3.3038538 -1.8175112 -1.0292044 25 54
3.2951596 -1.8391558 -1.0300232 27 54
3.27879 -1.8564954 -1.0283855 8 54
3.252322 -1.8679528 -1.0234723 8 54
3.2499425 -1.8932011 -1.0264748 13 54
3.2266698 -1.9062549 -1.0226535 94 54
3.2066603 -1.9210726 -1.019924 120 54
3.1865907 -1.9357166 -1.0171945 123 54
3.1730154 -1.9542236 -1.0166485 111 54
3.1609647 -1.9736561 -1.0166485 118 54
3.16749 -2.0048499 -1.0229264 56 54
3.307198 -1.8199979 -1.0759032 96 55
3.286757 -1.835117 -1.0727826 69 55
3.2771041 -1.8561943 -1.07335 5 55
3.2673163 -1.8772222 -1.0739174 9 55
3.2491071 -1.8933743 -1.0716479 7 55
3.2341256 -1.9113243 -1.0705132 42 55
3.2083516 -1.922757 -1.0656906 114 55
3.1923952 -1.9399184 -1.0642722 108 55
3.1796155 -1.9589672 -1.0639886 105 55
3.1691625 -1.9794556 -1.0645559 129 55
3.1504745 -1.9947622 -1.0622865 97 55
3.1236463 -2.0047374 -1.0571802 29 55
3.2825146 -1.8313483 -1.1188998 106 56
3.2745421 -1.853338 -1.1200793 87 56
3.2672517 -1.8757745 -1.1215537 108 56
3.2548549 -1.8953058 -1.1212589 100 56
3.234937 -1.9103818 -1.1183101 114 56
3.2018411 -1.9174287 -1.1106434 59 56
3.2022665 -1.9444792 -1.1150665 39 56
3.2815413 -1.831459 -1.1646087 108 57
3.263612 -1.8478087 -1.1621644 73 57
3.4147558 -1.8527113 -0.43821505 70 41
3.4236829 -1.8298438 -0.48517656 159 42
3.4010665 -1.844673 -0.48343927 156 42
3.4009702 -1.8717198 -0.48517656 74 42
3.4186256 -1.8269883 -0.53319055 132 43
3.4021323 -1.8451021 -0.53231508 119 43
3.3907468 -1.8659424 -0.53231508 121 43
3.3809617 -1.8876765 -0.5326069 38 43
3.3862925 -1.836658 -0.57695562 13 44
3.3896654 -1.8654968 -0.57963842 25 44
3.3652232 -1.8790377 -0.57727122 106 44
3.3690951 -1.9084131 -0.58011186 35 44
3.3521903 -1.8195442 -0.61718881 5 45
3.3392358 -1.8391283 -0.61684978 11 45
3.3528419 -1.8735166 -0.62176585 92 45
3.336138 -1.8911395 -0.62074876 104 45
3.4130902 -1.824181 -0.67467326 76 46
3.3819518 -1.8343031 -0.67050153 154 46
3.3646026 -1.8517002 -0.66923189 132 46
3.3471673 -1.8689535 -0.66796225 150 46
3.3347809 -1.8889713 -0.66778088 147 46
3.3325067 -1.9147879 -0.66977602 103 46
3.3711414 -1.8298234 -0.71534562 95 47
3.3658676 -1.8537855 -0.71669686 137 47
3.3510029 -1.8724897 -0.71592468 130 47
3.3471341 -1.8973683 -0.71766204 39 47
3.3158617 -1.9066269 -0.71322221 70 47
3.312578 -1.9318773 -0.71515256 45 47
3.366065 -1.8264418 -0.76057631 131 48
3.3728013 -1.8569773 -0.7648707 19 48
3.3647616 -1.8795472 -0.76568872 6 48
3.3540173 -1.9006404 -0.76589316 9 48
3.3575668 -1.9299667 -0.76957411 3 48
3.2737858 -1.9086185 -0.75219196 102 48
3.2839196 -1.9416254 -0.75750887 51 48
3.3664954 -1.8250316 -0.80927515 104 49
3.3560894 -1.8461241 -0.80949157 105 49
3.3506672 -1.8700105 -0.81100667 14 49
3.3391299 -1.8905346 -0.81100667 6 49
3.2893627 -1.8891195 -0.80126685 76 49
3.2751782 -1.9077938 -0.80061752 111 49
3.2566845 -1.9238834 -0.798886 90 49
3.2640851 -1.9553634 -0.80386412 29 49
3.4071476 -1.7403961 -0.85607135 4 50
3.4041834 -1.765304 -0.85812342 6 50
3.3889799 -1.7838904 -0.85698336 54 50
3.3693831 -1.8000624 -0.85470325 107 50
3.3933573 -1.7610611 -0.90181422 102 51
3.3816285 -1.7813969 -0.90157503 139 51
3.3783422 -1.8062305 -0.90372789 56 51
3.416949 -1.7454039 -0.95345235 144 52
3.4053156 -1.7658913 -0.95320159 155 52
3.3892767 -1.7840468 -0.95169729 145 52
3.3791201 -1.8052655 -0.95194805 126 52
3.4194887 -1.7209448 -0.99818742 13 53
3.4037075 -1.7392606 -0.9966163 49 53
3.3801191 -1.7534503 -0.99268854 12 53
3.3421719 -1.7861595 -0.98771334 5 53
3.3235128 -1.8024944 -0.98535663 12 53
3.4060252 -1.7398225 -1.0444896 142 54
3.3935776 -1.7598028 -1.0439438 108 54
3.3529222 -1.7649057 -1.0343904 11 54
3.3360903 -1.7822717 -1.0324798 9 54
3.3140979 -1.7967463 -1.0289314 5 54
3.4152737 -1.7451663 -1.093775 96 55
3.3891771 -1.7581457 -1.0886687 53 55
3.3528671 -1.7655127 -1.0801584 65 55
3.3470461 -1.7887626 -1.0818604 109 55
3.3267338 -1.8042401 -1.0787399 105 55
3.4101934 -1.714906 -1.1368872 55 56
3.3613129 -1.7162409 -1.1236178 4 56
3.3456292 -1.7341943 -1.1218486 6 56
3.3239326 -1.7489048 -1.1180152 4 56
3.3476954 -1.7877252 -1.130105 63 56
3.3156617 -1.7968487 -1.1227332 96 56
3.2962015 -1.8125542 -1.1197845 106 56
3.4073486 -1.7140975 -1.1826349 92 57
3.4120328 -1.7427639 -1.1881344 9 57
3.4164929 -1.7715518 -1.193634 5 57
3.3853331 -1.7818441 -1.1863014 20 57
3.3314965 -1.7797143 -1.1707193 84 57
3.310467 -1.79468 -1.167053 105 57
3.2960551 -1.8131241 -1.1658309 108 57
3.3477259 -1.762913 -1.2186388 59 58
3.3242953 -1.7767116 -1.2138991 13 58
3.3931441 -1.8135178 -0.57616657 6 44
3.370245 -1.8026577 -0.618545 4 45
3.4094274 -1.7954131 -0.67158979 20 46
3.4089694 -1.796546 -0.71882021 7 47
3.3892283 -1.812804 -0.71688986 9 47
3.4098747 -1.7964058 -0.76568872 61 48
3.3823876 -1.8085234 -0.76180327 157 48
3.4007347 -1.7899445 -0.81230527 104 49
3.3862429 -1.8089384 -0.81143951 139 49
3.6998172 -1.9480689 -1.403025 15 59
3.7813017 -1.991291 -1.4874871 7 60
3.7476122 -1.9723853 -1.5262237 6 61
3.7197211 -1.9869525 -1.5196257 15 61
3.5247815 -1.5882274 -1.2461292 53 58
3.4839177 -1.5955997 -1.2347538 11 58
3.4654603 -1.6129422 -1.231594 7 58
3.46579 -1.6390439 -1.2353858 4 58
3.4462614 -1.6557583 -1.23191 26 58
3.4368894 -1.6772891 -1.232226 104 58
3.5011773 -1.5774593 -1.2851375 25 59
3.4974487 -1.6016654 -1.2874234 87 59
3.4824128 -1.6207039 -1.285464 90 59
3.4655662 -1.6388108 -1.2828516 83 59
3.4443684 -1.6547267 -1.2786063 91 59
3.4273539 -1.6725157 -1.2759938 96 59
3.4330633 -1.8354657 -0.4391886 79 41
3.446245 -1.8148061 -0.48691389 192 42
3.695473 -1.5031319 -0.84477121 142 49
3.6852782 -1.5254054 -0.84455478 134 49
3.6416538 -1.5336004 -0.83633006 86 49
3.5998638 -1.5420865 -0.82853824 21 49
3.6198745 -1.5770047 -0.83568078 150 49
3.6012025 -1.5952346 -0.83351636 154 49
3.581553 -1.6128944 -0.83113551 137 49
3.5671499 -1.6328096 -0.83005333 131 49
3.5446694 -1.6489054 -0.82702315 10 49
3.5309539 -1.6689563 -0.82615739 5 49
3.4821241 -1.6984731 -0.81923133 35 49
3.4402595 -1.7838663 -0.81944776 31 49
3.6990242 -1.5047747 -0.89528924 93 50
3.6573365 -1.514033 -0.88708085 29 50
3.6372101 -1.5319092 -0.8843447 7 50
3.6304269 -1.5553485 -0.88502872 7 50
3.61903 -1.576817 -0.88457268 46 50
3.5994949 -1.5946542 -0.88206458 167 50
3.5798774 -1.6123111 -0.87955648 143 50
3.5522118 -1.6261392 -0.87499624 100 50
3.531574 -1.6429751 -0.87226009 65 50
3.5170252 -1.6625324 -0.87112004 156 50
3.4927156 -1.6773359 -0.86747187 181 50
3.4814827 -1.6983082 -0.86724389 191 50
3.4692519 -1.7187735 -0.86678785 130 50
3.4386363 -1.7299616 -0.8615436 13 50
3.6521542 -1.5131936 -0.93386853 88 51
3.6436956 -1.5359513 -0.93410778 17 51
3.61903 -1.5517792 -0.93004119 104 51
3.6076601 -1.5731802 -0.92956275 161 51
3.5642049 -1.5803413 -0.92047274 64 51
3.5818858 -1.6145421 -0.92788827 5 51
3.559552 -1.6308314 -0.92453933 12 51
3.5441961 -1.6501843 -0.92310405 7 51
3.5155697 -1.6631856 -0.91808057 103 51
3.4895437 -1.6771592 -0.91377479 155 51
3.4713333 -1.6947076 -0.91162187 145 51
3.4530389 -1.7120959 -0.90946901 135 51
3.4363971 -1.7301964 -0.90779454 94 51
3.4300394 -1.7534577 -0.90899056 147 51
3.6404688 -1.533282 -0.98278636 160 52
3.6274331 -1.5540655 -0.98178345 141 52
3.6125045 -1.5739732 -0.98027915 146 52
3.5965834 -1.593364 -0.97852415 159 52
3.5637906 -1.605064 -0.97200549 42 52
3.5406725 -1.6208553 -0.96824467 14 52
3.5271497 -1.6409162 -0.96724182 68 52
3.5248914 -1.6662518 -0.96949828 150 52
3.4683528 -1.665633 -0.95621026 47 52
3.4998283 -1.7072595 -0.96824467 9 52
3.4823477 -1.7252632 -0.96623898 16 52
3.4786141 -1.7500793 -0.96824467 5 52
3.6371784 -1.5324618 -1.0303953 71 53
3.6223838 -1.5524707 -1.0288241 100 53
3.6145594 -1.5754387 -1.0293479 34 53
3.5960002 -1.5936798 -1.0267293 9 53
3.5852737 -1.6153183 -1.0264674 22 53
3.5322928 -1.6176096 -1.0136367 123 53
3.5205505 -1.6384389 -1.013113 125 53
3.4964695 -1.6534128 -1.0089234 131 53
3.4740777 -1.6689883 -1.0052575 122 53
3.449892 -1.6835057 -1.0010678 8 53
3.6296792 -1.555028 -1.0797005 81 54
3.59273 -1.5653551 -1.071239 18 54
3.5795393 -1.5858111 -1.0701472 6 54
3.5662332 -1.6061643 -1.0690553 7 54
3.566807 -1.6328224 -1.0723307 30 54
3.5253212 -1.6400654 -1.0625045 123 54
3.499537 -1.6542635 -1.0575913 66 54
3.4945238 -1.6782044 -1.059229 11 54
3.4435246 -1.679787 -1.0464003 38 54
3.4460828 -1.707292 -1.0504946 130 54
3.4312453 -1.7262424 -1.0491298 139 54
3.5967443 -1.5676801 -1.1198736 69 55
3.5756593 -1.5846723 -1.1161858 84 55
3.5492549 -1.5991031 -1.1107959 118 55
3.5315285 -1.6172599 -1.1082428 131 55
3.5354507 -1.6453679 -1.1127816 57 55
3.5166183 -1.6629333 -1.1099448 9 55
3.4856038 -1.7009192 -1.1065407 6 55
3.4381509 -1.7039753 -1.0943424 68 55
3.4250607 -1.7237469 -1.0934913 96 55
3.5679798 -1.5538305 -1.1598873 36 56
3.5679889 -1.5799507 -1.163131 115 56
3.5547423 -1.6002444 -1.1619515 113 56
3.5379055 -1.6188445 -1.1595925 106 56
3.5157764 -1.6348803 -1.1554643 110 56
3.5004952 -1.6539721 -1.153695 40 56
3.4851124 -1.6729381 -1.1519258 38 56
3.4618993 -1.6880078 -1.1475027 120 56
3.4514768 -1.7092178 -1.1475027 109 56
3.552654 -1.5737463 -1.2055496 58 57
3.5299058 -1.5896546 -1.2009667 46 57
3.5070968 -1.605343 -1.1963837 6 57
3.4937267 -1.6252265 -1.1951616 10 57
3.4828279 -1.6462264 -1.194856 15 57
3.4657934 -1.6642703 -1.1924119 87 57
3.4512367 -1.6834188 -1.1908842 98 57
3.4306023 -1.6994945 -1.1872178 88 57
3.6604257 -1.6229703 -0.45281857 106 41
3.6368232 -1.6392856 -0.45099315 198 41
3.6294038 -1.6628094 -0.45135823 179 41
3.6092334 -1.6804421 -0.45001957 183 41
3.5844967 -1.6957691 -0.44807243 173 41
3.5561295 -1.7091372 -0.44563851 151 41
3.5366547 -1.7265732 -0.44442156 146 41
3.5224366 -1.7464787 -0.44393477 163 41
3.4948072 -1.7595832 -0.44162253 50 41
3.4583111 -1.7678995 -0.43809333 4 41
3.4694266 -1.8005097 -0.44113576 8 41
3.4407475 -1.8125169 -0.43870184 5 41
3.7312126 -1.545384 -0.50629175 115 42
3.7225733 -1.5686342 -0.50642538 150 42
3.7065024 -1.5887122 -0.50548989 157 42
3.684875 -1.6062758 -0.50375259 134 42
3.6604538 -1.6224288 -0.50161433 150 42
3.6088688 -1.6261264 -0.49546689 62 42
3.6240509 -1.6597965 -0.49920881 10 42
3.6057124 -1.6782376 -0.49800605 9 42
3.6078889 -1.7062631 -0.49987701 8 42
3.5535831 -1.7073345 -0.49332863 151 42
3.5368061 -1.7260635 -0.49239314 201 42
3.521709 -1.7455314 -0.49172494 178 42
3.5038509 -1.7635423 -0.49065584 175 42
3.4867871 -1.7818509 -0.48972034 124 42
3.4652324 -1.7977344 -0.48811665 185 42
3.8085718 -1.4687581 -0.56353992 142 43
3.7930415 -1.4895699 -0.56251854 140 43
3.7700496 -1.5073105 -0.56032985 129 43
3.7387354 -1.5214715 -0.55682802 140 43
3.7439556 -1.5504353 -0.55916262 43 43
3.6951647 -1.5568731 -0.55288845 8 43
3.6773577 -1.5760119 -0.55157524 133 43
3.6730602 -1.6009161 -0.55245072 211 43
3.6541224 -1.6194178 -0.55099159 225 43
3.6314876 -1.6361231 -0.54894888 173 43
3.5997899 -1.6484953 -0.54544705 25 43
3.5806367 -1.6663806 -0.54398793 13 43
3.5631888 -1.6849384 -0.54282063 24 43
3.5394053 -1.7003481 -0.54063201 119 43
3.5297947 -1.7224671 -0.54077792 17 43
3.5227056 -1.7458493 -0.54136151 4 43
3.4986694 -1.7607642 -0.53917289 7 43
3.4869187 -1.7817487 -0.53902698 17 43
3.440788 -1.784899 -0.53319055 114 43
3.4323978 -1.8073597 -0.53362828 135 43
3.8205972 -1.4467691 -0.61419958 148 44
3.8024354 -1.4666302 -0.61262143 144 44
3.7768211 -1.4834342 -0.60978079 148 44
3.7639806 -1.5051136 -0.60914958 171 44
3.7747953 -1.5363721 -0.61262143 47 44
3.7005255 -1.5326706 -0.60141671 12 44
3.6792223 -1.5503618 -0.59936512 6 44
3.6714554 -1.5736861 -0.59968072 11 44
3.6635406 -1.5969734 -0.59999639 142 44
3.6617973 -1.6230245 -0.60141671 102 44
3.6301637 -1.6357242 -0.59762919 12 44
3.6164677 -1.6563226 -0.59699792 26 44
3.5990748 -1.6751474 -0.59573543 175 44
3.5744464 -1.6904433 -0.5932104 171 44
3.5506563 -1.705928 -0.5908432 204 44
3.525924 -1.7207514 -0.58831817 153 44
3.5206077 -1.7449855 -0.58926505 16 44
3.4816103 -1.7523454 -0.58421504 9 44
3.4822228 -1.779518 -0.58626658 24 44
3.4502027 -1.7899352 -0.58247906 107 44
3.4312918 -1.8069298 -0.58105874 13 44
3.784404 -1.4609574 -0.65889108 149 45
3.7616088 -1.4787461 -0.65634829 173 45
3.7442291 -1.4985057 -0.65482259 155 45
3.7331383 -1.5207087 -0.65448356 145 45
3.7137213 -1.5394378 -0.65261877 87 45
3.6905828 -1.5564551 -0.65007597 177 45
3.6682818 -1.5736351 -0.64770269 182 45
3.6368749 -1.5866619 -0.64363414 129 45
3.5901303 -1.5925739 -0.63668376 11 45
3.5757983 -1.6125481 -0.63583618 9 45
3.5595646 -1.6315858 -0.63464952 7 45
3.5941606 -1.6741898 -0.64312559 52 45
3.5579836 -1.6839926 -0.63820946 151 45
3.5564671 -1.7100604 -0.63990468 122 45
3.5113659 -1.7149925 -0.63329333 15 45
3.5202031 -1.7461344 -0.63702279 52 45
3.4777317 -1.75175 -0.63092005 137 45
3.4590194 -1.7690197 -0.62939435 132 45
3.4437258 -1.7879413 -0.62854671 125 45
3.4292026 -1.8072011 -0.62786865 106 45
3.7777054 -1.4570889 -0.70768392 106 46
3.7732704 -1.4820391 -0.70859081 23 46
3.7595403 -1.5033375 -0.70768392 11 46
3.7429585 -1.5234108 -0.70623291 7 46
3.742626 -1.5501125 -0.70804667 48 46
3.6859217 -1.5531855 -0.69861507 145 46
3.6681874 -1.5722849 -0.69698268 144 46
3.6458507 -1.5892602 -0.69444335 160 46
3.6378286 -1.6123979 -0.6948061 110 46
3.6260736 -1.6338807 -0.69444335 108 46
3.588264 -1.6434021 -0.68882066 165 46
3.5709805 -1.6620679 -0.68736964 177 46
3.560715 -1.6839477 -0.68736964 94 46
3.5415497 -1.7283791 -0.6877324 12 46
3.5167809 -1.7430881 -0.68483037 10 46
3.4919651 -1.7575586 -0.68192834 119 46
3.4636021 -1.7699999 -0.6783008 172 46
3.4544222 -1.7921247 -0.67866355 126 46
3.7515192 -1.4747831 -0.75375974 76 47
3.7360222 -1.495224 -0.75240844 8 47
3.7110467 -1.53833 -0.75105721 30 47
3.6906874 -1.5564992 -0.74874079 57 47
3.6846747 -1.5806618 -0.74951291 6 47
3.6695101 -1.6008883 -0.74835473 10 47
3.6542358 -1.6209882 -0.7471965 11 47
3.5959144 -1.6216124 -0.73677254 115 47
3.5823283 -1.6420118 -0.73600042 156 47
3.5641797 -1.6602352 -0.73426312 155 47
3.5397336 -1.6753614 -0.73117453 161 47
3.5276184 -1.6961994 -0.73078847 39 47
3.5189078 -1.7186732 -0.73117453 60 47
3.4915926 -1.7319533 -0.72750688 140 47
3.4624949 -1.7440809 -0.7234531 120 47
3.4569705 -1.7679725 -0.72461134 32 47
3.4399605 -1.7859879 -0.72326005 2 47
3.7156136 -1.4865168 -0.79656762 141 48
3.6964505 -1.5052255 -0.79431814 167 48
3.6817193 -1.5256294 -0.79309118 128 48
3.6686811 -1.5466698 -0.79227316 140 48
3.627636 -1.5556455 -0.78511584 41 48
3.6054616 -1.5723954 -0.78225285 8 48
3.5921664 -1.5929009 -0.78143489 11 48
3.5769708 -1.6124978 -0.78020793 34 48
3.5750182 -1.638086 -0.7820484 36 48
3.5631251 -1.6591644 -0.7816394 6 48
3.5475688 -1.6784837 -0.78041244 7 48
3.5424962 -1.7027645 -0.7816394 16 48
3.503835 -1.7107229 -0.77509552 131 48
3.4897647 -1.73045 -0.77427751 158 48
3.4729614 -1.7487481 -0.77284604 185 48
3.4569368 -1.7673508 -0.77161908 165 48
3.4295206 -1.7799596 -0.76773363 38 48
3.4620123 -1.7150427 -0.81685048 48 49
3.4584022 -1.7397608 -0.818582 8 49
3.438966 -1.7565101 -0.81641763 6 49
3.4694252 -1.8276128 -0.34539095 127 39
3.4335666 -1.8357346 -0.34266835 8 39
3.4643769 -1.8243567 -0.39364839 64 40
3.4417222 -1.8394874 -0.3922241 100 40
3.5620461 -1.7934119 -0.35190573 46 39
3.5084317 -1.7935023 -0.34723842 136 39
3.487642 -1.8099558 -0.34616882 165 39
3.609601 -1.707073 -0.40219414 67 40
3.5650146 -1.7128283 -0.39803082 137 40
3.5437191 -1.7294381 -0.39671609 161 40
3.5179014 -1.7436438 -0.39485356 181 40
3.5169024 -1.770113 -0.39605874 132 40
3.4882739 -1.7826109 -0.39386752 15 40
3.43051 -1.7797164 -0.38806078 4 40
