# .PCD v0.7 - Point Cloud Data file format
VERSION 0.7
FIELDS x y z intensity ring
SIZE 4 4 4 4 1
TYPE F F F F U
COUNT 1 1 1 1 1
WIDTH 1319
HEIGHT 1
VIEWPOINT 0 0 0 1 0 0 0
POINTS 1319
DATA ascii
-5.4437561 -2.5746992 1.1591102 7 16
-5.4300427 -2.5275614 1.1530454 21 16
-5.4347248 -2.4892845 1.15084 10 16
-5.4364533 -2.4498339 1.1480834 15 16
-5.440599 -2.4116511 1.1458781 7 16
-5.4363713 -2.3699749 1.1420187 29 16
-5.4300308 -2.3276672 1.1377918 21 16
-5.4242821 -2.2859085 1.1337485 10 16
-5.4236755 -2.2465651 1.1308081 20 16
-5.4227905 -2.2073152 1.1278676 12 16
-5.421629 -2.1681612 1.1249272 18 16
-5.4275112 -2.1319792 1.123457 10 16
-5.4331536 -2.0958068 1.1219866 14 16
-5.4413142 -2.0606899 1.1210678 28 16
-5.4520135 -2.0265789 1.1207002 13 16
-5.4726567 -1.9961188 1.1223543 27 16
-5.4810996 -1.9611772 1.1216191 55 16
-5.4958129 -1.9284852 1.1221704 80 16
-5.55123 -1.9097534 1.1308081 53 16
-7.3773398 -2.4873261 1.4888111 77 16
-7.3308601 -2.4216664 1.4766817 286 16
-7.4325595 -2.4047763 1.4937732 410 16
-7.5230789 -2.3831666 1.5086594 382 16
-7.5272322 -2.3337593 1.5066378 291 16
-7.5649266 -2.2946613 1.5112323 330 16
-7.633523 -2.2644117 1.5218915 373 16
-7.8351474 -2.2719996 1.5584637 256 16
-8.0664635 -2.285502 1.600733 340 16
-8.3313904 -2.3054228 1.6494347 442 16
-8.4250927 -2.2757871 1.6648722 614 16
-8.4198875 -2.2190397 1.6611966 265 16
-8.5571098 -2.1991358 1.6850879 627 16
-8.5818853 -2.1494544 1.6872933 909 16
-8.5930023 -2.0962906 1.6869258 917 16
-8.5779676 -2.0369406 1.6815962 657 16
-8.5998821 -1.9864807 1.6834339 379 16
-8.5946455 -1.9297999 1.680126 922 16
-8.6005621 -1.8757714 1.6790233 855 16
-8.602293 -1.8209288 1.6771854 882 16
-8.6094532 -1.7673213 1.6764503 846 16
-8.6143503 -1.7133113 1.6753477 794 16
-8.6160135 -1.6587503 1.6736937 789 16
-8.6047688 -1.6018953 1.6696504 507 16
-6.4192743 -1.1544291 1.2526541 24 16
-6.3923392 -1.1091398 1.2462218 99 16
-6.3825426 -1.0671417 1.2430975 101 16
-6.4171147 -1.0324856 1.2484272 666 16
-6.3883576 -0.98768675 1.2418112 238 16
-6.4730568 -0.9601475 1.2566973 20 16
-8.6422586 -1.2276274 1.6652397 335 16
-8.6467066 -1.1741797 1.6646883 647 16
-8.646925 -1.1202186 1.663402 618 16
-8.6546116 -1.0672613 1.6635857 573 16
-8.6727123 -1.0155088 1.665791 445 16
-8.6729183 -0.96162522 1.6646883 534 16
-8.6327066 -0.90358377 1.6560508 1073 16
-8.672327 -0.85396737 1.6624831 521 16
-8.6774035 -0.80073887 1.6624831 479 16
-8.6821537 -0.74748027 1.6624831 511 16
-8.6875563 -0.69427174 1.6626668 529 16
-8.6877317 -0.64066386 1.6619318 502 16
-8.6856146 -0.5869475 1.6608291 542 16
-8.6802225 -0.53310061 1.659175 484 16
-8.6774416 -0.47950459 1.6580724 571 16
-8.6694202 -0.42572194 1.6560508 616 16
-8.6699057 -0.37243506 1.6556832 641 16
-8.6671162 -0.31904995 1.6547643 670 16
-8.6807003 -0.26622456 1.6569697 887 16
-8.6723442 -0.21271519 1.6551318 523 16
-8.6823311 -0.15966095 1.6567858 477 16
-8.6939592 -0.10651615 1.6588074 685 16
-8.6964149 -0.05318094 1.659175 728 16
-8.6995258 0.00018044982 1.6597264 709 16
-8.6964121 0.053541448 1.659175 796 16
-8.6870747 0.10679148 1.657521 860 16
-8.7068939 0.16047367 1.6613804 483 16
-8.7517271 -0.64612496 1.565007 216 17
-8.7958241 -0.59514511 1.5720561 289 17
-8.813076 -0.54201216 1.574463 283 17
-8.8260717 -0.4884716 1.5761822 245 17
-8.8348064 -0.43459785 1.5772139 237 17
-8.8284492 -0.37999788 1.5756665 242 17
-8.8276606 -0.32571101 1.5751507 271 17
-8.6985359 -0.26749468 1.5522841 981 17
-8.6517582 -0.21292233 1.5438596 437 17
-8.8646641 -0.16377223 1.5808244 132 17
-8.8418608 -0.10908182 1.5766981 242 17
-8.8374386 -0.054795936 1.5758384 231 17
-8.8425341 -0.00057037087 1.5766981 245 17
-8.8492661 0.053727366 1.5779016 296 17
-8.8605909 0.10816717 1.5799648 269 17
-6.4062595 0.11784603 1.1516894 73 17
-8.8989735 0.21787539 1.5870138 102 17
-8.8994389 0.2725344 1.5873576 87 17
-8.8926764 0.32695487 1.586498 112 17
-8.8727875 0.38075525 1.5834033 84 17
-8.6666098 0.42522472 1.547814 367 17
-8.8566265 0.48901334 1.5815121 586 17
-8.8495264 0.54310656 1.5808244 669 17
-8.6877842 0.58673024 1.5531439 1069 17
-8.8667564 0.65346986 1.5851226 810 17
-8.8724003 0.70864594 1.5868419 839 17
-8.8718109 0.76340997 1.5875297 954 17
-8.873826 0.81846446 1.5887331 1024 17
-8.8647156 0.87251234 1.5880454 930 17
-8.8915281 0.93026727 1.5937191 1127 17
-8.8993607 0.98632461 1.5961261 1141 17
-8.9058609 1.0423986 1.5983611 1143 17
-8.9139624 1.0988302 1.6009401 1159 17
-8.9129143 1.154263 1.6019716 1156 17
-8.8617363 1.2029725 1.5942348 696 17
-8.7351961 1.2404431 1.5732595 709 17
-8.7605534 1.2989259 1.5791051 836 17
-8.9198723 1.3785121 1.6086769 600 17
-8.9024925 1.4318107 1.6071296 654 17
-8.9110289 1.4893292 1.6102242 750 17
-8.9191942 1.5470064 1.613319 813 17
-8.9066257 1.6011819 1.6128032 913 17
-8.899539 1.656342 1.613319 975 17
-8.908556 1.7146387 1.6167576 1046 17
-8.9046307 1.7706122 1.617961 1055 17
-8.9080744 1.8281856 1.62054 947 17
-8.9169283 1.8870907 1.6241505 383 17
-6.5835814 1.4358562 1.2094575 22 17
-6.564074 1.4738531 1.2075663 37 17
-6.5318699 1.5087848 1.2034401 84 17
-6.5167384 1.5474706 1.2024084 121 17
-6.5272193 1.5923269 1.2060189 66 17
-6.5354834 1.6368915 1.2092856 33 17
-8.9307241 2.2946913 1.6427189 152 17
-8.8955183 2.3439264 1.6389364 431 17
-8.8800173 2.3982074 1.6387645 536 17
-8.858489 2.4508111 1.637561 535 17
-8.8357019 2.5029728 1.6361855 567 17
-8.8220701 2.557689 1.6365294 682 17
-8.8014879 2.6103721 1.6356698 1024 17
-8.8211288 2.6751873 1.6422031 1073 17
-8.8299551 2.7371345 1.6468452 1080 17
-8.8289595 2.7963169 1.649768 997 17
-8.8322573 2.8571055 1.6535504 876 17
-8.831398 2.9168043 1.6566452 897 17
-8.8301382 2.9765999 1.6597399 894 17
-8.8210239 3.0339274 1.6614591 889 17
-8.7873678 3.0827794 1.6587082 748 17
-8.6374969 3.0898712 1.6344663 546 17
-8.4971304 3.0986152 1.6119436 491 17
-8.3773012 3.113302 1.5932033 547 17
-8.2308979 3.1165237 1.5694771 425 17
-8.0810986 3.1166503 1.5450631 558 17
-7.9884644 3.1373773 1.5313088 475 17
-7.8711853 3.1472144 1.5129124 561 17
-7.7723393 3.1631563 1.4979546 503 17
-7.7054539 3.1911929 1.4890143 316 17
-7.6893597 3.2399423 1.489702 306 17
-7.6566577 3.281631 1.4872949 242 17
-7.6399903 3.3301237 1.4879826 246 17
-7.5977974 3.3673623 1.4838563 163 17
-6.0455451 2.7241619 1.1907172 7 17
-6.041256 2.7669461 1.1931243 18 17
-5.999156 2.7923274 1.1883103 8 17
-5.9605346 2.8189805 1.184184 7 17
-5.7628593 2.7689271 1.1492823 209 17
-5.7059193 2.7847993 1.1415455 145 17
-5.5633798 2.7576561 1.1171316 223 17
-5.5252342 2.7811146 1.1130053 319 17
-5.5150838 2.8185494 1.1143807 376 17
-5.5177994 2.862767 1.1183351 330 17
-5.3972678 2.8424234 1.0980475 179 17
-5.3197727 2.8434567 1.0861844 309 17
-5.2433362 2.8441167 1.0744932 228 17
-5.1817675 2.8520191 1.0657248 288 17
-5.0936346 2.8443902 1.0516266 173 17
-5.0778003 2.8765614 1.0519705 218 17
-5.0720139 2.9145331 1.0543774 249 17
-5.0761666 2.958492 1.0588477 197 17
-5.035018 2.976054 1.0542055 119 17
-4.933847 2.9572766 1.0373565 82 17
-5.6590362 3.439111 1.1891699 13 17
-5.6185355 3.4618874 1.1852155 6 17
-5.6289406 3.5161235 1.1917489 25 17
-8.9084654 5.6401529 1.8736197 133 17
-8.9060268 5.7154551 1.8803248 466 17
-8.8980427 5.7877159 1.8859985 691 17
-8.8977318 5.8655148 1.8933915 301 17
-8.8714037 5.9265656 1.8954546 371 17
-8.8666897 6.0024219 1.9021599 647 17
-8.8443165 6.0667424 1.9052546 581 17
-8.8384752 6.1428189 1.9119599 663 17
-8.8231716 6.2128129 1.9167738 664 17
-8.8193722 6.2914305 1.9241668 668 17
-8.7981691 6.358119 1.9279492 600 17
-8.7939682 6.437583 1.9355141 326 17
-8.7938709 6.5207543 1.9441106 402 17
-8.7678747 6.585237 1.9472053 446 17
-8.7484741 6.6550131 1.9518474 299 17
-8.7051334 6.7067642 1.9513316 134 17
-8.6677008 6.7630811 1.9521912 232 17
-8.6445923 6.8307939 1.9563175 302 17
-8.5886707 6.8726301 1.9532229 166 17
-8.5601168 6.9363618 1.9563175 249 17
-7.7077904 6.3245959 1.7735569 82 17
-7.6832361 6.3837309 1.7768235 155 17
-7.6371365 6.4250469 1.7752762 105 17
-8.3528128 7.1149678 1.9484088 265 17
-8.3149672 7.1712322 1.9497843 490 17
-8.3131084 7.2590456 1.9595842 673 17
-8.2211723 7.2681632 1.9485807 427 17
-8.0729141 7.2258439 1.9243387 306 17
-7.9890022 7.2395263 1.9150546 367 17
-7.8747373 7.2244844 1.8985493 110 17
-4.5457239 4.2226901 1.116272 41 17
-7.6641893 7.2065444 1.8694934 80 17
-7.5541754 7.1909552 1.8536758 290 17
-7.4396782 7.1695051 1.8366549 463 17
-7.3193846 7.1407328 1.8180865 362 17
-7.2263637 7.1370583 1.8060515 390 17
-7.115551 7.1144056 1.7895464 383 17
-7.0260639 7.1116858 1.778199 404 17
-6.9485774 7.120121 1.7697744 383 17
-6.8261237 7.0810709 1.7500026 195 17
-4.6532669 4.887248 1.2111769 179 17
-4.6346669 4.9279051 1.2140996 194 17
-4.5802007 4.9302721 1.2079102 149 17
-4.0615621 4.4263344 1.0818862 17 17
-4.0349879 4.4519024 1.0820581 16 17
-4.0036521 4.4721737 1.0810266 16 17
-3.9676511 4.4870634 1.0787914 18 17
-3.9452295 4.5172586 1.0801668 12 17
-3.9116454 4.5346689 1.0786195 30 17
-3.8799136 4.5540867 1.077588 19 17
-3.8652196 4.5936341 1.0811985 34 17
-3.8457773 4.6278696 1.0836054 49 17
-3.8216846 4.6567092 1.0848089 41 17
-4.3694029 5.3909402 1.244531 224 17
-2.7717338 3.4636438 0.80765921 100 17
-2.7589829 3.4914041 0.81006622 117 17
-2.7502387 3.5245733 0.81367677 106 17
-2.7460024 3.5640078 0.8186627 117 17
-2.7378054 3.5988188 0.82261705 118 17
-2.7334268 3.6391754 0.82777494 112 17
-2.7304163 3.6819863 0.83344859 102 17
-2.7287288 3.7272804 0.83963805 123 17
-2.7317827 3.7798758 0.84737486 138 17
-2.7228465 3.8166115 0.85167307 134 17
-2.7181008 3.8598216 0.85734671 157 17
-2.715739 3.90716 0.86388004 191 17
-2.7145703 3.9570501 0.87092912 228 17
-2.7023935 3.9915752 0.87471157 220 17
-4.5320916 6.7819705 1.4570354 168 17
-4.4578476 6.7603116 1.4467196 576 17
-4.3292298 6.6537838 1.4188672 217 17
-4.2899184 6.6827092 1.4193829 177 17
-3.7569609 5.9324913 1.2589731 237 17
-3.6077201 5.7749882 1.2218364 412 17
-2.0601597 3.3441799 0.71894383 131 17
-2.0334599 3.346657 0.71688068 122 17
-1.9667851 3.2821891 0.70123512 15 17
-0 0 0 8 17
-0 0 0 4 17
-1.875597 3.2648847 0.69057548 114 17
-1.8545573 3.2746177 0.69023168 146 17
-1.8329883 3.2833552 0.68971586 152 17
-1.7800206 3.2349982 0.67785275 36 17
-1.4575416 2.6882641 0.56713039 6 17
-0 0 0 13 17
-0 0 0 82 17
-0 0 0 97 17
-0 0 0 77 17
-0 0 0 60 17
-0 0 0 65 17
-0 0 0 76 17
-0 0 0 91 17
-0 0 0 29 17
-0 0 0 6 17
-0 0 0 24 17
-0 0 0 9 17
-0 0 0 4 17
-0 0 0 10 17
-0 0 0 4 17
-0 0 0 4 17
-0 0 0 7 17
-0 0 0 30 17
-0 0 0 29 17
-1.0476003 2.6685996 0.53377616 28 17
-1.0219837 2.6510825 0.52930599 52 17
-1.0032543 2.6508551 0.52810252 32 17
-0.98250568 2.644958 0.5258674 47 17
-0.96220517 2.6398318 0.52380431 53 17
-0.94233674 2.635484 0.52191305 50 17
-0 0 0 60 17
-0 0 0 81 17
-0.88421857 2.6243806 0.51675516 63 17
-0.86717147 2.6269505 0.5162394 49 17
-0.84921581 2.6265988 0.51520783 48 17
-0.83189255 2.6280038 0.51452011 36 17
-0.81604367 2.6339996 0.51469207 188 17
-0.79929411 2.6370718 0.51434821 43 17
-0.78618222 2.6523147 0.5162394 36 17
-0.76934397 2.6551967 0.51589555 48 17
-0.76405621 2.6987245 0.52294463 23 17
-0.75563353 2.7327926 0.52827442 13 17
-0.73987955 2.7411814 0.52896214 19 17
-0.72053349 2.7361443 0.52724284 12 17
-0.70495832 2.7452843 0.52810252 19 17
-0.66055208 2.6396711 0.50833064 51 17
-0.64481032 2.6455884 0.5086745 42 17
-0.62264216 2.6245766 0.50420439 54 17
-0.60652637 2.6283474 0.50420439 38 17
-0.5944922 2.6502812 0.50747102 184 17
-0.57317621 2.6307805 0.50334471 55 17
-0.5576359 2.6371391 0.50386053 72 17
-0.54104763 2.638581 0.50351667 50 17
-0.52407789 2.6379867 0.50282896 50 17
-0.50732231 2.6382506 0.50231314 57 17
-0.49022225 2.6364717 0.50145352 61 17
-0.47246489 2.6307044 0.49990615 45 17
-0.45462823 2.6238482 0.49818686 45 17
-0.43754417 2.6207588 0.49715528 42 17
-0.42051515 2.6175587 0.4961237 63 17
-0.40278834 2.609381 0.49423248 42 17
-0.3879278 2.6195986 0.49560791 31 17
-0.37018189 2.6102262 0.49354476 39 17
-0.35376057 2.6095202 0.49302897 44 17
-0.34763077 2.6878412 0.50643945 26 17
-0.34719566 2.8199546 0.52930599 9 17
-0 0 0 5 17
-0.31017131 2.8024631 0.5255236 12 17
-0.29204503 2.795496 0.52397621 10 17
-0 0 0 4 17
-0.25009641 2.7164719 0.50953418 6 17
-0 0 0 5 17
-0.21139146 2.6525629 0.497843 9 17
-0 0 0 5 17
-0.17555952 2.6067975 0.48941848 16 17
-0.15980361 2.6117587 0.49010617 3 17
-0 0 0 14 17
-0 0 0 43 17
-0 0 0 63 17
-0 0 0 62 17
-0 0 0 17 17
-0.063051991 2.5951898 0.48649567 59 17
-0.047017068 2.5896182 0.4854641 74 17
-0.031102018 2.5878878 0.48512024 79 17
-0.015016599 2.555522 0.47944656 33 17
0.00066465262 2.5526106 0.4789308 8 17
0.016338868 2.5545287 0.47927466 7 17
0.032322135 2.5799913 0.4837448 7 17
0.047954723 2.5689101 0.48185357 12 17
0.063764319 2.5705371 0.48219743 10 17
0.080376334 2.5976677 0.48701146 6 17
0 0 0 4 17
0.11725823 2.7136068 0.50747102 126 17
0.13361754 2.7069325 0.50643945 36 17
0.15136224 2.7267177 0.51004994 14 17
0.16784935 2.7218046 0.50936222 28 17
0.18096955 2.6676478 0.50007808 57 17
0.19610582 2.6497855 0.49715528 85 17
0.21228261 2.6475503 0.49698335 71 17
0.22793339 2.6393275 0.49577984 80 17
0.24376231 2.6339555 0.49509212 99 17
0 0 0 102 17
0 0 0 63 17
0 0 0 84 17
0 0 0 56 17
0.32829633 2.6565259 0.50059384 51 17
0.34307358 2.6427379 0.49853072 60 17
0.35504633 2.6093454 0.49302897 96 17
0.36620727 2.5729809 0.48701146 216 17
0.38227659 2.5726345 0.48735532 224 17
0.39940777 2.5790024 0.48890269 258 17
0.41616252 2.582339 0.48993424 303 17
0.43167508 2.5777936 0.48959041 265 17
0.44731578 2.5741258 0.48941848 221 17
0.46310189 2.5713325 0.48941848 177 17
0.47778985 2.5626316 0.4883869 199 17
0.49313274 2.5577168 0.48804304 209 17
0.50977731 2.559474 0.48890269 190 17
0.52665985 2.562088 0.48993424 186 17
0.5429821 2.5616996 0.49045002 201 17
0.55869019 2.5583198 0.49045002 191 17
0.57437724 2.5548437 0.49045002 185 17
0.5902642 2.5522311 0.49062195 200 17
0.60682297 2.5523951 0.49130967 205 17
0.6231727 2.5514951 0.49182546 169 17
0.63953418 2.5504901 0.49234125 182 17
0.65517163 2.5465181 0.49234125 172 17
0.66953003 2.5376868 0.4914816 185 17
0.6845749 2.5316288 0.49113774 170 17
0.70062095 2.5292797 0.4914816 169 17
0.71773738 2.5306201 0.49251318 135 17
0.73434818 2.5299532 0.4932009 154 17
0.75125778 2.5301223 0.49406055 155 17
0.76762551 2.5282931 0.49457633 157 17
0.78312439 2.5235355 0.49457633 115 17
1.003153 3.1648312 0.61286354 43 17
0 0 0 37 17
0 0 0 33 17
0 0 0 64 17
0 0 0 25 17
0 0 0 13 17
0 0 0 5 17
1.1573507 3.1715944 0.6226635 87 17
1.174045 3.1570456 0.62128806 149 17
0 0 0 161 17
0 0 0 135 17
0 0 0 133 17
0 0 0 128 17
1.2751601 3.1314087 0.62352318 170 17
1.2981181 3.1326275 0.62524247 148 17
1.3207566 3.1327744 0.62678981 156 17
1.3418938 3.1291389 0.62764949 149 17
0 0 0 147 17
0 0 0 157 17
0 0 0 149 17
0 0 0 153 17
1.4472209 3.1079402 0.63177574 139 17
1.474263 3.1159234 0.63504243 182 17
1.4976189 3.1156988 0.63676172 178 17
1.5188677 3.110878 0.63762134 156 17
1.5409886 3.1076787 0.63882488 138 17
0 0 0 150 17
0 0 0 176 17
1.6106279 3.1032741 0.64363885 147 17
1.6346865 3.1029217 0.6455301 150 17
1.6574085 3.0997841 0.64690554 136 17
1.6763972 3.0895562 0.64690554 147 17
1.6995964 3.0869799 0.64845288 145 17
1.7295485 3.0962775 0.65240723 112 17
1.754339 3.0958936 0.65447038 119 17
1.7777178 3.0927591 0.65601778 111 17
1.801124 3.0894539 0.65756512 125 17
1.8240553 3.0851293 0.65894055 142 17
1.8470013 3.0806396 0.66031599 145 17
1.8699605 3.075984 0.66169143 132 17
1.8939654 3.07284 0.66341072 149 17
1.9148713 3.0645034 0.66409844 126 17
1.9378537 3.0593553 0.66547388 151 17
1.9608448 3.0540402 0.66684932 138 17
1.9886768 3.0559907 0.66977209 164 17
2.0133536 3.0527787 0.67166328 148 17
2.0397072 3.0518365 0.6740703 160 17
2.067229 3.0523167 0.67682117 157 17
2.094276 3.0517612 0.67940015 153 17
2.1191452 3.0477524 0.68129134 140 17
2.1434767 3.0427475 0.68301064 135 17
2.1741185 3.0463805 0.68662113 117 17
2.205462 3.0505502 0.69040358 147 17
2.2282109 3.0425248 0.69160706 129 17
2.2456641 3.0272129 0.6912632 129 17
2.2754354 3.0283439 0.69452989 121 17
2.304112 3.0276549 0.69745266 110 17
2.3304608 3.0236058 0.69968778 115 17
2.3598759 3.0232303 0.70278245 104 17
2.392427 3.0264726 0.70673686 123 17
2.4232602 3.0271206 0.71017545 119 17
2.4510903 3.0236762 0.71275437 146 17
2.4745955 3.0146728 0.71412981 124 17
2.503118 3.0115566 0.71688068 115 17
2.5272563 3.0029261 0.71842802 115 17
2.5532987 2.9963624 0.72049117 102 17
2.5774257 2.9873538 0.72203851 147 17
2.6209741 3.0004246 0.72874379 249 17
2.6386826 2.9835482 0.72857183 116 17
2.6681073 2.9797809 0.73149467 112 17
2.7041988 2.9830649 0.73613673 127 17
2.7424283 2.9881954 0.74129462 132 17
2.7741184 2.9857495 0.74473315 140 17
2.8031821 2.9801555 0.74748403 121 17
2.8377144 2.9800258 0.75161034 137 17
2.869616 2.9767461 0.75504893 139 17
2.9029596 2.974597 0.75883138 132 17
2.9329233 2.9686453 0.76175416 128 17
2.967798 2.9673145 0.76588047 127 17
3.0027659 2.9656668 0.77000678 130 17
3.0293658 2.9554436 0.77206993 132 17
3.0602076 2.9491084 0.7751646 116 17
3.0975053 2.9486198 0.77980673 128 17
3.1291716 2.9423838 0.78307337 113 17
3.1579909 2.9331872 0.78565228 163 17
3.1744778 2.9124227 0.78530842 147 17
3.1740437 2.8763471 0.78101021 87 17
3.1931005 2.8581319 0.78135407 59 17
3.2150047 2.8424017 0.78238565 109 17
3.2368357 2.8265102 0.78341722 102 17
3.2600844 2.8117449 0.78479266 95 17
3.2915208 2.8038294 0.78805929 79 17
3.342577 2.8121281 0.7957961 68 17
3.3984029 2.823683 0.80456448 70 17
3.454495 2.8346574 0.81333292 65 17
3.5437517 2.8717265 0.82949424 85 17
3.61129 2.8899493 0.84066963 119 17
3.6436367 2.8793449 0.84393626 161 17
3.68453 2.8751206 0.84909415 158 17
3.7372108 2.8795238 0.85683095 147 17
3.7814603 2.8768244 0.86267656 152 17
3.8266041 2.8742816 0.86869407 157 17
3.8726492 2.8718793 0.87488353 171 17
3.9084764 2.8614519 0.87883788 186 17
3.9499085 2.854733 0.88399577 172 17
3.9994226 2.8533361 0.8908729 203 17
4.0514827 2.8531401 0.89826584 195 17
4.0972199 2.8479125 0.9042834 205 17
4.1381712 2.8388853 0.90926933 179 17
4.1840587 2.832777 0.91528684 204 17
4.2382154 2.8316865 0.92302364 170 17
4.2941599 2.8311219 0.9311043 197 17
4.3386965 2.8224533 0.93677801 216 17
4.3874321 2.8160055 0.94331127 218 17
4.444572 2.814337 0.95156389 244 17
4.4884896 2.803719 0.95706564 229 17
4.5441828 2.7999048 0.96497434 239 17
4.5991549 2.7950001 0.97271115 182 17
4.6567712 2.791045 0.98096377 230 17
4.6924644 2.7734501 0.98474622 201 17
4.7655602 2.7773552 0.99609351 272 17
4.8072791 2.7623005 1.0010794 365 17
4.8224235 2.7317801 1.0007356 410 17
4.8279147 2.6958928 0.99850053 324 17
4.8322845 2.6595662 0.99609351 315 17
4.835525 2.6228178 0.9935146 291 17
4.8324156 2.5828781 0.98973215 283 17
4.8298707 2.5435348 0.98612165 218 17
4.8366437 2.5093129 0.98440236 302 17
4.8466868 2.4768977 0.98337078 313 17
4.8485956 2.4404662 0.98079181 344 17
4.8564186 2.4071681 0.97941637 223 17
4.9427991 2.4123375 0.99334264 324 17
4.9530687 2.3798294 0.99248302 335 17
4.9649067 2.348129 0.9919672 396 17
4.9506445 2.3043122 0.98646551 217 17
4.9691682 2.2759445 0.98732513 458 17
4.9731607 2.2409573 0.98543394 428 17
4.9742103 2.204809 0.98302692 383 17
4.9822273 2.1718833 0.98199534 394 17
4.9628673 2.1272931 0.97580588 510 17
4.9631186 2.0914431 0.97339886 536 17
4.9694877 2.0583105 0.97219539 603 17
4.9710755 2.0233207 0.97013223 594 17
4.9660192 1.9858272 0.9668656 553 17
4.9680257 1.9513551 0.96497434 575 17
4.9753103 1.9190615 0.96411473 596 17
4.9768586 1.8846577 0.96222347 492 17
4.9781723 1.8503072 0.96033227 460 17
4.9857302 1.8183759 0.95964456 513 17
4.9698977 1.7781203 0.95465863 297 17
4.9835029 1.7485712 0.95517439 467 17
4.9941378 1.71796 0.95517439 460 17
5.0017848 1.6863395 0.95465863 483 17
4.9783659 1.6444863 0.94846916 258 17
4.943377 1.5993432 0.94021654 21 17
4.9606094 1.5713626 0.94159198 41 17
4.9626307 1.5385599 0.94021654 32 17
4.9738631 1.508653 0.9405604 33 17
4.9811378 1.4775449 0.94021654 38 17
4.9872718 1.4461297 0.93970078 32 17
4.990365 1.4138887 0.9386692 40 17
4.9904017 1.3808755 0.93712187 36 17
4.9892712 1.3476579 0.93540257 38 17
4.9850636 1.3137527 0.93316746 40 17
4.9863524 1.2814223 0.93196398 30 17
4.9826546 1.2479279 0.92990083 28 17
4.9816051 1.2152282 0.92835343 37 17
4.9832172 1.183272 0.92732185 31 17
4.9731078 1.1486787 0.92422718 18 17
4.9944792 1.1213831 0.92680609 29 17
4.9983788 1.090086 0.92629033 33 17
5.0001545 1.0583749 0.92543066 21 17
5.0055895 1.0274763 0.92525876 25 17
5.013732 0.99712801 0.92560261 20 17
5.0149193 0.96541333 0.92474294 19 17
5.0062222 0.93191665 0.92216402 24 17
5.0011816 0.89926136 0.92027277 30 17
4.9968996 0.86687171 0.91855347 44 17
4.996295 0.83521909 0.91752189 36 17
4.9984078 0.80407661 0.91700613 35 17
5.002274 0.7732411 0.91683424 52 17
5.0078988 0.74267793 0.91700613 62 17
5.0094357 0.71151978 0.91649038 65 17
5.0137072 0.68076909 0.91649038 59 17
5.0187669 0.65011948 0.91666228 79 17
5.0187507 0.61882955 0.91597456 72 17
5.0195179 0.58767909 0.9154588 94 17
5.0122595 0.55567235 0.91356754 78 17
5.0106759 0.52439344 0.91270792 97 17
5.0177207 0.49402565 0.91339564 110 17
5.0245814 0.4635911 0.91408336 151 17
5.0214424 0.43224385 0.91305178 172 17
5.020072 0.40110996 0.91236407 194 17
5.0371752 0.37138978 0.91494298 269 17
5.0383763 0.34040862 0.91477108 286 17
5.0325041 0.30900252 0.91339564 357 17
5.0372562 0.27828154 0.9139114 519 17
5.0329657 0.24707708 0.91287982 599 17
5.0343866 0.21619074 0.91287982 606 17
5.0336499 0.18522334 0.91253597 536 17
5.0366607 0.15439479 0.91287982 294 17
5.0375133 0.12348751 0.91287982 233 17
5.0401459 0.092612237 0.91322368 165 17
5.0445595 0.061733868 0.9139114 162 17
5.053709 0.030836012 0.9154588 141 17
5.0557737 -0.00017315776 0.91580266 121 17
5.0379457 -0.031089477 0.91270792 84 17
5.0317497 -0.061929774 0.91167635 85 17
5.0322599 -0.092820786 0.91184825 82 17
5.0375047 -0.12384029 0.91287982 87 17
5.0464964 -0.15504776 0.91459912 76 17
5.0503721 -0.18618989 0.9154588 50 17
5.0491347 -0.21717489 0.9154588 49 17
5.0457392 -0.24805543 0.91511494 40 17
5.050024 -0.27933592 0.91614652 39 17
5.0570645 -0.31085894 0.91769385 46 17
5.0678391 -0.34274387 0.91992891 62 17
5.0744829 -0.37448359 0.9214763 52 17
5.0769997 -0.40600449 0.92233592 43 17
5.070487 -0.43681142 0.9216482 36 17
5.0785017 -0.46890894 0.92353946 40 17
5.0637641 -0.49890482 0.9214763 32 17
1.1405282 -0.12034847 0.23358797 25 17
1.1064779 -0.12365914 0.22774237 103 17
1.1066767 -0.13056043 0.2279143 133 17
1.108788 -0.1377096 0.22843009 117 17
1.1088991 -0.14463679 0.22860202 139 17
1.109943 -0.15170291 0.22894588 126 17
1.1128927 -0.15906404 0.22963358 132 17
1.1138448 -0.16617833 0.22997744 146 17
1.1244869 -0.1748136 0.2320406 168 17
1.1438184 -0.18499236 0.23565111 56 17
1.1348885 -0.19070908 0.23427568 4 17
1.1346676 -0.19783726 0.23444761 9 17
5.0757804 -0.91300404 0.93351132 32 17
5.072988 -0.94467163 0.93402714 30 17
5.0554876 -0.97354835 0.93196398 21 17
5.0677772 -1.0081978 0.93523061 29 17
1.1869315 -0.24462302 0.24493529 80 17
1.1420376 -0.24272858 0.23719847 152 17
1.1395643 -0.24952167 0.23702654 166 17
1.138973 -0.25672486 0.23719847 149 17
1.1373763 -0.26370862 0.23719847 138 17
1.1357368 -0.27068248 0.23719847 141 17
1.1330974 -0.27741283 0.23702654 162 17
1.1313739 -0.28436017 0.23702654 186 17
1.1191123 -0.28860143 0.23513532 11 17
1.1173203 -0.29546273 0.23513532 11 17
5.077642 -1.371825 0.95139194 26 17
1.1354483 -0.31519049 0.2390897 90 17
1.1287538 -0.32080966 0.23823005 157 17
1.1248717 -0.32718113 0.23788619 176 17
1.1218985 -0.33379707 0.23771426 190 17
1.1188865 -0.34038886 0.23754233 172 17
1.1148949 -0.3466647 0.23719847 221 17
1.1089901 -0.35230973 0.23651075 221 17
1.1124315 -0.36092624 0.23754233 175 17
1.1120669 -0.36836284 0.23788619 156 17
1.1116527 -0.37580854 0.23823005 159 17
1.1074628 -0.38198188 0.23788619 177 17
1.1097461 -0.3903999 0.23874584 168 17
1.1101125 -0.39819691 0.23926163 101 17
1.1326379 -0.41411009 0.24390371 15 17
4.748148 -1.7651187 0.91752189 132 17
4.7178802 -1.7868967 0.9139114 437 17
4.7242913 -1.8225442 0.91717803 510 17
4.7276912 -1.8572574 0.91992891 591 17
4.7198653 -1.8876934 0.92061663 536 17
4.7300935 -1.9255276 0.92474294 593 17
4.7373037 -1.9624276 0.92835343 614 17
4.7351599 -1.9956645 0.93024468 716 17
4.723731 -2.0250692 0.93041658 89 17
4.7238603 -2.0595243 0.9328236 53 17
4.7192402 -2.0920618 0.93437099 49 17
4.7161951 -2.1254292 0.93626219 34 17
4.7182918 -2.161298 0.93918496 31 17
4.722805 -2.1985192 0.94262356 29 17
4.7243667 -2.2346137 0.94554639 36 17
4.7238865 -2.2699568 0.9481253 35 17
4.7328892 -2.3101289 0.95259547 34 17
4.7371626 -2.34831 0.95620596 44 17
4.7420244 -2.3870728 0.95998842 48 17
4.7422023 -2.4237428 0.96291119 38 17
4.7456059 -2.4623184 0.96652174 26 17
4.7495856 -2.5014856 0.97030413 24 17
4.7541318 -2.5412581 0.97425854 23 17
4.7531714 -2.5783632 0.97718132 22 17
4.7648816 -2.6226742 0.98268306 9 17
4.7564411 -2.6561828 0.9842304 17 17
4.7537689 -2.6930838 0.98698127 27 17
4.750823 -2.730052 0.98973215 21 17
4.7390895 -2.7621264 0.99076372 17 17
4.7373185 -2.8001723 0.99385846 19 17
4.7453995 -2.8443758 0.99901634 27 17
4.7463799 -2.8846915 1.0027988 16 17
4.7487211 -2.9261591 1.0069251 23 17
4.7574162 -2.9719377 1.0124267 16 17
4.7565713 -3.0121369 1.0160373 20 17
4.7562404 -3.0529692 1.0198197 17 17
4.7588902 -3.0960586 1.0242898 22 17
4.7636571 -3.1409214 1.0292759 16 17
4.7623177 -3.1821284 1.0330583 15 17
4.7639141 -3.2256455 1.0375284 16 17
4.7659674 -3.2698586 1.0421705 23 17
4.7652302 -3.3125315 1.0462968 22 17
4.7665639 -3.3570189 1.0509388 17 17
4.7635207 -3.398787 1.0547214 20 17
4.7729197 -3.4498744 1.0612546 23 17
4.777895 -3.4982951 1.0669283 18 17
4.7777066 -3.543386 1.0715704 25 17
4.7834458 -3.593338 1.077588 21 17
4.7934561 -3.6470709 1.084637 20 17
4.7951808 -3.6950498 1.0899668 19 17
4.7949433 -3.7419746 1.0949527 18 17
4.7912178 -3.786592 1.099251 18 17
4.7932782 -3.8362274 1.1049247 19 17
4.7895508 -3.8816893 1.1093948 25 17
4.7953463 -3.9353714 1.1161001 36 17
4.7953577 -3.9848638 1.1216018 31 17
4.7941875 -4.0338693 1.1269315 32 17
4.7963457 -4.0862036 1.133121 27 17
4.8077397 -4.147078 1.1415455 32 17
4.7918506 -4.1849222 1.1437806 20 17
4.7874875 -4.2331653 1.1487665 19 17
4.8194165 -4.3143582 1.162349 28 17
4.8198652 -4.3683205 1.1687104 13 17
4.8307214 -4.4324384 1.1776507 26 17
4.840971 -4.4968529 1.1865909 18 17
4.8455868 -4.5568352 1.1943278 21 17
4.8368025 -4.6048179 1.1989698 32 17
4.8361239 -4.6610656 1.2056751 31 17
4.8349361 -4.7174773 1.2123803 28 17
4.8276296 -4.7685122 1.2177101 23 17
4.8442626 -4.8440089 1.2290574 30 17
4.8442235 -4.9037719 1.2364504 30 17
4.846385 -4.9665356 1.244531 23 17
4.8445382 -5.0259628 1.2517521 27 17
4.8502965 -5.0941133 1.2610363 23 17
4.8398738 -5.1460204 1.2663661 42 17
4.8457618 -5.2160311 1.2759941 26 17
4.8463078 -5.2812257 1.2844186 28 17
4.8422647 -5.3422437 1.2918116 22 17
4.8507986 -5.4180861 1.3026431 29 17
4.8631511 -5.4993978 1.3146782 16 17
4.8837609 -5.5914488 1.3291202 20 17
4.8693123 -5.6444297 1.33445 31 17
4.8780394 -5.7251835 1.3461412 28 17
4.8789787 -5.797965 1.3559412 17 17
4.8773179 -5.8686991 1.3652253 21 17
4.8662205 -5.9289703 1.3721025 14 17
4.8719373 -6.0107508 1.3837936 21 17
4.8768325 -6.0928226 1.3954848 16 17
4.852797 -6.1396322 1.3992673 11 17
4.9059672 -6.2857661 1.4250566 25 17
4.8985815 -6.3563204 1.4339969 42 17
4.8875299 -6.4230995 1.4420776 37 17
4.864006 -6.4742308 1.4467196 34 17
4.8881702 -6.5901875 1.4654599 72 17
4.9332132 -6.7368803 1.4907335 155 17
4.8929381 -6.7686195 1.4910774 197 17
4.8639059 -6.8161545 1.4948598 132 17
4.8373108 -6.8676133 1.4995019 142 17
4.8923826 -7.0370817 1.5292456 12 17
4.7855606 -6.9743776 1.5096457 50 17
4.7178154 -6.9669075 1.5019089 67 17
4.5479679 -6.8057208 1.4620214 200 17
4.5223961 -6.8581681 1.4671793 161 17
4.5855541 -7.0476131 1.5008774 93 17
4.5592575 -7.1021423 1.5063791 10 17
4.5266647 -7.147459 1.5099896 5 17
4.4597521 -7.1383424 1.5024247 36 17
4.4169021 -7.1672497 1.5027686 19 17
4.3887072 -7.2203102 1.5080984 5 17
0 -0 0 5 17
4.9731789 -8.4124193 1.7389991 25 17
4.9571948 -8.5040483 1.7513781 20 17
4.9250517 -8.5693207 1.7584271 16 17
4.8990936 -8.6465158 1.7678833 17 17
4.8935127 -8.7615528 1.7849042 25 17
3.839421 -6.9749436 1.4229934 50 17
3.8031297 -7.0104918 1.4254005 294 17
3.7619007 -7.0371704 1.4260882 307 17
3.7007413 -7.0261307 1.4193829 388 17
3.6548371 -7.0434599 1.4183514 451 17
3.6061687 -7.0552278 1.4162883 445 17
3.5628107 -7.0772219 1.4162883 423 17
3.5162549 -7.092772 1.4150847 262 17
3.534049 -7.2399135 1.4394987 308 17
3.5215707 -7.3280497 1.4523934 317 17
3.7672808 -7.9639273 1.5710244 345 17
3.7183442 -7.9868927 1.5710244 405 17
3.658597 -7.9862738 1.5665543 321 17
3.6091204 -8.0076742 1.5663823 373 17
3.581485 -8.0782967 1.5756665 293 17
3.5535121 -8.1497822 1.5851226 306 17
3.5543067 -8.2900333 1.6076453 200 17
4.9375019 -11.712902 2.2518637 366 17
4.8508306 -11.707485 2.2451584 127 17
4.7666416 -11.706922 2.2394848 292 17
4.6844726 -11.71034 2.2346709 349 17
4.5934324 -11.69027 2.2255585 514 17
4.5134573 -11.697098 2.2216041 638 17
4.4370623 -11.712596 2.2193692 693 17
4.3579001 -11.720211 2.2157586 756 17
4.2676663 -11.696758 2.2064743 642 17
4.1901712 -11.706957 2.2035515 609 17
4.1110797 -11.711999 2.1997693 634 17
4.0333672 -11.720237 2.1966743 727 17
3.9528742 -11.719563 2.1920323 617 17
3.8771796 -11.732372 2.1899693 695 17
3.7981389 -11.734385 2.1860149 647 17
3.7213035 -11.742445 2.183264 703 17
3.64568 -11.753767 2.1812007 662 17
3.5634763 -11.742923 2.1751833 784 17
3.488833 -11.756067 2.173636 725 17
3.4094949 -11.752655 2.1691658 699 17
3.3330176 -11.75819 2.166415 723 17
3.2568641 -11.764179 2.163836 693 17
3.1792202 -11.763971 2.1602254 745 17
3.1014502 -11.762301 2.1564431 670 17
3.0262749 -11.769662 2.1543798 640 17
2.9508865 -11.775587 2.1521449 666 17
2.8746047 -11.777203 2.1492219 630 17
2.7979586 -11.77641 2.1459553 593 17
2.7225404 -11.779919 2.1435483 635 17
2.6484807 -11.788713 2.1421728 645 17
2.5744157 -11.797043 2.1407974 670 17
2.4999397 -11.802979 2.1390781 622 17
1.6180123 -7.8791943 1.4372636 65 17
1.5646343 -7.8638539 1.4327934 54 17
1.5129972 -7.855895 1.4296987 55 17
1.4627802 -7.8543777 1.4278075 57 17
1.4131627 -7.8554492 1.426432 51 17
1.364936 -7.8639722 1.426432 48 17
1.318447 -7.8828869 1.4283233 60 17
1.9016453 -11.811255 2.1213696 289 17
1.8303427 -11.830488 2.1227448 790 17
1.7529414 -11.80934 2.1170712 155 17
0.97293466 -6.846879 1.2404047 43 17
0.91683125 -6.7492509 1.2221802 371 17
0.8746407 -6.748888 1.2211487 365 17
0.83321381 -6.7541275 1.2211487 419 17
0.79359204 -6.7747674 1.2238996 181 17
0.79910672 -7.2034531 1.2983449 81 17
0.7631132 -7.2865996 1.3120992 109 17
0.72061437 -7.313693 1.3160536 97 17
0.67626923 -7.3238621 1.3170851 72 17
0.63148755 -7.3298368 1.3174291 69 17
0.58626455 -7.3306279 1.3169132 73 17
0.54047436 -7.3232803 1.315022 100 17
0.4947964 -7.3156471 1.3131307 77 17
0.44995973 -7.3195291 1.3133028 104 17
0.405476 -7.3300209 1.3146782 110 17
0.36078337 -7.338274 1.3157097 129 17
0.31574979 -7.3403497 1.3157097 142 17
0.27088657 -7.3470712 1.3165693 153 17
0.22573985 -7.3466258 1.3162255 141 17
0.18043824 -7.3390093 1.3146782 157 17
0.13529357 -7.3340688 1.3136466 176 17
0.14710757 -11.891522 2.1089907 175 17
0.074289501 -11.915843 2.113117 258 17
0.0011715381 -11.904253 2.1110537 335 17
-0.071941823 -11.915857 2.113117 443 17
-0.14519754 -11.927012 2.11518 554 17
-0.21819818 -11.916047 2.1134608 542 17
-0.29123762 -11.91153 2.1129448 646 17
-0.36471024 -11.922319 2.11518 634 17
-0.43814588 -11.927732 2.1165555 503 17
-0 -0 0 424 17
-0.58381051 -11.907682 2.1141484 354 17
-0.65648443 -11.896991 2.1129448 250 17
-0.72832656 -11.874057 2.1096783 138 17
-0.80375427 -11.907697 2.1163836 257 17
-0.88041723 -11.951663 2.12498 931 17
-0.95412618 -11.950946 2.1258397 967 17
-1.0281968 -11.9537 2.127387 974 17
-1.1018853 -11.95109 2.1280746 898 17
-1.1763515 -11.955869 2.1301379 846 17
-1.2512249 -11.963122 2.1327169 764 17
-1.3093228 -11.817163 2.1084747 445 17
-1.3877555 -11.859785 2.1174152 324 17
-1.4726596 -11.949798 2.1347799 411 17
-1.5425419 -11.914158 2.1301379 275 17
-1.6173377 -11.917159 2.1323729 342 17
-0 -0 0 289 17
-1.760282 -11.874976 2.1285906 266 17
-1.8301058 -11.844481 2.1251519 277 17
-1.8988401 -11.808712 2.1208537 261 17
-1.9659065 -11.764774 2.11518 90 17
-1.4014912 -8.0795918 1.4646003 21 17
-1.4499952 -8.0650225 1.4635687 33 17
-1.5012552 -8.0656586 1.465288 28 17
-1.5512751 -8.0591974 1.4658039 44 17
-1.6035761 -8.0640202 1.4683827 28 17
-2.3879049 -11.637156 2.1067555 243 17
-2.4619141 -11.634815 2.1089907 263 17
-2.5343063 -11.624303 2.1098502 245 17
-2.6025651 -11.595077 2.1074433 283 17
-2.6714466 -11.56929 2.1057239 343 17
-2.7421567 -11.551723 2.105552 269 17
-2.8062193 -11.506924 2.1005661 167 17
-2.876054 -11.486622 2.1000502 141 17
-2.9459903 -11.46685 2.0997064 118 17
-2.0225446 -7.6752033 1.4186952 235 17
-2.0133781 -7.4543643 1.3810427 94 17
-2.0372875 -7.3630638 1.3667727 72 17
-2.0421717 -7.2082477 1.3409833 95 17
-2.080056 -7.1738191 1.337029 128 17
-2.0979955 -7.0730844 1.3210396 61 17
-3.3893442 -11.177054 2.0718539 82 17
-3.4648588 -11.178631 2.0759802 296 17
-2.3559794 -7.4380503 1.395141 406 17
-2.3967247 -7.4084573 1.3923901 826 17
-2.4430635 -7.3964181 1.3929058 712 17
-2.5066457 -7.4354339 1.4028778 997 17
-2.5217946 -7.3314123 1.3865445 791 17
-2.5253305 -7.1977406 1.3647095 643 17
-2.5492144 -7.1255269 1.3542218 746 17
-2.5459926 -6.9811015 1.3303237 901 17
-2.5870645 -6.960731 1.3294641 1505 17
-2.6318183 -6.950254 1.3304956 1484 17
-2.6744149 -6.9339747 1.3304956 1428 17
-2.7248302 -6.9376078 1.3342781 1548 17
-2.771369 -6.9308205 1.3361692 1425 17
-2.7841463 -6.8406858 1.322415 1280 17
-2.8302126 -6.8334861 1.3243061 1328 17
-2.9122391 -6.9113173 1.3423587 1298 17
-2.9794199 -6.9512706 1.3533622 1542 17
-3.0243771 -6.9382768 1.3543937 1417 17
-3.0752721 -6.9385033 1.3580043 266 17
-4.7068567 -10.44767 2.0333419 247 17
-4.7729244 -10.423071 2.0342014 292 17
-4.828063 -10.374832 2.030591 189 17
-3.6008029 -7.6143994 1.5034564 443 17
-3.6035297 -7.5006967 1.4857476 192 17
-3.641711 -7.4625077 1.4826529 178 17
-5.0785956 -10.247925 2.0295594 293 17
-5.1387239 -10.21129 2.0285277 316 17
-5.1959047 -10.16904 2.0264647 234 17
-5.2636452 -10.147461 2.0285277 435 17
-5.3037839 -10.073131 2.0202751 176 17
-4.2736778 -7.9967918 1.6158979 94 17
-4.3790083 -8.0743408 1.6365294 160 17
-3.8757617 -7.0426502 1.436404 605 17
-3.8641679 -6.9206748 1.4168041 903 17
-3.8949103 -6.8762608 1.4126778 835 17
-3.8163311 -6.6420918 1.3703831 701 17
-3.8570144 -6.6185503 1.3703831 993 17
-3.4485788 -5.8348203 1.2163347 80 17
-3.4792528 -5.8050995 1.2146155 77 17
-3.5020204 -5.7625937 1.2103171 93 17
-3.5269806 -5.7242217 1.2068785 122 17
-3.5448196 -5.6748981 1.2012049 374 17
-3.6043363 -5.6921625 1.2092856 82 17
-4.1488175 -6.4642444 1.3739936 311 17
-4.1518846 -6.3825083 1.3623025 340 17
-3.9177504 -5.9423537 1.2756503 692 17
-3.9355354 -5.8903503 1.2698046 740 17
-3.9362662 -5.8138785 1.2588012 711 17
-3.940665 -5.7441211 1.2491732 757 17
-3.9421086 -5.6712942 1.2388574 481 17
-3.9700279 -5.6373329 1.2367942 550 17
-3.9942472 -5.5984306 1.2336996 520 17
-4.0319848 -5.578608 1.2347311 323 17
-4.064393 -5.5513787 1.2342154 369 17
-4.0848856 -5.5081339 1.230261 419 17
-4.0996776 -5.4577579 1.2247592 418 17
-4.0812068 -5.3642831 1.2098014 712 17
-4.145905 -5.3805032 1.2189137 940 17
-4.1849003 -5.3627305 1.2206329 863 17
-4.2299404 -5.3524113 1.2240715 703 17
-5.6947474 -7.1163597 1.6241505 265 17
-3.9542422 -4.8791075 1.1295105 411 17
-3.9503665 -4.8136249 1.1202264 672 17
-3.9609442 -4.7665625 1.1150684 593 17
-3.9685574 -4.716536 1.1092229 575 17
-3.9757068 -4.6665969 1.1033772 550 17
-3.9618077 -4.5928745 1.0920299 615 17
-3.9730699 -4.5491843 1.0875598 554 17
-3.9800315 -4.501101 1.0820581 266 17
-4.0023193 -4.4707227 1.0806826 288 17
-4.0303373 -4.4468107 1.0808545 359 17
-4.061542 -4.426353 1.0818862 354 17
-4.0899658 -4.4027925 1.08223 297 17
-4.1101561 -4.3704362 1.0805107 216 17
-4.0981846 -4.3044596 1.0707108 129 17
-4.1593776 -4.315413 1.0794791 320 17
-4.1713338 -4.275001 1.0758686 311 17
-4.128963 -4.1799293 1.0588477 307 17
-4.0883708 -4.0883279 1.0425143 456 17
-4.1098762 -4.0597029 1.0416547 477 17
-4.1777096 -4.0763836 1.0521424 302 17
-4.2388096 -4.0855455 1.0609108 448 17
-4.2937584 -4.0879951 1.0681318 450 17
-7.7131801 -7.2551069 1.8815284 231 17
-7.8116727 -7.2579389 1.8944231 553 17
-7.9083109 -7.2578349 1.9068019 456 17
-5.9647527 -5.4066968 1.4384671 48 17
-8.1200638 -7.2706528 1.9356861 493 17
-5.3311672 -4.7143364 1.2754784 60 17
-8.1567459 -7.1250887 1.923651 41 17
-2.6984918 -2.3271194 0.65533006 92 17
-2.708971 -2.3073227 0.65447038 137 17
-2.7185557 -2.2868512 0.65343881 163 17
-2.7166283 -2.2569025 0.64982831 98 17
-2.7304254 -2.240191 0.64982831 309 17
-2.7142768 -2.1991992 0.64312309 117 17
-2.7138777 -2.1714206 0.64002836 125 17
-2.715559 -2.1455631 0.63744944 109 17
-2.7170255 -2.119767 0.63487047 102 17
-2.7128167 -2.0898237 0.63108802 103 17
-2.7169659 -2.0665758 0.62919682 257 17
-2.71857 -2.0415804 0.62678981 96 17
-2.7231343 -2.0189912 0.62507051 75 17
-2.7330873 -2.0004981 0.62455475 104 17
-2.7317398 -1.9738775 0.62163192 68 17
-2.7478089 -1.9599403 0.6224916 116 17
-2.7557566 -1.9402063 0.62163192 106 17
-2.7910638 -1.9395715 0.62661791 70 17
-2.8118465 -1.9285414 0.6285091 56 17
-2.8366766 -1.9200916 0.63125998 61 17
-2.8623273 -1.9119567 0.63418275 70 17
-2.9406133 -1.9382941 0.64810902 357 17
-2.9499743 -1.9186022 0.64759326 61 17
-3.0147419 -1.9345319 0.65859669 248 17
-3.0565133 -1.9349765 0.66478616 66 17
-3.0892131 -1.9292376 0.66908437 54 17
-3.1412444 -1.9350594 0.67733699 74 17
-3.1648428 -1.9229138 0.67974401 52 17
-3.2036173 -1.9196701 0.68524569 9 17
-5.3555608 -3.1655605 1.1191947 24 17
-5.3680754 -3.1286702 1.1178193 10 17
-5.3811932 -3.0922365 1.1166158 10 17
-5.3932095 -3.0552742 1.1152403 13 17
-5.3972344 -3.0139568 1.1123176 9 17
-5.4078598 -2.9765067 1.1107702 13 17
-5.4087048 -2.9338713 1.1073316 8 17
-5.4135747 -2.8936605 1.1047527 5 17
-5.4103112 -2.8493681 1.1006265 10 17
-5.4128289 -2.8084018 1.0977036 10 17
-5.4062772 -2.7630274 1.0930616 12 17
-0 -0 0 6 17
-5.4053578 -2.6794066 1.0863563 11 17
-5.4128447 -2.6418669 1.084637 8 17
-5.4200745 -2.6043363 1.0829177 16 17
-5.4252667 -2.565974 1.0808545 10 17
-5.4328723 -2.5288939 1.0793072 13 17
-5.4375401 -2.4905858 1.077244 17 17
-5.4446373 -2.4535308 1.0756967 10 17
-5.4442806 -2.4132874 1.0727739 15 17
-5.4463444 -2.3743227 1.0703669 14 17
-5.4472303 -2.3350353 1.067788 15 17
-5.4487472 -2.2962093 1.0653809 9 17
-5.4436231 -2.2548127 1.0617704 15 17
-5.4418459 -2.2150521 1.0588477 19 17
-5.4370427 -2.1743007 1.0554091 11 17
-5.4337783 -2.1344123 1.0523143 11 17
-5.4283919 -2.0939367 1.0488758 15 17
-5.431005 -2.0567496 1.0469846 18 17
-5.4370594 -2.020983 1.045781 24 17
-5.4465814 -1.9865705 1.0452652 23 17
-5.4679427 -1.956434 1.0469846 35 17
-5.5133057 -1.9345955 1.053174 72 17
-5.5530162 -1.9103495 1.0583318 47 17
-8.5618248 -2.8874738 1.6103961 346 17
-8.5513201 -2.8256092 1.6052383 842 17
-8.5413179 -2.764286 1.6002524 863 17
-8.2604389 -2.6174567 1.5457509 316 17
-7.8698921 -2.4406104 1.4714775 271 17
-7.9855809 -2.4228935 1.4898739 336 17
-8.0956793 -2.4021654 1.5072387 452 17
-8.1414862 -2.3615065 1.5129124 307 17
-8.1472931 -2.309088 1.5113651 389 17
-8.2866259 -2.2937603 1.5340596 364 17
-8.4184637 -2.2747514 1.5553789 912 17
-6.2776442 -1.6547091 1.1664753 290 17
-8.5659552 -2.202194 1.577042 488 17
-8.5993729 -2.1546233 1.5806525 999 17
-8.6086035 -2.1008832 1.5799648 1001 17
-8.6088734 -2.0450609 1.5777297 724 17
-8.6030235 -1.9879829 1.574463 337 17
-8.6121759 -1.9345101 1.5739472 978 17
-8.619072 -1.8805798 1.5730876 916 17
-8.6265936 -1.826842 1.5723999 941 17
-8.6357107 -1.7734791 1.5720561 717 17
-8.7411118 -1.7393107 1.5889051 945 17
-8.723568 -1.6802367 1.5839192 452 17
-8.6436491 -1.6098914 1.5679297 474 17
-6.4166813 -1.1541173 1.1712893 15 17
-6.4149065 -1.1132061 1.1697419 33 17
-6.384696 -1.0676434 1.1632086 63 17
-6.3804283 -1.026724 1.1613173 62 17
-6.4197078 -0.99267936 1.167163 37 17
-6.4549103 -0.95761222 1.1723208 20 17
-8.7106552 -1.2380959 1.5689613 168 17
-8.7385864 -1.1874132 1.5725718 339 17
-8.7388687 -1.1328844 1.5713683 326 17
-8.7407675 -1.0786386 1.5705086 443 17
-8.7589626 -1.0263633 1.5725718 800 17
-8.6906843 -0.96433318 1.5595052 264 17
-8.6317749 -0.90420759 1.5481578 1076 17
-8.6969624 -0.85712874 1.5586455 263 17
-8.7226572 -0.80565441 1.5622561 344 17
-8.7343063 -0.75271106 1.5634595 327 17
-8.7309046 -0.69847465 1.5620841 268 17
-8.8817444 0.21822719 1.4725837 78 18
-8.8920784 0.27308458 1.4745022 70 18
-8.8734655 0.32702145 1.4717842 124 18
-8.8426914 0.38023078 1.4671476 119 18
-8.684413 0.42681819 1.4418864 289 18
-8.8482008 0.48931563 1.4689063 690 18
-8.8785315 0.54565823 1.4743423 288 18
-8.686904 0.58739722 1.443805 1015 18
-8.8485241 0.65289867 1.470665 102 18
-8.9653826 0.71686268 1.4903305 79 18
-8.9834356 0.77380919 1.4940077 81 18
-8.9853992 0.82955152 1.4951268 75 18
-8.9948759 0.88612157 1.4975251 82 18
-8.8910933 0.93101174 1.481537 45 18
-8.8803072 0.9850046 1.4807376 36 18
-8.8740969 1.0394746 1.4807376 43 18
-8.8734293 1.0946308 1.4816968 34 18
-8.8939562 1.1526101 1.4861735 71 18
-8.8534594 1.2026416 1.4807376 475 18
-8.7188635 1.2388841 1.459953 825 18
-8.7159796 1.2930832 1.4607524 431 18
-8.9234743 1.3798871 1.4960861 135 18
-8.9206867 1.4355557 1.4970454 152 18
-8.9224205 1.4920565 1.4988041 189 18
-8.9189329 1.5477883 1.4997634 144 18
-8.9170408 1.603883 1.5010425 172 18
-8.9177065 1.660555 1.5028012 171 18
-8.9102573 1.7158018 1.5032808 193 18
-8.9102116 1.772561 1.5050395 142 18
-8.9262419 1.8327599 1.5095161 156 18
-6.5700622 1.3909446 1.1213247 26 18
-6.5642972 1.4318628 1.1218042 37 18
-6.5592403 1.4729791 1.1224438 22 18
-6.54527 1.5120869 1.1216444 29 18
-6.5377898 1.5526757 1.1219642 42 18
-6.5367703 1.5948679 1.1234031 47 18
-6.5335641 1.6366261 1.1245222 31 18
-6.5358276 1.6798798 1.1266007 98 18
-8.8658829 2.3369961 1.5186294 141 18
-8.8113518 2.380537 1.5119144 455 18
-8.7861147 2.4316609 1.5101557 642 18
-8.7719784 2.4857948 1.5103155 713 18
-8.8456783 2.5654218 1.5253444 876 18
-8.795702 2.6095405 1.5195887 1055 18
-8.8276997 2.6780779 1.5277426 862 18
-8.8450432 2.7427199 1.5334983 1059 18
-8.8421631 2.8014131 1.5358965 1139 18
-8.841713 2.8610859 1.5387744 1114 18
-8.848361 2.9233363 1.5429313 1197 18
-8.8480291 2.9835672 1.5459691 1155 18
-8.8416901 3.0419772 1.5480475 1181 18
-8.8051615 3.0899601 1.5450097 849 18
-8.6531296 3.0963652 1.5221468 543 18
-8.5282497 3.1108336 1.5039203 626 18
-8.4044476 3.1242318 1.4858538 549 18
-8.3315773 3.1554611 1.4765806 502 18
-8.2448292 3.1805844 1.4649093 335 18
-8.1920824 3.2181189 1.4591535 318 18
-8.1098576 3.2433953 1.4482816 373 18
-8.0751753 3.2871399 1.4457235 384 18
-8.0730934 3.3441827 1.4489212 311 18
-8.9183941 3.7586608 1.6011281 325 18
-8.9251032 3.8261485 1.6064042 906 18
-8.9114113 3.88518 1.6081629 1013 18
-8.8801851 3.9365854 1.6068838 669 18
-6.1281109 2.7615738 1.1222839 89 18
-6.0231013 2.7588322 1.1066155 252 18
-5.9631042 2.7757392 1.0989413 272 18
-5.9058056 2.7932808 1.0917466 237 18
-5.9401593 2.8542652 1.1010197 91 18
-5.8134222 2.8373966 1.0813544 194 18
-5.7808681 2.8655598 1.0786364 195 18
-5.7667031 2.9027522 1.0792758 199 18
-5.7786684 2.953357 1.0847118 580 18
-5.6991048 2.9569316 1.0735202 450 18
-5.4616346 2.8763752 1.0333899 230 18
-5.3994846 2.8860981 1.025236 477 18
-5.3964248 2.9271767 1.027954 635 18
-5.4129534 2.979275 1.0343493 752 18
-5.4040508 3.0177267 1.036108 732 18
-5.4395413 3.0814853 1.0461805 436 18
-5.6208024 3.2299023 1.0835927 292 18
-5.6145234 3.272284 1.0861508 187 18
-5.6164331 3.3197334 1.0903077 151 18
-5.6255913 3.3718967 1.0959035 129 18
-5.6166053 3.4135294 1.0981419 138 18
-5.6148829 3.4598396 1.1018192 296 18
-5.5851765 3.4889963 1.1002203 322 18
-5.5770063 3.5316513 1.1027784 308 18
-5.5701842 3.5754037 1.1056563 282 18
-5.5605521 3.61759 1.1080545 265 18
-5.5382504 3.6516407 1.1080545 205 18
-8.8897934 5.9403439 1.765326 314 18
-8.8842363 6.0158119 1.7714015 741 18
-8.8683195 6.0847325 1.7755585 740 18
-8.8535118 6.1548109 1.7800351 549 18
-8.8397903 6.2260728 1.7848315 661 18
-8.831152 6.3014112 1.7907472 725 18
-8.8123207 6.3699374 1.7947443 625 18
-8.8136873 6.4536324 1.8028982 439 18
-8.7897797 6.5193524 1.8060957 451 18
-8.8040686 6.6140761 1.8171276 662 18
-8.7798157 6.6805253 1.8204851 682 18
-8.7894821 6.7734394 1.8308773 260 18
-8.7430859 6.8235989 1.829918 470 18
-8.7033758 6.8789535 1.8303977 619 18
-8.6879768 6.9538174 1.8359935 296 18
-8.6229067 6.9889688 1.831357 516 18
-8.6157227 7.0711818 1.8388714 306 18
-8.5903931 7.1390567 1.8427086 689 18
-8.5366077 7.1833692 1.8406301 553 18
-8.4172344 7.1715913 1.8246419 418 18
-8.3364477 7.1915073 1.8168077 404 18
-8.3048029 7.2535629 1.8195258 545 18
-8.1972866 7.2487988 1.8059359 398 18
-8.1144114 7.2647195 1.7976221 400 18
-7.9877691 7.2401195 1.7797154 482 18
-7.875556 7.226923 1.7648464 443 18
-7.7667007 7.215312 1.750617 400 18
-7.662601 7.2066975 1.7373469 356 18
-7.5424595 7.1814222 1.7203995 414 18
-7.4293156 7.1611133 1.704891 456 18
-7.3294239 7.1520982 1.6922604 462 18
-7.2432675 7.1553102 1.6826675 382 18
-7.1252427 7.1256256 1.6657201 468 18
-7.01965 7.1067038 1.6514907 514 18
-6.9345512 7.1072478 1.6418978 445 18
-6.8127217 7.068634 1.6236713 490 18
-6.5990653 6.9315591 1.583701 575 18
-6.5083981 6.9208612 1.5723494 202 18
-4.1756482 4.4950261 1.0273145 11 18
-4.1239643 4.4943771 1.0215588 15 18
-4.1407223 4.5686045 1.0322708 7 18
-4.156064 4.6424694 1.042823 4 18
-4.1477695 4.6908092 1.0477793 6 18
-4.0695629 4.6596622 1.0356283 16 18
-4.057013 4.7032323 1.0396254 9 18
-4.0229573 4.7220259 1.0383463 4 18
-3.9621327 4.7088528 1.0303522 5 18
-3.9022532 4.6958723 1.022518 10 18
-3.8533287 4.6953082 1.0174018 16 18
-2.7691586 3.4166069 0.74592364 24 18
-2.7623284 3.4512606 0.74960089 101 18
-2.7533405 3.4836352 0.7527985 105 18
-2.7495241 3.5230329 0.75743508 105 18
-2.74352 3.560168 0.76159197 126 18
-2.7485187 3.6122887 0.76878661 174 18
-2.7423091 3.6503961 0.77310342 205 18
-2.7369106 3.6901486 0.77773994 211 18
-2.73171 3.7307675 0.78253639 176 18
-2.7290041 3.7754612 0.78813225 217 18
-2.7201192 3.8122251 0.79212928 242 18
-2.7245259 3.8683918 0.79996347 183 18
-2.7131331 3.902869 0.80348086 190 18
-2.7081201 3.9471197 0.80891681 206 18
-2.7032189 3.9922721 0.81451261 249 18
-2.6945746 4.0325871 0.8191492 235 18
-2.6947732 4.086956 0.82650375 269 18
-2.6954815 4.1431327 0.83417803 197 18
-2.6764071 4.1695633 0.83609658 118 18
-2.6608059 4.2017531 0.83913434 80 18
-2.6501396 4.2422805 0.84377092 74 18
-2.0664034 3.3533106 0.67157888 138 18
-2.0345113 3.3473675 0.66806149 204 18
-2.0012481 3.3386197 0.66406447 19 18
-0 0 0 4 18
-0 0 0 6 18
-1.8784775 3.2687559 0.64423919 87 18
-1.8574123 3.2785027 0.64391941 112 18
-1.8348547 3.2855282 0.64311999 125 18
-1.8075217 3.2837524 0.6407218 58 18
-0 0 0 3 18
-0 0 0 6 18
-0 0 0 36 18
-0 0 0 69 18
-0 0 0 55 18
-0 0 0 36 18
-0 0 0 49 18
-0 0 0 74 18
-0 0 0 75 18
-0 0 0 14 18
-0 0 0 11 18
-0 0 0 12 18
-0 0 0 8 18
-0 0 0 7 18
-0 0 0 9 18
-1.1631404 2.7129042 0.51169765 6 18
-0 0 0 4 18
-0 0 0 4 18
-0 0 0 31 18
-0 0 0 69 18
-0 0 0 48 18
-0 0 0 53 18
-0 0 0 55 18
-0 0 0 50 18
-0 0 0 55 18
-0 0 0 59 18
-0 0 0 71 18
-0 0 0 87 18
-0 0 0 71 18
-0 0 0 46 18
-0 0 0 57 18
-0 0 0 45 18
-0.82728916 2.667464 0.48595679 173 18
-0 0 0 39 18
-0 0 0 47 18
-0 0 0 50 18
-0.77260834 2.7259035 0.49251193 27 18
-0.75955302 2.7439125 0.49475026 22 18
-0.74398929 2.7532861 0.49554968 17 18
-0.72859055 2.7635267 0.49650896 17 18
-0.69761741 2.7134488 0.48739573 29 18
-0.658894 2.6295819 0.47268665 59 18
-0 0 0 52 18
-0 0 0 69 18
-0.60949188 2.6374171 0.47204712 48 18
-0.59437859 2.6459231 0.47284654 231 18
-0.57666022 2.6427691 0.47172737 63 18
-0.56022924 2.6452918 0.47156748 56 18
