# .PCD v0.7 - Point Cloud Data file format
VERSION 0.7
FIELDS x y z intensity ring
SIZE 4 4 4 4 1
TYPE F F F F U
COUNT 1 1 1 1 1
WIDTH 261
HEIGHT 1
VIEWPOINT 0 0 0 1 0 0 0
POINTS 261
DATA ascii
5.5517826 0.069125943 -1.2603348 21 50
5.6189828 0.068896256 -1.3443552 22 51
5.5658975 0.034079373 -1.3311987 51 51
5.6486936 0.070325851 -1.4227964 12 52
5.6083169 0.069739506 -1.4813049 12 53
5.5864425 0.035181776 -1.4752823 8 53
5.1440444 -0.12733036 -0.84621239 24 45
5.1214948 -0.15822662 -0.84248286 12 45
5.1223969 -0.18972105 -0.84282196 41 45
5.1349211 -0.22174005 -0.84519523 127 45
5.070466 -0.25014964 -0.83434588 6 45
5.0806441 -0.28190923 -0.83638012 19 45
5.0758677 -0.31289694 -0.83587158 21 45
5.1141667 -0.3467603 -0.84282196 350 45
5.1021142 -0.37740892 -0.84112674 329 45
5.0997028 -0.4087078 -0.84112674 320 45
5.0666599 -0.43737075 -0.83587158 216 45
5.1360636 -0.12603059 -0.90846872 79 46
5.1489549 -0.15796575 -0.911008 350 46
5.140027 -0.18926607 -0.90955698 385 46
5.1338563 -0.22058967 -0.9086501 352 46
5.126513 -0.25179636 -0.90756184 364 46
5.1189799 -0.28292125 -0.90647358 316 46
5.1171474 -0.31432539 -0.90647358 344 46
5.1111979 -0.34545216 -0.90574807 283 46
5.108736 -0.12646437 -0.96609902 11 47
5.0696154 -0.15663561 -0.95857066 9 47
5.1067996 -0.18914689 -0.96609902 161 47
5.102602 -0.22035174 -0.96551991 369 47
5.0893936 -0.25107908 -0.96320349 329 47
5.111393 -0.12631324 -1.0286707 396 48
5.1085649 -0.15761326 -1.0282617 404 48
5.1182618 -0.18935476 -1.030511 85 48
5.2761617 -0.13039765 -0.41400495 158 38
5.2355165 -0.12866232 -0.47393626 514 39
5.2346287 -0.16078442 -0.47393626 456 39
5.2375221 -0.19304623 -0.47432521 416 39
5.224865 -0.12821636 -0.53815913 413 40
5.2329211 -0.16054811 -0.53914517 278 40
5.226871 -0.19247043 -0.53859735 27 40
5.213675 -0.22402535 -0.53728265 163 40
5.2151804 -0.25615814 -0.53761131 128 40
5.203527 -0.1278833 -0.60007089 414 41
5.2026443 -0.15980913 -0.60007089 164 41
5.2114849 -0.19209233 -0.60128784 15 41
5.2002912 -0.22364154 -0.60007089 52 41
5.189899 -0.25510913 -0.5989756 388 41
5.1931911 -0.28722191 -0.5995841 268 41
5.2004876 -0.12761633 -0.66318542 409 42
5.2095122 -0.15982816 -0.66452181 55 42
5.2024913 -0.19157086 -0.66371995 75 42
5.192307 -0.22310558 -0.66251719 333 42
5.1839113 -0.25461993 -0.6615817 341 42
5.166419 -0.28554678 -0.6594435 349 42
5.1517105 -0.3164511 -0.65770614 238 42
5.1734023 -0.34966114 -0.66091353 74 42
5.1528335 -0.12575167 -0.72170675 255 43
5.1845965 -0.15835583 -0.72652179 16 43
5.1756182 -0.18987657 -0.72535449 18 43
5.1684256 -0.22137731 -0.72447902 221 43
5.1472073 -0.25212249 -0.72156084 81 43
5.1544538 -0.28418857 -0.72287405 18 43
5.148663 -0.31556916 -0.7222904 19 43
5.1476169 -0.34722117 -0.72243631 55 43
5.144403 -0.37872741 -0.7222904 275 43
5.1798835 -0.12710918 -0.78937244 254 44
5.204668 -0.15967919 -0.79347557 54 44
5.1641188 -0.190155 -0.78716302 341 44
5.1618681 -0.2217954 -0.78700525 388 44
5.1702728 -0.25394902 -0.78858334 311 44
5.1469259 -0.28446794 -0.78511149 296 44
5.1450839 -0.31604353 -0.78511149 372 44
5.1430478 -0.34760723 -0.78511149 395 44
5.1349092 -0.37872157 -0.78416461 364 44
5.1295357 -0.40998542 -0.78369117 358 44
5.0944576 -0.43865398 -0.77848333 47 44
5.2231421 0.25554621 -0.86062169 284 45
5.2147655 0.22306943 -0.85892648 370 45
5.2150512 0.19103174 -0.85875696 382 45
5.2151399 0.15899894 -0.85858744 409 45
5.1923718 0.12641548 -0.85451889 278 45
5.2029033 0.094734915 -0.85621411 389 45
5.1935325 0.062687561 -0.85451889 469 45
5.1948047 0.030825533 -0.85468847 405 45
5.170258 -0.0010503079 -0.8504504 75 45
5.1681833 -0.032762341 -0.85011137 81 45
5.1718264 -0.064521395 -0.85078943 352 45
5.1703482 -0.096235789 -0.85061991 378 45
5.2232604 0.22453152 -0.9251554 85 46
5.2009535 0.1916108 -0.92080235 166 46
5.2039971 0.15975495 -0.92116511 21 46
5.199964 0.12770046 -0.92025822 22 46
5.2006497 0.095791675 -0.92025822 39 46
5.1745892 0.063555188 -0.91536105 363 46
5.1837325 0.031857036 -0.91699344 51 46
5.1464605 5.2097788e-05 -0.91010112 17 46
5.1807828 -0.03173944 -0.91644931 183 46
5.1539402 -0.063199952 -0.91155213 406 46
5.1554222 -0.094859079 -0.91191489 342 46
5.1461768 0.156881 -0.97362745 314 47
5.1705842 0.12588014 -0.97826028 207 47
5.1624298 0.093988918 -0.97652298 396 47
5.1580038 0.062250763 -0.9755578 385 47
5.1141357 0.030328788 -0.9668712 130 47
5.1338496 -0.0010511022 -0.97073191 17 47
5.1111794 -0.032413814 -0.96629208 188 47
5.1354122 -0.064075291 -0.97111797 358 47
5.1005864 -0.094953015 -0.96436173 26 47
5.1584058 0.12578489 -1.0384865 256 48
5.1551657 0.094060011 -1.0376685 361 48
5.1429214 0.062273633 -1.03501 282 48
5.17453 0.030900771 -1.0415539 24 48
5.145256 -0.00084308215 -1.035419 116 48
5.1157885 -0.032226529 -1.0292841 376 48
5.1115794 -0.063566826 -1.0284661 389 48
5.1130505 -0.094966196 -1.0288751 382 48
5.1737928 0.096900024 -1.1075289 88 49
5.1040025 0.06425146 -1.0919453 162 49
5.1609244 0.033311013 -1.1044987 15 49
5.1434584 0.0016339627 -1.1006029 13 49
5.103344 -0.029701959 -1.0917288 315 49
5.1108756 -0.061106518 -1.0934603 414 49
5.0889292 -0.092081472 -1.0886986 245 49
5.1061749 0.032274693 -1.1559058 340 50
5.0877776 0.00094116543 -1.1515737 259 50
5.3242021 0.26067266 -0.41852283 551 38
5.3187332 0.22770126 -0.41792613 542 38
5.3050947 0.19451532 -0.41664749 50 38
5.3032007 0.16186924 -0.41639176 28 38
5.301106 0.12925373 -0.41613603 366 38
5.2928338 0.09656141 -0.41536885 379 38
5.3003006 0.064167291 -0.41596556 33 38
5.2936201 0.031602927 -0.41536885 27 38
5.2877359 -0.0008772749 -0.41485739 36 38
5.2783608 -0.065653674 -0.41409022 28 38
5.2738738 -0.097965531 -0.41374922 24 38
5.3262248 0.26154172 -0.48327088 481 39
5.3098316 0.22808295 -0.48152062 372 39
5.2852721 0.19454062 -0.47899252 30 39
5.3012881 0.162568 -0.48045105 278 39
5.2783065 0.12944597 -0.47811738 456 39
5.2780066 0.097037934 -0.47802016 444 39
5.2675557 0.064514369 -0.47695056 294 39
5.2698426 0.032204647 -0.47714505 385 39
5.2699413 -0.00013110606 -0.47714505 422 39
5.2728267 -0.032484587 -0.47743675 418 39
5.2327209 -0.064356714 -0.47354731 243 39
5.230237 -0.096426629 -0.47335285 242 39
5.2955918 0.2601977 -0.54648572 499 40
5.2752409 0.22676215 -0.54407543 179 40
5.2695799 0.19413395 -0.5433085 37 40
5.2945161 0.16252697 -0.54593796 126 40
5.2735529 0.12950215 -0.5435276 519 40
5.2533779 0.096758947 -0.5412268 36 40
5.2508912 0.064486608 -0.54089814 25 40
5.2452245 0.032230325 -0.54024076 24 40
5.2363777 4.6212739e-05 -0.53925472 235 40
5.2422428 -0.032120582 -0.5399121 32 40
5.2439351 -0.064310297 -0.54013121 20 40
5.2315159 -0.096264936 -0.53881651 50 40
5.2761617 0.25907239 -0.60956317 440 41
5.2855849 0.22703612 -0.61053675 94 41
5.281919 0.19441646 -0.60992825 127 41
5.2740836 0.16172779 -0.60883301 427 41
5.2690234 0.12921625 -0.6081028 443 41
5.2707095 0.096902162 -0.60822451 365 41
5.2612796 0.064436123 -0.60700756 324 41
5.2496657 0.032076877 -0.60554719 392 41
5.2428155 -0.00013643214 -0.60469532 391 41
5.2308054 -0.032234997 -0.60323495 273 41
5.2414265 -0.06446185 -0.60457361 70 41
5.2200918 -0.096241847 -0.602018 410 41
5.2660632 0.25874901 -0.67267388 283 42
5.2804232 0.22698452 -0.67441118 20 42
5.2658706 0.19399758 -0.67227292 39 42
5.2540846 0.1612888 -0.67053562 396 42
5.23417 0.12853792 -0.6677292 51 42
5.249723 0.096691899 -0.66973376 23 42
5.2383261 0.064333223 -0.6681301 28 42
5.2197928 0.032075942 -0.66559094 185 42
5.2000709 4.8588998e-05 -0.66291809 103 42
5.2128563 -0.031938341 -0.66465545 26 42
5.2085986 -0.063874319 -0.66412085 24 42
5.2051358 -0.095777556 -0.66371995 392 42
5.242979 0.25835025 -0.73571414 242 43
5.2612677 0.22690345 -0.73819464 48 43
5.2467432 0.19402817 -0.73586005 362 43
5.2478347 0.16183111 -0.73586005 396 43
5.241806 0.12945543 -0.73483866 417 43
5.2345886 0.097141266 -0.73367137 291 43
5.2192588 0.064820491 -0.73133683 401 43
5.214612 0.032762311 -0.73060727 378 43
5.2038326 0.00076140254 -0.72900224 398 43
5.1869216 -0.031071771 -0.72652179 34 43
5.1905899 -0.062944628 -0.72710544 291 43
5.1861496 -0.094720937 -0.72652179 457 43
5.2718549 0.25903314 -0.80483812 21 44
5.2624927 0.22621509 -0.8031022 13 44
5.233191 0.19279605 -0.79820997 215 44
5.2155223 0.16010788 -0.79521155 111 44
5.2381244 0.12863475 -0.7986834 24 44
5.231904 0.096365012 -0.79757875 21 44
5.2165985 0.06406799 -0.79505372 111 44
5.2050438 0.031986408 -0.79315996 249 44
5.2288413 4.6705976e-05 -0.79694748 26 44
5.2238059 -0.032006245 -0.79615843 24 44
5.1929021 -0.063680656 -0.7912662 259 44
5.2042613 -0.095761396 -0.79315996 370 44
5.2463813 -0.16187584 -0.41153291 262 38
5.333437 0.064407587 -0.21926486 555 35
5.3307352 0.031662568 -0.21912093 524 35
5.3308291 -0.0010468047 -0.21912093 401 35
5.3307457 0.16270795 -0.28625327 564 36
5.3286505 0.12992328 -0.28607169 625 36
5.3283491 0.097206719 -0.28601116 637 36
5.3178663 0.064378649 -0.28534538 178 36
5.3101759 0.03170054 -0.28486118 32 36
5.3092723 -0.00088244322 -0.28480065 21 36
5.3271337 -0.033574063 -0.2858901 124 36
5.2829113 -0.065710612 -0.28322697 420 36
5.35536 0.26204458 -0.35359183 354 37
5.3329525 0.22815146 -0.35184667 574 37
5.3252821 0.1950942 -0.35119221 375 37
5.3144164 0.16204782 -0.35031962 27 37
5.3133163 0.12938713 -0.35017419 434 37
5.312016 0.096746035 -0.35002875 480 37
5.3135071 0.06416256 -0.35010147 461 37
5.3138003 0.031558286 -0.35010147 249 37
5.2929497 -0.0010476311 -0.34857443 506 37
5.2918463 -0.033518441 -0.34850171 431 37
5.2895465 -0.065963537 -0.34835628 463 37
5.2880449 -0.098400004 -0.34828356 470 37
5.2517629 -0.033093501 -0.41178864 202 38
5.3443489 0.36037061 -0.42073917 239 38
5.3404927 0.32720637 -0.42022771 541 38
5.3344407 0.2939935 -0.41954577 534 38
5.3385139 0.42662802 -0.48550728 557 39
5.3350759 0.39342302 -0.48492387 545 39
5.3155437 0.3591992 -0.48278469 43 39
5.3166542 0.32651564 -0.48268747 18 39
5.3066325 0.29322559 -0.48152062 40 39
5.3220959 0.49126673 -0.55119687 70 40
5.3329325 0.45928344 -0.55207336 359 40
5.3277235 0.42591941 -0.55119687 425 40
5.3232975 0.3927097 -0.55042994 439 40
5.3166814 0.35943642 -0.5494439 434 40
5.3267241 0.3272942 -0.55032039 67 40
5.3058052 0.29334351 -0.54780048 432 40
5.3122334 0.42452207 -0.61528289 437 41
5.2909813 0.39016175 -0.61236221 146 41
5.3091207 0.35876375 -0.61430931 16 41
5.3112221 0.32618085 -0.61430931 24 41
5.2784367 0.29166135 -0.61004996 392 41
5.277894 0.38936353 -0.67534667 218 42
5.2633743 0.35583648 -0.67307478 78 42
5.2704048 0.32383785 -0.67374301 336 42
5.2732821 0.29154781 -0.67387664 461 42
5.261024 0.35642269 -0.73921597 112 43
5.2719984 0.32468423 -0.74052918 429 43
5.2679648 0.29199994 -0.73965371 399 43
5.280026 0.29192016 -0.80641627 318 44
