# .PCD v0.7 - Point Cloud Data file format
VERSION 0.7
FIELDS x y z intensity ring
SIZE 4 4 4 4 1
TYPE F F F F U
COUNT 1 1 1 1 1
WIDTH 1339
HEIGHT 1
VIEWPOINT 0 0 0 1 0 0 0
POINTS 1339
DATA ascii
14.018567 2.2547421 1.4593294 206 23
14.047871 2.1711164 1.4609268 362 23
14.012701 2.0777245 1.4560347 212 23
14.02223 1.9912851 1.4557351 369 23
14.00362 1.901057 1.4526401 278 23
13.993313 1.8122833 1.4504435 376 23
13.977507 1.7230986 1.4477478 312 23
13.971016 1.6353339 1.4460505 321 23
13.964964 1.5478235 1.4444531 357 23
13.949458 1.4595164 1.4419571 358 23
13.936367 1.3717506 1.4397606 336 23
13.923715 1.2842919 1.4376639 326 23
13.912498 1.197211 1.4357669 325 23
13.898753 1.1101576 1.4336703 319 23
13.899349 1.0244162 1.4330713 337 23
12.784574 0.86332393 1.320351 247 23
12.782679 0.78443581 1.3196522 243 23
12.837919 0.70878994 1.324744 458 23
12.852959 0.63054192 1.3258423 638 23
12.859568 0.55179399 1.3261418 283 23
12.855751 0.47262231 1.3254429 318 23
12.85443 0.39360982 1.3250436 316 23
12.848646 0.31453359 1.3242449 322 23
12.853319 0.23574486 1.3245443 316 23
12.861487 0.15695956 1.3252432 328 23
12.866189 0.078064516 1.3256426 289 23
12.868416 -0.00088236009 1.3258423 291 23
12.874138 -0.079877958 1.3264413 318 23
12.883354 -0.15899256 1.3274398 333 23
12.884126 -0.23807694 1.3276395 306 23
12.885406 -0.31720117 1.3279389 283 23
12.889185 -0.39644155 1.3285379 252 23
17.432587 -0.64286327 1.7850099 264 23
18.653028 -0.80242437 1.9080137 198 23
18.675581 -0.91822857 1.9108092 435 23
18.67655 -1.0331868 1.9115081 377 23
18.680782 -1.1484354 1.9126064 272 23
18.691254 -1.2642444 1.9144034 401 23
18.683146 -1.378908 1.9144034 366 23
18.675323 -1.4935989 1.9145033 302 23
18.701496 -1.6112329 1.9180976 408 23
18.704138 -1.7271414 1.9193956 353 23
13.116302 -1.2927227 1.3570924 85 23
12.901297 -1.3515303 1.3362257 263 23
12.90265 -1.4317622 1.3372241 251 23
12.905481 -1.5122931 1.3384222 293 23
13.134939 -1.6209213 1.3625836 117 23
13.273746 -1.7207882 1.3776597 90 23
13.261952 -1.8020681 1.3775598 86 23
13.278229 -1.8873262 1.3803554 109 23
13.301831 -1.9740195 1.3839496 116 23
13.288485 -2.0554488 1.3838497 109 23
13.307058 -2.142004 1.3870447 116 23
13.304461 -2.225419 1.3881429 132 23
13.281732 -2.305481 1.3872443 100 23
13.269294 -2.387285 1.387444 104 23
13.099841 -2.4398866 1.3716692 104 23
12.935133 -2.4914401 1.3563936 188 23
12.036423 -2.3951063 1.2660377 399 23
12.026374 -2.4699156 1.2665368 307 23
12.013912 -2.5442798 1.2668364 178 23
16.541908 -3.6089494 1.733492 113 23
16.088404 -3.6135952 1.6891627 102 23
15.699467 -3.6275952 1.651423 141 23
15.307104 -3.6360419 1.6132838 167 23
14.940377 -3.6459448 1.5777404 210 23
14.605003 -3.6592233 1.545392 203 23
14.275823 -3.6700122 1.5136427 251 23
13.942261 -3.6756344 1.4813942 217 23
13.370955 -3.6129558 1.4243851 102 23
13.00043 -3.5986052 1.3881429 154 23
12.980977 -3.6791203 1.3884424 245 23
12.965803 -3.7609177 1.3892411 239 23
5.1279745 -1.5223488 0.57134575 127 23
5.0671201 -1.5381888 0.56595439 157 23
4.9568467 -1.5380182 0.55537122 196 23
4.899889 -1.5533801 0.55037922 126 23
4.8978391 -1.5858663 0.55117792 85 23
4.8946295 -1.6180737 0.55187684 128 23
4.9213805 -1.6604736 0.55577064 567 23
4.8292422 -1.6624806 0.54708445 294 23
4.7626171 -1.6723151 0.54109401 257 23
4.6848135 -1.6773731 0.53390551 275 23
4.5987167 -1.6784718 0.52581841 251 23
4.5454288 -1.6907111 0.52122569 297 23
4.5144978 -1.7108173 0.5190292 413 23
4.5002017 -1.7370533 0.51862985 343 23
4.5061288 -1.7711811 0.52042699 448 23
4.504415 -1.8024912 0.52142537 377 23
4.5061727 -1.8353473 0.52282315 398 23
0.98872453 -0.41077676 0.14203057 179 23
4.4998155 -1.8974618 0.52462029 386 23
4.5127807 -1.9356204 0.52731597 95 23
4.5126762 -1.9684428 0.52861392 576 23
4.5050611 -1.998111 0.52911311 625 23
4.5153952 -2.0359352 0.53160918 657 23
4.5272431 -2.0747898 0.53430486 611 23
4.5297627 -2.1096671 0.53600216 590 23
4.4870496 -2.1233833 0.53270739 92 23
4.5035324 -2.1650953 0.53600216 36 23
4.4982109 -2.1966155 0.5369007 44 23
4.5015864 -2.2325704 0.53879768 40 23
4.502912 -2.2677546 0.54049498 36 23
4.5039749 -2.3030386 0.54219228 53 23
4.5074229 -2.3397954 0.5441891 56 23
4.5035462 -2.372972 0.54538715 40 23
4.503819 -2.4085338 0.54708445 45 23
4.5073228 -2.4460859 0.5491811 41 23
4.5148935 -2.4861698 0.55177701 46 23
4.5151911 -2.5225575 0.55357409 41 23
4.5117483 -2.5570807 0.55497187 36 23
4.5166788 -2.5966134 0.55736804 19 23
4.5204339 -2.6358013 0.55966443 15 23
4.5178809 -2.6715889 0.56126183 27 23
4.5235929 -2.7125592 0.56385773 23 23
4.5221691 -2.7495658 0.56565487 24 23
4.5230026 -2.7882226 0.56775153 23 23
4.5218434 -2.8259382 0.5696485 22 23
4.5237532 -2.8658736 0.57194483 23 23
4.5211558 -2.9032509 0.57374197 10 23
4.5274444 -2.9466724 0.57663733 12 23
4.527554 -2.9864461 0.57883382 12 23
4.5339642 -3.0307536 0.58182907 15 23
4.537528 -3.0735784 0.58452475 11 23
4.5407367 -3.1165602 0.58722043 7 23
4.5525746 -3.1659436 0.59101439 9 23
4.5452662 -3.2024117 0.59251201 14 23
4.5522599 -3.2493112 0.59580678 12 23
4.5491719 -3.289422 0.59790343 19 23
4.5505791 -3.3331437 0.60059911 22 23
4.5524197 -3.3775985 0.60339463 14 23
4.5491114 -3.4186151 0.60559112 26 23
4.5486383 -3.4621279 0.60818702 21 23
4.5493779 -3.5069773 0.61098254 17 23
4.5513067 -3.55319 0.61397779 24 23
4.5536189 -3.6001747 0.61707282 35 23
4.5617404 -3.6522944 0.62096661 33 23
4.5508394 -3.6896131 0.62246424 40 23
4.5588813 -3.7427154 0.62645787 24 23
4.5679722 -3.7973261 0.63065118 19 23
4.5651431 -3.8425794 0.63334686 18 23
4.5642018 -3.8898759 0.63634211 27 23
4.5643582 -3.9386046 0.63953698 12 23
4.5655861 -3.98879 0.64293158 24 23
4.5693512 -4.0417743 0.64672554 28 23
4.5711536 -4.0936265 0.65031981 23 23
4.5769148 -4.1496615 0.65451312 22 23
4.5770268 -4.2012115 0.65800756 21 23
4.5846968 -4.2603669 0.66260022 25 23
4.5874634 -4.3156834 0.66659385 28 23
4.5926046 -4.3739381 0.67098683 16 23
4.5936203 -4.4289641 0.67488062 19 23
4.5877237 -4.4779129 0.67787582 30 23
4.5863533 -4.5318499 0.68156993 33 23
4.5943432 -4.5957875 0.68666184 30 23
4.5884337 -4.646543 0.68985671 25 23
4.6036153 -4.7194743 0.69614673 56 23
4.5966673 -4.7705569 0.6993416 43 23
4.5974979 -4.830379 0.70373458 31 23
4.5964031 -4.8889399 0.70792788 31 23
4.5744452 -4.9257984 0.709126 17 23
4.5824809 -4.9955621 0.71481693 25 23
4.5771346 -5.0516005 0.71861088 21 23
4.597156 -5.1366715 0.72629863 31 23
4.5925756 -5.195343 0.7303921 27 23
4.6286826 -5.3013635 0.74077553 19 23
4.6630096 -5.4072661 0.75105911 12 23
4.6432943 -5.4516811 0.75315577 16 23
4.6289749 -5.5029092 0.75615096 17 23
4.6218324 -5.5633488 0.76034433 28 23
4.6261148 -5.6385202 0.76643461 23 23
4.6171174 -5.6984921 0.77052808 57 23
4.6336708 -5.7911911 0.77881485 49 23
4.6480246 -5.8827443 0.78690195 29 23
4.662652 -5.9762578 0.79518872 22 23
4.6580839 -6.046526 0.80048031 17 23
4.6462007 -6.1082511 0.80467361 29 23
4.6672015 -6.2146068 0.81445801 17 23
4.6562476 -6.2798896 0.81905067 19 23
4.672883 -6.3838048 0.82843566 16 23
4.6610203 -6.4502578 0.83312821 18 23
4.6508293 -6.5200434 0.83822006 23 23
4.6479769 -6.6013346 0.84470975 41 23
4.6386218 -6.674664 0.85020095 53 23
4.6752625 -6.8162231 0.86397898 321 23
4.7097802 -6.9576554 0.87765718 454 23
4.6869016 -7.0162063 0.88125145 495 23
4.6755309 -7.0930119 0.88704222 206 23
4.7485838 -7.3008819 0.90850794 24 23
4.6967096 -7.318996 0.90721005 45 23
4.6570363 -7.3560829 0.90820843 58 23
4.7288451 -7.5718589 0.93037307 23 23
4.7261434 -7.6718874 0.93875968 22 23
4.7353091 -7.7934222 0.94964236 31 23
4.7232094 -7.882071 0.95663118 16 23
4.7213373 -7.989707 0.96581656 42 23
4.7323494 -8.1216831 0.97779745 54 23
4.7166338 -8.2100945 0.98468643 67 23
4.7573934 -8.3999062 1.0032568 34 23
4.7465138 -8.5019112 1.0116434 24 23
4.7288032 -8.5936365 1.018832 21 23
4.7272234 -8.7169476 1.0296148 29 23
4.7346263 -8.8598652 1.0425941 42 23
4.7228312 -8.9697428 1.0517794 66 23
4.75844 -9.1734257 1.0715479 24 23
4.761837 -9.3194008 1.0847269 27 23
4.7582507 -9.4550934 1.0967078 26 23
4.7478733 -9.5803919 1.1074905 37 23
4.7597036 -9.7542 1.1236647 49 23
4.7760415 -9.9419613 1.1413366 47 23
4.8119488 -10.176157 1.1641003 24 23
4.7926693 -10.298403 1.1743839 34 23
4.779942 -10.437979 1.1865644 33 23
4.8073797 -10.670312 1.2089288 72 23
4.8244805 -10.886083 1.2293961 19 23
4.809288 -11.034052 1.2423754 30 23
4.8426414 -11.299298 1.2681344 56 23
4.8365927 -11.479171 1.2845082 75 23
4.8357515 -11.676855 1.3027791 56 23
0 -0 0 224 23
4.8195658 -12.054049 1.3372241 126 23
4.8895798 -12.450134 1.3767611 55 23
4.8768401 -12.645143 1.3945327 38 23
4.8580122 -12.830223 1.4112061 59 23
4.8468022 -13.041656 1.430675 53 23
4.8792086 -13.37962 1.4636226 26 23
4.8784814 -13.636956 1.4878838 30 23
4.8658805 -13.86943 1.5094494 34 23
4.9179387 -14.297956 1.5517819 12 23
4.8873425 -14.497575 1.5697532 24 23
4.841682 -14.658614 1.583631 13 23
4.1631832 -12.869485 1.391837 45 23
4.0799317 -12.881508 1.3904393 43 23
3.9905014 -12.873036 1.3869448 68 23
3.8343143 -12.643055 1.3602873 393 23
3.7524209 -12.652035 1.3587897 299 23
3.6788759 -12.689156 1.3602873 361 23
3.6093574 -12.741166 1.3633825 388 23
3.5308456 -12.762115 1.3632826 387 23
3.446763 -12.762406 1.361086 324 23
3.4622264 -13.139307 1.3980272 101 23
4.3208365 -16.814568 1.7766232 82 23
4.2134728 -16.824356 1.7749259 374 23
4.1066232 -16.835392 1.7734283 297 23
3.9981875 -16.838976 1.7712319 377 23
3.8923264 -16.852528 1.7701336 370 23
3.7842693 -16.855705 1.768037 309 23
3.6744115 -16.849443 1.7650417 460 23
3.562094 -16.829815 1.7607486 189 23
2.9814723 -14.526765 1.5226284 239 23
2.8951936 -14.559423 1.5241261 246 23
3.2443709 -16.854425 1.7568548 220 23
3.144536 -16.893579 1.7588516 410 23
3.0371208 -16.891991 1.756755 465 23
2.9279721 -16.878937 1.7535601 550 23
2.8248422 -16.899529 1.7538595 336 23
2.7173014 -16.892967 1.7514634 518 23
2.6099474 -16.885721 1.7490672 248 23
2.5080419 -16.913229 1.7502652 661 23
2.0605736 -14.509859 1.5051563 241 23
1.9724416 -14.529131 1.5058552 852 23
1.8832554 -14.54096 1.5058552 577 23
1.7896127 -14.516691 1.5022609 182 23
1.5213113 -12.997593 1.3477074 51 23
1.4394468 -12.987893 1.3458104 31 23
1.2472966 -11.922772 1.2374833 47 23
1.2795668 -13.000618 1.3454111 51 23
1.2005042 -13.016151 1.3462098 64 23
1.2510068 -14.537037 1.4986666 441 23
1.3540233 -16.948654 1.7406806 434 23
1.2517601 -16.980459 1.7430768 350 23
1.1459353 -16.963995 1.7406806 171 23
1.0330354 -16.827696 1.7263035 99 23
0.8803162 -15.939581 1.6364468 110 23
0.83304989 -16.973269 1.739782 421 23
0.72888821 -16.978062 1.739782 393 23
0.62510216 -16.993151 1.7408803 307 23
0.52082241 -16.996668 1.7408803 276 23
0.34491289 -14.085062 1.4483469 1221 23
0.25820702 -14.071991 1.4468492 762 23
0.1714911 -14.043463 1.4438541 202 23
0.085233025 -14.030321 1.4424562 214 23
-0.00085735298 -14.01466 1.4408588 172 23
-0.086691499 -13.988521 1.4382629 218 23
-0.17248525 -13.98474 1.4379635 170 23
-0.25794318 -13.964518 1.4360665 141 23
-0.33996347 -13.813466 1.4210904 220 23
-0.42608741 -13.855874 1.4255832 179 23
-0.51109743 -13.852999 1.4255832 330 23
-0.59566116 -13.839662 1.4245847 361 23
-0.67988533 -13.821833 1.423187 522 23
-0.76506597 -13.824355 1.4238859 404 23
-0.74283409 -12.076453 1.2486653 133 23
-0.81302887 -12.014089 1.2428746 204 23
-0.8846817 -11.98109 1.240079 254 23
-0.95485061 -11.933779 1.2358857 285 23
-1.0267767 -11.912825 1.2343881 268 23
-1.1005845 -11.914227 1.2351869 251 23
-1.1760082 -11.931015 1.237583 305 23
-1.2475362 -11.907741 1.2359856 244 23
-1.3251826 -11.941398 1.2401789 288 23
-1.4003958 -11.949841 1.2418762 273 23
-1.489158 -12.06644 1.2545559 232 23
-1.5666198 -12.083717 1.2572517 240 23
-1.6400652 -12.068948 1.2567525 225 23
-1.714088 -12.058657 1.2567525 224 23
-1.7782658 -11.981969 1.2500632 205 23
-2.1299348 -13.770313 1.4327717 174 23
-2.1054962 -13.080131 1.3639815 227 23
-2.1371508 -12.776476 1.3344285 34 23
-2.1865907 -12.596461 1.3174556 44 23
-3.0821695 -17.133596 1.7814156 109 23
-2.2060649 -11.843836 1.2434736 794 23
-2.2734289 -11.802719 1.2406781 109 23
-3.4063373 -17.120804 1.7862079 634 23
-3.5185273 -17.13467 1.7898022 356 23
-2.5974422 -12.265059 1.2925953 514 23
-0 -0 0 769 23
-2.7000189 -12.019648 1.2707301 1110 23
-2.7737191 -12.002854 1.2707301 965 23
-2.8569701 -12.026269 1.2749236 1185 23
-2.9344814 -12.023979 1.276521 1177 23
-3.0130386 -12.025051 1.2785177 1138 23
-3.0919671 -12.026574 1.2806144 1066 23
-3.1672242 -12.013149 1.2812135 418 23
-3.6573253 -13.535214 1.4414579 108 23
-2.6995683 -9.7514524 1.0498824 287 23
-2.6893716 -9.4877167 1.0241235 270 23
-2.7311873 -9.4146538 1.0182329 536 23
-2.8007877 -9.4377823 1.0224262 724 23
-2.8606658 -9.4270849 1.0231252 730 23
-2.9222858 -9.4217091 1.0244231 729 23
-2.9863513 -9.423521 1.0265198 611 23
-3.0499363 -9.423007 1.0284168 623 23
-3.1136272 -9.4220657 1.0303137 607 23
-3.1885471 -9.4536982 1.0357051 1059 23
-3.2500541 -9.4443054 1.0368034 1095 23
-3.9786644 -11.335757 1.240079 351 23
-4.009263 -11.202457 1.2284975 288 23
-2.6293206 -7.2057972 0.8042742 1633 23
-2.6717517 -7.184865 0.80377501 1953 23
-2.7214248 -7.1832247 0.80537248 1320 23
-2.7883661 -7.2258048 0.81176227 949 23
-2.8097329 -7.1502137 0.80547231 960 23
-2.8103282 -7.0247455 0.79379094 1471 23
-2.855629 -7.0128989 0.79439002 1875 23
-2.9012709 -7.0016804 0.79508889 1871 23
-2.9511325 -7.0002508 0.79688603 1769 23
-2.9999099 -6.9957294 0.79838365 1908 23
-3.0364168 -6.9625969 0.79678619 1501 23
-3.0528734 -6.8847075 0.79029649 1686 23
-3.1016002 -6.8803601 0.79189396 1408 23
-3.2079797 -7.0014181 0.80736929 1607 23
-3.2546582 -6.9897213 0.80826783 1512 23
-3.3127995 -7.0020008 0.81186211 1077 23
-4.3911777 -9.1366835 1.0517794 750 23
-4.4523935 -9.1202984 1.0529776 226 23
-5.8551321 -11.810097 1.3572922 51 23
-5.3602533 -10.646986 1.2306941 22 23
-4.0489984 -7.9204268 0.9271782 310 23
-4.1094346 -7.9183974 0.92977405 377 23
-4.1723161 -7.9203253 0.93286914 422 23
-4.2391276 -7.9287987 0.93676287 835 23
-4.3000321 -7.9253793 0.93935877 1217 23
-4.3668113 -7.9319701 0.94315273 1497 23
-4.4377131 -7.9449887 0.94774538 1308 23
-5.3235202 -9.3954458 1.1181735 14 23
-5.3280272 -9.2702923 1.1074905 26 23
-5.3818026 -9.2322683 1.1068915 31 23
-5.4322739 -9.1887932 1.1056935 116 23
-5.4317751 -9.0605545 1.0946112 46 23
-5.4660807 -8.9921932 1.0905176 13 23
-5.415719 -8.7873678 1.0703498 118 23
-5.4700623 -8.7548161 1.0704497 65 23
-5.4752383 -8.6445894 1.0613642 15 23
-5.4421844 -8.4768534 1.0453897 228 23
-5.5103726 -8.4683228 1.0483849 17 23
-5.5200577 -8.370388 1.0406971 25 23
-5.5464382 -8.2991304 1.0362043 35 23
-5.5771742 -8.23528 1.0326101 115 23
-5.5865092 -8.1410093 1.0253216 164 23
-5.4659829 -7.8614745 0.99536943 240 23
-5.5381794 -7.8619552 0.99956274 172 23
-5.5626216 -7.7946162 0.99546927 70 23
-5.4972701 -7.6038923 0.97610015 136 23
-5.5191364 -7.5362997 0.97190684 59 23
-5.5658669 -7.5030923 0.97200668 38 23
-5.687695 -7.5698352 0.98468643 142 23
-5.7484951 -7.5537987 0.98708266 249 23
-6.2611547 -8.1236925 1.0637603 16 23
-6.3053737 -8.0780621 1.0628618 29 23
-6.3813491 -8.0727892 1.0671549 20 23
-6.4506578 -8.058341 1.0703498 32 23
-6.5344377 -8.0611248 1.0758411 22 23
-6.6153374 -8.0593367 1.0808331 43 23
-6.7244396 -8.0905304 1.0902181 17 23
-6.7938142 -8.0727196 1.0933132 35 23
-6.916779 -8.1172266 1.1046951 19 23
-6.9983001 -8.1115513 1.1095872 16 23
-7.0656114 -8.0886927 1.1122829 18 23
-6.800724 -7.6896276 1.0646589 49 23
-0 -0 0 86 23
-0 -0 0 88 23
-0 -0 0 67 23
-0 -0 0 72 23
-0 -0 0 91 23
-0 -0 0 108 23
-7.6162586 -7.9006152 1.1357455 299 23
-7.6784897 -7.8679776 1.1377423 329 23
-7.7301183 -7.8242545 1.1382415 391 23
-7.7962742 -7.7949696 1.1408374 496 23
-7.8751025 -7.7777529 1.1452304 653 23
-7.9739518 -7.7793188 1.1524189 488 23
-8.0838604 -7.7903204 1.161105 67 23
-8.3145447 -7.9148445 1.1864645 24 23
-8.3383093 -7.8405013 1.1830701 15 23
-6.6476464 -6.1740298 0.94494987 16 23
-6.6751404 -6.1237063 0.94355208 22 23
-6.6978445 -6.0692687 0.94155526 17 23
-6.7045646 -6.0008464 0.93746179 6 23
-6.7293329 -5.949049 0.93586433 6 23
-6.754468 -5.8978286 0.9343667 16 23
-8.6348801 -7.4472909 1.1787769 279 23
-8.6334553 -7.3541603 1.1725868 398 23
-6.6266322 -5.5745468 0.90351593 312 23
-8.6465273 -7.1840658 1.1626027 639 23
-8.6512194 -7.0986834 1.1575108 304 23
-2.924993 -2.3692031 0.41229945 129 23
-2.9301531 -2.34375 0.41110137 266 23
-2.9327698 -2.3164721 0.40960374 147 23
-2.9390841 -2.2923117 0.40860534 179 23
-2.9420602 -2.2657316 0.40720758 183 23
-2.9400702 -2.2355869 0.40521076 142 23
-2.9505501 -2.2151144 0.40481141 149 23
-2.953697 -2.1892626 0.40351346 135 23
-2.9558351 -2.1628683 0.4021157 115 23
-2.9666314 -2.1429424 0.40181619 289 23
-2.9529958 -2.1056273 0.39852142 128 23
-2.9585388 -2.0823119 0.39762288 103 23
-2.967175 -2.0612798 0.39712366 88 23
-2.974844 -2.0396571 0.39652461 103 23
-2.9807119 -2.0169024 0.39572591 95 23
-2.9897223 -1.996364 0.39532652 119 23
-3.0185289 -1.9889363 0.39732334 87 23
-3.0581989 -1.988284 0.40061811 53 23
-3.0820639 -1.9770067 0.40201586 73 23
-3.1168332 -1.9724314 0.40471157 81 23
-3.1525056 -1.9680307 0.40750709 342 23
-3.2195828 -1.9825794 0.41399676 125 23
-3.2350881 -1.9648542 0.41439611 232 23
-3.3136511 -1.9848682 0.42218369 58 23
-3.3437552 -1.975131 0.42428035 76 23
-3.3816009 -1.9696082 0.42727557 71 23
-3.4195035 -1.9636948 0.43027079 59 23
-8.6795368 -4.9158101 1.0355054 593 23
-8.8459253 -4.9386268 1.0511804 16 23
-8.8551407 -4.8727412 1.0487843 23 23
-8.8087816 -4.7770395 1.0400981 661 23
-8.6913843 -4.6445665 1.0234246 550 23
-8.8667402 -4.6685824 1.0400981 39 23
-8.869607 -4.6007996 1.0372027 36 23
-8.869318 -4.5317998 1.0340078 66 23
-0 -0 0 0 23
-0 -0 0 0 23
-0 -0 0 0 23
-0 -0 0 0 23
-0 -0 0 0 23
-0 -0 0 0 23
-0 -0 0 0 23
-0 -0 0 0 23
-0 -0 0 0 23
-0 -0 0 0 23
-0 -0 0 0 23
-0 -0 0 0 23
-0 -0 0 0 23
-0 -0 0 0 23
-0 -0 0 0 23
-0 -0 0 0 23
-0 -0 0 0 23
-0 -0 0 0 23
-0 -0 0 0 23
-0 -0 0 0 23
-0 -0 0 0 23
-0 -0 0 0 23
-0 -0 0 0 23
-0 -0 0 0 23
-0 -0 0 0 23
-0 -0 0 0 23
-0 -0 0 0 23
-0 -0 0 0 23
-0 -0 0 0 23
-0 -0 0 0 23
-0 -0 0 0 23
-0 -0 0 0 23
-8.6242247 -2.3856401 0.93246973 1083 23
-8.6338978 -2.3313804 0.93197054 1096 23
-8.6393805 -2.2760775 0.931072 1083 23
-8.6271648 -2.2163363 0.92837626 510 23
-8.8056469 -2.204705 0.94544905 383 23
-8.8412418 -2.1560578 0.94774538 1085 23
-8.8475285 -2.1001589 0.94704652 1129 23
-6.5703692 -1.5167902 0.71122265 253 23
-8.8270054 -1.9811807 0.94235396 1011 23
-8.8428841 -1.9278301 0.94275331 1106 23
-8.8496799 -1.8725044 0.94225413 1156 23
-8.8512554 -1.8161674 0.94125575 1231 23
-8.8475952 -1.7589108 0.93975812 1173 23
-8.8504047 -1.7030847 0.93895942 1204 23
-8.8499279 -1.646744 0.93786114 1129 23
-8.8500719 -1.5906494 0.93686277 1077 23
-8.8557444 -1.5356359 0.93646336 1243 23
-8.8591118 -1.4802846 0.93586433 1227 23
-8.862134 -1.4249496 0.9352653 1200 23
-8.8598938 -1.3688732 0.93416703 1199 23
-8.8651733 -1.3140461 0.93386751 1279 23
-8.8720846 -1.2594857 0.93376768 1292 23
-8.8757019 -1.2044882 0.93336833 1310 23
-8.8770046 -1.149238 0.93276924 1246 23
-8.8789511 -1.094139 0.93227005 1199 23
-8.8805571 -1.0390594 0.93177086 1243 23
-8.8798428 -0.98378187 0.931072 1186 23
-8.8768053 -0.92834502 0.9301734 1116 23
-8.8783741 -0.87347031 0.92977405 1226 23
-8.8865385 -0.8192516 0.93007356 1270 23
-8.8854504 -0.76419705 0.92947453 1262 23
-8.8879881 -0.70950401 0.92927486 1278 23
-8.9158478 0.22062093 0.81976938 1272 24
-8.924283 0.27563134 0.82064617 1348 24
-8.92342 0.33042145 0.82073385 1272 24
-8.9062958 0.38452312 0.81941867 667 24
-8.9276476 0.44034269 0.82152289 1272 24
-8.9277611 0.49527907 0.82178593 1315 24
-8.9265423 0.55017215 0.82196128 1286 24
-8.9319439 0.60554081 0.82275039 1277 24
-8.934021 0.6607759 0.82327646 1369 24
-8.9377413 0.71621847 0.82397789 1296 24
-8.9431038 0.77190304 0.82485467 1380 24
-8.9451418 0.82740486 0.82546842 1342 24
-8.9488192 0.88315654 0.82625747 1316 24
-8.9551201 0.93929636 0.82730961 1348 24
-8.9531479 0.9946664 0.82766032 1343 24
-8.9458866 1.0494671 0.82757264 1239 24
-8.9392796 1.1043383 0.82757264 1261 24
-8.9441891 1.1607068 0.82862478 1257 24
-8.9507179 1.2174456 0.82985228 1297 24
-8.9598446 1.2747293 0.83134276 1237 24
-8.9646635 1.331585 0.83248258 1262 24
-8.9691219 1.3885479 0.8336224 1284 24
-8.9722347 1.445457 0.83467454 1189 24
-8.9720383 1.501963 0.83546364 1198 24
-8.9695244 1.55818 0.83607733 1190 24
-8.9695978 1.6149521 0.83695412 1255 24
-8.9751883 1.6728793 0.83835697 1303 24
-8.9852962 1.7318786 0.84019822 1355 24
-8.9891548 1.7898973 0.84151334 1390 24
-8.9858084 1.8466246 0.84221476 1336 24
-8.9860029 1.9042042 0.8432669 1447 24
-8.9877748 1.9622809 0.8444944 1417 24
-8.9901438 2.0206692 0.84580952 1458 24
-8.9892225 2.0784869 0.84686166 1445 24
-8.991806 2.1372912 0.84826452 1447 24
-8.9969091 2.1969142 0.84993035 1372 24
-9.0006514 2.2564378 0.85150856 1347 24
-9.0040026 2.3160899 0.85308677 1291 24
-9.0050325 2.3753595 0.85448962 1232 24
-9.0104818 2.4360292 0.85633081 1239 24
-9.0116854 2.4957912 0.85782135 1283 24
-9.0077019 2.5543005 0.85887349 1233 24
-9.010993 2.6150761 0.860627 1284 24
-9.0129213 2.6757045 0.86229289 1256 24
-9.0201635 2.7381914 0.86448479 1286 24
-9.0203171 2.7988007 0.866063 1260 24
-9.0276632 2.8619235 0.86834264 1357 24
-9.0345726 2.9252415 0.87062222 1362 24
-9.0353699 2.9868755 0.87237579 1314 24
-9.0338621 3.0479922 0.87395394 1213 24
-9.0413628 3.1124456 0.87640893 1182 24
-9.0371332 3.1731448 0.87781179 1183 24
-9.0371876 3.2355878 0.87965298 1171 24
-9.0368147 3.298151 0.88149422 1281 24
-9.0388155 3.3618731 0.88359845 1247 24
-9.0366468 3.4243314 0.88535202 1273 24
-9.0424156 3.490118 0.88789469 1281 24
-9.0458622 3.5553751 0.89026195 1205 24
-9.0497723 3.6211755 0.89271694 1169 24
-9.0559816 3.6882849 0.89543492 1024 24
-9.0506649 3.751029 0.89710081 958 24
-9.051343 3.816556 0.89938039 958 24
-9.0515575 3.8822322 0.90166003 1074 24
-9.0540447 3.9492493 0.90420264 949 24
-9.0569601 4.0168467 0.90683299 1061 24
-9.0548449 4.0825801 0.90902489 1064 24
-9.0450182 4.1451187 0.91051543 1157 24
-9.0383778 4.209372 0.91235662 1101 24
-9.0303869 4.2732739 0.91411018 1048 24
-9.0201569 4.3363724 0.9156884 1033 24
-9.0068064 4.3981948 0.91700351 1009 24
-9.0010681 4.4639997 0.91910779 945 24
-8.989522 4.5272107 0.92068601 974 24
-8.9810858 4.5922623 0.92261487 1033 24
-8.9748421 4.6587572 0.92480683 1086 24
-8.9575443 4.7197752 0.92594665 1027 24
-8.9494972 4.7859235 0.92805088 1056 24
-8.9418507 4.8526258 0.93024284 1077 24
-8.9311047 4.9179726 0.9321717 1031 24
-8.9172831 4.9819121 0.93383759 1006 24
-8.9134121 5.0517612 0.93655556 869 24
-8.8917465 5.1118193 0.93752003 918 24
-9.1261158 5.3213396 0.96461231 889 24
-9.1078691 5.3858566 0.96610284 871 24
-9.0917368 5.4518867 0.96785641 924 24
-9.0836477 5.5230966 0.9704867 872 24
-9.0750265 5.5944123 0.97311705 908 24
-9.0684052 5.6674132 0.97601038 845 24
-9.0645943 5.7426753 0.97925442 808 24
-9.0576849 5.8164883 0.98223549 717 24
-9.0393572 5.8833675 0.98407668 783 24
-9.0238752 5.952435 0.98626864 783 24
-9.0178232 6.0281763 0.98951268 792 24
-9.0045824 6.0995975 0.99205536 785 24
-8.9940882 6.1733379 0.99494869 767 24
-8.9887524 6.2511592 0.99845576 713 24
-8.9705839 6.3205404 1.0006477 652 24
-6.1296382 4.3752284 0.69763482 181 24
-8.9569216 6.4768462 1.0076619 694 24
-8.9322805 6.5428677 1.0093278 742 24
-8.9207649 6.6189213 1.0124842 361 24
-8.9349298 6.7148299 1.0185339 735 24
-8.9086199 6.7809911 1.0201998 730 24
-8.8534336 6.8251858 1.0187093 414 24
-8.8341579 6.8971596 1.0212519 334 24
-8.7947969 6.9537063 1.0216026 363 24
-8.7574072 7.011898 1.0222163 553 24
-8.7405262 7.086832 1.0251974 281 24
-8.6753206 7.1226296 1.0227424 28 24
-0 0 0 5 24
-0 0 0 5 24
-0 0 0 4 24
-0 0 0 4 24
-0 0 0 4 24
-0 0 0 3 24
-0 0 0 7 24
-2.1639361 1.9616948 0.29186413 3 24
-2.151125 1.9742619 0.29177645 4 24
-2.0944607 1.9460564 0.28642812 36 24
-2.0803039 1.9568232 0.28616509 52 24
-2.0725858 1.9736732 0.28669116 43 24
-2.06689 1.9925765 0.28748026 32 24
-2.061753 2.0121796 0.28835702 33 24
-2.0656638 2.0408976 0.29037362 47 24
-2.0636654 2.0641022 0.29168877 41 24
-2.0656588 2.0916116 0.29352999 45 24
-2.0660009 2.1177967 0.29519588 33 24
-2.0647166 2.1426291 0.29668638 33 24
-2.0604582 2.164639 0.29782617 42 24
-2.0546424 2.185225 0.29879063 40 24
-2.0533957 2.2109308 0.30036882 31 24
-2.0485442 2.2330325 0.30150864 31 24
-2.0441673 2.2558956 0.3027361 31 24
-2.0375936 2.2765617 0.30370057 28 24
-2.0387592 2.3061888 0.30571714 24 24
-2.0258806 2.3201559 0.3058925 20 24
-0 0 0 17 24
-0 0 0 10 24
-0 0 0 4 24
-0 0 0 4 24
-0 0 0 5 24
-0 0 0 3 24
-0 0 0 3 24
-2.8586652 3.6182137 0.44065258 78 24
-2.8474386 3.6498244 0.44223076 152 24
-2.8444409 3.6924815 0.44503644 135 24
-2.8416295 3.7360315 0.44792977 215 24
-2.8330069 3.7725155 0.45003405 182 24
-2.8009076 3.7778237 0.44871888 107 24
-2.7535546 3.7619793 0.44512412 64 24
-2.776504 3.8425946 0.45205063 36 24
-2.7551877 3.8628027 0.45240134 35 24
-2.7274203 3.8739336 0.45178759 39 24
-2.7183771 3.9118659 0.4540672 55 24
-2.7044635 3.9432597 0.45564538 7 24
-0 0 0 6 24
-0 0 0 6 24
-2.1709864 3.2936773 0.38199642 93 24
-2.1241276 3.2660151 0.37770024 140 24
-1.6990167 2.6476393 0.31167921 47 24
-0 0 0 58 24
-0 0 0 47 24
-0 0 0 14 24
-0 0 0 41 24
-0 0 0 5 24
-0 0 0 3 24
-0 0 0 6 24
-1.5253841 2.6552556 0.30431432 8 24
-0 0 0 3 24
-0 0 0 3 24
-0 0 0 3 24
-0 0 0 4 24
-0 0 0 8 24
-0 0 0 41 24
-0 0 0 10 24
-0 0 0 4 24
-0 0 0 4 24
-0 0 0 34 24
-0 0 0 65 24
-0 0 0 73 24
-0 0 0 90 24
-0 0 0 78 24
-0 0 0 51 24
-0 0 0 62 24
-1.1421787 2.5774167 0.28292105 72 24
-0 0 0 69 24
-0 0 0 104 24
-0 0 0 96 24
-0 0 0 96 24
-0 0 0 114 24
-0 0 0 74 24
-1.0148042 2.5842102 0.2791509 274 24
-1.0000036 2.5931768 0.27941394 81 24
-0 0 0 78 24
-0 0 0 96 24
-0.96267688 2.6401577 0.28213194 36 24
-0.95115417 2.659147 0.28335941 25 24
-0.93251282 2.6583529 0.28274569 23 24
-0.92039371 2.6762712 0.28388548 33 24
-0.89186943 2.6459956 0.28055376 21 24
-0 0 0 3 24
-0 0 0 6 24
-0 0 0 9 24
-0.79807097 2.5747876 0.27204904 7 24
-0.77965689 2.5710561 0.27125996 6 24
-0.76414961 2.5767467 0.27134764 5 24
-0.74721569 2.5775597 0.27099693 7 24
-0 0 0 5 24
-0.70437968 2.5462096 0.26731446 29 24
-0.68588805 2.5399046 0.26635003 76 24
-0.66927594 2.5402122 0.26599932 89 24
-0.65318143 2.5423412 0.26582396 67 24
-0.64627486 2.58109 0.26898035 10 24
-0.62806666 2.5753286 0.26810357 27 24
-0.61225289 2.5791337 0.26810357 9 24
-0.59014457 2.5556641 0.2656486 70 24
-0.57663244 2.5689569 0.26652539 10 24
-0.56022257 2.5695267 0.26626235 5 24
-0.54568219 2.5787635 0.26678839 31 24
-0.52764785 2.5713289 0.26582396 7 24
-0.51069593 2.5686557 0.26529789 3 24
-0 0 0 3 24
-0 0 0 3 24
-0.46491367 2.5864449 0.266087 15 24
-0.44325247 2.5558772 0.26310596 46 24
-0.42805368 2.5614965 0.26336899 53 24
-0.41280261 2.5670252 0.26363203 86 24
-0.39704385 2.5695097 0.26363203 60 24
-0.38010275 2.5640144 0.2629306 108 24
-0.36422321 2.5653121 0.26284292 94 24
-0.34834206 2.5665116 0.26275524 70 24
-0.33131003 2.5587215 0.26187846 96 24
-0.31438676 2.5508194 0.26100171 114 24
-0.29826677 2.5487428 0.26065099 115 24
-0.28240326 2.5485446 0.26047564 136 24
-0.2664499 2.5472572 0.2602126 138 24
-0.25071782 2.5478528 0.26012492 179 24
-0.23517108 2.5503352 0.2602126 190 24
-0.21926241 2.5487525 0.25994956 169 24
-0.2037777 2.552036 0.26012492 195 24
-0.18555836 2.5184669 0.25705624 104 24
-0.16943239 2.5096192 0.25617945 80 24
-0.15372624 2.50564 0.25574106 83 24
-0.1381848 2.5035522 0.25547802 60 24
-0.12267476 2.501368 0.25521499 86 24
-0.10706914 2.4961023 0.25468892 107 24
-0.090877093 2.4728208 0.25258467 149 24
-0.076915152 2.5131593 0.25609177 78 24
-0.06277626 2.566364 0.26073867 38 24
-0.046557646 2.5408053 0.25845906 82 24
-0.030738961 2.5221179 0.2567932 94 24
-0.015315817 2.5312243 0.25758228 64 24
0.00021194569 2.515332 0.25617945 86 24
0.01555681 2.5013375 0.25495195 100 24
0.030916901 2.5021911 0.25503963 73 24
0.046120875 2.4939866 0.25433823 143 24
0.061299391 2.4886775 0.25389984 140 24
0.077091999 2.5051808 0.25539035 90 24
0.092609666 2.5086424 0.25574106 79 24
0.10868885 2.5239506 0.25714388 35 24
0.12397701 2.5192564 0.2567932 85 24
0.13992953 2.5273998 0.25758228 60 24
0.1556187 2.5294764 0.25784531 96 24
0 0 0 115 24
0 0 0 110 24
0 0 0 85 24
0 0 0 88 24
0 0 0 93 24
0.25086743 2.5448351 0.25986189 39 24
0.2648142 2.5273964 0.25845906 19 24
0 0 0 139 24
0 0 0 347 24
0 0 0 292 24
0 0 0 225 24
0 0 0 47 24
0 0 0 337 24
0.3524493 2.374763 0.24609655 228 24
0.36777616 2.3774779 0.24653494 168 24
0.3820402 2.3732097 0.24635959 134 24
0.39643025 2.3698382 0.24627191 143 24
0.41130492 2.3693242 0.24644727 169 24
0.42583507 2.3667557 0.24644727 129 24
0.43943635 2.3592019 0.24600887 171 24
0.45541248 2.3642864 0.2467103 133 24
0.47030002 2.3634014 0.24688566 111 24
0.48940572 2.3829134 0.24890223 63 24
0.4988541 2.3555031 0.2467103 20 24
0.51223516 2.3475318 0.24627191 8 24
0.5342769 2.3783607 0.24934061 37 24
0.54818684 2.3721261 0.24907759 26 24
0.56595725 2.3822858 0.25030506 14 24
0.60041684 2.4600556 0.25766996 10 24
0.65014565 2.5944972 0.27020782 4 24
0.79933661 3.1085207 0.31729054 109 24
0.81280458 3.0823672 0.31536165 171 24
0.7978996 2.952312 0.3039636 16 24
0.68649852 2.4798403 0.26126474 7 24
0.68321913 2.4104135 0.25530267 11 24
0.901811 3.1083684 0.31965783 59 24
0.91491222 3.0827227 0.31781662 192 24
0.9352572 3.0818167 0.31825501 190 24
0.95621598 3.0826797 0.31886876 193 24
0.97691935 3.0824518 0.3193948 193 24
0.99888343 3.0858765 0.32027158 178 24
1.0203009 3.0872557 0.32097301 194 24
1.0401802 3.0837688 0.32123604 191 24
1.060055 3.0801539 0.32149905 203 24
1.080915 3.079231 0.32202512 190 24
0 0 0 160 24
0 0 0 176 24
0 0 0 180 24
0 0 0 195 24
0 0 0 151 24
0 0 0 204 24
1.2265691 3.0660472 0.32544455 195 24
1.2476135 3.0639987 0.32597062 204 24
0 0 0 196 24
0 0 0 177 24
0 0 0 181 24
0 0 0 186 24
0 0 0 179 24
0 0 0 169 24
1.3929672 3.0402031 0.32912698 176 24
1.4153807 3.0397258 0.32991609 211 24
0 0 0 182 24
0 0 0 190 24
0 0 0 202 24
0 0 0 177 24
0 0 0 164 24
0 0 0 206 24
1.5707575 3.0265427 0.3349137 191 24
1.5934781 3.0247791 0.33570281 203 24
0 0 0 196 24
0 0 0 192 24
0 0 0 200 24
0 0 0 197 24
0 0 0 181 24
0 0 0 209 24
1.7489847 3.0000367 0.34043738 185 24
1.7729375 2.9986804 0.34140182 183 24
1.7984762 2.9997056 0.34262931 183 24
1.8220239 2.9971254 0.34350607 166 24
1.8445617 2.9926727 0.3442075 166 24
1.8686974 2.9905903 0.34517196 161 24
1.8934097 2.9891658 0.34622407 159 24
1.9160216 2.9841971 0.3469255 152 24
1.9402739 2.9815681 0.34788993 153 24
1.96676 2.9820793 0.34920511 150 24
1.9888961 2.9757524 0.34981886 172 24
2.0115871 2.9700904 0.35052025 167 24
2.0359747 2.9667258 0.35148472 170 24
2.0615339 2.9648089 0.35262451 148 24
2.087146 2.9626896 0.35376433 176 24
2.1122308 2.9595563 0.35481647 166 24
2.1367717 2.9554195 0.3557809 191 24
2.161341 2.9510925 0.35674536 186 24
2.1841567 2.944175 0.35744676 148 24
2.2099609 2.9410698 0.35858658 161 24
2.2412395 2.9448922 0.36051548 177 24
2.2647409 2.938185 0.36130458 395 24
2.2808876 2.9218781 0.36104155 174 24
2.2864158 2.8922 0.35928801 134 24
2.2860625 2.8555665 0.35674536 96 24
2.2765627 2.8082147 0.35297522 78 24
2.2842686 2.782645 0.35166007 65 24
2.30321 2.7708745 0.35192311 34 24
2.4080589 2.8610933 0.3639349 77 24
2.4966507 2.9296565 0.37357941 142 24
2.5204372 2.9210694 0.37436849 136 24
2.5415905 2.9092999 0.37480688 138 24
2.564014 2.8988729 0.37542063 121 24
2.5950451 2.8979266 0.37717417 171 24
2.6241531 2.8944938 0.3786647 154 24
2.65399 2.8915467 0.38024288 142 24
2.6811764 2.8854229 0.38147035 167 24
2.7118003 2.8827016 0.38313624 137 24
2.7404301 2.8775489 0.38453907 129 24
2.9585614 3.0686283 0.40996549 10 24
3.003777 3.0775037 0.41329724 66 24
3.0268052 3.063266 0.41382331 68 24
3.0561123 3.0551996 0.41513845 70 24
3.0882695 3.0496879 0.41680434 70 24
3.1254654 3.0487645 0.41908395 66 24
3.1634831 3.0481901 0.42145124 79 24
3.1980026 3.0438297 0.42338014 94 24
3.2333131 3.0398419 0.42539671 81 24
3.2686942 3.0355351 0.42741328 78 24
3.3085485 3.0349476 0.42995593 74 24
3.3433499 3.0293031 0.43188483 89 24
3.3848872 3.0293236 0.43460283 82 24
3.4258034 3.0282876 0.43723315 86 24
3.4623308 3.0229328 0.4393374 86 24
3.4913762 3.0107379 0.4405649 87 24
3.5234356 3.0008836 0.44214308 69 24
3.5585546 2.9933136 0.44407198 65 24
3.5929465 2.9847884 0.4459132 55 24
3.5657523 2.9254119 0.44074026 6 24
0 0 0 4 24
3.5881591 2.870856 0.43924972 3 24
3.5986717 2.8432281 0.43846062 6 24
3.6121223 2.8180301 0.43802226 11 24
3.6230319 2.7909508 0.43732083 9 24
3.655947 2.7807276 0.43907437 142 24
3.6920588 2.7725973 0.44117862 153 24
3.7410119 2.7736197 0.44468573 138 24
3.7860959 2.7712033 0.44775444 147 24
3.8425946 2.776504 0.45205063 112 24
3.8830788 2.7696471 0.45459327 146 24
3.9244373 2.7629709 0.45722359 144 24
3.9650409 2.7553222 0.45976624 159 24
4.0089836 2.749532 0.46265957 159 24
4.0538287 2.7438638 0.4656406 141 24
4.108695 2.7443871 0.46967375 133 24
4.1670456 2.746532 0.47405764 161 24
4.2113786 2.7388315 0.47695097 147 24
4.2540965 2.729614 0.47966897 154 24
4.2926497 2.7173111 0.48194858 155 24
4.3447313 2.7130783 0.48563105 147 24
4.4138851 2.718755 0.49106702 143 24
4.4739051 2.7179956 0.49553859 133 24
4.5169892 2.7063625 0.49825656 143 24
4.5635285 2.6963291 0.50132531 153 24
4.5997849 2.6798091 0.50334185 170 24
4.6722898 2.6837814 0.50904089 422 24
4.6600628 2.6388662 0.50614756 268 24
4.6605096 2.6014845 0.50456935 267 24
4.659801 2.5637169 0.50290346 274 24
4.6623077 2.5279555 0.50158828 260 24
4.6654305 2.4927292 0.50036085 252 24
4.6638894 2.4552405 0.49869496 254 24
4.6691389 2.4215329 0.49773052 260 24
4.6723766 2.3869476 0.4965907 235 24
4.6718063 2.3506231 0.4951002 205 24
4.6790009 2.3183756 0.49439877 180 24
4.7486477 2.3166983 0.49983478 288 24
4.7708549 2.2913985 0.50062388 317 24
4.7794213 2.2595277 0.50009781 261 24
4.7805505 2.224277 0.49887031 206 24
4.7868624 2.1915853 0.49816889 274 24
4.7884121 2.1568549 0.4970291 241 24
4.7906265 2.1225917 0.49597695 251 24
4.7752495 2.0808232 0.49325895 172 24
4.7989154 2.0561907 0.49431109 286 24
4.8004251 2.0220668 0.49325895 274 24
4.8053784 1.9895259 0.49255756 303 24
4.7990408 1.9524965 0.49080402 351 24
4.7952056 1.9167291 0.48931348 374 24
4.7920399 1.8814465 0.48791066 378 24
4.7969875 1.8494997 0.48729691 411 24
4.801724 1.8175631 0.48668316 470 24
4.7987785 1.7828633 0.48536801 425 24
4.7993326 1.7496326 0.48440355 355 24
4.8090396 1.7198162 0.48431587 373 24
4.7715597 1.6734662 0.47984433 229 24
4.8015213 1.6509575 0.48168555 329 24
4.8030648 1.6186024 0.48089647 346 24
4.8138518 1.589413 0.48098415 166 24
4.7713823 1.5429919 0.4761619 109 24
4.7760115 1.5121832 0.47572351 94 24
4.7909093 1.4846183 0.47624958 105 24
4.8323417 1.4650178 0.47923058 130 24
4.9014101 1.4531738 0.48475426 117 24
5.019309 1.4546747 0.49474949 116 24
14.109751 3.9948099 1.3254923 222 24
14.07927 3.8930278 1.3204947 305 24
14.087504 3.8024127 1.3190918 306 24
14.158736 3.7285845 1.3234757 167 24
14.206433 3.6480792 1.3257552 334 24
14.208257 3.5557635 1.3239141 273 24
14.181417 3.4567223 1.3195302 146 24
14.18782 3.3661926 1.318215 284 24
14.169382 3.2701151 1.314708 110 24
14.160993 3.176789 1.3121653 343 24
14.135447 3.0800846 1.3081322 159 24
14.136537 2.9895837 1.306554 387 24
14.141928 2.9001861 1.3054142 226 24
14.126237 2.8067586 1.3024331 391 24
14.103086 2.7123165 1.2988384 254 24
14.093999 2.620996 1.2965587 297 24
14.083344 2.5297132 1.2941915 307 24
14.069155 2.4381497 1.2915611 323 24
14.063217 2.3483322 1.2897199 287 24
14.062608 2.2596276 1.2884047 306 24
14.059472 2.1707149 1.2869142 318 24
14.042964 2.0800288 1.2842839 291 24
14.027847 1.989907 1.2818289 313 24
14.015115 1.9004507 1.279637 276 24
14.006754 1.8118645 1.2778834 284 24
13.987947 1.7222354 1.2752532 268 24
13.978462 1.6340619 1.2734996 283 24
13.967434 1.5459602 1.2716584 272 24
13.956841 1.4581589 1.2699049 305 24
13.942724 1.3702537 1.2678882 298 24
13.93103 1.2828505 1.2661347 338 24
13.922759 1.1959835 1.2647319 308 24
13.90501 1.1085541 1.26254 322 24
13.900622 1.0224103 1.2615755 286 24
12.810366 0.86325735 1.1648674 244 24
12.790565 0.783117 1.1626754 217 24
12.830936 0.70659161 1.1658318 513 24
12.845975 0.62838423 1.1667963 548 24
12.859541 0.54997629 1.167673 270 24
12.861678 0.47102487 1.1675854 228 24
12.863331 0.39206791 1.1674976 246 24
12.869477 0.31322944 1.1678483 286 24
12.872153 0.23427601 1.1679361 280 24
12.87036 0.1552536 1.167673 244 24
12.874059 0.076297261 1.1679361 252 24
12.879265 -0.0026991111 1.1683744 275 24
12.880999 -0.081737451 1.1685498 268 24
12.885235 -0.16083455 1.1689882 271 24
12.893965 -0.24007958 1.169865 276 24
12.891253 -0.31916627 1.1697773 249 24
12.887061 -0.39819792 1.1696019 217 24
17.439623 -0.64613831 1.5708134 210 24
18.645517 -0.80543596 1.6774291 175 24
18.682013 -0.9218905 1.6811116 348 24
18.680977 -1.0367799 1.6815499 413 24
18.684206 -1.1519979 1.6824267 271 24
18.686726 -1.2672946 1.6833035 395 24
18.686544 -1.3825185 1.6840049 366 24
18.686646 -1.4978675 1.6847939 315 24
18.690006 -1.6136125 1.6859338 462 24
18.712486 -1.7312911 1.6888272 358 24
13.116364 -1.2946339 1.1948531 120 24
12.917958 -1.35513 1.1780189 333 24
12.92029 -1.435578 1.1789834 347 24
12.918164 -1.5156411 1.1795971 309 24
13.290232 -1.6420372 1.2134407 117 24
13.297688 -1.7258618 1.2150187 94 24
13.305601 -1.8099741 1.2166847 84 24
13.305094 -1.8931255 1.2176491 91 24
13.298154 -1.9754604 1.2180876 76 24
13.296611 -2.058696 1.219052 97 24
13.323067 -2.1465831 1.2225591 148 24
13.324382 -2.2307591 1.2238742 130 24
13.317314 -2.3136678 1.2244879 124 24
13.312671 -2.3971033 1.2253647 141 24
13.095001 -2.4409513 1.2072155 116 24
12.942839 -2.4948542 1.1949407 222 24
12.03239 -2.3959937 1.1146283 474 24
12.019413 -2.4701791 1.1148036 411 24
12.036189 -2.5506983 1.117697 243 24
16.480555 -3.5984967 1.5195222 158 24
16.048996 -3.6075673 1.48261 101 24
15.683961 -3.6267433 1.4516599 140 24
15.310584 -3.6395049 1.4199208 189 24
14.909592 -3.6409702 1.385639 195 24
14.596133 -3.6594601 1.359248 152 24
14.300385 -3.6787105 1.3344353 167 24
13.932721 -3.6754136 1.3030468 258 24
13.310821 -3.5988412 1.2484238 74 24
13.016809 -3.6051927 1.2236112 196 24
12.996359 -3.6855381 1.2237866 311 24
12.981153 -3.7674344 1.2244879 245 24
5.153995 -1.5299137 0.50798875 92 24
5.075881 -1.5406727 0.50167596 100 24
4.9474082 -1.5348839 0.49071634 89 24
4.90941 -1.5561795 0.48808601 85 24
4.9082985 -1.5890359 0.48887509 65 24
4.8975101 -1.6188099 0.48878741 144 24
4.9356222 -1.6650735 0.49325895 349 24
4.8254724 -1.6609524 0.48396516 249 24
4.769136 -1.6743569 0.47966897 235 24
4.7128186 -1.6871333 0.47537279 163 24
4.5826006 -1.6722984 0.4641501 244 24
4.5442438 -1.6899662 0.46151978 277 24
4.5254054 -1.7146401 0.46073067 476 24
4.4999304 -1.7366356 0.45932785 388 24
4.5244193 -1.7780621 0.46265957 563 24
4.5097251 -1.8043095 0.46230885 454 24
4.5096397 -1.8364561 0.463361 505 24
0.9940502 -0.41160458 0.1294857 285 24
0.98416299 -0.41459966 0.12878428 217 24
0.98983985 -0.42416483 0.12957337 386 24
0.98630553 -0.42983207 0.1294857 390 24
0.98364955 -0.43587583 0.1294857 761 24
0.98277277 -0.44272214 0.12966105 317 24
0.9619264 -0.44044313 0.1279075 11 24
0.95559376 -0.44465473 0.1275568 10 24
4.5166535 -2.1371112 0.47458369 31 24
4.5267973 -2.1760073 0.47686329 14 24
4.5061994 -2.2002451 0.4761619 46 24
4.5068927 -2.234935 0.47756472 39 24
4.5082192 -2.2701645 0.47905523 37 24
4.5075083 -2.3045869 0.4803704 45 24
4.5065446 -2.3390856 0.48168555 44 24
4.5079703 -2.3750522 0.48326376 49 24
4.5091238 -2.4111242 0.48484194 42 24
4.5143814 -2.4496753 0.48685852 32 24
4.5158448 -2.486459 0.48852438 36 24
4.5161562 -2.522867 0.49010259 31 24
4.5144567 -2.5583892 0.49150541 34 24
4.5202637 -2.5984542 0.49369735 21 24
4.5291901 -2.6406934 0.49623999 17 24
4.5300503 -2.678576 0.49799356 15 24
4.5263443 -2.7140062 0.49930871 23 24
4.5300336 -2.7541497 0.50141299 15 24
4.5401835 -2.7986224 0.50421864 12 24
4.5440445 -2.8396268 0.50641054 9 24
4.5341082 -2.8722534 0.50719965 16 24
4.5474119 -2.9199369 0.51044375 10 24
4.5469422 -2.9591963 0.51228493 16 24
4.5553079 -3.0045934 0.51509064 9 24
4.5467238 -3.0391312 0.51614273 14 24
4.552732 -3.0837331 0.51877308 11 24
4.5558996 -3.1268313 0.52114034 10 24
4.5497127 -3.1638274 0.52254319 17 24
4.5505719 -3.2060292 0.52473515 20 24
4.5583801 -3.2535686 0.52771616 22 24
4.5552821 -3.2937357 0.52955741 25 24
4.5534692 -3.3351638 0.53157395 11 24
4.5481186 -3.3743191 0.53323984 23 24
4.5567923 -3.4243066 0.53648388 22 24
4.5523405 -3.4648728 0.53832513 13 24
4.5554509 -3.511595 0.5410431 20 24
4.5589437 -3.5590982 0.54384881 24 24
4.5628052 -3.6073937 0.54674214 24 24
4.559247 -3.6502659 0.54884642 19 24
4.5615234 -3.6982491 0.55165207 15 24
4.561842 -3.7451324 0.55428237 20 24
4.5594578 -3.7902479 0.55664968 11 24
4.5582156 -3.8367572 0.5591923 13 24
4.5603638 -3.8866246 0.56217337 15 24
4.5628247 -3.9373126 0.56524205 20 24
4.5655847 -3.9888318 0.56839842 20 24
4.5745978 -4.0464725 0.57234395 22 24
4.5793643 -4.1010499 0.57585102 25 24
4.583632 -4.1558371 0.5793581 27 24
4.5873985 -4.2108302 0.58286518 18 24
4.590662 -4.2660251 0.58637232 20 24
4.5970469 -4.3248301 0.59031779 22 24
4.6043243 -4.3852472 0.59443861 14 24
4.5995593 -4.4348521 0.59715658 16 24
4.5922198 -4.4824748 0.59961158 30 24
4.593679 -4.5392771 0.60320634 25 24
4.5910916 -4.5927415 0.60636276 30 24
4.5901198 -4.6484714 0.60978216 42 24
4.5942001 -4.7100658 0.61390299 39 24
4.5976963 -4.771884 0.61802381 40 24
4.5978584 -4.8310351 0.62179393 36 24
4.6056542 -4.8990765 0.62661618 27 24
4.6141424 -4.9688535 0.63161379 29 24
4.6118464 -5.0279059 0.63529623 41 24
4.6069918 -5.0849009 0.63871568 26 24
4.6095815 -5.1509328 0.64318722 29 24
4.6049366 -5.2097225 0.64678198 49 24
4.6089139 -5.2791543 0.65160424 30 24
4.6232691 -5.3616552 0.65791702 30 24
4.6471167 -5.4566636 0.66563261 18 24
4.6282949 -5.5026093 0.66764921 17 24
4.623086 -5.5653877 0.67159468 31 24
4.6021175 -5.6098237 0.67343587 18 24
4.6190257 -5.7014279 0.68062544 43 24
4.6300035 -5.7872257 0.68711358 39 24
4.6271329 -5.8569551 0.69176048 54 24
4.636446 -5.9433603 0.69824857 40 24
4.6406164 -6.0245733 0.70412296 23 24
4.6349182 -6.0941663 0.70868218 21 24
4.6381097 -6.1766596 0.71464425 21 24
4.6570716 -6.281827 0.72306126 22 24
4.6607962 -6.3681636 0.72937405 28 24
4.6210508 -6.395834 0.72928637 12 24
4.6453419 -6.5132823 0.73893088 25 24
4.6391201 -6.5897231 0.74410385 28 24
4.6383858 -6.6753292 0.75024122 48 24
4.69311 -6.8433275 0.76514637 356 24
4.7185869 -6.9718189 0.77575535 559 24
4.6923165 -7.0254927 0.77838564 558 24
4.6902308 -7.1165352 0.78496146 178 24
4.740963 -7.2904921 0.80021733 17 24
4.6886096 -7.3077064 0.79898983 46 24
4.6506076 -7.34728 0.80012965 63 24
4.6993437 -7.5260839 0.81573623 41 24
4.7089691 -7.6455345 0.82511771 49 24
4.7224751 -7.7738972 0.83537596 44 24
4.7458429 -7.9215097 0.84756309 20 24
4.7544012 -8.0473976 0.85747063 19 24
4.7450457 -8.1452799 0.86448479 21 24
4.7391305 -8.2511225 0.87228811 31 24
4.7271862 -8.348527 0.87921458 31 24
4.722476 -8.4608803 0.88763165 31 24
4.74297 -8.6214924 0.90087092 63 24
4.7531223 -8.7669058 0.91253197 43 24
4.77387 -8.9356089 0.92647266 27 24
4.7621017 -9.0467129 0.9346267 26 24
4.7574015 -9.1739225 0.94435889 27 24
4.7336464 -9.2668142 0.95067161 32 24
4.7523527 -9.4460764 0.96548909 43 24
4.7637281 -9.6152 0.97925442 62 24
4.7775717 -9.793767 0.99389654 19 24
4.7889695 -9.971962 1.008451 30 24
4.7915463 -10.13625 1.0216026 32 24
4.7952261 -10.307263 1.035368 45 24
4.8098383 -10.506776 1.0518513 90 24
4.8131804 -10.686868 1.0664058 44 24
4.8027906 -10.840978 1.0784175 28 24
4.8046141 -11.027321 1.093498 29 24
4.8698359 -11.367005 1.1232207 58 24
4.8432999 -11.499495 1.1330405 82 24
4.846561 -11.707556 1.1500499 51 24
4.861711 -11.951148 1.1703911 260 24
4.8426294 -12.116732 1.1832796 110 24
4.8821182 -12.436453 1.2107226 68 24
4.9243102 -12.773834 1.2397438 27 24
4.8825068 -12.900702 1.2488623 27 24
4.8896236 -13.162937 1.2706939 39 24
4.8868814 -13.407018 1.2907721 47 24
4.908154 -13.726593 1.3178643 39 24
4.9118414 -14.007441 1.3412741 56 24
4.8967199 -14.243623 1.3604755 37 24
4.9215002 -14.606637 1.3914256 17 24
4.915153 -14.889128 1.4148355 37 24
4.9459705 -15.297195 1.4498187 20 24
4.9584336 -15.663452 1.4808565 29 24
4.9191241 -15.877228 1.4977782 27 24
4.9917951 -16.46862 1.5494201 16 24
5.0067153 -16.890522 1.5853679 207 24
4.8347874 -16.685553 1.5637993 201 24
4.6994834 -16.598927 1.5531904 230 24
4.5994043 -16.634171 1.553804 163 24
4.1772161 -15.476255 1.4456979 27 24
4.0816693 -15.499668 1.4455225 31 24
3.986984 -15.526351 1.4456979 41 24
4.0918617 -16.350662 1.5182947 278 24
3.3432648 -13.715896 1.2773573 364 24
3.2562835 -13.72452 1.2763053 107 24
3.7747514 -16.356237 1.5122449 354 24
0 -0 0 324 24
3.5692978 -16.380888 1.5104038 286 24
3.4569728 -16.346928 1.5054061 209 24
3.3564048 -16.366856 1.5053185 254 24
3.2543638 -16.379326 1.5046171 232 24
3.1526721 -16.393116 1.504091 227 24
3.045471 -16.376896 1.5009346 261 24
2.9438703 -16.389391 1.5004085 256 24
2.8434215 -16.408127 1.5004963 223 24
2.7417054 -16.419369 1.4999702 212 24
2.6402743 -16.43195 1.4996195 176 24
2.5374246 -16.435041 1.4984796 183 24
2.4314258 -16.415813 1.4954109 148 24
2.3279967 -16.411684 1.4937451 130 24
2.22471 -16.406904 1.4920791 91 24
2.1229751 -16.412342 1.4913778 107 24
2.021014 -16.415173 1.490501 112 24
1.9195604 -16.421328 1.489975 88 24
1.5294167 -13.817927 1.258419 469 24
1.4441887 -13.823089 1.2580683 188 24
1.433857 -14.590092 1.3251415 94 24
1.3438503 -14.593656 1.3247031 123 24
1.2522345 -14.577806 1.3225989 129 24
1.1617345 -14.572307 1.3214591 97 24
1.0728829 -14.587109 1.3221605 123 24
0.98155034 -14.566582 1.3197932 74 24
0.89373499 -14.598182 1.3220729 116 24
0.80496657 -14.618311 1.323388 95 24
0.71437961 -14.605065 1.3218098 75 24
0.62407064 -14.59325 1.3204069 75 24
0.53291363 -14.553003 1.3165492 48 24
0.43893912 -14.402663 1.3030468 47 24
0.3431744 -14.10135 1.2763053 305 24
0.25664368 -14.103189 1.2763053 481 24
0.17085838 -14.167252 1.2818289 28 24
0.083926544 -14.168034 1.2818289 27 24
-0.0029993688 -14.130428 1.2784972 26 24
-0.089676581 -14.12616 1.2781465 28 24
-0.1759401 -14.092473 1.2752532 61 24
-0.26203507 -14.071208 1.2734996 94 24
-0.34814727 -14.060373 1.2727104 124 24
-0.43512186 -14.080873 1.2747271 152 24
-0.52121705 -14.069974 1.2740257 174 24
-0.60710883 -14.056559 1.2731489 188 24
-0.69256097 -14.03665 1.271746 205 24
-0.77801251 -14.020201 1.2706939 241 24
-0.86390156 -14.013175 1.2705185 225 24
-0.81778747 -12.06063 1.0987587 132 24
-0.88449627 -11.957035 1.0900786 360 24
-0.95649314 -11.934503 1.0885881 320 24
-1.0247329 -11.870846 1.0835028 217 24
-1.0981026 -11.870287 1.0840288 223 24
-1.1759084 -11.913883 1.0885004 306 24
-1.2456619 -11.874741 1.0856948 215 24
-1.3198208 -11.878755 1.0867468 267 24
-1.3927988 -11.871422 1.0868345 212 24
-1.4791758 -11.97239 1.0965667 647 24
-1.5538915 -11.972967 1.0974435 592 24
-1.6290729 -11.976039 1.0985833 615 24
-1.7042102 -11.977653 1.0996355 595 24
-1.7779644 -11.968941 1.0998108 287 24
-1.873323 -12.099562 1.1124363 107 24
-1.9564042 -12.142914 1.1173463 290 24
-0 -0 0 281 24
-2.0962305 -12.065975 1.1126994 180 24
-2.1596332 -11.994062 1.1074387 116 24
-2.2149296 -11.882658 1.098671 417 24
-2.673435 -13.869134 1.2779711 265 24
-3.4108889 -17.128222 1.5719533 383 24
-3.5181277 -17.117702 1.5729177 372 24
-2.5969651 -12.254477 1.1373367 434 24
-0 -0 0 719 24
-2.6995199 -12.009812 1.1182231 1080 24
-2.7751799 -12.001758 1.1190121 891 24
-2.8549898 -12.01067 1.1213794 1062 24
-2.9328864 -12.010345 1.1229576 1008 24
-3.0152471 -12.026908 1.126114 886 24
-3.0912199 -12.016863 1.1269031 906 24
-3.7930689 -14.378678 1.3436415 271 24
-3.8827837 -14.360904 1.3441675 601 24
-3.9729545 -14.344489 1.3448689 649 24
-4.0587215 -14.312175 1.3441675 573 24
-4.1148081 -14.177941 1.3341722 71 24
-4.1813097 -14.083671 1.3278595 121 24
-3.9200826 -12.912973 1.2225591 283 24
