# .PCD v0.7 - Point Cloud Data file format
VERSION 0.7
FIELDS x y z intensity ring
SIZE 4 4 4 4 1
TYPE F F F F U
COUNT 1 1 1 1 1
WIDTH 1345
HEIGHT 1
VIEWPOINT 0 0 0 1 0 0 0
POINTS 1345
DATA ascii
-8.7366657 -3.6833527 1.3344849 477 20
-8.888155 -3.6831481 1.3536452 35 20
-8.9041634 -3.6259267 1.352694 42 20
-8.9078474 -3.5638642 1.3499763 72 20
-8.897274 -3.4964583 1.3452202 151 20
-8.9204082 -3.4425132 1.345492 177 20
-8.8941135 -3.3698139 1.3385617 265 20
-8.7697601 -3.2613122 1.317363 588 20
-8.8184586 -3.2179677 1.3215755 603 20
-8.8585587 -3.1711431 1.3245652 701 20
-8.8039999 -3.0908055 1.3138299 1039 20
-8.8012524 -3.0293119 1.3107045 966 20
-8.8027763 -2.9695518 1.3082585 907 20
-8.8095436 -2.9117527 1.3066279 898 20
-8.8036795 -2.8500161 1.3032306 961 20
-8.7860575 -2.7848697 1.2982028 1020 20
-8.6496868 -2.6833589 1.2761889 936 20
-8.6394444 -2.6221795 1.2723839 895 20
-8.6430235 -2.565455 1.2706174 890 20
-8.6462326 -2.5087857 1.2688508 1000 20
-8.6528854 -2.4532545 1.2676278 1034 20
-8.6553631 -2.3966787 1.2658613 1003 20
-8.6555595 -2.339648 1.2638229 1112 20
-8.6534662 -2.2822001 1.2615129 1163 20
-6.5103254 -1.6744267 0.95603555 387 20
-8.8047905 -2.2069042 1.2790425 681 20
-8.8412657 -2.1584759 1.2823038 1180 20
-8.8495235 -2.1030409 1.2816243 1114 20
-8.8236504 -2.0397778 1.2761889 547 20
-8.8388996 -1.9862499 1.2765964 842 20
-8.8460808 -1.9309219 1.2759171 1076 20
-8.8509779 -1.87517 1.2749659 984 20
-8.8681402 -1.8220222 1.2757812 1008 20
-8.9316225 -1.7780168 1.2831191 886 20
-8.9433374 -1.7233675 1.283255 64 20
-6.5996661 -1.2298992 0.95481253 22 20
-6.5875874 -1.1858718 0.95209479 25 20
-6.5420289 -1.1362768 0.94475681 47 20
-6.5332437 -1.0934985 0.94258261 68 20
-6.520268 -1.0502408 0.93986481 100 20
-6.5422544 -1.0126373 0.94203901 78 20
-6.5669641 -0.97523969 0.94462091 45 20
-6.5885186 -0.93715852 0.94679511 28 20
-6.6049433 -0.89818233 0.94828987 32 20
-6.6417699 -0.8617155 0.95263833 34 20
-8.9339952 -1.1032817 1.2687149 189 20
-9.0025883 -1.0557098 1.2772759 876 20
-8.9508009 -0.99400204 1.2692585 308 20
-8.8532715 -0.92821962 1.2549902 1129 20
-8.9820433 -0.88603139 1.2719762 351 20
-8.9853382 -0.83071965 1.2717046 339 20
-8.9961882 -0.77608162 1.2725198 278 20
-8.9889297 -0.71991885 1.2708892 350 20
-8.9931784 -0.66475028 1.2708892 349 20
-9.0000534 -0.60975742 1.2712969 374 20
-9.0095587 -0.55488783 1.2721121 382 20
-9.0009232 -0.49893826 1.2704815 389 20
-8.9978781 -0.44340792 1.2696662 387 20
-8.9944906 -0.38793376 1.2688508 382 20
-9.0085821 -0.33317617 1.2704815 432 20
-8.9025192 -0.27456996 1.2556697 1097 20
-8.8515434 -0.21864563 1.2484676 355 20
-9.0131884 -0.16730119 1.2704815 550 20
-8.9962139 -0.11177338 1.2680355 557 20
-8.9977207 -0.056577735 1.2681714 483 20
-8.9800653 -0.0013657482 1.2657254 459 20
-8.9878302 0.05378269 1.2668126 443 20
-9.0239849 0.1093758 1.2718403 249 20
-8.9686632 0.16374685 1.2643665 448 20
-9.0488558 -0.66651595 1.169181 314 21
-9.0636654 -0.61171705 1.1705463 299 21
-9.0573444 -0.55548322 1.1693051 355 21
-9.0576096 -0.4997336 1.1689327 360 21
-9.0654612 -0.44439128 1.1695533 377 21
-9.0759478 -0.38909933 1.1705463 296 21
-9.0761814 -0.33332995 1.1702981 392 21
-8.9114332 -0.2725161 1.1494458 978 21
-8.8861542 -0.21717338 1.1460944 342 21
-9.0668898 -0.16595465 1.1685604 341 21
-9.0766668 -0.11042792 1.1696775 380 21
-9.0841198 -0.054775223 1.1705463 327 21
-9.0743618 0.00096513354 1.1693051 411 21
-9.0781546 0.056668621 1.1698016 320 21
-9.076643 0.11235791 1.1696775 317 21
-9.0718145 0.16797605 1.169181 229 21
-9.0845003 0.22397712 1.1709187 319 21
-9.0760126 0.27950144 1.1700498 258 21
-9.0731354 0.33514905 1.1699257 203 21
-9.0322456 0.38915366 1.165085 128 21
-8.8998566 0.4381918 1.1488252 699 21
-9.0614662 0.50188005 1.1694292 672 21
-9.0255327 0.55546349 1.1653333 136 21
-8.8863239 0.60166723 1.1483287 918 21
-9.0665264 0.66975456 1.1714151 51 21
-9.1018105 0.72853488 1.17638 165 21
-9.1208954 0.78641152 1.1793588 221 21
-9.0981131 0.8407203 1.1771247 92 21
-9.0996962 0.89721012 1.1779935 68 21
-9.0979671 0.95344108 1.17849 67 21
-9.106739 1.0108875 1.1803519 110 21
-9.1052923 1.0673233 1.1809725 76 21
-9.0887241 1.1219578 1.1797312 50 21
-9.097414 1.1797438 1.1817172 549 21
-8.9710312 1.2193865 1.1666986 489 21
-8.9093475 1.2667335 1.1598719 1134 21
-9.1163626 1.3532573 1.1870544 87 21
-9.1196556 1.4109879 1.1885438 78 21
-9.116704 1.4678642 1.1892886 89 21
-9.1222057 1.5262297 1.1911504 95 21
-9.1283121 1.5848877 1.1931363 71 21
-9.1408777 1.6449072 1.1959912 69 21
-9.1374407 1.7022349 1.19686 84 21
-9.1511831 1.7629588 1.199963 31 21
-6.9728661 1.3880171 0.92354542 11 21
-6.9097862 1.419602 0.91659462 31 21
-7.070828 1.4979335 0.93831581 81 21
-7.076046 1.5444627 0.94017762 190 21
-7.0867672 1.5924165 0.94278419 294 21
-7.0652614 1.6331903 0.94129473 212 21
-7.0551071 1.6765112 0.94129473 108 21
-7.0032358 1.7096566 0.93595755 35 21
-6.9415994 1.7398182 0.92937911 19 21
-9.1565571 2.354388 1.2168435 97 21
-9.1486549 2.4122972 1.2177123 120 21
-9.1585875 2.4751146 1.2209394 86 21
-9.1661806 2.5376153 1.2239183 78 21
-9.1246605 2.5865068 1.2205671 793 21
-8.9999752 2.6109426 1.2064173 957 21
-9.0142269 2.6751463 1.2103891 979 21
-9.0451202 2.744807 1.2165952 1312 21
-9.0423241 2.8046629 1.218457 1385 21
-9.0438643 2.8660858 1.2209394 1305 21
-9.0383806 2.9254947 1.222553 1231 21
-9.0428724 2.9883678 1.2255319 1183 21
-9.0488129 3.0520399 1.2287591 1112 21
-9.0486822 3.1139603 1.2312415 1070 21
-9.0434494 3.1743512 1.2331033 1005 21
-9.0462236 3.2378035 1.2360822 1038 21
-9.0438986 3.2997088 1.2384405 1018 21
-9.0467339 3.3637817 1.2415435 1069 21
-9.0528355 3.4294188 1.2451431 1017 21
-9.0464344 3.4906149 1.247129 1087 21
-9.0322351 3.548959 1.248122 249 21
-9.1236134 3.6496294 1.2633889 862 21
-9.1148338 3.7111533 1.2652507 931 21
-9.1111422 3.7749848 1.2678572 956 21
-9.1070099 3.8389103 1.2704637 1045 21
-9.0960522 3.9001906 1.2722014 1068 21
-9.0774069 3.9583087 1.2729461 984 21
-9.0647411 4.0191593 1.2745597 996 21
-9.0561934 4.0820413 1.276794 997 21
-9.0490189 4.1457958 1.2792764 990 21
-9.0378046 4.2079411 1.2812623 967 21
-9.0342398 4.2739224 1.2843653 927 21
-9.0230503 4.3365808 1.2864753 858 21
-9.0096474 4.3983912 1.2883371 805 21
-8.9984922 4.4615226 1.2905713 789 21
-8.9877882 4.5251288 1.2929296 787 21
-8.9757576 4.5883193 1.2951639 794 21
-8.9659319 4.6529036 1.2977704 859 21
-8.9547729 4.7170768 1.3002528 831 21
-8.9536638 4.786901 1.3042246 915 21
-8.9459295 4.8535767 1.3073276 849 21
-8.9316273 4.9169884 1.3095618 854 21
-8.9168835 4.9804068 1.3117961 831 21
-8.9042873 5.0452967 1.3144026 793 21
-8.888649 5.1087356 1.3166368 575 21
-9.1271849 5.3205614 1.3557349 689 21
-9.1088886 5.3850474 1.3578449 679 21
-9.0952511 5.45257 1.3606998 648 21
-9.0870619 5.5237341 1.3644234 640 21
-9.0724277 5.5913591 1.3672781 599 21
-6.9298077 4.3300719 1.0563549 61 21
-6.8704138 4.3518081 1.0515143 36 21
-6.8469224 4.3960261 1.0520107 26 21
-6.8214836 4.4390373 1.052259 28 21
-6.799088 4.484087 1.0530037 23 21
-6.7813468 4.5323358 1.0544931 36 21
-6.7608042 4.578867 1.0556102 49 21
-9.0178843 6.1880846 1.4022803 576 21
-8.9960403 6.2546277 1.4047627 673 21
-8.9680395 6.3171363 1.4063762 580 21
-6.1270113 4.3728423 0.9758004 138 21
-8.9670467 6.482512 1.4182919 607 21
-8.9447165 6.5503068 1.4210225 603 21
-8.9394245 6.6310744 1.4264839 282 21
-8.9406166 6.7173867 1.4330623 586 21
-8.9126558 6.7823324 1.4351723 504 21
-8.8677292 6.8344693 1.4346759 280 21
-8.8397074 6.8997402 1.43691 294 21
-8.797205 6.9538498 1.43691 318 21
-8.7706404 7.0207176 1.4395165 535 21
-8.7381887 7.0831475 1.4412543 489 21
-8.7175751 7.1555152 1.4449779 584 21
-8.6300049 7.1727228 1.437903 339 21
-8.497756 7.1514354 1.4235049 453 21
-8.474865 7.2214599 1.4269804 567 21
-8.413866 7.2590661 1.4242498 400 21
-8.2951765 7.2459383 1.4119617 387 21
-8.1851444 7.2388601 1.4010391 364 21
-8.0740356 7.2293825 1.3898681 396 21
-7.9464431 7.2034903 1.3758425 316 21
-6.3250389 5.8050928 1.1081134 24 21
-7.1093602 6.6055565 1.248122 210 21
-7.0556841 6.6368184 1.2458878 140 21
-6.8157597 6.4904652 1.2115062 9 21
-6.9065509 6.6581755 1.2342204 91 21
-6.8797712 6.7142868 1.2367028 84 21
-7.1695323 7.0834103 1.2949156 207 21
-7.0768185 7.0781546 1.2862271 283 21
-6.9439955 7.0310869 1.2703396 516 21
-6.7136154 6.881813 1.2368269 181 21
-5.7808766 5.9991326 1.0763384 22 21
-6.5431314 6.8738523 1.2213118 122 21
-5.6164088 5.9734864 1.0598303 203 21
-5.5222454 5.946043 1.04928 85 21
-5.4816322 5.9754281 1.0485353 239 21
-5.4028821 5.9626327 1.0407157 372 21
-5.3734751 6.0038037 1.042081 344 21
-5.3496814 6.0515285 1.0445634 281 21
-2.9051578 3.3280191 0.58680505 54 21
-2.8846829 3.3457823 0.58680505 110 21
-2.8737519 3.3747489 0.58866686 112 21
-2.8683236 3.4105401 0.59164578 130 21
-2.8733451 3.4593644 0.5967347 146 21
-2.8715794 3.5007074 0.60058248 128 21
-2.8594172 3.5298243 0.60244429 161 21
-2.8476255 3.5596979 0.6044302 131 21
-2.8515718 3.6097994 0.60964328 185 21
-2.8513465 3.6553888 0.61411166 187 21
-2.8512738 3.7018964 0.61870414 192 21
-2.8435268 3.7390635 0.62180716 192 21
-2.8372188 3.7786543 0.62528253 191 21
-2.8340776 3.8230896 0.62950265 141 21
-2.8252215 3.8604219 0.63260567 150 21
-2.8241513 3.9090474 0.6374464 154 21
-2.8168266 3.9497266 0.64104593 180 21
-2.8085368 3.989651 0.6445213 193 21
-2.7964644 4.0247331 0.64725196 191 21
-2.7936101 4.0737262 0.6520927 21 21
-0 0 0 7 21
-0 0 0 3 21
-2.1539083 3.2687249 0.52387565 84 21
-2.1273177 3.2718987 0.52238619 73 21
-2.0064313 3.1279035 0.49905145 38 21
-0 0 0 31 21
-0 0 0 29 21
-0 0 0 19 21
-0 0 0 30 21
-0 0 0 40 21
-0 0 0 34 21
-0 0 0 33 21
-0 0 0 39 21
-0 0 0 48 21
-0 0 0 39 21
-0 0 0 29 21
-0 0 0 14 21
-0 0 0 12 21
-0 0 0 27 21
-0 0 0 11 21
-0 0 0 4 21
-0 0 0 18 21
-0 0 0 53 21
-0 0 0 80 21
-1.242294 2.587986 0.39330032 178 21
-1.221724 2.5856929 0.39193499 96 21
-1.194948 2.5697517 0.38870785 127 21
-1.1775048 2.573427 0.38821137 117 21
-1.1563925 2.5688431 0.38659778 129 21
-0 0 0 128 21
-0 0 0 111 21
-0 0 0 120 21
-1.0718067 2.5461578 0.37977111 116 21
-1.0573028 2.5554366 0.38014349 79 21
-1.0404807 2.5591187 0.37977111 90 21
-1.0251272 2.5663762 0.37989524 68 21
-1.0064584 2.5652294 0.37890229 250 21
-0.99248517 2.5759854 0.37952289 63 21
-0.96892875 2.5616121 0.37679222 276 21
-0.95734167 2.57867 0.37828168 76 21
-0.9551025 2.621783 0.38324651 47 21
-0.94066906 2.6322653 0.38386711 45 21
-0.92252868 2.63237 0.38312238 32 21
-0.90732789 2.6407959 0.38349476 40 21
-0.86796236 2.5776751 0.37443393 8 21
-0.85181844 2.58201 0.37430981 9 21
-0.84573519 2.6173985 0.37828168 43 21
-0 0 0 3 21
-0.79121697 2.5555508 0.36884847 52 21
-0.76976031 2.5413668 0.36636606 72 21
-0.75245893 2.5403345 0.36562133 77 21
-0.73492283 2.5382328 0.36475247 67 21
-0.71798205 2.537921 0.36413187 70 21
-0.69974941 2.5327156 0.36289066 75 21
-0.6829018 2.5321717 0.36227006 77 21
-0.6650756 2.5276787 0.36115298 82 21
-0.64733034 2.5230629 0.3600359 95 21
-0.63352478 2.533725 0.36090472 42 21
-0.61914223 2.5423844 0.36152533 17 21
-0 0 0 4 21
-0.58588636 2.5410895 0.36040825 46 21
-0.57571924 2.5688405 0.36351126 7 21
-0.55571663 2.5529354 0.36102885 37 21
-0.5451799 2.5805657 0.36413187 21 21
-0.53193003 2.5964983 0.36574546 6 21
-0.51637536 2.6016595 0.36599368 3 21
-0.50209081 2.6135483 0.36711079 5 21
-0.48477343 2.6097515 0.36624193 10 21
-0.46523803 2.5931449 0.36375952 29 21
-0.44694278 2.5822637 0.36202183 45 21
-0.43141723 2.5869148 0.36227006 33 21
-0.41332898 2.5757978 0.36053237 49 21
-0.39766803 2.5792661 0.3606565 40 21
-0.38066953 2.5738053 0.35966352 42 21
-0.36319467 2.5643039 0.35817406 110 21
-0.34665221 2.5605848 0.35742933 76 21
-0.33029661 2.5577433 0.35680872 39 21
-0.31386745 2.553813 0.35606402 50 21
-0.2978453 2.5527344 0.35569164 49 21
-0.28195763 2.5525413 0.35544342 43 21
-0.26598021 2.5512626 0.35507104 56 21
-0.25032094 2.5528467 0.35507104 39 21
-0.23419617 2.5493944 0.35445043 87 21
-0.21650524 2.5270567 0.35147154 137 21
-0.20146997 2.5342722 0.35221624 100 21
-0 0 0 0 21
-0 0 0 0 21
-0 0 0 0 21
-0 0 0 0 21
-0 0 0 0 21
-0 0 0 0 21
-0 0 0 0 21
-0 0 0 0 21
-0 0 0 0 21
-0 0 0 0 21
-0 0 0 0 21
-0 0 0 0 21
-0 0 0 0 21
0 0 0 0 21
0 0 0 0 21
0 0 0 0 21
0 0 0 154 21
0 0 0 143 21
0 0 0 130 21
0 0 0 180 21
0.12429214 2.5074368 0.34824437 150 21
0.14159128 2.5413034 0.35258862 50 21
0.15748589 2.5453386 0.35320923 47 21
0.17303392 2.5433345 0.3530851 59 21
0.19469312 2.6243601 0.36338714 23 21
0.23450564 2.9198501 0.40062347 591 21
0.25650248 2.9658096 0.40658128 1729 21
0.27852494 3.0056787 0.41179436 132 21
0.29978207 3.0325503 0.41539386 51 21
0.2553739 2.4286594 0.33968005 71 21
0.26688126 2.3964739 0.33583227 113 21
0.28146532 2.3938057 0.33570817 118 21
0.29736257 2.4018817 0.33694938 64 21
0.30967247 2.381315 0.33459106 26 21
0.3241446 2.378387 0.33446693 21 21
0.33733651 2.3665292 0.33322573 130 21
0.35097745 2.3585255 0.332481 152 21
0.36574569 2.3582888 0.33272925 157 21
0.38036659 2.3569801 0.33285338 142 21
0.39547607 2.3585165 0.33334985 159 21
0.41027945 2.3580008 0.33359811 165 21
0.42474014 2.3554389 0.33359811 142 21
0.43918484 2.3527884 0.33359811 151 21
0.45361301 2.3500495 0.33359811 145 21
0.46841124 2.3491683 0.33384633 131 21
0.48261711 2.345278 0.33372223 162 21
0.50234109 2.3675122 0.33694938 59 21
0.51432109 2.3527515 0.33545992 13 21
0.53135628 2.3611693 0.33694938 21 21
0.54829067 2.3684995 0.33831471 41 21
0.5632717 2.3670216 0.33856294 51 21
0.57778484 2.3635209 0.33856294 25 21
0.59348166 2.3647437 0.33918354 8 21
0 0 0 139 21
0 0 0 143 21
0.73704708 2.7241399 0.38721839 8 21
0.65689385 2.3695498 0.34179008 4 21
0.66952735 2.3587916 0.34092125 12 21
0.90672219 3.1227648 0.44096279 92 21
0.92135102 3.1019218 0.43897685 178 21
0 0 0 202 21
0 0 0 200 21
0 0 0 189 21
0 0 0 164 21
0 0 0 196 21
0 0 0 188 21
1.0578885 3.0716977 0.44059044 181 21
1.0783588 3.0698302 0.44121104 191 21
0 0 0 184 21
0 0 0 179 21
0 0 0 147 21
0 0 0 189 21
0 0 0 202 21
0 0 0 179 21
1.2268618 3.0649202 0.44716886 158 21
1.2478892 3.062849 0.44791359 152 21
0 0 0 151 21
0 0 0 217 21
0 0 0 155 21
0 0 0 193 21
0 0 0 173 21
0 0 0 178 21
1.3914738 3.0353107 0.45188546 168 21
1.4138403 3.034812 0.45300254 167 21
1.4362531 3.0341527 0.45411962 164 21
1.4578513 3.0315437 0.45498848 156 21
1.4790362 3.0278919 0.45573321 154 21
1.5015532 3.0267611 0.45685029 150 21
1.5236658 3.0245814 0.45784327 144 21
1.5444533 3.0195932 0.45846388 173 21
1.5684355 3.0206292 0.45995331 146 21
1.5906391 3.0179725 0.46094629 184 21
1.6124012 3.0142813 0.46181515 154 21
1.6360701 3.0139256 0.46318048 197 21
1.6588384 3.0116539 0.46429756 163 21
1.6777701 3.002285 0.46442169 152 21
1.6951821 2.9902072 0.46417344 183 21
1.7169582 2.9857719 0.46504229 164 21
1.7442394 2.990612 0.46727645 160 21
1.7741688 2.9995005 0.47013125 133 21
1.7981513 2.99792 0.47149658 177 21
1.8180583 2.9893744 0.47186893 196 21
1.8410511 2.9857657 0.47298604 176 21
1.8677478 2.9878781 0.47497198 157 21
1.8940085 2.9889367 0.47683379 174 21
1.9182084 2.9864445 0.47819912 179 21
1.9435309 2.9854312 0.47981268 165 21
1.968913 2.9842193 0.48142627 160 21
1.9904943 2.9770324 0.482171 158 21
2.0120614 2.9696927 0.48291573 153 21
2.0347359 2.9638369 0.48390868 148 21
2.0574143 2.9578142 0.48490167 131 21
2.0823803 2.95487 0.4863911 142 21
2.1085401 2.9533455 0.48812881 141 21
2.1330156 2.9491985 0.48949414 168 21
2.1551745 2.9416595 0.49036297 170 21
2.1826408 2.9411323 0.49234891 155 21
2.2119694 2.9427583 0.49470723 143 21
2.2407987 2.9433451 0.49694139 151 21
2.270324 2.9444742 0.49929971 176 21
2.2944527 2.9383111 0.50054091 161 21
2.3155148 2.9280698 0.50116152 123 21
2.2571762 2.8185172 0.48589462 58 21
2.2781763 2.8092396 0.48663935 57 21
2.2594907 2.7514865 0.47956446 25 21
2.3257961 2.7970982 0.48924589 52 21
2.4534335 2.9141273 0.51071882 144 21
2.4777029 2.9065716 0.51196003 116 21
2.5097489 2.9078443 0.5146907 134 21
2.5405982 2.9073374 0.51717311 143 21
2.5741639 2.9095345 0.52015203 126 21
2.6091757 2.9129071 0.52337915 136 21
2.6336632 2.9041951 0.52462041 131 21
2.6554585 2.8923674 0.52536511 173 21
2.6812596 2.8847432 0.52685457 148 21
2.7131848 2.8834169 0.52946109 190 21
2.7274051 2.8631215 0.52884048 129 21
0 0 0 4 21
0 0 0 4 21
0 0 0 3 21
0 0 0 4 21
0 0 0 4 21
0 0 0 3 21
0 0 0 4 21
3.0320477 2.8852694 0.55776072 7 21
0 0 0 4 21
0 0 0 3 21
0 0 0 6 21
3.1401732 2.8446422 0.564215 5 21
3.1716149 2.8378961 0.56657332 6 21
3.2142415 2.8407307 0.57079339 22 21
3.2420743 2.8300931 0.5725311 51 21
3.2601297 2.8107951 0.5726552 44 21
3.3060164 2.815192 0.57737184 85 21
3.3414495 2.8101866 0.58035076 98 21
3.3883922 2.8143647 0.58519143 122 21
3.4309087 2.8142946 0.58928746 104 21
3.4558208 2.7994378 0.59052867 136 21
3.485328 2.7881012 0.59251457 151 21
3.5451858 2.8005035 0.59934127 113 21
3.5802941 2.7927394 0.60219604 172 21
3.6154399 2.7846491 0.6050508 140 21
3.6482515 2.7744296 0.60753322 125 21
3.6969402 2.7758317 0.6124981 154 21
3.7553458 2.7838333 0.61895239 153 21
3.7955737 2.7777386 0.62255192 163 21
3.8278255 2.7654414 0.62491018 179 21
3.8649151 2.7563107 0.62801319 168 21
3.9069035 2.7502568 0.63186097 169 21
3.9579244 2.750021 0.63707405 149 21
4.004179 2.7458932 0.64154243 150 21
4.056282 2.7451952 0.64687961 148 21
4.1019258 2.7395499 0.65122384 128 21
4.1418533 2.7296236 0.65469927 128 21
4.1934566 2.7268856 0.65991235 174 21
4.239336 2.7198639 0.66425657 140 21
4.2911539 2.7160976 0.66946965 163 21
4.3363514 2.7075911 0.67368978 213 21
4.3875184 2.7022755 0.67877871 169 21
4.4523492 2.7046785 0.6858536 160 21
4.5097132 2.7017956 0.69181144 163 21
4.5569572 2.6922505 0.69627976 180 21
4.5922508 2.6752315 0.69901043 201 21
4.6515961 2.6717234 0.70521653 371 21
4.6532249 2.6348166 0.70310646 280 21
4.6502447 2.5955718 0.7003758 252 21
4.6426129 2.5540707 0.69702452 206 21
4.6398807 2.5156004 0.69441795 225 21
4.6464777 2.4824057 0.69317675 221 21
4.6528425 2.4492247 0.69193554 222 21
4.6466446 2.4096613 0.68895662 226 21
4.6445551 2.3725245 0.68659836 226 21
4.6545939 2.3417506 0.68597776 243 21
4.6608734 2.3091803 0.68486065 190 21
4.7507505 2.317534 0.69541097 298 21
4.771142 2.2913485 0.69627976 308 21
4.7797294 2.2594845 0.69553506 307 21
4.7809095 2.2242517 0.69379735 187 21
4.7863479 2.1911557 0.6926803 299 21
4.7879419 2.156446 0.69106668 323 21
4.7865696 2.1205931 0.68908077 341 21
4.7576504 2.0729418 0.68337119 242 21
4.7903442 2.0523117 0.68610185 413 21
4.7845592 2.0151727 0.68361944 399 21
4.7858334 1.9812204 0.68212998 416 21
4.7822762 1.9454579 0.68001992 456 21
4.7747755 1.90834 0.6774134 466 21
4.7734652 1.8739274 0.67567569 441 21
4.7839475 1.8442454 0.67555159 483 21
4.7970295 1.8155599 0.67579985 513 21
4.7764564 1.7743363 0.67157972 316 21
4.7853894 1.7443151 0.67133147 320 21
4.7931995 1.7139168 0.67095912 430 21
4.776473 1.6749456 0.66735959 186 21
4.7988582 1.6498028 0.66897315 420 21
4.80513 1.6190583 0.6684767 386 21
4.8159161 1.5898553 0.6686008 397 21
4.7897058 1.5486668 0.66388422 201 21
4.7764158 1.5120561 0.6609053 24 21
4.7799172 1.4809568 0.66016054 33 21
4.8392396 1.4668671 0.66673899 123 21
4.9014206 1.4529513 0.67368978 96 21
5.0312743 1.4579505 0.68945312 106 21
14.065628 3.9846804 1.8628935 209 21
14.066861 3.8919482 1.8599145 311 21
14.078981 3.8024566 1.8584251 310 21
14.133711 3.7243443 1.8625212 147 21
14.252399 3.6622539 1.8749332 220 21
14.240914 3.5662944 1.870589 243 21
14.240357 3.4734368 1.8677342 221 21
14.220854 3.376364 1.8625212 260 21
14.207465 3.2812252 1.8581768 230 21
14.194414 3.1865954 1.8539568 238 21
14.188494 3.0939417 1.8507296 249 21
14.169352 2.9988089 1.8458889 281 21
14.161241 2.9064224 1.8425376 292 21
14.156425 2.8150229 1.8396828 305 21
14.136405 2.720978 1.8349663 268 21
14.129422 2.629828 1.8319874 301 21
14.112088 2.5371096 1.8277673 248 21
14.107837 2.4470785 1.8252848 265 21
14.102034 2.3570316 1.8226782 289 21
14.098598 2.267621 1.8204441 317 21
14.074983 2.1753087 1.8157275 304 21
14.056656 2.0842454 1.8117557 299 21
14.062304 1.9969791 1.8108867 330 21
14.043812 1.9065164 1.807039 288 21
14.028676 1.8168662 1.8036877 304 21
14.007062 1.7267447 1.7995918 239 21
14.004581 1.6392657 1.7979782 260 21
13.995638 1.5512259 1.7956198 239 21
13.987129 1.4634609 1.7933857 263 21
13.968196 1.3748862 1.7899103 256 21
13.958584 1.2875111 1.7876761 286 21
13.954357 1.2008168 1.7861867 309 21
13.937724 1.1132736 1.7832078 287 21
13.92648 1.0264181 1.7809736 267 21
12.792029 0.86382806 1.6379862 209 21
12.792136 0.78501707 1.6373656 234 21
12.83337 0.70853841 1.641958 410 21
12.856307 0.63070649 1.6443163 552 21
12.83416 0.5507015 1.6410892 265 21
12.838288 0.47197875 1.6412133 254 21
12.837968 0.39310423 1.6408409 261 21
12.84113 0.31434891 1.6409651 260 21
12.842817 0.2355513 1.6409651 249 21
12.848982 0.15680581 1.6415857 286 21
12.853671 0.077987432 1.6420821 232 21
12.864822 -0.0008824385 1.6434475 237 21
12.87152 -0.079861954 1.6443163 256 21
12.864835 -0.15876569 1.6435716 261 21
12.860642 -0.2376451 1.6431992 278 21
12.862909 -0.31664938 1.6436957 248 21
12.868659 -0.39581206 1.6446887 191 21
12.876896 -0.47516674 1.646054 227 21
12.877704 -0.55433929 1.6465505 219 21
12.876041 -0.63344228 1.6467987 265 21
12.872903 -0.71249104 1.6469228 238 21
12.874231 -0.79182917 1.6476676 232 21
12.87705 -0.87134427 1.6486605 210 21
12.880368 -0.95099676 1.6497777 226 21
12.893084 -1.0315131 1.652136 245 21
12.893432 -1.1112 1.6530048 250 21
12.888347 -1.190474 1.6532531 227 21
12.893638 -1.2707971 1.6548666 238 21
12.894479 -1.3508167 1.6559837 278 21
12.897782 -1.4312226 1.6574732 259 21
12.905512 -1.5122967 1.6595832 252 21
12.915686 -1.5938838 1.6620656 306 21
12.922392 -1.6752701 1.6641756 241 21
12.910886 -1.7543954 1.6640515 282 21
12.905772 -1.8344194 1.6647962 314 21
12.914886 -1.9166301 1.6674029 288 21
12.93034 -2.000083 1.6708782 253 21
12.927621 -2.0809605 1.6721194 270 21
12.923417 -2.1617162 1.6732365 230 21
12.923597 -2.2433469 1.6749742 220 21
12.934004 -2.3269928 1.6780772 228 21
12.926311 -2.4075816 1.6789461 221 21
12.924936 -2.4894769 1.6806837 113 21
12.010176 -2.3898861 1.5659959 289 21
11.995286 -2.4635341 1.5659959 279 21
12.941964 -2.7407286 1.6889999 158 21
12.952049 -2.8260078 1.6924753 272 21
12.948987 -2.9086876 1.6943371 247 21
12.952166 -2.9929996 1.6970677 225 21
12.953832 -3.0772305 1.6996742 258 21
12.96459 -3.1639459 1.7035221 210 21
12.965145 -3.2484982 1.7061286 232 21
12.962268 -3.3324354 1.7083628 191 21
12.964604 -3.4179766 1.7113417 209 21
12.96063 -3.5021193 1.7135758 239 21
12.968544 -3.5897818 1.7174236 240 21
12.976824 -3.6779435 1.7213955 239 21
12.970213 -3.7621963 1.7235055 205 21
5.1224747 -1.5207173 0.70260996 159 21
5.0655699 -1.5377185 0.69640392 184 21
4.9669495 -1.5411505 0.68473655 166 21
4.9157786 -1.5584134 0.67927521 129 21
4.9703217 -1.6093173 0.68771541 61 21
4.9264345 -1.6285797 0.68324709 118 21
4.9248114 -1.6616303 0.68436414 636 21
4.8507185 -1.6698685 0.67592394 293 21
4.7467504 -1.6667479 0.66351181 231 21
4.6831808 -1.6767889 0.65643692 244 21
4.5991602 -1.6786336 0.64663136 243 21
4.5338979 -1.6864253 0.63930821 195 21
4.5086174 -1.7085906 0.63732231 365 21
4.4989748 -1.7365799 0.6374464 407 21
4.4993176 -1.7685056 0.63893586 396 21
4.4837747 -1.7942375 0.63831526 364 21
4.5002527 -1.8329377 0.64203888 208 21
0.98971128 -0.41118547 0.16826887 161 21
4.4929657 -1.8945752 0.64414895 319 21
4.5305052 -1.9432179 0.65085149 33 21
4.521225 -1.9721695 0.65122384 516 21
0 -0 0 0 21
0 -0 0 0 21
0 -0 0 0 21
0 -0 0 0 21
0 -0 0 0 21
0 -0 0 0 21
0 -0 0 0 21
0 -0 0 0 21
0 -0 0 0 21
0 -0 0 0 21
0 -0 0 0 21
0 -0 0 0 21
0 -0 0 0 21
0 -0 0 0 21
0 -0 0 0 21
0 -0 0 0 21
4.4976501 -2.5490944 0.68088877 16 21
4.4956903 -2.5845532 0.68287474 17 21
4.4951782 -2.6210828 0.6851089 26 21
4.4960957 -2.6587129 0.68759131 20 21
4.5060816 -2.7020638 0.69143909 24 21
4.5174003 -2.7466674 0.69553506 25 21
4.5165129 -2.7842236 0.69789338 19 21
4.521225 -2.825552 0.7011205 33 21
4.5163774 -2.8612032 0.70298231 28 21
4.5137677 -2.8985088 0.70521653 29 21
4.510869 -2.9358897 0.70745069 30 21
4.5118237 -2.9760749 0.71030545 20 21
4.5215297 -3.0224457 0.71452558 9 21
4.5168672 -3.0595896 0.71663564 8 21
4.5282831 -3.1080165 0.72122812 11 21
4.5294967 -3.1499016 0.72433114 9 21
4.5295544 -3.1913471 0.72731006 14 21
4.5333123 -3.2357926 0.73090959 8 21
4.5366945 -3.2804039 0.73450905 12 21
4.5421009 -3.3269362 0.73848093 12 21
4.5486999 -3.37484 0.74270105 15 21
4.556468 -3.4241412 0.74716944 11 21
4.5527453 -3.4652526 0.7499001 12 21
4.5549769 -3.5112917 0.75362372 13 21
4.5489917 -3.5513837 0.75610614 16 21
4.5535841 -3.6001472 0.76032627 11 21
4.5507765 -3.6435199 0.76342928 21 21
4.5506902 -3.6894922 0.76702881 13 21
4.5555801 -3.7400062 0.77149713 27 21
4.56002 -3.7907183 0.77596551 30 21
4.5586934 -3.837153 0.77956504 49 21
4.5645213 -3.8901482 0.78440571 20 21
4.5661125 -3.9401178 0.78862584 23 21
4.5687561 -3.9915583 0.79309422 29 21
4.5694523 -4.0418639 0.79731435 19 21
4.5667453 -4.0896802 0.80103797 26 21
4.565093 -4.1389475 0.80500984 18 21
4.5659318 -4.191031 0.80947816 17 21
4.5728455 -4.2493577 0.81506366 22 21
4.5777678 -4.3065662 0.82040083 27 21
4.5828781 -4.3646784 0.82586217 17 21
4.5803022 -4.4161282 0.8300823 12 21
4.5822377 -4.4725604 0.83517122 22 21
4.5864758 -4.531971 0.84075665 24 21
4.586648 -4.5880928 0.84572154 27 21
4.5897899 -4.6479158 0.85130697 43 21
4.5895972 -4.7051082 0.85639596 34 21
4.5895629 -4.7631865 0.86160904 35 21
4.5862503 -4.8185658 0.86632562 24 21
4.5810709 -4.8726373 0.870794 24 21
4.5882311 -4.9406381 0.87762064 28 21
4.5799685 -4.9928241 0.88171661 24 21
4.5972266 -5.0737672 0.89065337 27 21
4.6077051 -5.1484547 0.89847296 32 21
4.563539 -5.1625071 0.89611465 15 21
4.5787735 -5.2442203 0.90505141 18 21
4.6035457 -5.3383341 0.91597402 28 21
4.6086712 -5.4110432 0.92329717 36 21
4.6105204 -5.4809775 0.93012381 41 21
4.6161237 -5.556479 0.93781936 38 21
4.618454 -5.6291852 0.94501835 21 21
4.6194396 -5.7013574 0.95209324 26 21
4.6141319 -5.7667789 0.95805109 23 21
4.6284986 -5.8580389 0.9681049 28 21
4.6510744 -5.9614234 0.98002052 16 21
4.6622567 -6.0519409 0.98982608 17 21
4.6508713 -6.1143899 0.99516326 24 21
4.6466422 -6.1872392 1.0021141 27 21
4.6487861 -6.2698288 1.0105543 32 21
4.6401243 -6.3390656 1.0168844 33 21
4.6209049 -6.3947597 1.0211046 15 21
4.6034813 -6.4536862 1.0258212 18 21
4.5780797 -6.5020924 1.0289242 19 21
4.6156921 -6.6416802 1.0459287 62 21
4.6461473 -6.773788 1.0616921 259 21
4.6962934 -6.9377375 1.0821722 377 21
4.6800981 -7.0060239 1.0881299 436 21
4.6763496 -7.0942531 1.0970666 254 21
4.7506971 -7.3041306 1.124125 16 21
4.7186551 -7.3531837 1.1271039 18 21
4.7095475 -7.4390035 1.1355442 49 21
4.6879973 -7.5064716 1.1412537 68 21
4.695467 -7.6221061 1.1540382 47 21
4.7238526 -7.7745724 1.1721599 38 21
4.7296252 -7.8927751 1.1851926 42 21
4.7204905 -7.9882741 1.194874 33 21
4.717855 -8.0968151 1.2064173 34 21
4.7160411 -8.2090635 1.218457 57 21
4.7154713 -8.3259077 1.2311174 36 21
4.7373495 -8.4855003 1.2498597 24 21
4.7167735 -8.5717812 1.2580516 38 21
4.714241 -8.6930151 1.2712084 39 21
4.7146068 -8.8224134 1.2854824 50 21
4.7413034 -9.0048161 1.3072035 49 21
4.7426291 -9.1429529 1.3225945 30 21
4.7451458 -9.2867432 1.3387303 48 21
4.7331352 -9.405201 1.3512665 69 21
4.7427654 -9.5700874 1.370257 75 21
4.7583818 -9.7514915 1.3914818 43 21
4.7607741 -9.9101887 1.4094793 41 21
4.7401819 -10.024427 1.4212708 45 21
4.7552166 -10.217946 1.443985 53 21
4.771771 -10.42014 1.4678162 36 21
4.7794971 -10.60844 1.4896615 47 21
4.7629724 -10.747331 1.5046802 72 21
4.7952833 -11.001929 1.5354621 37 21
4.7925868 -11.182537 1.5560663 20 21
4.7701254 -11.321459 1.5709608 32 21
4.7655048 -11.507276 1.5921855 32 21
0 -0 0 154 21
4.8007975 -12.007121 1.6517636 304 21
4.7016363 -11.971704 1.6430751 96 21
4.023109 -10.432072 1.432814 50 21
3.9509401 -10.435218 1.4299593 51 21
3.7661715 -10.134665 1.386641 323 21
3.6998351 -10.146397 1.3851516 732 21
3.6234674 -10.129669 1.3799385 888 21
3.557302 -10.140476 1.3784491 953 21
3.4892035 -10.145223 1.3762149 1042 21
3.4221323 -10.152338 1.3743531 1016 21
3.3585291 -10.169375 1.3738565 1033 21
3.2835426 -10.151085 1.3687676 729 21
3.6068976 -11.38845 1.5285114 516 21
3.5346003 -11.402785 1.5275184 749 21
3.4645677 -11.424258 1.5275184 716 21
3.3898888 -11.430081 1.5255325 499 21
3.338762 -11.516422 1.5340968 161 21
4.6545224 -16.429403 2.1702173 84 21
0 -0 0 121 21
4.4605808 -16.51498 2.1740649 134 21
4.3761082 -16.606325 2.1823812 68 21
4.2741313 -16.632864 2.1823812 80 21
3.2135327 -12.832741 1.6889999 156 21
3.1855376 -13.060438 1.7158101 104 21
3.2532339 -13.702429 1.7958682 105 21
3.2698336 -14.158158 1.8518467 114 21
3.2855253 -14.634923 1.9104319 125 21
3.231406 -14.818647 1.9314083 121 21
3.4641309 -16.367125 2.126899 58 21
3.4209156 -16.667032 2.1625216 142 21
3.309485 -16.64197 2.156688 127 21
3.204495 -16.647346 2.1548262 102 21
3.1008353 -16.658892 2.1538332 129 21
1.6755131 -9.321888 1.2189535 40 21
1.6138724 -9.3065739 1.2157264 61 21
1.5442998 -9.2419214 1.2062931 158 21
1.4853563 -9.2375078 1.2045555 248 21
1.4271317 -9.2366419 1.2033143 236 21
1.3698474 -9.2412987 1.2028178 259 21
1.3121409 -9.2426529 1.2019489 274 21
1.2543359 -9.2426643 1.200956 294 21
1.1959425 -9.2373943 1.1993424 366 21
1.1389974 -9.242589 1.1990942 413 21
1.0818027 -9.2454615 1.1985977 470 21
1.0266942 -9.2667189 1.2004595 884 21
0.97074538 -9.2817259 1.2015766 119 21
0.92710298 -9.4227934 1.2185812 592 21
0.87346447 -9.4737558 1.2242907 756 21
0.81276345 -9.4492788 1.2205671 109 21
0.72582233 -9.0920734 1.1751388 743 21
0.66914457 -9.0844803 1.1736493 880 21
0.61339062 -9.0884151 1.1736493 574 21
0.78477359 -12.788175 1.6368691 182 21
0.81346136 -14.730663 1.8796499 84 21
0.81234556 -16.55201 2.1071637 198 21
0.71076906 -16.556683 2.1071637 168 21
0.60806942 -16.530985 2.10344 101 21
0.50598615 -16.513577 2.1008334 116 21
0.34557083 -14.11184 1.7999641 516 21
0.25886598 -14.107742 1.7992194 523 21
0.20223224 -16.543905 2.1038125 147 21
0.10058863 -16.523996 2.1012058 157 21
-0.00080257939 -16.525295 2.10133 117 21
-0.1022848 -16.538872 2.1030676 153 21
-0.15127821 -12.253644 1.567113 160 21
-0.22690013 -12.276296 1.570092 190 21
-0.3023921 -12.281616 1.5709608 321 21
-0.37789708 -12.284489 1.5715814 342 21
-0.45381367 -12.296812 1.5734432 457 21
-0.52955502 -12.300735 1.5743121 502 21
-0.60545897 -12.306174 1.5754291 554 21
-0.68106633 -12.30421 1.5756774 572 21
-0.75697649 -12.306732 1.5765462 556 21
-0 -0 0 651 21
-0.90940154 -12.316307 1.5790286 642 21
-0.97673517 -12.207627 1.56612 239 21
-1.0643032 -12.348707 1.584614 437 21
-1.1409651 -12.351826 1.5858554 379 21
-1.2161496 -12.338667 1.5851105 274 21
-1.2944177 -12.355644 1.5882136 115 21
-1.7883543 -16.118788 2.0628524 76 21
-0 -0 0 81 21
-1.5233256 -12.343513 1.5899513 103 21
-1.5998002 -12.339838 1.590696 149 21
-1.6750853 -12.326839 1.5903237 184 21
-1.5275508 -10.745463 1.3918542 43 21
-1.5917082 -10.72411 1.3903646 22 21
-1.6577833 -10.716103 1.390613 22 21
-1.7236624 -10.706709 1.3907371 20 21
-1.7922702 -10.713547 1.3929712 31 21
-2.1291935 -12.265631 1.5914408 218 21
-2.2037115 -12.248428 1.5909443 234 21
-2.2746482 -12.212239 1.5880895 278 21
-2.345036 -12.174667 1.5851105 253 21
-2.420275 -12.16297 1.585483 240 21
-2.2063422 -10.742379 1.406004 234 21
-2.2161162 -10.463622 1.3721188 105 21
-2.2396812 -10.263688 1.3482876 43 21
-2.2634866 -10.075483 1.3259459 30 21
-2.2770283 -9.8525743 1.2991357 71 21
-2.8546283 -12.016407 1.5791528 688 21
-2.931128 -12.010233 1.5806422 1002 21
-3.0105522 -12.015123 1.5836211 984 21
-3.0933571 -12.031983 1.5882136 857 21
-3.1752179 -12.04348 1.5921855 697 21
-3.265357 -12.084121 1.6000051 864 21
-3.3407655 -12.068639 1.6006258 841 21
-3.4228692 -12.076553 1.6043494 685 21
-2.7433119 -9.4564667 1.2658713 136 21
-2.7964869 -9.4232845 1.2637612 173 21
-3.6578281 -12.055183 1.6100589 122 21
-3.7493589 -12.089377 1.6175061 278 21
-3.8360524 -12.105874 1.6227193 496 21
-3.9117877 -12.086829 1.6233399 428 21
-3.0898304 -9.3500271 1.2659954 189 21
-4.0905671 -12.129121 1.6353796 785 21
-4.1623311 -12.096287 1.6343867 270 21
-3.7817948 -10.774675 1.4626031 372 21
-4.3241625 -12.082603 1.6394756 217 21
-2.6292474 -7.2055964 0.9936738 1430 21
-2.6644223 -7.1651459 0.99044669 1775 21
-2.7178245 -7.173717 0.99379796 1392 21
-2.790715 -7.2318945 1.0038518 1006 21
-2.8067408 -7.1425958 0.99417031 832 21
-2.8118293 -7.0284996 0.98113757 1290 21
-2.8537803 -7.008357 0.98076522 1852 21
-2.8990073 -6.9962149 0.98150992 1812 21
-2.9526696 -7.0038981 0.98498535 1635 21
-2.9987166 -6.9929452 0.98597831 1760 21
-3.0403786 -6.9716849 0.98560596 1503 21
-3.056561 -6.8930268 0.97741395 1742 21
-3.101244 -6.87957 0.97815865 1507 21
-3.2041368 -6.9930272 0.99640447 1410 21
-3.2545218 -6.989428 0.99863863 1454 21
-3.3151646 -7.0070014 1.0038518 1179 21
-3.6417148 -7.5768242 1.0857717 1069 21
-3.6998873 -7.5784135 1.0891229 1341 21
-3.7568941 -7.5769057 1.0921018 1500 21
-3.8122365 -7.5714378 1.0945842 1326 21
-3.8730719 -7.5761781 1.098556 1462 21
-3.9299955 -7.5725288 1.1014109 1466 21
-3.9953423 -7.584269 1.1064998 1492 21
-4.0548997 -7.5841146 1.1099752 1421 21
-4.1070356 -7.5695581 1.1114647 907 21
-4.118957 -7.4816251 1.102528 910 21
-4.1299548 -7.3938332 1.0935912 882 21
-4.1346521 -7.2966933 1.0832891 845 21
-4.1402922 -7.2032185 1.0734836 924 21
-4.164927 -7.1442437 1.068643 840 21
-4.1995969 -7.103178 1.0664088 718 21
-4.2359605 -7.0653605 1.064671 792 21
-4.2637734 -7.0137973 1.0609474 630 21
-4.3244267 -7.0162258 1.0651675 781 21
-4.3637161 -6.9836683 1.0642986 618 21
-4.4027691 -6.9508934 1.0634298 609 21
-4.4421201 -6.9187374 1.0626851 645 21
-4.4612222 -6.8555856 1.0573479 527 21
-4.4999261 -6.8231125 1.0566032 465 21
-4.4810691 -6.704617 1.0429499 567 21
-4.5265741 -6.683569 1.0439428 1074 21
-5.5919423 -8.1489296 1.2704637 181 21
-5.4679689 -7.8643312 1.2323586 228 21
-5.4601293 -7.7511272 1.2201947 33 21
-5.4758902 -7.6730523 1.2133681 23 21
-5.4792743 -7.5789933 1.204059 132 21
-5.4869871 -7.4923892 1.1958669 62 21
-5.4548345 -7.3533754 1.1794831 21 21
-5.4682655 -7.2777185 1.1729046 13 21
-5.4695597 -7.187171 1.1639678 21 21
-5.4844851 -7.115747 1.1580101 29 21
-5.4981308 -7.0436301 1.1519282 22 21
-5.5110993 -6.9716148 1.1458462 34 21
-5.519052 -6.8942842 1.1388954 20 21
-5.5318875 -6.8240581 1.1330618 19 21
-5.5289626 -6.7355266 1.1242491 17 21
-5.5353074 -6.6595001 1.1174225 44 21
-5.5332632 -6.5745401 1.1091064 14 21
-5.5413256 -6.5026984 1.1029004 21 21
-5.5513082 -6.4340119 1.0971907 12 21
-5.5580468 -6.3624601 1.0909847 15 21
-5.5595169 -6.2858653 1.0839097 12 21
-5.5126061 -6.1562634 1.0678982 232 21
-5.5336175 -6.1039419 1.0647951 51 21
-5.538095 -6.0340476 1.0587132 11 21
-5.5297685 -5.9512439 1.0503972 23 21
-5.5457873 -5.8955164 1.0466735 19 21
-5.5647521 -5.8434105 1.0435705 20 21
-5.5523009 -5.7591443 1.0348819 45 21
-5.5563502 -5.6930084 1.0292965 40 21
-5.5549178 -5.6220989 1.0228423 17 21
-5.5493169 -5.547914 1.0157673 17 21
-5.5458403 -5.4768009 1.0091889 18 21
-5.5530643 -5.4170284 1.0045965 17 21
-5.5647655 -5.362195 1.0008729 23 21
-5.5731292 -5.3046856 0.99665272 31 21
-5.5846114 -5.2506757 0.9930532 25 21
-5.5949144 -5.1960497 0.98932958 13 21
-5.6069517 -5.1435084 0.98597831 9 21
-5.6362004 -5.1070085 0.98560596 8 21
-5.6644735 -5.0696821 0.98510945 10 21
-5.7029071 -5.0414033 0.98635066 6 21
-5.7217755 -4.995872 0.98436475 7 21
-0 -0 0 11 21
-5.6973028 -4.8525634 0.97033906 24 21
-5.633584 -4.7389331 0.95507216 73 21
-5.7007127 -4.7359872 0.9612782 31 21
-5.7419372 -4.7109909 0.96326417 25 21
-2.944736 -2.3852046 0.50823641 127 21
-2.9546678 -2.3633709 0.50749171 244 21
-2.9410884 -2.3230467 0.50302333 167 21
-2.9459 -2.297631 0.50153387 162 21
-2.9560127 -2.2764835 0.50091326 228 21
-2.9541321 -2.2462862 0.49843085 147 21
-2.9527857 -2.2167938 0.49607256 138 21
-2.9464076 -2.1838565 0.49296951 118 21
-2.9413383 -2.1522536 0.49011475 121 21
-2.954489 -2.1341655 0.49011475 222 21
-2.9570279 -2.1085045 0.48850116 140 21
-2.9626086 -2.0851784 0.48738408 134 21
-2.9614966 -2.0573323 0.48527402 100 21
-2.9658823 -2.0335085 0.48403281 111 21
-2.9733741 -2.0119338 0.48328808 102 21
-2.9881382 -1.9953055 0.48366043 112 21
-3.0202065 -1.9900424 0.48663935 84 21
-3.054817 -1.9860837 0.48999062 59 21
-3.071121 -1.9699824 0.49061123 57 21
-3.0990787 -1.961188 0.49296951 67 21
-3.1699624 -1.9789362 0.50165802 374 21
-3.2023196 -1.9719416 0.50463688 96 21
-3.2440367 -1.970293 0.50898111 253 21
-3.3071303 -1.9809597 0.51642841 79 21
-3.3474114 -1.9772923 0.52052438 77 21
-3.3800557 -1.9687077 0.5235033 76 21
-3.4299264 -1.9696844 0.52896464 46 21
-8.6669292 -4.908668 1.2801452 513 21
-8.8736172 -4.9540911 1.3054658 36 21
-6.4898434 -3.5708282 0.96078175 61 21
-6.4985485 -3.5238431 0.95891994 27 21
-6.5331745 -3.4909189 0.96078175 10 21
-6.6159272 -3.4831338 0.9694702 9 21
-6.5279598 -3.3858061 0.95407921 22 21
-6.5106192 -3.3262694 0.94874197 32 21
-6.5450873 -3.2933969 0.95072794 35 21
-6.5909538 -3.2659554 0.95432746 20 21
-6.6162195 -3.2280641 0.95507216 32 21
-6.6359019 -3.187407 0.95507216 38 21
-6.6759653 -3.156388 0.95792693 46 21
-8.8712816 -4.1283379 1.2581757 28 21
-8.9018583 -4.0763063 1.2589204 53 21
-8.9077044 -4.0130477 1.2563139 54 21
-8.8750114 -3.9329813 1.2484943 767 21
-8.8716888 -3.8665545 1.2447706 39 21
-8.7374706 -3.7444091 1.2232977 201 21
-8.7182207 -3.6729999 1.2175882 585 21
-8.8606844 -3.6691833 1.233848 28 21
-8.8811932 -3.6139979 1.2335998 31 21
-8.9022799 -3.5590672 1.2334757 35 21
-8.9285679 -3.506191 1.2340963 26 21
-8.9313984 -3.4441977 1.2316139 47 21
-8.9505072 -3.388628 1.2313656 32 21
-8.7255898 -3.2423682 1.1985977 468 21
-8.7602348 -3.1942086 1.2005836 338 21
-8.8534756 -3.1668067 1.2103891 445 21
-8.7875376 -3.0825236 1.1990942 927 21
-8.7969036 -3.0253181 1.197853 932 21
-8.8011971 -2.9665287 1.1959912 1006 21
-8.7966213 -2.904999 1.1930122 1020 21
-8.8010635 -2.8466926 1.1912745 1073 21
-8.797554 -2.7860434 1.1885438 1118 21
-8.6524181 -2.6817565 1.1673192 1057 21
-8.6411743 -2.6202619 1.1637197 1087 21
-8.6361609 -2.5609822 1.1609889 1060 21
-8.6393232 -2.5043507 1.1593754 1229 21
-8.6430712 -2.4480472 1.1578859 1215 21
-8.6426277 -2.3907335 1.1559 1114 21
-8.6533031 -2.336623 1.1554035 1169 21
-8.6569223 -2.2807014 1.1540382 1078 21
-6.4930663 -1.6677849 0.87277991 296 21
-8.8161249 -2.2073295 1.1710428 508 21
-8.8246822 -2.1520174 1.1704222 1000 21
-8.8367558 -2.0976002 1.1702981 994 21
-8.8291569 -2.0386488 1.1676915 460 21
-8.8356905 -1.9831312 1.1669468 793 21
-8.8506012 -1.9295135 1.1673192 1112 21
-8.850625 -1.8727045 1.1658297 1066 21
-8.8561172 -1.8171654 1.165085 1087 21
-8.9254923 -1.7744073 1.1725322 625 21
-8.9537497 -1.7229854 1.1747664 649 21
-8.893918 -1.6549352 1.1658297 47 21
-8.785737 -1.5790776 1.1508111 657 21
-8.8979139 -1.5429541 1.1638438 46 21
-7.0105371 -1.1711569 0.92329717 88 21
-7.0185709 -1.1282766 0.92342132 144 21
-8.9130402 -1.3770915 1.1623544 79 21
-8.9507675 -1.3267447 1.166078 97 21
-8.9656162 -1.272776 1.1669468 133 21
-8.9791565 -1.2185414 1.1676915 146 21
-8.9776087 -1.1622757 1.1665745 180 21
-8.9845705 -1.1071682 1.1665745 199 21
-9.0118914 -1.0544434 1.169181 902 21
-9.0033979 -0.99748671 1.1673192 223 21
-8.8238173 -0.92279655 1.1439844 1007 21
-9.0031109 -0.88575864 1.1658297 280 21
-9.0083771 -0.83049995 1.1658297 311 21
-9.0192347 -0.77572089 1.1665745 255 21
-9.0327263 -0.72107708 1.1676915 301 21
-9.0971804 0.22035807 1.0567247 345 22
-9.1016169 0.27635437 1.0573945 321 22
-9.0987568 0.33215934 1.0572828 266 22
-9.0339985 0.38531154 1.0502493 161 22
-8.8905191 0.43385181 1.0343962 641 22
-9.0524035 0.49745324 1.0529288 105 22
-8.9321365 0.54583097 1.039755 207 22
-8.8939171 0.59829134 1.0358475 954 22
-9.0932493 0.66778094 1.0587342 93 22
-9.0879898 0.72348458 1.0586225 84 22
-9.0833797 0.77923381 1.0586225 89 22
-9.0952501 0.83650166 1.0605204 67 22
-0 0 0 78 22
-9.1050558 0.95021838 1.0628649 139 22
-9.1089315 1.0071605 1.0639814 114 22
-9.1075153 1.0636095 1.0645396 56 22
-9.1244888 1.1223849 1.067219 72 22
-9.1095457 1.1773313 1.0663259 411 22
-8.9869356 1.2175895 1.0532637 492 22
-8.9055023 1.2622468 1.0448905 975 22
-9.1423645 1.3531042 1.0726895 87 22
-9.1358547 1.4094784 1.0729128 75 22
-9.1358652 1.4669267 1.0739175 77 22
-9.1511965 1.5270458 1.0767086 87 22
-9.1445923 1.5836766 1.0770435 60 22
-9.1542645 1.6432694 1.0792763 58 22
-9.1488943 1.7003161 1.0798346 72 22
-9.149024 1.7584842 1.0810627 60 22
-9.1351376 1.8140078 1.0807277 97 22
-9.1267557 1.8706245 1.0810627 205 22
-8.9605169 1.893909 1.0633115 687 22
-8.9982471 1.9596406 1.0690053 764 22
-8.4595261 1.8967371 1.0083835 66 22
-9.1807404 2.1177235 1.0928967 71 22
-9.1946478 2.1804371 1.0960227 74 22
-9.1569586 2.2309318 1.0932317 161 22
-9.1633415 2.2921407 1.0955762 173 22
-9.1519928 2.3490641 1.0959111 205 22
-9.1806517 2.4165604 1.100935 144 22
-9.1646919 2.4725873 1.1008234 136 22
-9.1522217 2.5295687 1.1011583 180 22
-9.1154919 2.5797238 1.0987022 884 22
-9.0231314 2.6134863 1.0897708 1173 22
-9.0383673 2.6781199 1.093455 973 22
-9.0417366 2.7395799 1.0957994 1363 22
-9.0418425 2.8002999 1.097809 1248 22
-9.0491238 2.863523 1.1007117 1200 22
-9.0446205 2.9232726 1.1022747 1232 22
-9.0491619 2.9861894 1.1049541 1250 22
-9.0504456 3.0483198 1.1072986 1221 22
-9.049427 3.1099319 1.1094198 1237 22
-9.0470552 3.1713176 1.1114293 1272 22
-9.0508194 3.2351325 1.1142204 1354 22
-9.0550747 3.299453 1.1171231 1362 22
-9.0700588 3.368099 1.1213655 1373 22
-9.0650225 3.429667 1.1232635 1349 22
-9.0623531 3.492372 1.1254963 1351 22
-8.9889507 3.52758 1.1192443 80 22
-9.1470833 3.654572 1.1410146 1075 22
-9.1355333 3.7151215 1.1423544 1242 22
-9.1208305 3.7745264 1.1433591 1220 22
-9.108489 3.8350475 1.1446989 1194 22
-9.0994015 3.8971243 1.1464851 1227 22
-9.0853395 3.9572494 1.1477132 1182 22
-9.0717907 4.0177507 1.1490529 1233 22
-9.0632772 4.0806828 1.1510624 1143 22
-9.0525265 4.1428347 1.1528487 1000 22
-9.0431547 4.2058458 1.1548582 1007 22
-9.0369434 4.270596 1.1573144 991 22
-9.0257988 4.3332777 1.1592124 963 22
-9.0070791 4.392498 1.160217 898 22
-9.0111246 4.46312 1.1641246 1027 22
-8.9951115 4.5241323 1.165576 1076 22
-8.9866524 4.5891838 1.1680321 1092 22
-8.9750872 4.6529293 1.1701533 1086 22
-8.9709911 4.7208705 1.1732793 1143 22
-8.9620161 4.7865953 1.1758471 1081 22
-8.9482031 4.8500195 1.1778566 1085 22
-8.9339485 4.9134536 1.1798662 993 22
-8.9244585 4.9798012 1.1825455 903 22
-8.9093008 5.0432792 1.1845552 805 22
-8.0534782 4.6242614 1.0777134 31 22
-9.1412802 5.3237805 1.2228484 944 22
-9.1212769 5.387351 1.2245231 921 22
-9.102541 5.4518981 1.226421 934 22
-9.1071386 5.5308614 1.231445 704 22
-6.9787335 4.296989 0.95513004 14 22
-6.9311624 4.3265724 0.95233899 30 22
-6.8927283 4.3615799 0.95077598 28 22
-6.8256869 4.378036 0.94541717 53 22
-6.783699 4.4100852 0.9434076 63 22
-6.7722774 4.4620152 0.94552881 23 22
-6.7323751 4.4952068 0.94385415 20 22
-6.7227731 4.5486836 0.94631028 9 22
-6.703752 4.5960298 0.94753838 24 22
-9.0103731 6.2592096 1.2669472 412 22
-8.9913015 6.3281059 1.2696266 742 22
-6.1285062 4.3695884 0.87999475 166 22
-8.978219 6.4851007 1.2786697 749 22
-8.9494858 6.5482836 1.2802327 759 22
-8.9330883 6.6208262 1.283582 269 22
-8.9336205 6.7065387 1.2893873 666 22
-8.8923016 6.7612281 1.2893873 168 22
-8.8506479 6.8156633 1.2893873 189 22
-8.8337364 6.8893986 1.2929599 317 22
-8.7897377 6.9422398 1.2927366 388 22
-8.7749128 7.0183883 1.2967557 675 22
-8.750988 7.0877352 1.2995468 673 22
-8.7303848 7.160203 1.302896 706 22
-8.6320086 7.1685581 1.2949694 433 22
-8.5156069 7.1606269 1.2843634 548 22
-8.4813461 7.221118 1.2858148 704 22
-8.4338675 7.2704272 1.2853682 499 22
-7.2189374 6.3006473 1.1108712 240 22
-7.1801414 6.3448234 1.1108712 221 22
-7.1366315 6.3847847 1.1102014 190 22
-7.0818543 6.4144435 1.1078569 167 22
-6.3385253 5.8123126 1.0005685 29 22
-7.0229974 6.5197978 1.1109828 99 22
-6.9481034 6.5300989 1.105624 73 22
-6.8841476 6.5500031 1.1019398 106 22
-6.7786994 6.5293818 1.0917803 38 22
-6.717165 6.5500379 1.088431 32 22
-6.6825056 6.5967155 1.0893242 36 22
-6.6468234 6.6425118 1.0901057 34 22
-6.6436629 6.7213373 1.0961344 39 22
-6.6856017 6.8473029 1.1095314 83 22
-5.9591446 6.1786127 0.99878222 33 22
-5.9032998 6.1963534 0.99587953 51 22
-5.6383934 5.9914608 0.95870262 285 22
-5.5710793 5.9931898 0.95367873 135 22
-5.4784188 5.9665031 0.94441241 34 22
-5.421679 5.9779215 0.94106311 54 22
-5.3835711 6.0095954 0.94083983 33 22
-5.3571315 6.0544238 0.94262612 30 22
-2.9115431 3.331218 0.53144723 56 22
-2.8910482 3.3490202 0.53144723 94 22
-2.8749573 3.3719902 0.53222871 107 22
-2.8695736 3.4078119 0.53490818 105 22
-2.8689406 3.4498069 0.5384807 93 22
-2.8666384 3.4903853 0.54183 99 22
-2.8620677 3.5287492 0.54484433 122 22
-2.8571336 3.5671873 0.54785866 145 22
-2.8536839 3.6080356 0.55120796 140 22
-2.8547328 3.6552408 0.55545032 154 22
-2.8589497 3.7073157 0.56036264 174 22
-2.8542068 3.7485087 0.56371188 159 22
-2.8419001 3.7802498 0.56572145 180 22
-2.834641 3.8191628 0.56873578 188 22
-2.8293598 3.8613346 0.57219672 199 22
-2.828326 3.9100263 0.57655078 221 22
-2.8204489 3.9499531 0.57967675 206 22
-2.8184843 3.9988647 0.58403081 175 22
-2.8154576 4.0470839 0.58827323 180 22
-2.8181312 4.1044278 0.59374368 19 22
-0 0 0 16 22
-0 0 0 4 22
-2.146147 3.2522919 0.47216514 58 22
-2.1234403 3.261235 0.47160691 53 22
-0 0 0 4 22
-0 0 0 5 22
-0 0 0 16 22
-0 0 0 12 22
-0 0 0 56 22
-0 0 0 8 22
-0 0 0 56 22
-0 0 0 4 22
-1.5176588 2.6386204 0.37637597 6 22
-1.4935989 2.6340506 0.37458971 3 22
-0 0 0 63 22
-0 0 0 5 22
-0 0 0 7 22
-0 0 0 5 22
-0 0 0 32 22
-0 0 0 8 22
-0 0 0 9 22
-0 0 0 5 22
-0 0 0 58 22
-0 0 0 72 22
-0 0 0 315 22
-0 0 0 62 22
-0 0 0 86 22
-0 0 0 99 22
-0 0 0 90 22
-1.1383635 2.5651965 0.34969345 127 22
-0 0 0 109 22
-0 0 0 108 22
-0 0 0 110 22
-0 0 0 95 22
-0 0 0 102 22
-0 0 0 58 22
-1.0140792 2.5784156 0.34567434 235 22
-0.99573398 2.5781 0.34489283 71 22
-0 0 0 171 22
-0 0 0 95 22
-0.96412772 2.6398654 0.35014001 49 22
-0.95494765 2.6653783 0.35248449 31 22
-0.93791664 2.6693122 0.35226122 24 22
-0.92378521 2.6815944 0.35304272 33 22
-0.88189209 2.6118863 0.34411132 6 22
-0 0 0 3 22
-0 0 0 5 22
-0 0 0 4 22
-0.789249 2.54163 0.33339366 78 22
-0.76930791 2.5321617 0.33171904 114 22
-0.75290769 2.5339766 0.33138409 100 22
-0.73651415 2.5356855 0.33104917 85 22
-0.71931452 2.534421 0.33037931 96 22
-0.70215815 2.5330408 0.32970947 106 22
-0.6853053 2.532505 0.32915124 119 22
-0.66823196 2.5308971 0.32848141 138 22
-0.65169954 2.5311 0.32803482 128 22
-0.63857406 2.5446901 0.32915124 67 22
-0.61893922 2.5321493 0.32725334 15 22
-0.60476995 2.5417001 0.32792318 14 22
-0.5900588 2.5492358 0.32836977 39 22
-0.5754959 2.557656 0.32892796 7 22
-0.56000364 2.5621099 0.3290396 4 22
-0.54695147 2.5781357 0.33049095 30 22
-0 0 0 4 22
-0 0 0 4 22
-0 0 0 4 22
-0.48734176 2.6112971 0.33283547 5 22
-0.46532002 2.580986 0.3290396 15 22
-0.44453967 2.5553997 0.32580197 34 22
-0.42917997 2.5600393 0.32602528 37 22
-0.41362193 2.5636055 0.32613692 30 22
-0.39849263 2.5700233 0.32658347 45 22
-0.38227749 2.5694714 0.32624856 32 22
-0.36720461 2.5766876 0.32680675 84 22
-0.35018128 2.5700302 0.32580197 31 22
-0.33376539 2.5672033 0.32524377 39 22
-0.31800705 2.5692029 0.32524377 30 22
-0.30142564 2.5641968 0.32446226 55 22
-0.28535691 2.5630352 0.32412735 43 22
-0.26858753 2.5548546 0.32301092 137 22
-0.25241777 2.5515099 0.32245272 186 22
-0.23684886 2.5540001 0.32256436 185 22
-0.2210878 2.5544152 0.32245272 181 22
-0.20525111 2.5537426 0.32222942 165 22
-0.18921085 2.5499988 0.32167122 185 22
-0.17288776 2.5411971 0.32055479 233 22
-0.15704714 2.5382426 0.32010823 218 22
-0.14097363 2.5302286 0.31910345 206 22
-0.12613238 2.5449414 0.32066643 135 22
-0.11064339 2.548646 0.32100135 101 22
-0.10830913 2.9077733 0.36130425 16 22
-0.099140987 3.1884859 0.3927874 163 22
-0.072075389 2.8870277 0.35884812 31 22
-0.04836034 2.5664909 0.32278764 74 22
-0.032499447 2.5577962 0.32178286 74 22
-0.016766218 2.551985 0.32111299 81 22
