# .PCD v0.7 - Point Cloud Data file format
VERSION 0.7
FIELDS x y z intensity ring
SIZE 4 4 4 4 1
TYPE F F F F U
COUNT 1 1 1 1 1
WIDTH 1315
HEIGHT 1
VIEWPOINT 0 0 0 1 0 0 0
POINTS 1315
DATA ascii
-2.8514919 -12.003199 -0.86216748 906 37
-2.9312341 -12.010669 -0.86405814 1024 37
-3.0121446 -12.021481 -0.86623961 954 37
-3.0890775 -12.01533 -0.86718488 841 37
-5.8790579 -22.302929 -1.6443007 22 37
-6.0139747 -22.259695 -1.6437917 9 37
-0 -0 -0 5 37
-6.2853231 -22.17942 -1.6434282 29 37
-6.4001856 -22.067638 -1.6379018 242 37
-6.5385895 -22.038469 -1.6387016 196 37
-6.7075629 -22.1096 -1.6472094 84 37
-6.9361324 -22.368103 -1.6701149 8 37
-7.0744548 -22.328926 -1.6704057 5 37
-7.1508474 -22.09816 -1.6560807 201 37
-7.2997565 -22.094589 -1.6592075 154 37
-7.4571748 -22.114594 -1.6642249 113 37
-7.6589103 -22.260815 -1.679059 69 37
-7.7636557 -22.123056 -1.6720783 244 37
-2.5834179 -7.2172136 -0.52156579 521 37
-2.6208186 -7.1824865 -0.52011144 1553 37
-2.6641452 -7.1644006 -0.51996601 1651 37
-2.723243 -7.1880255 -0.52309281 923 37
-2.764425 -7.1637363 -0.52251107 773 37
-2.7773359 -7.0677328 -0.51633024 813 37
-2.7973206 -6.9922171 -0.51174915 1477 37
-2.8431792 -6.9823112 -0.51233083 1457 37
-2.8913114 -6.9776349 -0.51334888 1394 37
-2.9433663 -6.9818206 -0.51509404 1492 37
-2.9928303 -6.9792128 -0.51633024 1524 37
-3.0029168 -6.8857484 -0.51036751 1247 37
-3.0434937 -6.8635459 -0.51007664 1417 37
-3.1457815 -6.9784093 -0.5207659 1240 37
-3.2088912 -7.003408 -0.52432901 1425 37
-3.2572739 -6.9953413 -0.52527428 1237 37
-3.3167651 -7.010386 -0.52811021 120 37
-5.708972 -11.879412 -0.92361253 32 37
-5.7371368 -11.752735 -0.91619551 29 37
-5.7679501 -11.634207 -0.90943289 21 37
-5.8051491 -11.53089 -0.90390646 39 37
-5.8766999 -11.49683 -0.9040519 16 37
-5.8906384 -11.351663 -0.89510787 48 37
-5.9494915 -11.295008 -0.89343536 63 37
-6.0055208 -11.233662 -0.89139932 102 37
-6.0719585 -11.192217 -0.89103574 124 37
-6.0428982 -10.977376 -0.87627441 14 37
-6.0503325 -10.832983 -0.86733031 15 37
-6.0822783 -10.734909 -0.8622402 102 37
-6.1142435 -10.638583 -0.85729551 44 37
-6.1251693 -10.507804 -0.84944218 22 37
-6.1255884 -10.361839 -0.84028 19 37
-6.1598268 -10.275296 -0.83613515 111 37
-6.1233101 -10.073664 -0.82217371 17 37
-6.1557074 -9.9883518 -0.81810158 16 37
-6.1497746 -9.8429661 -0.80886668 13 37
-6.1492276 -9.7089863 -0.80057704 12 37
-5.8305016 -9.0818567 -0.74953043 59 37
-5.8632746 -9.0107975 -0.74647635 48 37
-5.8844166 -8.923027 -0.74196798 43 37
-5.8819861 -8.8013363 -0.73447824 53 37
-5.8956199 -8.7056179 -0.72924268 60 37
-5.8981462 -8.5952606 -0.72269821 66 37
-5.9302816 -8.5294275 -0.72008044 51 37
-5.9566636 -8.4561844 -0.7168082 131 37
-6.0084376 -8.4194756 -0.7168082 723 37
-6.0407062 -8.3557758 -0.71440858 141 37
-6.1307483 -8.371665 -0.71920788 17 37
-6.2253699 -8.3923702 -0.72451615 458 37
-6.3300591 -8.4249849 -0.73098785 735 37
-6.3985438 -8.4082108 -0.73302388 587 37
-6.4859314 -8.4154034 -0.73731416 402 37
-6.0520988 -7.7535062 -0.6797958 23 37
-6.661684 -8.4275112 -0.74589461 371 37
-0 -0 -0 539 37
-0 -0 -0 518 37
-6.9289308 -8.4414692 -0.75891078 568 37
-7.0239406 -8.4509563 -0.76385546 531 37
-7.1051998 -8.4428043 -0.76720041 483 37
-7.2273688 -8.481802 -0.77512646 139 37
-7.358099 -8.528677 -0.78392512 84 37
-7.4358773 -8.5126648 -0.78676105 85 37
-7.5216632 -8.5049849 -0.79046953 86 37
-7.6262593 -8.5173779 -0.7962141 46 37
-7.1137657 -7.8474431 -0.73491454 112 37
-7.8326979 -8.534852 -0.80726695 60 37
-7.9276829 -8.5326672 -0.81184804 90 37
-8.0003862 -8.5056591 -0.81402951 75 37
-8.1136312 -8.5206985 -0.82050121 429 37
-8.1809874 -8.4865522 -0.822101 493 37
-8.3032532 -8.5082941 -0.8294453 248 37
-8.3574057 -8.4593143 -0.82966346 256 37
-8.3534412 -8.3521605 -0.82391888 90 37
-8.3605404 -8.2572908 -0.8194105 589 37
-8.3810682 -8.1765814 -0.81635642 651 37
-8.3980494 -8.0931635 -0.81301147 705 37
-8.4453831 -8.0394182 -0.81279331 624 37
-8.3158293 -7.8193588 -0.79490519 48 37
-8.6880817 -8.069581 -0.82719111 358 37
-8.7947512 -8.068717 -0.83286297 609 37
-8.913558 -8.0775623 -0.83969826 502 37
-9.0134821 -8.067955 -0.84464294 554 37
-9.1195984 -8.0627089 -0.85016936 527 37
-9.2470217 -8.0748329 -0.85773182 416 37
-9.3258457 -8.0433483 -0.86056775 169 37
-9.5033236 -8.0952864 -0.87285674 81 37
-9.5856314 -8.064435 -0.87598354 107 37
-9.6771212 -8.0405264 -0.87998295 117 37
-2.9434543 -2.4142332 -0.24022759 56 37
-2.9241202 -2.3684957 -0.23702809 142 37
-2.945606 -2.356118 -0.23768254 311 37
-2.9154067 -2.3027492 -0.23353773 128 37
-2.9491374 -2.3001575 -0.23535563 288 37
-2.9426556 -2.2661903 -0.23346502 152 37
-2.9469807 -2.2408447 -0.23259242 133 37
-2.9423344 -2.2089422 -0.23091996 115 37
-2.9398115 -2.1789641 -0.22946563 104 37
-2.9386413 -2.1502788 -0.22815675 90 37
-2.9542048 -2.13396 -0.2283749 275 37
-2.9453225 -2.1001523 -0.22641157 119 37
-2.9548917 -2.0797434 -0.2261207 118 37
-2.9585891 -2.0553112 -0.22532082 86 37
-2.959631 -2.0292194 -0.2243028 116 37
-2.9687231 -2.0087845 -0.22401193 127 37
-2.9851391 -1.9933015 -0.22437552 113 37
-3.0048072 -1.9798887 -0.22502996 108 37
-3.0478308 -1.9815385 -0.22772045 57 37
-3.0716825 -1.9703426 -0.22873847 78 37
-3.1047795 -1.9647981 -0.23055637 85 37
-3.1506114 -1.9668473 -0.23346502 322 37
-3.1897912 -1.9642216 -0.23579192 117 37
-3.221386 -1.9565264 -0.2374644 167 37
-3.3188751 -1.9879996 -0.244736 71 37
-3.3413136 -1.9736879 -0.24560858 61 37
-3.3662863 -1.9606822 -0.24669932 48 37
-3.4041955 -1.954898 -0.2488808 35 37
-10.703683 -6.0625334 -0.8595497 485 37
-9.7436457 -5.4399538 -0.77628994 25 37
-10.684657 -5.8797479 -0.85184181 82 37
-10.667056 -5.7850685 -0.84740615 578 37
-10.674206 -5.7044625 -0.84507924 419 37
-10.54752 -5.5538077 -0.83177221 41 37
-10.638942 -5.5188417 -0.83649874 276 37
-10.623759 -5.4284945 -0.83249938 607 37
-10.620343 -5.34482 -0.82951802 652 37
-10.605578 -5.2560768 -0.8256641 640 37
-10.593712 -5.169467 -0.822101 592 37
-10.582981 -5.0840654 -0.81868333 663 37
-10.564389 -4.9955797 -0.81468397 702 37
-10.560484 -4.9146695 -0.81192076 688 37
-10.544196 -4.8285961 -0.80821222 680 37
-10.527252 -4.742909 -0.80450374 564 37
-10.524243 -4.6640787 -0.80195868 626 37
-10.498723 -4.5758991 -0.7976684 685 37
-10.50002 -4.4999976 -0.79555964 757 37
-10.488832 -4.4192181 -0.79250556 739 37
-10.472444 -4.3368368 -0.78908795 731 37
-10.46006 -4.2567043 -0.78603387 663 37
-10.4582 -4.1813321 -0.7838524 772 37
-10.443743 -4.1014023 -0.7807256 797 37
-10.431491 -4.0228848 -0.77781695 822 37
-10.430796 -3.9492652 -0.77585363 826 37
-10.388457 -3.8605151 -0.7706908 659 37
-10.243296 -3.7351806 -0.75760192 56 37
-1.6146078 -0.57652032 -0.087669447 13 37
-1.6209382 -0.56759316 -0.087887593 12 37
-1.6272197 -0.55861002 -0.088105738 15 37
-1.6287265 -0.54797775 -0.08796031 15 37
-1.6367931 -0.53953809 -0.088323891 5 37
-1.6343794 -0.52764243 -0.087887593 8 37
-1.6290293 -0.51489305 -0.087233149 10 37
-1.6235844 -0.50222939 -0.086578704 19 37
-1.5483747 -0.46851575 -0.080615997 62 37
-1.519667 -0.44964498 -0.078216366 127 37
-1.5176079 -0.438923 -0.077852786 144 37
-1.5183535 -0.42905903 -0.077707358 167 37
-1.5171126 -0.41867042 -0.077416487 163 37
-1.5167644 -0.40857333 -0.077198341 141 37
-1.5153853 -0.39824209 -0.076907478 177 37
-1.5129704 -0.38769493 -0.076543897 168 37
-1.5095161 -0.37695006 -0.076107599 194 37
-1.5079249 -0.36673507 -0.075816736 180 37
-1.505295 -0.35632339 -0.075453155 189 37
-1.503566 -0.34618232 -0.075162292 173 37
-1.5027425 -0.33629447 -0.074944146 184 37
-1.5028287 -0.32664233 -0.074798718 192 37
-1.5018775 -0.31679526 -0.074580565 182 37
-1.5018392 -0.30717278 -0.074435137 180 37
-1.5017393 -0.29756269 -0.074289702 181 37
-1.5005988 -0.2877768 -0.074071556 195 37
-1.4984143 -0.27783358 -0.073780693 172 37
-1.4961644 -0.26792803 -0.07348983 186 37
-1.4948323 -0.2582311 -0.073271677 168 37
-1.4934375 -0.24856062 -0.073053531 188 37
-1.4909958 -0.23875855 -0.072762668 159 37
-1.4924327 -0.22960548 -0.072762668 187 37
-1.4918404 -0.22015104 -0.072617233 192 37
-1.4911882 -0.21071252 -0.072471805 172 37
-1.4914647 -0.20142454 -0.072399087 190 37
-1.4906944 -0.19201294 -0.072253652 164 37
-1.4918445 -0.18286259 -0.072253652 207 37
-1.4919479 -0.17358933 -0.072180942 176 37
-1.4919937 -0.16432169 -0.072108224 203 37
-1.4919819 -0.15506004 -0.072035506 203 37
-1.4909202 -0.14570692 -0.071890071 169 37
-1.4897999 -0.1363727 -0.071744643 188 37
-1.489615 -0.12714329 -0.071671925 179 37
-1.4873844 -0.11776232 -0.07145378 162 37
-1.4951397 0.036670834 -0.090422429 60 38
-1.490903 0.045720942 -0.090081461 70 38
-1.4886031 0.054794267 -0.089910977 84 38
-1.4872434 0.063884109 -0.089825727 95 38
-1.4848331 0.072910205 -0.089655243 103 38
-1.4823681 0.081909135 -0.089484759 85 38
-1.4788543 0.090819225 -0.089229032 97 38
-1.476281 0.099756718 -0.089058541 121 38
-1.4736538 0.10866605 -0.088888057 119 38
-1.4749457 0.11786544 -0.089058541 122 38
-1.4811434 0.12751338 -0.089655243 152 38
-1.4823173 0.13678274 -0.089825727 170 38
-1.4834332 0.14607129 -0.089996219 170 38
-1.4834999 0.15527469 -0.090081461 204 38
-1.4835095 0.16448441 -0.090166703 219 38
-1.4804932 0.17335169 -0.089996219 239 38
-1.4803905 0.18255477 -0.090081461 240 38
-1.473314 0.19086523 -0.089570001 281 38
-1.4819878 0.20124499 -0.090422429 254 38
-1.4856572 0.21103643 -0.090848647 214 38
-1.4754645 0.21883039 -0.090081461 268 38
-1.4849249 0.2295568 -0.091019131 228 38
-1.481521 0.23834677 -0.090848647 246 38
-1.4810134 0.24759728 -0.090933889 248 38
-1.4883012 0.25821513 -0.091701075 229 38
-1.4817858 0.26645932 -0.091274865 263 38
-1.4899178 0.27737245 -0.092127293 223 38
-1.4881878 0.28650922 -0.092127293 207 38
-1.487379 0.29582977 -0.092212535 222 38
-1.4845599 0.30475 -0.092127293 237 38
-1.4885103 0.31509289 -0.092638753 219 38
-1.4865488 0.32422027 -0.092638753 222 38
-1.4874477 0.33399108 -0.09289448 201 38
-1.4892534 0.34400958 -0.093235455 198 38
-1.4919612 0.35429326 -0.093661666 207 38
-1.492663 0.36415026 -0.0939174 195 38
-1.4952327 0.37451386 -0.09434361 202 38
-1.4996612 0.38541916 -0.094940312 203 38
-1.5001583 0.39537615 -0.095196038 218 38
-1.5063604 0.4069142 -0.095963232 176 38
-1.5095965 0.41774523 -0.096474685 191 38
-1.5108391 0.4280875 -0.096815661 201 38
-1.5139251 0.43901619 -0.097327121 207 38
-1.5159786 0.4497152 -0.097753331 191 38
-1.5160508 0.45987698 -0.098009065 179 38
-1.5170069 0.47035185 -0.098350033 183 38
-1.5197909 0.48145798 -0.098861493 149 38
-1.517756 0.49108112 -0.098946735 167 38
-1.5184982 0.50163573 -0.099287704 166 38
-1.5210561 0.51285499 -0.099799164 138 38
-1.5273014 0.52542192 -0.10065159 101 38
-1.6246372 0.57010692 -0.1097726 32 38
-1.6492497 0.59014142 -0.11232989 10 38
-1.6484054 0.60127485 -0.11258562 9 38
-1.651222 0.61380959 -0.11318232 11 38
-1.6492881 0.62463593 -0.11335281 8 38
-4.9600596 1.914254 -0.41732943 7 38
-4.9296751 1.9373622 -0.41562459 435 38
-4.9167695 1.9672034 -0.41553932 622 38
-4.9055295 1.9977109 -0.41562459 626 38
-4.9005427 2.0308251 -0.41630653 629 38
-4.8990064 2.0655019 -0.41732943 623 38
-4.8944817 2.0990579 -0.41809663 602 38
-4.8915553 2.1334326 -0.4190343 546 38
-4.8820162 2.1650224 -0.41937527 611 38
-9.0349627 4.0736151 -0.81038505 402 38
-9.0206671 4.1339579 -0.81140792 922 38
-9.0095825 4.1959605 -0.81277186 925 38
-9.0052814 4.2613926 -0.81481767 947 38
-8.9924335 4.3230433 -0.81609631 855 38
-8.98454 4.3873205 -0.81788641 916 38
-8.9761953 4.4516635 -0.81967652 854 38
-8.9611702 4.5129309 -0.82086992 812 38
-8.947504 4.575089 -0.8222338 830 38
-8.9325275 4.6367898 -0.82351243 795 38
-8.919775 4.6998725 -0.82504684 867 38
-8.9118557 4.7657919 -0.82709265 988 38
-8.8342819 4.7942443 -0.82240433 163 38
-8.8588104 4.87816 -0.82768935 95 38
-8.8800297 4.9610977 -0.83271873 809 38
-8.0753679 4.5767493 -0.75659668 618 38
-8.1136436 4.6644526 -0.76316041 386 38
-8.1416769 4.7472754 -0.76878643 423 38
-8.1509876 4.8199658 -0.77262235 341 38
-8.9176388 5.3474793 -0.8520689 397 38
-8.8923206 5.4067554 -0.85283607 7 38
-2.9551387 1.8214215 -0.25945935 16 38
-2.9760134 1.8595866 -0.26269859 52 38
-2.9653888 1.8783453 -0.26278383 41 38
-2.9621913 1.9018892 -0.26363626 45 38
-2.9588163 1.9254645 -0.2644887 34 38
-2.9569263 1.9501671 -0.2655116 34 38
-2.9531879 1.9738111 -0.26636404 49 38
-2.9517448 1.9991591 -0.26747221 47 38
-2.9476373 2.0228717 -0.26832464 36 38
-2.9441674 2.047178 -0.26926231 47 38
-2.9307363 2.0646305 -0.26917705 35 38
-2.9147689 2.0802588 -0.26883608 29 38
-2.9180973 2.1097815 -0.27054095 70 38
-2.8673198 2.0999732 -0.26653454 24 38
-2.8335769 2.1020904 -0.2643182 34 38
-2.793545 2.0990841 -0.26141995 31 38
-2.7568288 2.0980806 -0.25886264 36 38
-2.7154965 2.093056 -0.2557939 37 38
-2.6743307 2.087604 -0.25272515 25 38
-2.6364615 2.0841987 -0.24999738 34 38
-2.5956244 2.0779166 -0.24692863 40 38
-2.5557389 2.0718403 -0.24394512 24 38
-2.5137165 2.0634568 -0.24070589 20 38
-2.4780235 2.0597324 -0.2381486 23 38
-2.4378984 2.0517983 -0.23507985 30 38
-2.4025147 2.0473282 -0.23252256 33 38
-2.3687871 2.0438039 -0.23013575 20 38
-2.3464482 2.0497773 -0.2290276 32 38
-2.3099468 2.0430105 -0.22629982 27 38
-2.2765863 2.0385325 -0.22391301 33 38
-2.2035115 1.9975811 -0.21692309 9 38
-0 0 -0 4 38
-2.1722639 2.0183666 -0.2161559 15 38
-2.1112199 1.9859121 -0.21044461 29 38
-2.0852873 1.985772 -0.20882499 33 38
-2.073781 1.9992213 -0.20891024 44 38
-2.0664656 2.0167801 -0.20950694 38 38
-2.06043 2.0357251 -0.21027413 40 38
-2.0570569 2.0574906 -0.21138228 46 38
-2.0548942 2.0807087 -0.21266094 41 38
-2.0539148 2.1054041 -0.21411006 39 38
-2.0506353 2.1280129 -0.21530347 41 38
-2.049216 2.1528254 -0.2167526 41 38
-2.0468867 2.1769743 -0.21811649 40 38
-2.0463715 2.2033656 -0.2197361 42 38
-2.0449357 2.2290978 -0.22127047 40 38
-2.0432606 2.2548947 -0.22280486 43 38
-2.0426741 2.2822397 -0.22450972 36 38
-2.0398493 2.3074219 -0.22595884 37 38
-2.0354812 2.3311539 -0.22723749 31 38
-0 0 -0 33 38
-0 0 -0 34 38
-0 0 -0 36 38
-0 0 -0 54 38
-2.01104 2.4510412 -0.23371597 39 38
-2.0028615 2.4718509 -0.23465364 32 38
-1.9882793 2.4848719 -0.23473887 18 38
-0 0 -0 3 38
-2.6096597 3.3449879 -0.32543746 18 38
-2.6030693 3.3790932 -0.32739803 41 38
-2.5913334 3.4068978 -0.3286767 32 38
-2.5793538 3.4346855 -0.32995534 26 38
-2.5724707 3.4696577 -0.33200118 36 38
-2.5640779 3.5030658 -0.33387652 42 38
-2.5507038 3.5300398 -0.33506992 29 38
-2.5388305 3.5594149 -0.33651906 34 38
-2.5203836 3.5798142 -0.3370305 31 38
-2.5944486 3.733496 -0.35143659 82 38
-2.5771263 3.7575622 -0.35228902 104 38
-0 0 -0 7 38
-0 0 -0 4 38
-1.7322929 2.6279767 -0.23175538 4 38
-2.1365254 3.2850816 -0.29773349 117 38
-2.092118 3.2603912 -0.29389754 136 38
-2.0598178 3.253803 -0.29193693 150 38
-0 0 -0 50 38
-0 0 -0 80 38
-0 0 -0 79 38
-0 0 -0 86 38
-0 0 -0 76 38
-0 0 -0 101 38
-1.5698682 2.7327125 -0.23209634 113 38
-1.5466894 2.7310221 -0.23098819 111 38
-0 0 -0 93 38
-0 0 -0 90 38
-0 0 -0 82 38
-0 0 -0 103 38
-0 0 -0 78 38
-0 0 -0 77 38
-0 0 -0 59 38
-0 0 -0 53 38
-0 0 -0 56 38
-0 0 -0 57 38
-0 0 -0 34 38
-0 0 -0 7 38
-0 0 -0 7 38
-0 0 -0 8 38
-0 0 -0 20 38
-0 0 -0 13 38
-0 0 -0 13 38
-0 0 -0 34 38
-0 0 -0 42 38
-0 0 -0 26 38
-0 0 -0 31 38
-0 0 -0 39 38
-0 0 -0 37 38
-0 0 -0 23 38
-0 0 -0 6 38
-0 0 -0 31 38
-0.97686857 2.6790955 -0.2064382 40 38
-0.96343046 2.6934829 -0.20720538 23 38
-0.94820416 2.7031047 -0.20754635 18 38
-0.93095255 2.7069874 -0.20737587 16 38
-0 0 -0 3 38
-0 0 -0 6 38
-0 0 -0 10 38
-0 0 -0 11 38
-0 0 -0 4 38
-0.8084321 2.6659973 -0.20081215 5 38
-0.79205865 2.6709075 -0.20081215 8 38
-0.77149618 2.6613622 -0.19953351 4 38
-0.75026667 2.6487896 -0.19799913 4 38
-0 0 -0 4 38
-0.71614778 2.6520255 -0.19748767 8 38
-0.69707102 2.645771 -0.19655 4 38
-0.67785025 2.6384177 -0.19552708 7 38
-0.65705305 2.6241627 -0.19390747 8 38
-0 0 -0 3 38
-0.62273121 2.6233029 -0.19314028 7 38
-0.60595113 2.624162 -0.19288455 8 38
-0.59005624 2.628803 -0.1929698 4 38
-0.57200617 2.6236122 -0.19220261 7 38
-0.55569106 2.6260979 -0.19211736 9 38
-0.53896677 2.6265299 -0.19186163 16 38
-0.52284056 2.6297874 -0.19186163 15 38
-0.48486975 2.5194476 -0.18197344 53 38
-0.4672159 2.5106204 -0.18095052 69 38
-0.44968873 2.5016718 -0.17992762 77 38
-0.43347979 2.4994755 -0.1795014 87 38
-0.41682252 2.494226 -0.17881945 96 38
-0.40103626 2.4937854 -0.17856373 103 38
-0.38572714 2.4961991 -0.17856373 93 38
-0.37040347 2.4985189 -0.17856373 108 38
-0.35576543 2.5056772 -0.17898993 101 38
-0.34091958 2.5117621 -0.17933092 127 38
-0.32626805 2.5197356 -0.17984237 106 38
-0.31153148 2.5276234 -0.18035382 125 38
-0.29751995 2.5423524 -0.18146199 70 38
-0.28246269 2.5490818 -0.18188819 61 38
-0.2543959 2.4318507 -0.17165904 8 38
-0.23946957 2.4333658 -0.17165904 13 38
-0.22416887 2.4308207 -0.17131807 5 38
-0 0 -0 4 38
-0.19479701 2.4393477 -0.17182952 5 38
-0.17880297 2.4265857 -0.17063612 7 38
-0.16411123 2.4306195 -0.17089185 13 38
-0.1489507 2.4276025 -0.17055088 12 38
-0.13432619 2.4334452 -0.17097709 12 38
-0.11939232 2.4342237 -0.17097709 9 38
-0.10398598 2.4239604 -0.17003942 12 38
-0.089256622 2.4285355 -0.17038038 10 38
-0.073929191 2.4150949 -0.16918699 12 38
-0.05915748 2.4174953 -0.16935748 6 38
-0.044268593 2.414824 -0.16910174 8 38
-0.029378749 2.4090724 -0.16859029 7 38
-0.014567033 2.4042258 -0.16816407 8 38
0.00018290158 2.3943062 -0.16731164 14 38
0.014810558 2.3842967 -0.16645922 13 38
0.029539777 2.3921311 -0.16714115 13 38
0 0 -0 9 38
0 0 -0 14 38
0.073473677 2.3881946 -0.16688542 14 38
0.088384368 2.3946683 -0.16748212 13 38
0.10324819 2.3980627 -0.16782311 15 38
0.11771484 2.3924084 -0.16739689 16 38
0.13239217 2.3916411 -0.16739689 6 38
0.14829125 2.4106731 -0.16910174 10 38
0 0 -0 7 38
0 0 -0 11 38
0 0 -0 5 38
0 0 -0 14 38
0 0 -0 11 38
0.24445911 2.4799299 -0.17566545 26 38
0.25935912 2.4754105 -0.17540973 45 38
0 0 -0 80 38
0 0 -0 80 38
0 0 -0 130 38
0 0 -0 97 38
0 0 -0 75 38
0 0 -0 235 38
0.35808811 2.412714 -0.17114758 133 38
0.37563008 2.4281945 -0.17268196 98 38
0.38846141 2.4130564 -0.17157379 123 38
0.40342489 2.4116101 -0.17165904 125 38
0.41992041 2.4189057 -0.17251147 110 38
0.43404827 2.4123614 -0.17217049 115 38
0.44829422 2.4067142 -0.17191477 104 38
0.46305311 2.4039183 -0.17191477 115 38
0.47253996 2.3746481 -0.1696132 67 38
0.48609859 2.3668242 -0.16918699 66 38
0.50329769 2.3764682 -0.17029515 91 38
0.51829511 2.3752823 -0.17046563 107 38
0.53723055 2.3914993 -0.17217049 193 38
0.54897594 2.3755381 -0.17106234 92 38
0.56469387 2.3769717 -0.17148855 113 38
0.57950443 2.3744299 -0.17157379 100 38
0.59478974 2.373729 -0.17182952 73 38
0.61356378 2.3864386 -0.17327866 48 38
0.62489092 2.3701048 -0.17217049 61 38
0.64566368 2.3893094 -0.17421633 29 38
0.64781135 2.3401732 -0.1702099 5 38
0.66977024 2.3629937 -0.17259671 9 38
0.6889782 2.3751063 -0.17404585 5 38
0.915389 3.0843282 -0.23772238 119 38
0.94269109 3.1063018 -0.24019442 198 38
0.96055204 3.0966525 -0.23985346 175 38
0.97923356 3.0897508 -0.23976822 139 38
1.0003221 3.0903194 -0.24036491 157 38
1.0205163 3.0879073 -0.24070589 160 38
1.0407183 3.0853636 -0.24104686 166 38
1.0612519 3.0836303 -0.24147308 197 38
1.0811431 3.0798807 -0.2417288 177 38
0 0 -0 184 38
0 0 -0 186 38
0 0 -0 174 38
0 0 -0 178 38
0 0 -0 164 38
0 0 -0 151 38
1.2279387 3.0694695 -0.24530901 193 38
1.2482529 3.0655682 -0.24564998 173 38
0 0 -0 186 38
0 0 -0 174 38
0 0 -0 186 38
0 0 -0 198 38
0 0 -0 214 38
0 0 -0 213 38
1.3945068 3.0435619 -0.24888922 693 38
1.4051625 3.0177875 -0.2472696 129 38
0 0 -0 90 38
0 0 -0 85 38
0 0 -0 100 38
0 0 -0 59 38
0 0 -0 61 38
0 0 -0 69 38
0 0 -0 53 38
1.3443823 2.5520709 -0.20925121 128 38
1.3618958 2.5472882 -0.20959218 150 38
1.3798764 2.5432622 -0.2100184 179 38
1.3983394 2.5399842 -0.21052986 149 38
1.4168141 2.5365753 -0.21104132 155 38
1.4352994 2.5330348 -0.21155277 165 38
1.4537945 2.5293629 -0.21206424 168 38
0 0 -0 162 38
1.4892888 2.5190508 -0.21283142 157 38
0 0 -0 132 38
0 0 -0 159 38
0 0 -0 167 38
0 0 -0 165 38
0 0 -0 184 38
0 0 -0 145 38
0 0 -0 161 38
1.6566372 2.511971 -0.21990658 159 38
0 0 -0 168 38
0 0 -0 147 38
0 0 -0 146 38
0 0 -0 144 38
0 0 -0 136 38
1.7954427 2.5157893 -0.22689652 188 38
1.816684 2.512799 -0.22774895 181 38
1.8314793 2.5008008 -0.22766371 122 38
0 0 -0 125 38
0 0 -0 120 38
0 0 -0 134 38
0 0 -0 156 38
1.9367616 2.4811397 -0.23175538 139 38
1.9575111 2.4762433 -0.23252256 145 38
1.9776504 2.4704075 -0.2332045 156 38
1.9977915 2.4644175 -0.23388645 149 38
0 0 -0 161 38
0 0 -0 152 38
0 0 -0 145 38
2.0970962 2.460902 -0.23908627 161 38
2.1232231 2.4608111 -0.24053541 149 38
2.1487718 2.4597416 -0.2418993 139 38
2.1750472 2.4591968 -0.24334842 155 38
2.2007315 2.4576797 -0.24471231 150 38
2.215101 2.443392 -0.24462707 107 38
2.6518555 2.8892214 -0.29798919 116 38
2.6932738 2.8984394 -0.3009727 165 38
2.718518 2.8898416 -0.30191037 134 38
2.7478812 2.8853712 -0.30335951 225 38
2.8125637 2.9172268 -0.30915603 18 38
3.018332 3.0924132 -0.33217165 53 38
3.0421524 3.0787954 -0.33276835 67 38
3.0701475 3.0692279 -0.33387652 85 38
3.1002662 3.0615325 -0.33524039 98 38
3.1339722 3.057061 -0.3370305 86 38
3.1698921 3.0543642 -0.33907634 85 38
3.1957915 3.0417254 -0.33992878 98 38
3.2339964 3.0404842 -0.34223032 80 38
3.278877 3.0449898 -0.34529909 108 38
3.3107162 3.0369358 -0.34683347 82 38
3.3470101 3.032619 -0.34887928 79 38
3.38486 3.0292993 -0.35109562 99 38
3.4242878 3.0269482 -0.35348243 106 38
3.4645638 3.0248821 -0.35595447 108 38
3.5004148 3.0185311 -0.35791504 110 38
3.5408692 3.0157292 -0.36038709 96 38
3.5776076 3.0093374 -0.36243293 110 38
3.6036699 2.993695 -0.36328536 73 38
0 0 -0 4 38
0 0 -0 3 38
0 0 -0 4 38
3.6056871 2.8487699 -0.3556135 5 38
3.6285982 2.8308818 -0.3562102 19 38
0 0 -0 5 38
3.6733744 2.7939806 -0.35731834 115 38
3.7103682 2.7863445 -0.35944942 130 38
3.7546093 2.7836993 -0.36234769 132 38
3.8013692 2.7823803 -0.36550167 132 38
3.8474452 2.7800083 -0.36857042 118 38
3.8936343 2.7771747 -0.37163919 139 38
3.9350438 2.770437 -0.37419647 143 38
3.975698 2.7627265 -0.37666851 133 38
4.0057225 2.7472959 -0.37803242 167 38
4.0579863 2.7466776 -0.38169786 173 38
4.1137061 2.7477338 -0.38570428 203 38
4.1529512 2.7372439 -0.38800585 163 38
4.1997395 2.7312634 -0.3910746 163 38
4.2549958 2.730191 -0.39499578 169 38
4.308712 2.7274768 -0.39874646 150 38
4.355792 2.7199838 -0.40181521 160 38
4.3953056 2.7073128 -0.40411678 146 38
4.4578195 2.708225 -0.4087199 158 38
4.5153799 2.7053986 -0.41281155 144 38
4.5704985 2.7004466 -0.41664749 152 38
4.6153936 2.6889012 -0.41946051 186 38
4.6741419 2.6848452 -0.42363742 337 38
4.6705856 2.644824 -0.42167684 222 38
4.6910763 2.6185439 -0.42210305 245 38
4.5935655 2.5272822 -0.41102144 139 38
4.6641698 2.5289648 -0.41639176 209 38
4.6927814 2.5073404 -0.4176704 233 38
4.6736922 2.4604001 -0.41434592 158 38
4.6772022 2.425714 -0.41323778 219 38
4.683125 2.3924375 -0.41238534 217 38
4.6914859 2.360523 -0.41178864 210 38
4.70856 2.333019 -0.41204438 159 38
4.7496519 2.317188 -0.41460165 161 38
4.7871327 2.2992151 -0.41681799 241 38
4.7993488 2.2689469 -0.41664749 278 38
4.7978225 2.2323117 -0.41519836 207 38
4.8041821 2.1995132 -0.41451642 219 38
4.809411 2.1663117 -0.41374922 253 38
4.816236 2.1339362 -0.41315255 251 38
4.7990952 2.0912118 -0.4103395 108 38
4.8109207 2.0613334 -0.41025427 285 38
4.8179688 2.0294549 -0.4097428 251 38
4.819283 1.9952815 -0.4087199 228 38
4.8157454 1.9592913 -0.40727076 272 38
4.8184247 1.9260082 -0.40641832 254 38
4.8208771 1.892766 -0.40556589 254 38
4.8258924 1.8606415 -0.40496922 293 38
4.8278995 1.8274689 -0.40411678 286 38
4.8240776 1.7922602 -0.40275288 265 38
4.8106446 1.7537556 -0.40053657 160 38
4.8231912 1.7248759 -0.40070704 265 38
4.8167601 1.6893147 -0.39917266 170 38
4.8213811 1.6577845 -0.39866123 245 38
4.8191876 1.6240343 -0.39755306 272 38
4.8281155 1.5941215 -0.39746782 327 38
4.8235855 1.5598692 -0.39618918 236 38
4.8121676 1.5236279 -0.39431381 55 38
4.8290401 1.496431 -0.39499578 60 38
4.8419452 1.4679284 -0.39533675 84 38
4.8776088 1.4461192 -0.39772356 72 38
5.0270696 1.4569231 -0.41025427 7 38
13.704341 3.8800399 -1.1810217 37 38
13.773986 3.8086233 -1.1851134 38 38
14.044315 3.7907567 -1.2070209 123 38
14.213765 3.7430747 -1.2199777 121 38
14.275067 3.6657016 -1.2233875 243 38
14.253796 3.5671587 -1.2195516 251 38
14.24831 3.4730258 -1.2171648 259 38
14.245116 3.3797848 -1.2150337 285 38
14.233547 3.2849219 -1.2122207 308 38
14.228158 3.1918547 -1.2100043 275 38
14.223137 3.0991898 -1.2078732 274 38
14.205818 3.0042334 -1.2047193 292 38
14.186894 2.9094062 -1.20148 329 38
14.177115 2.8168662 -1.1990932 308 38
14.165758 2.7243679 -1.1966212 326 38
14.148902 2.6312044 -1.193723 306 38
14.140265 2.5399358 -1.1915919 299 38
14.13693 2.449893 -1.1899723 309 38
14.126144 2.3588383 -1.1877559 286 38
14.114775 2.2680082 -1.1855396 309 38
14.101838 2.1772549 -1.183238 299 38
14.098177 2.0882053 -1.1817889 325 38
14.085075 1.9980235 -1.1795726 300 38
14.047704 1.9048688 -1.1753105 276 38
14.033436 1.8153152 -1.1730942 253 38
14.028488 1.7272259 -1.1717303 263 38
14.030905 1.640191 -1.1710483 255 38
14.02585 1.5524243 -1.1697696 257 38
14.005383 1.4632289 -1.1672124 250 38
13.983357 1.3742459 -1.1645699 221 38
13.976645 1.2870497 -1.1632912 269 38
13.964424 1.1995615 -1.1615863 245 38
13.959603 1.1129049 -1.1605633 292 38
13.963188 1.0270103 -1.1603076 288 38
5.3324194 0.35956708 -0.41971624 272 38
5.331542 0.32665864 -0.41946051 528 38
5.3294663 0.29371974 -0.41911954 552 38
5.3202214 0.26047805 -0.41818187 585 38
5.3187332 0.22770126 -0.41792613 538 38
5.3080821 0.19462463 -0.41690323 57 38
5.3101721 0.16208151 -0.41698846 36 38
5.301106 0.12925373 -0.41613603 380 38
5.2928338 0.09656141 -0.41536885 379 38
5.3062782 0.064239219 -0.41647699 30 38
5.2966089 0.031620551 -0.41562459 35 38
5.2927179 -0.00087847048 -0.41528362 39 38
5.2995872 -0.033398431 -0.41588032 191 38
5.2773643 -0.065641202 -0.41400495 29 38
5.2639117 -0.097779743 -0.41289681 20 38
5.2472758 -0.1296816 -0.41153291 153 38
5.2344308 -0.16150622 -0.41051 250 38
13.117105 -0.48589182 -1.0854642 123 38
13.113877 -0.56636775 -1.0854642 138 38
13.108165 -0.64672405 -1.0852938 123 38
13.109919 -0.72747344 -1.0858053 143 38
13.123109 -0.80900478 -1.0873396 141 38
13.131815 -0.89045554 -1.088533 125 38
13.136041 -0.97174942 -1.0893855 141 38
13.140756 -1.0532084 -1.0903231 128 38
13.139009 -1.1342473 -1.0907494 130 38
13.113944 -1.2131927 -1.0892149 133 38
13.030896 -1.2861953 -1.0827365 98 38
12.978168 -1.361448 -1.0789006 252 38
12.969569 -1.4410549 -1.0789006 257 38
12.970379 -1.5217689 -1.079753 258 38
12.97563 -1.603158 -1.0810317 231 38
12.989263 -1.6858232 -1.0830774 199 38
12.999407 -1.7683131 -1.0848676 192 38
12.1538 -1.7292786 -1.0127519 101 38
13.002352 -1.9315099 -1.0870839 191 38
12.995178 -2.0120168 -1.0875101 186 38
12.99636 -2.093935 -1.0887035 209 38
12.997025 -2.1759434 -1.0898969 220 38
13.001099 -2.2587211 -1.0914313 212 38
13.002684 -2.3412774 -1.0927951 222 38
13.002766 -2.4237554 -1.0940738 240 38
13.003303 -2.506511 -1.0954378 256 38
12.143404 -2.4181035 -1.0217878 119 38
12.0893 -2.4845443 -1.018378 199 38
12.090398 -2.5621881 -1.0198271 240 38
12.158163 -2.6546061 -1.027158 158 38
12.168864 -2.7352762 -1.0295448 166 38
13.041049 -3.0155313 -1.1076275 194 38
13.03684 -3.0989497 -1.1089061 188 38
13.037907 -3.1838481 -1.1106962 190 38
13.04132 -3.269603 -1.1127421 212 38
13.033557 -3.3527889 -1.1138502 231 38
13.033934 -3.4382899 -1.1157255 219 38
13.053949 -3.5293832 -1.119391 209 38
13.057014 -3.6163294 -1.1216073 233 38
13.064294 -3.7048054 -1.1242498 227 38
13.058538 -3.7898958 -1.1257843 170 38
5.163681 -1.5327896 -0.42329645 134 38
5.0807681 -1.5421563 -0.41673273 100 38
4.9874697 -1.5473158 -0.40923136 142 38
4.9607859 -1.5724688 -0.40769699 47 38
4.9624186 -1.6065614 -0.4087199 54 38
4.9581437 -1.6388566 -0.40923136 171 38
4.943274 -1.6676556 -0.40880513 441 38
4.8387399 -1.6655203 -0.40028083 252 38
4.7692041 -1.6743809 -0.39491051 226 38
4.6687889 -1.6713674 -0.38672718 186 38
4.6181998 -1.6852926 -0.38306174 192 38
4.5498738 -1.6920604 -0.37777668 335 38
4.520772 -1.7128841 -0.37607181 471 38
4.511106 -1.7409496 -0.37615705 351 38
4.4771566 -1.7594838 -0.37402597 189 38
4.4903274 -1.7965469 -0.37624231 306 38
4.4819875 -1.8251928 -0.37649804 217 38
4.4900331 -1.8606712 -0.37828812 330 38
4.4831219 -1.8901222 -0.37871435 184 38
4.5428624 -1.9482312 -0.38536331 369 38
4.5408688 -1.9804512 -0.38630098 350 38
4.5495796 -2.0175679 -0.38826156 343 38
4.545289 -2.0491316 -0.38902876 169 38
4.543499 -2.081964 -0.39005166 228 38
4.5423803 -2.115272 -0.39115983 78 38
4.5608368 -2.1580212 -0.39414334 8 38
4.5394278 -2.1820798 -0.39337614 50 38
4.5340109 -2.2138274 -0.39414334 53 38
4.533731 -2.2482467 -0.39542198 67 38
4.5323086 -2.2822974 -0.39661539 61 38
4.5288649 -2.3155079 -0.39763829 83 38
4.5366793 -2.3547297 -0.39976937 56 38
4.5503526 -2.3973856 -0.40249714 54 38
4.5496144 -2.4327793 -0.40386105 56 38
4.5451097 -2.4663527 -0.40488395 29 38
4.5464735 -2.5033267 -0.40650359 23 38
4.5458145 -2.5394378 -0.4079527 27 38
4.5483499 -2.5776002 -0.4097428 23 38
4.5488601 -2.6148956 -0.41136244 16 38
4.5499439 -2.6527958 -0.41306728 20 38
4.5498757 -2.6903005 -0.41468692 18 38
4.5478086 -2.7268786 -0.41613603 20 38
4.5471663 -2.7645679 -0.41775566 19 38
4.5487766 -2.8039203 -0.419631 16 38
4.5526094 -2.8449802 -0.42176208 14 38
4.5502167 -2.8824594 -0.42329645 8 38
4.5567575 -2.9259386 -0.42576849 9 38
4.5620995 -2.9690623 -0.4281553 8 38
4.5704098 -3.0145559 -0.43088308 13 38
4.5625949 -3.0497413 -0.43199125 7 38
4.5759673 -3.0994735 -0.43531573 11 38
4.5765777 -3.1410255 -0.43736154 10 38
4.5809402 -3.1855459 -0.43983361 14 38
0 -0 -0 0 38
0 -0 -0 0 38
0 -0 -0 0 38
0 -0 -0 0 38
0 -0 -0 0 38
0 -0 -0 0 38
0 -0 -0 0 38
0 -0 -0 0 38
0 -0 -0 0 38
0 -0 -0 0 38
0 -0 -0 0 38
0 -0 -0 0 38
0 -0 -0 0 38
0 -0 -0 0 38
0 -0 -0 0 38
0 -0 -0 0 38
0 -0 -0 0 38
0 -0 -0 0 38
0 -0 -0 0 38
0 -0 -0 0 38
0 -0 -0 0 38
0 -0 -0 0 38
0 -0 -0 0 38
0 -0 -0 0 38
0 -0 -0 0 38
0 -0 -0 0 38
0 -0 -0 0 38
0 -0 -0 0 38
0 -0 -0 0 38
0 -0 -0 0 38
0 -0 -0 0 38
0 -0 -0 0 38
4.6393561 -4.8746419 -0.53820407 17 38
4.6387024 -4.9342337 -0.54186952 14 38
4.6320672 -4.9881587 -0.54485303 18 38
4.6397605 -5.0583415 -0.54971188 23 38
4.6420822 -5.1236362 -0.55397403 25 38
4.6324821 -5.1765256 -0.55678701 40 38
4.6501193 -5.2608452 -0.56318027 37 38
4.6629629 -5.3410702 -0.56906205 42 38
4.6710916 -5.4171214 -0.57443231 47 38
4.6648955 -5.4775414 -0.57801253 28 38
4.6664701 -5.5480013 -0.58270091 35 38
4.6641707 -5.6148524 -0.58696306 28 38
4.6530113 -5.6718683 -0.59011704 15 38
4.6576328 -5.7490873 -0.59548736 10 38
4.6552567 -5.8187943 -0.60000527 18 38
4.6769032 -5.9199605 -0.60793287 18 38
4.7023845 -6.027894 -0.6165424 9 38
4.6884122 -6.0866299 -0.61978161 18 38
4.6956077 -6.1739712 -0.62608963 15 38
4.6875486 -6.2425056 -0.63035178 20 38
4.6817908 -6.3151736 -0.6350401 36 38
4.7176824 -6.4458961 -0.64586598 68 38
4.7089663 -6.5175271 -0.65038389 72 38
4.6943412 -6.5819917 -0.65413457 70 38
4.6733661 -6.6383729 -0.65703285 48 38
4.7399936 -6.8215728 -0.67314374 208 38
4.7234044 -6.887506 -0.67697972 176 38
4.7731943 -7.0525107 -0.69104481 368 38
4.7464314 -7.106523 -0.69360209 398 38
4.75208 -7.2103887 -0.70127398 53 38
4.7370782 -7.2845178 -0.70587707 51 38
4.7595425 -7.4182744 -0.71653247 30 38
4.7943954 -7.5744667 -0.72940415 20 38
4.7747402 -7.6468449 -0.73375154 38 38
4.767961 -7.7413235 -0.74031526 46 38
4.7715802 -7.8547392 -0.74875432 69 38
4.7688651 -7.95994 -0.75634098 44 38
4.7518606 -8.0430965 -0.76171124 44 38
4.7595906 -8.1702499 -0.771429 34 38
4.7892585 -8.3384056 -0.78515309 25 38
4.804276 -8.4846859 -0.7966609 22 38
4.7759171 -8.5566359 -0.80083781 16 38
4.7670245 -8.6652222 -0.80859494 21 38
4.8016138 -8.8563557 -0.8243649 36 38
4.8021102 -8.9884729 -0.83433831 70 38
4.7900257 -9.0997658 -0.8422659 45 38
4.8097777 -9.274931 -0.85633105 33 38
4.8978057 -9.5882101 -0.88360882 10 38
4.855001 -9.6501255 -0.88667756 22 38
4.8301964 -9.7493725 -0.89332652 21 38
4.8305635 -9.9024067 -0.90509003 31 38
4.8615799 -10.123171 -0.9232468 52 38
4.8274751 -10.212263 -0.92887282 41 38
4.8693647 -10.466638 -0.95009834 26 38
4.8714023 -10.641272 -0.96373725 16 38
4.850203 -10.769078 -0.97294348 20 38
4.871604 -10.996318 -0.99144125 31 38
4.8939767 -11.23244 -1.0107062 66 38
4.8767524 -11.383151 -1.0219582 38 38
4.8609543 -11.541415 -1.0338923 17 38
4.9192286 -11.88311 -1.0627897 125 38
4.9152989 -12.08289 -1.0784744 293 38
4.9076209 -12.279361 -1.0938181 90 38
4.9952826 -12.724747 -1.132007 15 38
4.961906 -12.871368 -1.1426624 15 38
4.9858098 -13.173676 -1.1675533 43 38
4.9260459 -13.260995 -1.1727531 38 38
4.9687781 -13.63172 -1.2037816 9 38
0 -0 -0 270 38
0 -0 -0 1048 38
4.9894209 -14.513295 -1.275471 11 38
5.0310192 -14.931708 -1.3105059 21 38
5.0295639 -15.235733 -1.3351411 60 38
5.0454054 -15.604759 -1.3655728 18 38
5.0665255 -16.004938 -1.3987324 22 38
5.0672936 -16.355507 -1.427374 26 38
5.1165442 -16.880219 -1.47153 147 38
4.9848418 -16.816723 -1.4630909 1265 38
4.8898807 -16.875702 -1.4656482 35 38
4.7821703 -16.891008 -1.4643695 6 38
5.1754766 -18.717775 -1.6239445 33 38
5.0540385 -18.72513 -1.6218134 151 38
5.2800303 -20.050756 -1.73638 33 38
5.158884 -20.090496 -1.737062 36 38
5.4452314 -21.759123 -1.8814636 13 38
4.1312666 -16.949099 -1.4549928 8 38
4.0278811 -16.977037 -1.4552485 10 38
3.9092979 -16.939297 -1.449793 258 38
3.8024521 -16.950327 -1.4486848 486 38
3.6956179 -16.960684 -1.4475766 446 38
3.5881815 -16.967443 -1.4462128 535 38
3.4792004 -16.965715 -1.4441669 452 38
3.3715405 -16.969152 -1.4426326 322 38
3.2634053 -16.968973 -1.4408425 432 38
3.1568563 -16.975945 -1.4397343 416 38
3.0515778 -16.989111 -1.4392228 442 38
0 -0 -0 286 38
2.9587038 -17.719105 -1.4994044 92 38
2.948071 -18.347832 -1.5523404 411 38
2.8313313 -18.338989 -1.5500388 469 38
2.7126217 -18.314621 -1.5464586 419 38
2.5947378 -18.292448 -1.5431341 398 38
2.4793699 -18.285316 -1.5411735 391 38
2.3631649 -18.269552 -1.5385309 388 38
2.2456646 -18.240198 -1.5347803 359 38
2.1289606 -18.213058 -1.5312853 406 38
2.0131128 -18.189137 -1.5281314 432 38
1.8978457 -18.166464 -1.5251478 423 38
1.7832252 -18.146034 -1.52242 407 38
1.6694748 -18.130838 -1.5202037 356 38
1.5560635 -18.115923 -1.5180726 360 38
1.4404444 -18.069511 -1.513299 197 38
1.3058009 -17.755064 -1.4855951 1412 38
1.2066764 -17.908875 -1.4981258 81 38
1.1007227 -17.980585 -1.5036665 180 38
0.99021095 -17.984016 -1.5034108 460 38
0.87887144 -17.969849 -1.501706 439 38
0.7672326 -17.943048 -1.4989783 408 38
0.65639299 -17.927505 -1.4972733 402 38
0.54577303 -17.911278 -1.4955685 430 38
0.43511063 -17.883411 -1.492926 433 38
0.32499179 -17.864824 -1.4911358 468 38
0.21505748 -17.840578 -1.4889195 452 38
0.10546234 -17.820639 -1.4871294 428 38
-0.0038759443 -17.783089 -1.4838902 292 38
-0.11275581 -17.745865 -1.4807363 222 38
-0 -0 -0 218 38
-0.3300705 -17.719238 -1.4786904 311 38
-0.43866402 -17.711899 -1.4782641 327 38
-0.54610187 -17.669039 -1.4748545 482 38
-0.65421146 -17.657389 -1.4741725 480 38
-0.76215565 -17.644083 -1.4734052 487 38
-0.8463307 -17.151453 -1.4316362 435 38
-0.96961534 -17.471245 -1.4595107 208 38
-1.056803 -17.14077 -1.4317214 297 38
-1.1529877 -17.001751 -1.4203842 505 38
-1.2566251 -16.985413 -1.4196169 510 38
-1.3598664 -16.965466 -1.418594 480 38
-1.4631673 -16.947866 -1.4178269 467 38
-1.5668546 -16.935595 -1.4175711 469 38
-1.6696631 -16.914755 -1.4166335 454 38
-1.7721708 -16.8923 -1.4156106 424 38
-1.874686 -16.871206 -1.4147581 488 38
-1.9771253 -16.850479 -1.4139909 409 38
-2.0807252 -16.840008 -1.4141614 446 38
-2.2115917 -17.039358 -1.4324887 196 38
-2.3013256 -16.916868 -1.4231119 114 38
-2.401994 -16.880728 -1.4212365 550 38
-2.506552 -16.872572 -1.4218333 544 38
-2.6136923 -16.880505 -1.4238791 577 38
-2.7210243 -16.887758 -1.4259249 528 38
-2.8275564 -16.888432 -1.4274594 577 38
-2.9352224 -16.894323 -1.4295051 539 38
-3.0427139 -16.89757 -1.4313805 482 38
-3.151999 -16.908945 -1.434023 398 38
-3.2583315 -16.902983 -1.4352164 419 38
-3.366461 -16.905148 -1.4371771 497 38
-3.4709282 -16.888077 -1.437518 242 38
-2.5704517 -12.129386 -1.0232369 265 38
-0 -0 -0 885 38
-2.6985619 -12.005552 -1.015224 864 38
-2.7775638 -12.012066 -1.0172698 891 38
-2.8396935 -11.946329 -1.0130078 236 38
-2.9335077 -12.012889 -1.0204239 766 38
-3.0122511 -12.014958 -1.0222139 723 38
-3.0916266 -12.018443 -1.0241746 496 38
-5.7283545 -21.71413 -1.8837652 16 38
-0 -0 -0 12 38
-5.9616742 -21.524096 -1.8732803 252 38
-6.1034184 -21.521618 -1.8763491 4685 38
-6.4297724 -22.15357 -1.9360192 145 38
-6.5752258 -22.146175 -1.9389175 153 38
-7.006813 -23.079777 -2.0260358 21 38
-7.2345243 -23.314215 -2.0509269 54 38
-7.097085 -22.385155 -1.9715656 114 38
-7.1787448 -22.169617 -1.9561366 207 38
-7.3499827 -22.23205 -1.9657691 146 38
-7.9023042 -23.419476 -2.0770965 41 38
-7.7215023 -22.428459 -1.9918534 125 38
-7.807806 -22.234945 -1.9786407 217 38
-2.5863283 -7.2240005 -0.61892921 565 38
-2.622406 -7.1855321 -0.61688334 1356 38
-2.6664462 -7.1693058 -0.61688334 1281 38
-2.7259223 -7.1938043 -0.62063408 773 38
-2.7671409 -7.169507 -0.61995214 771 38
-0 -0 -0 802 38
-0 -0 -0 1505 38
-2.847147 -6.9909415 -0.6082738 1466 38
-2.8938041 -6.9825444 -0.60912627 1370 38
-2.9485953 -6.9931173 -0.61176878 1363 38
-2.9902706 -6.9721465 -0.61151308 1264 38
-3.0086927 -6.8979592 -0.60631323 1341 38
-3.0461135 -6.8684387 -0.60529029 1287 38
-3.1557784 -6.9994864 -0.61935544 1033 38
-3.2119513 -7.0089755 -0.62208319 1236 38
-3.2586832 -6.9972644 -0.62285036 1189 38
-3.3948972 -7.1743684 -0.64151859 992 38
-3.439718 -7.1551986 -0.64168906 16 38
-5.7300682 -11.734002 -1.0796678 23 38
-5.770083 -11.634356 -1.0735303 20 38
-5.8005762 -11.517754 -1.0657731 30 38
-5.8638806 -11.467752 -1.0644093 11 38
-5.8914409 -11.349316 -1.0564816 49 38
-5.9512138 -11.294442 -1.0546916 42 38
-6.008656 -11.235748 -1.0525604 68 38
-6.0694041 -11.183782 -1.0511113 84 38
-6.0398622 -10.968286 -1.0337218 14 38
-6.0628242 -10.851868 -1.0259646 20 38
-6.0894995 -10.744251 -1.01906 94 38
-6.1126008 -10.632401 -1.0117291 35 38
-6.1114726 -10.481081 -1.000477 15 38
-6.1016192 -10.318173 -0.98803151 15 38
-6.1499553 -10.25576 -0.98555946 53 38
-6.1506472 -10.115672 -0.97533029 15 38
-6.1587429 -9.9903851 -0.96655029 27 38
-6.1523328 -9.8442593 -0.95563912 15 38
-6.0547776 -9.5571957 -0.93040723 11 38
-5.8274117 -9.0746937 -0.88514316 44 38
-5.8498273 -8.9878292 -0.87994337 43 38
-5.8735919 -8.9043598 -0.87508452 68 38
-5.8876939 -8.8076859 -0.86886173 48 38
-5.8991561 -8.7087011 -0.86238331 41 38
-5.9084988 -8.6082678 -0.85573435 54 38
-5.918539 -8.5105028 -0.84934109 70 38
-5.9448214 -8.437376 -0.84550518 178 38
-6.0103736 -8.4202032 -0.84755099 809 38
-6.0409069 -8.3541002 -0.84448224 115 38
-6.1220822 -8.3578691 -0.84882963 94 38
-6.2551837 -8.4305668 -0.8605932 736 38
-6.3247533 -8.4159222 -0.86315048 662 38
-6.3973961 -8.4047031 -0.86613399 646 38
-6.4804797 -8.4063234 -0.87056661 550 38
-6.0371013 -7.7326403 -0.80177552 18 38
-6.6733766 -8.4402714 -0.88301212 364 38
-6.7574239 -8.4396086 -0.88744473 569 38
-6.8329272 -8.4273958 -0.89068395 623 38
-6.9293995 -8.4399843 -0.8967362 591 38
-7.0243702 -8.4494057 -0.90253276 566 38
-7.1036744 -8.438921 -0.9061982 590 38
-7.2471008 -8.5028505 -0.91830271 109 38
-7.3525171 -8.5200748 -0.92529261 81 38
-7.447926 -8.5243196 -0.93091869 83 38
-7.5284777 -8.5105486 -0.93458414 76 38
-7.6463661 -8.5376711 -0.9430232 48 38
-7.1196709 -7.8521419 -0.86928797 81 38
-7.8118773 -8.5099869 -0.95078027 55 38
-7.9277067 -8.5304976 -0.95879316 65 38
-8.0065269 -8.5099936 -0.96211761 77 38
-8.1245642 -8.5299654 -0.97030097 536 38
-8.1891994 -8.4928627 -0.97183532 574 38
-8.3246775 -8.5280104 -0.98206449 269 38
-8.353735 -8.4533844 -0.97925144 157 38
-8.3511848 -8.3477316 -0.97268778 200 38
-8.3660889 -8.2606306 -0.96834034 203 38
-8.3759604 -8.1694889 -0.96348149 556 38
-8.400815 -8.0937471 -0.96049803 569 38
-8.453928 -8.0454826 -0.96092421 486 38
-8.3666515 -7.8651648 -0.94489855 15 38
-8.6900206 -8.0692663 -0.97703516 391 38
-8.8017845 -8.0730371 -0.98428082 469 38
-8.9013662 -8.0643663 -0.99007732 499 38
-9.0323563 -8.0826797 -0.99945408 489 38
-9.1332932 -8.0726347 -1.0053358 496 38
-9.2479572 -8.0734463 -1.0127519 380 38
-9.344861 -8.057539 -1.0181223 141 38
-9.4593639 -8.0556021 -1.0254532 111 38
-9.5871553 -8.0634632 -1.0342332 88 38
-9.6816721 -8.0420456 -1.0392625 117 38
-2.9525383 -2.4224064 -0.28920916 53 38
-2.9255388 -2.3703778 -0.28460604 104 38
-2.9478085 -2.3586063 -0.28545848 296 38
-2.9200053 -2.3071234 -0.28085536 150 38
-2.9474621 -2.2995808 -0.2823045 277 38
-2.9378357 -2.2632132 -0.27974719 159 38
-2.9405639 -2.2367008 -0.27855378 120 38
-2.9375005 -2.2060525 -0.27676368 122 38
-2.931771 -2.1737468 -0.27471787 122 38
-2.932189 -2.1463022 -0.27335396 112 38
-2.9444954 -2.1276867 -0.27326873 282 38
-2.9518168 -2.10553 -0.27267203 128 38
-2.9524593 -2.0787756 -0.27139339 84 38
-2.9635224 -2.0594835 -0.27122289 110 38
-2.965421 -2.0339358 -0.27011472 111 38
-2.9687684 -2.0095594 -0.26917705 132 38
-2.9827001 -1.9924122 -0.26934755 121 38
-3.0106761 -1.98449 -0.27096716 93 38
-3.049526 -1.9833601 -0.27369493 69 38
-3.0800879 -1.9764472 -0.27557027 89 38
-3.1098371 -1.9687008 -0.27736038 96 38
-3.146368 -1.9648846 -0.27983242 355 38
-3.211813 -1.9784579 -0.28520274 120 38
-3.2324078 -1.9638859 -0.28605518 147 38
-3.3332891 -1.9972661 -0.29492044 71 38
-3.3557756 -1.982857 -0.29594338 73 38
-3.3790715 -1.9687486 -0.29705152 68 38
-3.4083679 -1.9579021 -0.29875639 30 38
-10.719042 -6.069315 -1.0163321 387 38
-10.526392 -5.8752403 -0.99382806 4 38
-10.696685 -5.8844948 -1.0069555 355 38
-8.0899191 -4.386117 -0.74977726 361 38
-8.1070127 -4.3312316 -0.74883956 428 38
-8.1325541 -4.2809424 -0.74875432 171 38
-10.645936 -5.5206857 -0.98845774 301 38
-10.624596 -5.4271603 -0.98317266 499 38
-10.612302 -5.3390307 -0.97882527 536 38
-10.601114 -5.252142 -0.97464836 535 38
-10.590157 -5.1660295 -0.97055668 539 38
-10.579442 -5.0806808 -0.96655029 536 38
-10.567179 -4.9952335 -0.96245861 587 38
-10.560591 -4.9130702 -0.95896363 591 38
-10.528027 -4.8195653 -0.95308185 710 38
-10.527421 -4.7413745 -0.95026886 650 38
-10.520787 -4.6609521 -0.94694436 676 38
-10.501689 -4.5756164 -0.94251174 584 38
-10.490185 -4.4942226 -0.93884629 652 38
-10.484507 -4.4158497 -0.93577754 683 38
-10.470898 -4.3346677 -0.93202686 680 38
-10.454843 -4.2530689 -0.92810565 602 38
-10.455761 -4.1788564 -0.92580408 663 38
-10.439469 -4.0982394 -0.92196816 559 38
-10.436528 -4.023356 -0.91941088 654 38
-10.38647 -3.931031 -0.9125914 184 38
-1.6260253 -0.6043843 -0.11088075 9 38
-1.6287671 -0.59405464 -0.11079551 28 38
-1.6295669 -0.58304322 -0.11053979 7 38
-1.6387551 -0.57501149 -0.11105125 5 38
-1.5536816 -0.53449881 -0.1030384 66 38
-1.5380477 -0.51859331 -0.10133354 105 38
-1.5241702 -0.5035246 -0.099799164 148 38
-1.5205947 -0.49201751 -0.099202462 171 38
-1.5178856 -0.48087397 -0.098691009 175 38
-1.5160489 -0.47007713 -0.098264791 163 38
-1.5131836 -0.45903197 -0.097753331 191 38
-1.51024 -0.44803977 -0.097241871 194 38
-1.5072186 -0.43710101 -0.096730419 173 38
-1.5060376 -0.42675906 -0.096389443 197 38
-1.503826 -0.41618261 -0.095963232 192 38
-1.5025036 -0.405909 -0.095622256 186 38
-1.5001484 -0.39541364 -0.095196038 182 38
-1.496756 -0.38471472 -0.094684586 209 38
-1.4961888 -0.37479797 -0.094428852 199 38
-1.4955562 -0.36490268 -0.094173126 206 38
-1.4938892 -0.35479933 -0.09383215 193 38
-1.4911839 -0.34450614 -0.09340594 225 38
-1.4903531 -0.33469573 -0.093150206 225 38
-1.4904317 -0.32512057 -0.092979722 201 38
-1.4894741 -0.31535098 -0.092723995 202 38
-1.4874767 -0.30540523 -0.09238302 230 38
-1.4883454 -0.29607835 -0.092297778 203 38
-1.4881772 -0.28656417 -0.092127293 230 38
-1.4869689 -0.2768811 -0.091871567 210 38
-1.4856977 -0.26722363 -0.091615833 235 38
-1.4843643 -0.25759223 -0.091360107 237 38
-1.4829686 -0.24798726 -0.091104373 227 38
-1.4785599 -0.23793499 -0.090592921 232 38
-1.4760531 -0.22825022 -0.090251945 270 38
-1.4774258 -0.21918903 -0.090251945 236 38
-1.4757835 -0.20969987 -0.089996219 242 38
-1.4770424 -0.20064068 -0.089996219 238 38
-1.4772576 -0.19144616 -0.089910977 246 38
-1.4774156 -0.18225653 -0.089825727 243 38
-1.4775164 -0.1730722 -0.089740485 255 38
-1.4795408 -0.16411266 -0.089825727 200 38
-1.477547 -0.15472075 -0.089570001 200 38
-1.4764855 -0.14545694 -0.089399517 214 38
-1.4763581 -0.13630332 -0.089314274 185 38
-1.4761739 -0.12715675 -0.089229032 177 38
-1.4699738 -0.11754264 -0.08863233 133 38
-1.4517875 -0.10713273 -0.087012708 77 38
-1.4613645 -0.09882535 -0.087779894 83 38
-1.4500093 -0.089126423 -0.086756982 43 38
-1.4415752 -0.079734854 -0.085989796 28 38
-1.4390519 -0.070742063 -0.085734062 15 38
-1.4334861 -0.061655618 -0.085222609 11 38
-1.4308503 -0.052749448 -0.084966876 7 38
-1.4341347 -0.044059895 -0.085222609 13 38
-1.4254135 -0.035041466 -0.084455423 10 38
-1.4335712 -0.026439438 -0.085137367 11 38
-1.428725 -0.017582774 -0.084711149 16 38
-1.4307988 -0.0088276993 -0.084881634 16 38
-1.419866 -5.0947299e-05 -0.083943963 15 38
-1.4148579 0.0086294245 -0.083517745 6 38
-1.4765478 0.018083556 -0.088802814 65 38
-1.4823861 0.027254615 -0.089314274 83 38
-1.4631369 -0.10704727 -0.10560822 15 39
-1.4528434 -0.097327106 -0.10453863 13 39
-1.4544066 -0.088472024 -0.10463586 11 39
-1.4420035 -0.078829609 -0.1033718 11 39
-0 -0 -0 4 39
-1.4339134 -0.060741704 -0.10249668 7 39
-1.4322698 -0.051868577 -0.10230221 8 39
-1.4206237 -0.042710658 -0.10113538 17 39
-1.4188691 -0.033943832 -0.10094091 14 39
-1.4299966 -0.02544084 -0.1020105 12 39
-1.4460487 -0.016864607 -0.10356627 11 39
-1.4152726 -0.0077961315 -0.10055197 59 39
-1.4232558 0.00088640093 -0.10132986 44 39
-1.4580572 0.0098262168 -0.10473309 18 39
-1.4629453 0.018832592 -0.10521927 12 39
-0 0 -0 2 39
-0 0 -0 3 39
-0 0 -0 4 39
-0 0 -0 2 39
-0 0 -0 2 39
-0 0 -0 3 39
-0 0 -0 3 39
-0 0 -0 3 39
-0 0 -0 3 39
-0 0 -0 3 39
-0 0 -0 2 39
-0 0 -0 2 39
-0 0 -0 3 39
-0 0 -0 5 39
-0 0 -0 3 39
-0 0 -0 2 39
-0 0 -0 2 39
-0 0 -0 3 39
-0 0 -0 2 39
-1.4230098 0.19415987 -0.10259391 3 39
-0 0 -0 4 39
-0 0 -0 2 39
-1.4083751 0.21864924 -0.10152432 3 39
-0 0 -0 3 39
-0 0 -0 3 39
-1.4090152 0.24538557 -0.1020105 3 39
-1.4505845 0.26176932 -0.10628887 3 39
-1.4499295 0.27084699 -0.1063861 9 39
-1.4482403 0.27973849 -0.1063861 9 39
-1.4464966 0.28861946 -0.1063861 20 39
-1.4973466 0.30828741 -0.11163682 39 39
-1.5041903 0.31932262 -0.11251193 49 39
-1.4808091 0.32388413 -0.11037275 76 39
-1.4758805 0.3323105 -0.11008105 78 39
-1.4728439 0.34113625 -0.10998381 143 39
-1.4813751 0.35269454 -0.1110534 166 39
-1.482084 0.36248457 -0.1113451 170 39
-1.4827284 0.37229657 -0.11163682 181 39
-1.4833081 0.38213009 -0.11192852 181 39
-1.4867101 0.39274511 -0.11251193 196 39
-1.486194 0.40237874 -0.11270641 171 39
-1.4856156 0.4120208 -0.11290088 150 39
-1.4878476 0.42248431 -0.11338706 157 39
-1.4900069 0.43299067 -0.11387323 179 39
-1.4911389 0.44325653 -0.11426217 172 39
-1.4941059 0.45412996 -0.11484559 187 39
-1.4969953 0.46505645 -0.115429 195 39
-1.5007555 0.47633579 -0.11610965 147 39
-1.5034865 0.48737255 -0.11669306 192 39
-1.5061382 0.49846065 -0.11727647 157 39
-1.506824 0.50896394 -0.11766542 169 39
-1.5074375 0.51949441 -0.11805436 167 39
-1.5098567 0.53071022 -0.11863777 130 39
-1.5121948 0.5419752 -0.11922118 142 39
-1.510711 0.55192536 -0.11941566 141 39
-1.5119607 0.56291741 -0.11990183 107 39
-1.5159249 0.57500243 -0.12067971 81 39
-1.5606576 0.60290956 -0.12573597 13 39
-1.5532231 0.61101943 -0.12534702 4 39
-4.9291668 1.9713471 -0.48093721 347 39
-4.9142122 2.0004296 -0.48064551 428 39
-4.9092021 2.0335906 -0.48142341 408 39
-4.8984661 2.0644472 -0.48161787 426 39
-4.8875365 2.0952487 -0.48181233 428 39
-4.8818874 2.1283791 -0.48259023 435 39
-4.872376 2.1599061 -0.48297918 504 39
-8.7874517 3.9591029 -0.90391159 310 39
-8.7738533 4.0179186 -0.90507847 923 39
-8.7616682 4.0775557 -0.90643972 955 39
-8.74998 4.13762 -0.90789825 951 39
