# .PCD v0.7 - Point Cloud Data file format
VERSION 0.7
FIELDS x y z intensity ring
SIZE 4 4 4 4 1
TYPE F F F F U
COUNT 1 1 1 1 1
WIDTH 271
HEIGHT 1
VIEWPOINT 0 0 0 1 0 0 0
POINTS 271
DATA ascii
4.6612415 -2.5646012 -1.4030111 5 53
4.6414871 -2.301914 -0.97999758 7 47
5.6079612 0.17310277 -1.2740155 11 50
5.5965672 0.069680452 -1.2708234 18 50
5.6791778 0.069646828 -1.3591864 7 51
5.5377398 0.033901069 -1.3242615 55 51
5.560607 0.069235206 -1.399981 12 52
5.5744796 0.035199296 -1.403491 5 52
5.5996318 0.069629699 -1.4789482 6 53
5.1706452 -0.1279828 -0.85078943 20 45
5.1569571 -0.15931416 -0.84858567 25 45
5.1470184 -0.19062737 -0.84705997 41 45
5.145752 -0.2222053 -0.84705997 134 45
5.1541352 -0.25425822 -0.84875518 12 45
5.1377177 -0.28506297 -0.84621239 17 45
5.1299696 -0.3162196 -0.84519523 34 45
5.1063008 -0.34622872 -0.84146577 309 45
5.1070285 -0.37777132 -0.84197432 321 45
5.1154208 -0.40996394 -0.84383905 375 45
5.0666599 -0.43737075 -0.83587158 195 45
5.1340976 -0.1259822 -0.90810597 75 46
5.1450233 -0.15784483 -0.91028249 314 46
5.136096 -0.18912104 -0.90883148 398 46
5.1397514 -0.22084342 -0.90973836 375 46
5.1255307 -0.25174806 -0.90738046 337 46
5.128799 -0.2834647 -0.90828735 296 46
5.1132212 -0.31408393 -0.90574807 376 46
5.1121788 -0.34551853 -0.90592945 289 46
5.1293349 -0.12696959 -0.9701528 20 47
5.1245365 -0.15831989 -0.96938062 17 47
5.103858 -0.1890386 -0.96551991 206 47
5.1094637 -0.2206465 -0.9668712 320 47
5.1060538 -0.25189719 -0.96648508 339 47
5.1123714 -0.1263375 -1.0288751 368 48
5.1075864 -0.157583 -1.0280571 365 48
5.0947852 -0.18848442 -1.0256032 85 48
5.2444715 -0.12888038 -0.47481138 535 39
5.2376132 -0.16087542 -0.47422796 469 39
5.2245922 -0.19257253 -0.47306114 412 39
5.2397699 -0.12858324 -0.53980255 412 40
5.2607393 -0.16140364 -0.5422129 325 40
5.210978 -0.19188401 -0.53684437 26 40
5.2067237 -0.22372614 -0.53651571 156 40
5.1943321 -0.25513256 -0.53531057 107 40
5.2194033 -0.12826993 -0.602018 411 41
5.2145495 -0.16017215 -0.60153121 130 41
5.2015657 -0.19172895 -0.60007089 16 41
5.2102079 -0.22406578 -0.60128784 40 41
5.1859331 -0.25491512 -0.59848881 382 41
5.1971555 -0.28744027 -0.60007089 286 41
5.205441 -0.12773825 -0.66385359 378 42
5.1916819 -0.15927979 -0.66211629 55 42
5.1935782 -0.19124199 -0.66251719 86 42
5.1774549 -0.22246632 -0.66051257 377 42
5.1730232 -0.25408432 -0.66011167 371 42
5.1683984 -0.2856563 -0.65971076 314 42
5.1596241 -0.31693777 -0.65877527 246 42
5.1734023 -0.34966114 -0.66091353 68 42
5.1745915 -0.12627774 -0.72491676 285 43
5.1648197 -0.15775624 -0.72360361 8 43
5.1696863 -0.1896603 -0.72447902 14 43
5.1506343 -0.22061931 -0.72185266 219 43
5.1145992 -0.25053269 -0.71674579 80 43
5.1900148 -0.28614113 -0.72812682 16 43
5.1891489 -0.31804138 -0.72827274 19 43
5.1614361 -0.34815016 -0.72447902 50 43
5.1236835 -0.37720677 -0.71922624 263 43
5.1798835 -0.12710918 -0.78937244 234 44
5.1632142 -0.15840428 -0.78684741 38 44
5.1848412 -0.19091962 -0.79047716 362 44
5.1648278 -0.22192279 -0.78747869 364 44
5.1515336 -0.2530272 -0.78558493 378 44
5.1567855 -0.28501362 -0.78668958 291 44
5.1529684 -0.31652847 -0.78637397 327 44
5.1430478 -0.34760723 -0.78511149 334 44
5.1378636 -0.37893969 -0.78463805 383 44
5.1305199 -0.41006416 -0.78384894 337 44
5.1505351 -0.44348681 -0.78747869 46 44
5.2329855 0.25603002 -0.86231691 285 45
5.2255964 0.22353515 -0.86079121 389 45
5.2180057 0.19114064 -0.85926551 395 45
5.2102146 0.15884767 -0.85773981 385 45
5.2110915 0.12687542 -0.85773981 315 45
5.1999474 0.094680429 -0.85570556 398 45
5.1935325 0.062687561 -0.85451889 420 45
5.1888919 0.03078912 -0.85367131 421 45
5.1801133 -0.0010500929 -0.85214561 69 45
5.1829658 -0.032852728 -0.85265416 73 45
5.1540885 -0.064304091 -0.84773803 441 45
5.1407871 -0.095692225 -0.84553427 351 45
5.185925 0.22292937 -0.91826308 76 46
5.1980052 0.19150239 -0.92025822 175 46
5.1754918 0.15888199 -0.91590518 24 46
5.1763692 0.12712277 -0.91590518 18 46
5.2006497 0.095791675 -0.92025822 51 46
5.1814728 0.063639216 -0.91663069 373 46
5.2014337 0.031964492 -0.92025822 45 46
5.1661286 5.0810504e-05 -0.91372865 22 46
5.1453805 -0.031519894 -0.90991974 202 46
5.1509905 -0.063163556 -0.911008 407 46
5.1534557 -0.094822749 -0.91155213 384 46
5.1824636 0.15799542 -0.98076975 254 47
5.1686225 0.12583193 -0.97787422 228 47
5.1594868 0.09393467 -0.97594386 391 47
5.1560416 0.062226638 -0.97517169 413 47
5.1386652 0.030479835 -0.97169709 104 47
5.1377745 -0.0010510165 -0.97150403 14 47
5.1327653 -0.032545794 -0.97053885 218 47
5.1216764 -0.06390702 -0.96841544 334 47
5.1339417 -0.095566347 -0.97092491 23 47
5.1554699 0.12571353 -1.0378729 229 48
5.1561446 0.094077796 -1.0378729 403 48
5.1390061 0.062226526 -1.034192 279 48
5.1569104 0.030796887 -1.0378729 15 48
5.1100168 -0.00083462533 -1.0280571 87 48
5.1226406 -0.032270219 -1.0307156 400 48
5.1252823 -0.063738286 -1.031329 350 48
5.1218591 -0.095130466 -1.0307156 370 48
5.1747689 0.096918531 -1.1077453 83 49
5.1118121 0.064351566 -1.0936768 161 49
5.1228499 0.033056617 -1.0960577 19 49
5.1180749 0.001620118 -1.0949754 28 49
5.1179881 -0.029783828 -1.0949754 359 49
5.1138043 -0.061140861 -1.0941097 394 49
5.1074762 -0.092412792 -1.092811 228 49
5.104228 0.03226253 -1.1554497 335 50
5.1091981 0.00094350206 -1.1565899 226 50
5.3202214 0.26047805 -0.41818187 585 38
5.3187332 0.22770126 -0.41792613 538 38
5.3080821 0.19462463 -0.41690323 57 38
5.3101721 0.16208151 -0.41698846 36 38
5.301106 0.12925373 -0.41613603 380 38
5.2928338 0.09656141 -0.41536885 379 38
5.3062782 0.064239219 -0.41647699 30 38
5.2966089 0.031620551 -0.41562459 35 38
5.2927179 -0.00087847048 -0.41528362 39 38
5.2995872 -0.033398431 -0.41588032 191 38
5.2773643 -0.065641202 -0.41400495 29 38
5.2639117 -0.097779743 -0.41289681 20 38
5.3133025 0.26090431 -0.48200682 528 39
5.2978992 0.22756779 -0.4803538 381 39
5.2892504 0.19468793 -0.47938144 32 39
5.2903452 0.16223003 -0.47938144 268 39
5.2922359 0.12979065 -0.47947869 489 39
5.283977 0.097149022 -0.47860357 437 39
5.2924352 0.064824589 -0.47938144 279 39
5.2758141 0.032242462 -0.47772846 394 39
5.2729268 -0.00013051979 -0.47743675 438 39
5.2758126 -0.032502323 -0.47772846 404 39
5.2456579 -0.064512946 -0.47481138 236 39
5.2431731 -0.096662238 -0.47461691 240 39
5.2955918 0.2601977 -0.54648572 482 40
5.2692828 0.22650646 -0.54341805 188 40
5.2864661 0.19475481 -0.54517102 30 40
5.2577562 0.16140124 -0.54188418 114 40
5.2755404 0.1295508 -0.54374671 496 40
5.2672915 0.097014181 -0.54276067 32 40
5.2608304 0.064607933 -0.54199374 36 40
5.2531762 0.032278597 -0.54111725 26 40
5.2363777 4.6212739e-05 -0.53925472 227 40
5.2313094 -0.032052778 -0.53870696 14 40
5.232008 -0.064163148 -0.53881651 26 40
5.2185965 -0.096026242 -0.5373922 46 40
5.2940059 0.25995257 -0.6117537 417 41
5.2717018 0.22643673 -0.60883301 87 41
5.2670407 0.19386554 -0.6081028 122 41
5.2740836 0.16172779 -0.60883301 406 41
5.2700157 0.1292408 -0.60822451 398 41
5.2607856 0.096717514 -0.60700756 377 41
5.2642574 0.064473242 -0.60737264 306 41
5.2496657 0.032076877 -0.60554719 405 41
5.2467856 -0.00013565258 -0.60518211 405 41
5.2317982 -0.032240894 -0.60335666 305 41
5.1987495 -0.063946471 -0.59934068 48 41
5.2210846 -0.096259922 -0.60213971 418 41
5.2541852 0.25816625 -0.67107016 291 42
5.2635913 0.22626221 -0.67213929 25 42
5.2628999 0.19388835 -0.67187202 27 42
5.255075 0.16131914 -0.67066926 404 42
5.2371421 0.1286107 -0.6681301 54 42
5.2408051 0.096528307 -0.668531 20 42
5.2284164 0.064212255 -0.6667937 29 42
5.2118649 0.032027815 -0.66452181 174 42
5.2238555 4.7032292e-05 -0.66612548 91 42
5.2118654 -0.031932198 -0.66452181 20 42
5.2066169 -0.063849866 -0.66385359 19 42
5.2021632 -0.095722638 -0.66331905 345 42
5.2548361 0.25893718 -0.73746508 184 43
5.27807 0.22763182 -0.74067509 38 43
5.2378454 0.19369715 -0.73454684 409 43
5.2359691 0.16146255 -0.7341091 395 43
5.2358723 0.12930755 -0.73396319 402 43
5.2227192 0.096918344 -0.73192048 329 43
5.2202482 0.064832993 -0.73148274 409 43
5.214612 0.032762311 -0.73060727 385 43
5.2087789 0.00076323713 -0.7297318 355 43
5.2037392 -0.031168727 -0.72900224 22 43
5.1876225 -0.062909313 -0.7266677 267 43
5.188128 -0.094756626 -0.72681361 441 43
5.2432528 0.2576299 -0.80026156 14 44
5.2388153 0.22519903 -0.79931468 29 44
5.2252965 0.19250581 -0.79694748 186 44
5.2244053 0.16037992 -0.79663187 124 44
5.2183809 0.12815136 -0.79552716 20 44
5.2101831 0.095966563 -0.79410684 18 44
5.2225227 0.064140312 -0.7960006 82 44
5.2020817 0.031968426 -0.79268652 226 44
5.2021799 4.8450976e-05 -0.79268652 26 44
5.197145 -0.031840906 -0.79189748 28 44
5.1909275 -0.063656293 -0.7909506 271 44
5.1835279 -0.095378339 -0.78984588 424 44
5.2472758 -0.1296816 -0.41153291 153 38
5.2344308 -0.16150622 -0.41051 250 38
5.3284431 0.064346187 -0.21902497 544 35
5.3227448 0.031613365 -0.21873711 532 35
5.3228383 -0.0010469791 -0.21873711 359 35
5.3327413 0.16276871 -0.2863743 572 36
5.3276525 0.12989902 -0.28601116 601 36
5.323359 0.097116053 -0.28570852 595 36
5.295908 0.064114437 -0.28401381 178 36
5.3481054 0.031924173 -0.28716114 27 36
5.3452063 -0.0008910668 -0.28697956 30 36
5.2852116 -0.03330677 -0.28334802 111 36
5.2938905 -0.065847985 -0.28389275 440 36
5.3513751 0.26184872 -0.35330096 396 37
5.3359418 0.22827999 -0.35206479 529 37
5.3262787 0.19513093 -0.35126492 350 37
5.3164101 0.16210905 -0.35046506 26 37
5.3192987 0.12953411 -0.35061049 468 37
5.312016 0.096746035 -0.35002875 449 37
5.3055286 0.064064473 -0.34951973 435 37
5.2729096 0.03130649 -0.34712011 271 37
5.2849708 -0.0010478052 -0.34799272 469 37
5.2818732 -0.033457465 -0.34777457 454 37
5.2835627 -0.06589023 -0.34792 475 37
5.2860508 -0.098363332 -0.34813812 423 37
3.8070707 2.1567969 -1.4158105 9 58
5.3324194 0.35956708 -0.41971624 272 38
5.331542 0.32665864 -0.41946051 528 38
5.3294663 0.29371974 -0.41911954 552 38
5.3335533 0.42623055 -0.48502111 540 39
5.3370609 0.39356986 -0.48511836 499 39
5.3314314 0.36027631 -0.48434046 49 39
5.2918196 0.32498503 -0.48025656 20 39
5.3116016 0.29350123 -0.48200682 42 39
5.2854738 0.48788896 -0.5471431 47 40
5.3428359 0.46013558 -0.55316895 410 40
5.33565 0.42655253 -0.55207336 459 40
5.3262715 0.39292887 -0.5507586 465 40
5.3166814 0.35943642 -0.5494439 432 40
5.3029132 0.32583293 -0.54769093 60 40
5.2968726 0.29285035 -0.54681444 438 40
5.3122334 0.42452207 -0.61528289 490 41
5.3177075 0.39213848 -0.61564797 112 41
5.2576251 0.35527262 -0.60798115 26 41
5.2646594 0.32331103 -0.60858959 22 41
5.2933025 0.29248607 -0.61187541 408 41
5.3065562 0.39147589 -0.67922223 219 42
5.2930379 0.3578397 -0.67708397 63 42
5.2832637 0.32462704 -0.67548031 367 42
5.2742715 0.29160243 -0.67401028 467 42
5.2590499 0.35628852 -0.73892415 130 43
5.2660742 0.32431805 -0.73965371 518 43
5.2650013 0.29183501 -0.73921597 421 43
5.2415733 0.28979704 -0.80026156 301 44
7.8183866 -1.7040653 -1.8340106 42 50
8.9789276 -2.4857998 -1.7936432 69 47
8.6301918 -2.1635478 -1.8192524 53 48
8.6262341 -2.2189 -1.8212973 57 48
9.2624187 2.6235566 -1.6170267 18 45
9.7175255 2.7532208 -1.5754409 21 44
