# .PCD v0.7 - Point Cloud Data file format
VERSION 0.7
FIELDS x y z intensity ring
SIZE 4 4 4 4 1
TYPE F F F F U
COUNT 1 1 1 1 1
WIDTH 359
HEIGHT 1
VIEWPOINT 0 0 0 1 0 0 0
POINTS 359
DATA ascii
4.6033049 -2.8745959 -1.5646849 9 55
4.6067104 -2.2836781 -1.2266632 6 51
4.6055832 -2.9164155 -0.96632808 21 46
3.0011165 3.0752325 -1.0185493 15 51
4.4758296 0.83423209 -1.2511142 23 54
4.3687782 0.67438936 -0.83039492 167 47
4.3611875 0.64584243 -0.82807845 185 47
4.3572965 0.61796629 -0.82653421 181 47
4.3396168 0.58831322 -0.82228738 156 47
4.3470368 0.56217915 -0.82305956 117 47
4.3659854 0.53741771 -0.82614809 146 47
4.3692007 0.51061845 -0.82614809 157 47
4.3595738 0.48239368 -0.82363868 161 47
4.3526931 0.45461291 -0.82170832 52 47
4.3729773 0.42962825 -0.82518291 9 47
4.3823705 0.40341949 -0.82653421 90 47
4.3485928 0.37340659 -0.81939185 180 47
4.3644953 0.34781197 -0.82209438 209 47
4.4047098 0.32384127 -0.82962275 89 47
4.3303881 0.66886538 -0.87591207 69 48
4.3237591 0.64070463 -0.87366259 80 48
4.3847899 0.62227225 -0.88572788 8 48
4.3894958 0.59548748 -0.88593239 8 48
4.3969502 0.56904501 -0.88675034 8 48
4.3576117 0.53679311 -0.87775254 108 48
4.3520727 0.50902259 -0.87591207 173 48
4.3453851 0.48123258 -0.87386709 75 48
4.4105644 0.46106875 -0.88695484 7 48
4.3597307 0.4287332 -0.87570757 56 48
4.3583803 0.40161538 -0.87488961 214 48
4.3597875 0.37478155 -0.87468511 191 48
4.3551745 0.34747902 -0.87325364 200 48
4.364058 0.32125205 -0.87468511 212 48
4.3805971 0.2954554 -0.87775254 160 48
4.351531 0.67404699 -0.93654162 188 49
4.3584824 0.64776516 -0.93719095 185 49
4.3623748 0.62100983 -0.93719095 106 49
4.3099971 0.58657986 -0.92463744 17 49
4.3415909 0.56377661 -0.93091416 139 49
4.3401241 0.53652632 -0.92983198 166 49
4.3433347 0.50988567 -0.92983198 121 49
4.3444409 0.48300961 -0.92939913 8 49
4.3482938 0.45644572 -0.92961556 13 49
4.3490696 0.42956406 -0.92918265 10 49
4.3594003 0.40359265 -0.93091416 47 49
4.3549862 0.37624621 -0.92939913 192 49
4.3659711 0.35022238 -0.93134707 213 49
4.3475919 0.32190731 -0.92680186 145 49
4.3389492 0.67173207 -0.98831773 152 50
4.3661036 0.64852744 -0.99378997 19 50
4.3555412 0.61966944 -0.9903698 13 50
4.3544374 0.59227699 -0.98922974 26 50
4.355093 0.56517184 -0.98854572 176 50
4.3517146 0.5376038 -0.98694962 179 50
4.3520303 0.51055199 -0.9862656 199 50
4.3473392 0.48297945 -0.98444152 199 50
4.3453789 0.45578817 -0.98330146 188 50
4.3510008 0.42940345 -0.98398548 200 50
4.3457975 0.40198138 -0.9821614 127 50
4.3357768 0.67005819 -1.040796 136 51
4.3234792 0.64101654 -1.0367295 12 51
4.3186793 0.61324525 -1.0345765 12 51
4.3213987 0.58660388 -1.0343373 11 51
4.3557296 0.56407589 -1.0419921 63 51
4.3398356 0.53495806 -1.0372078 161 51
4.3324285 0.50707483 -1.0345765 179 51
4.3229132 0.47908825 -1.0314668 94 51
4.3418341 0.67217845 -1.0976151 143 52
4.3410888 0.64481407 -1.0963615 161 52
4.3449636 0.61816549 -1.0963615 144 52
4.3477154 0.59136325 -1.0961108 168 52
4.3320618 0.56218511 -1.0910965 66 52
4.3343873 0.67061484 -1.149538 155 53
4.3231468 0.64173549 -1.1453484 51 53
4.3821516 0.67763627 -0.45083913 10 40
4.3990092 0.65263033 -0.45226344 9 40
4.4019465 0.62548649 -0.45215386 6 40
4.420476 0.60047042 -0.45379728 103 40
4.4152055 0.57218665 -0.45281124 114 40
4.3818541 0.67719156 -0.50551301 155 41
4.3456731 0.6443131 -0.50052345 8 41
4.3780422 0.62169081 -0.50405264 29 41
4.3955436 0.59668875 -0.50575638 158 41
4.3882942 0.56830186 -0.50441772 228 41
4.3572211 0.5371058 -0.50015837 141 41
4.4212904 0.65593392 -0.56442523 23 42
4.3908901 0.62391639 -0.55974782 167 42
4.3965998 0.59722924 -0.56001514 189 42
4.4021473 0.57049555 -0.56028241 173 42
4.3967128 0.54238254 -0.55907965 197 42
4.391099 0.51435769 -0.55787688 200 42
4.3790855 0.67754275 -0.61504626 12 43
4.3792462 0.65007836 -0.61446261 12 43
4.3841319 0.62333506 -0.61460853 9 43
4.3770914 0.59495431 -0.61300355 64 43
4.3865457 0.5688507 -0.61387897 13 43
4.38799 0.54168171 -0.61358714 12 43
4.3922138 0.51486272 -0.61373305 12 43
4.3864412 0.48691827 -0.6124199 136 43
4.3608136 0.45699662 -0.60818851 51 43
4.3927612 0.65170395 -0.6710124 158 44
4.3849454 0.62307221 -0.66911864 157 44
4.3877077 0.59602213 -0.66896081 193 44
4.3746343 0.56693244 -0.666278 91 44
4.4054718 0.54346228 -0.67069679 6 44
4.390089 0.51423943 -0.66769832 73 44
4.3970876 0.48772779 -0.6683296 190 44
4.3980331 0.46053308 -0.66801393 206 44
4.3653979 0.43005651 -0.66233265 123 44
4.3461294 0.67088705 -0.71754551 8 45
4.3891587 0.64999217 -0.72432637 54 45
4.3735495 0.62027574 -0.72093594 162 45
4.3772731 0.59342843 -0.72093594 107 45
4.3397832 0.56123912 -0.71381605 11 45
4.3627076 0.53701335 -0.71720648 55 45
4.3786454 0.51172471 -0.7194103 188 45
4.3777847 0.48441362 -0.71873218 156 45
4.370873 0.45651656 -0.71703696 169 45
4.3696685 0.4293023 -0.7163589 183 45
4.3673139 0.40202945 -0.71551126 157 45
4.3833547 0.67782211 -0.77896523 123 46
4.3815942 0.65004826 -0.77787697 165 46
4.3728433 0.62135363 -0.77551907 176 46
4.3590326 0.59212953 -0.77225429 22 46
4.3635592 0.56549817 -0.77243567 10 46
4.3659711 0.53859293 -0.77225429 9 46
4.3750539 0.51247966 -0.77334255 31 46
4.3507481 0.48259193 -0.768264 43 46
4.3868818 0.45936641 -0.77443081 11 46
4.4003835 0.43349996 -0.77642596 13 46
4.3941469 0.40567866 -0.77479357 21 46
4.3622608 0.3757582 -0.76844537 181 46
4.3870311 0.35078561 -0.77261704 35 46
4.3603373 1.0344174 -0.84236312 102 47
4.3828545 1.0113982 -0.84564471 24 47
4.400466 0.98706645 -0.84796113 8 47
4.3422103 0.94603592 -0.83502775 66 47
4.3402543 0.91774887 -0.83348346 176 47
4.3928995 0.90077013 -0.84294224 23 47
4.3891702 0.84401166 -0.8400467 6 47
4.3720803 0.81293309 -0.83560687 25 47
4.3605695 0.78313839 -0.83232528 174 47
4.3594918 0.75536108 -0.83116704 67 47
4.3417864 0.72487539 -0.82672721 13 47
4.3306527 0.69572681 -0.82363868 11 47
4.350523 1.0043246 -0.89329422 61 48
4.3470521 0.97546887 -0.89124924 160 48
4.344348 0.9469021 -0.88940883 166 48
4.3424149 0.91860783 -0.88777286 177 48
4.3470106 0.89174938 -0.88756835 166 48
4.3485599 0.86429685 -0.88675034 59 48
4.3557038 0.83796805 -0.88715935 133 48
4.3549891 0.81015253 -0.88593239 164 48
4.3483167 0.78133917 -0.8834784 153 48
4.3462777 0.75347388 -0.88204694 69 48
4.3595085 0.72824216 -0.88388741 11 48
4.3571296 0.70039213 -0.88245595 10 48
4.2942576 0.96556771 -0.93610871 26 49
4.3401594 0.94796079 -0.94519919 127 49
4.3153338 0.91482508 -0.93827313 18 49
4.317997 0.88773888 -0.9376238 8 49
4.3683619 0.87020391 -0.94779646 5 49
4.351572 0.83912623 -0.94281834 87 49
4.3384042 0.80900443 -0.93870598 165 49
4.3327179 0.78046262 -0.93632519 183 49
4.3576236 0.75737894 -0.9408704 124 49
4.3641143 0.73094988 -0.94130331 100 49
4.3434582 0.70011234 -0.93567586 182 49
4.3438368 0.92048717 -0.9999463 129 50
4.3312821 0.89009428 -0.99561405 12 50
4.3433466 0.86483163 -0.99721014 18 50
4.3418789 0.83687574 -0.99561405 124 50
4.3421459 0.80932713 -0.99447399 112 50
4.3719454 0.78715259 -1.0004023 7 50
4.3814893 0.76114482 -1.0015423 8 50
4.3578162 0.70205742 -0.99378997 31 50
4.3233552 0.88727474 -1.0472548 139 51
4.320148 0.85902393 -1.0451019 157 51
4.3253374 0.83249986 -1.0451019 204 51
4.3437276 0.8084352 -1.0484508 167 51
4.3409615 0.78039092 -1.0465372 164 51
4.3236651 0.74991834 -1.0410353 30 51
4.3502111 0.72706187 -1.0465372 138 51
4.3411698 0.69819373 -1.0431881 184 51
4.3203607 0.86025685 -1.1006237 92 52
4.3265085 0.83391452 -1.1008744 84 52
4.3543839 0.811607 -1.1068918 5 52
4.3554711 0.78418791 -1.1058888 11 52
4.3582931 0.75711727 -1.1053874 10 52
4.3408966 0.72668684 -1.0996209 130 52
4.345274 0.7000379 -1.0996209 157 52
4.3200336 0.83225673 -1.153204 69 53
4.3250589 0.80573386 -1.153204 57 53
4.2966781 0.77318931 -1.1440392 12 53
4.2956362 0.74581873 -1.1424681 17 53
4.3353496 0.72534907 -1.1521566 110 53
4.334002 0.6978122 -1.1505854 151 53
4.3208518 0.77795798 -1.2049854 124 54
4.3283873 0.75192475 -1.2058042 97 54
4.368691 1.065953 -0.45774147 108 40
4.3683796 1.0375199 -0.45697457 91 40
4.3911276 1.0144988 -0.45883709 153 40
4.3914509 0.98623002 -0.45817971 154 40
4.3915925 0.95799541 -0.45752236 159 40
4.3983607 0.93123686 -0.45763192 69 40
4.3777022 0.89883608 -0.45467377 12 40
4.3919091 0.87370276 -0.45565984 150 40
4.3884029 0.84504724 -0.45467377 173 40
4.3827562 0.81610399 -0.45346862 88 40
4.3573537 0.78374445 -0.45007223 6 40
4.3659983 0.75767297 -0.45051047 15 40
4.4250169 0.71208811 -0.45609808 60 40
4.3921795 1.0427871 -0.51537037 13 41
4.3859234 1.0129107 -0.51378834 76 41
4.3814034 0.98358577 -0.51244968 211 41
4.3854165 0.95626009 -0.51220626 53 41
4.4329548 0.93818146 -0.51743919 11 41
4.3958488 0.90217245 -0.5120846 74 41
4.3672309 0.86839896 -0.5078252 207 41
4.3666291 0.84045863 -0.50709504 220 41
4.3717041 0.81364971 -0.50709504 246 41
4.3883367 0.78892064 -0.50855541 187 41
4.3803816 0.75977099 -0.50697333 189 41
4.3761506 0.7314043 -0.50587809 237 41
4.3727164 0.70327598 -0.50490451 219 41
4.3808026 1.0689071 -0.56977087 47 42
4.3747439 1.0390309 -0.56803352 172 42
4.3742776 1.0106075 -0.56709808 160 42
4.3823304 0.98418248 -0.56736535 148 42
4.3631115 0.95178497 -0.5638907 16 42
4.3533564 0.92171246 -0.56175244 9 42
4.359901 0.89518267 -0.56188607 21 42
4.3672552 0.86880052 -0.56215334 105 42
4.3627725 0.84011412 -0.56081694 20 42
4.3639479 0.81260347 -0.56028241 13 42
4.3727531 0.78651291 -0.56081694 11 42
4.3755441 0.75932866 -0.56054968 29 42
4.3635039 0.72968924 -0.55827779 177 42
4.3610497 0.70179999 -0.55734229 161 42
4.4132648 0.68244463 -0.5638907 26 42
4.3730392 1.067432 -0.62540591 13 43
4.3641071 1.0369164 -0.62307131 177 43
4.3665323 1.0092272 -0.62248772 203 43
4.3514085 0.97763908 -0.61927766 230 43
4.3718228 0.95408875 -0.62146634 69 43
4.3621101 0.9239617 -0.61913174 161 43
4.3861089 0.90096581 -0.62190408 222 43
4.3799119 0.87171584 -0.62015313 234 43
4.3793497 0.84370041 -0.61927766 210 43
4.3805542 0.81608754 -0.61869401 38 43
4.3796372 0.78814077 -0.61781859 46 43
4.3785429 0.76023602 -0.61694312 203 43
4.3792224 0.73270148 -0.61635947 264 43
4.3699622 0.70361197 -0.6143167 54 43
4.3497667 1.0613374 -0.67685151 17 44
4.3629227 1.0362244 -0.67795616 132 44
4.3759336 1.0109899 -0.67906088 74 44
4.3579674 0.97871333 -0.67511553 8 44
4.3609962 0.95132375 -0.67464209 7 44
4.3677173 0.92475176 -0.67479992 17 44
4.3762112 0.89853007 -0.67527336 110 44
4.3835793 0.87204641 -0.67558897 110 44
4.3791509 0.84326649 -0.67401087 10 44
4.3677387 0.81330907 -0.67132801 10 44
4.3891692 0.78946412 -0.67401087 124 44
4.3812823 0.76032394 -0.67195928 179 44
4.3868389 0.73358941 -0.67211711 179 44
4.3932076 0.70697206 -0.67243272 174 44
4.4023423 0.68075663 -0.67322177 121 44
4.3606277 1.0627919 -0.73314154 194 45
4.3641901 1.0353324 -0.73263294 183 45
4.3675799 1.0078692 -0.73212439 187 45
4.3679128 0.97975558 -0.73110723 117 45
4.3680649 0.95167583 -0.73009014 111 45
4.3632159 0.92261052 -0.72822541 211 45
4.3658991 0.8952263 -0.7277168 217 45
4.3500447 0.86419046 -0.72398734 113 45
4.3755884 0.84139627 -0.72754729 5 45
4.3632288 0.8112849 -0.72449589 11 45
4.3564849 0.78240377 -0.72246164 36 45
4.3446965 0.75279355 -0.71957982 102 45
4.360898 0.72807139 -0.72161406 10 45
4.3662567 0.70145625 -0.72178358 5 45
4.3654051 1.0651516 -0.78966653 126 46
4.3613334 1.0358471 -0.78767139 57 46
4.4260569 1.0225655 -0.79873538 7 46
4.4216933 0.99301904 -0.79674023 5 46
4.3489141 0.94868928 -0.78186727 41 46
4.3613882 0.92341226 -0.7831369 180 46
4.3640823 0.8960408 -0.78259277 206 46
4.3810725 0.87154794 -0.7847693 148 46
4.3805432 0.84353453 -0.78368104 40 46
4.3750019 0.81466079 -0.78168589 179 46
4.3760467 0.78710496 -0.78096038 184 46
4.3730421 0.75889474 -0.77950937 190 46
4.3630672 0.72961622 -0.77678871 169 46
4.3567815 0.70111346 -0.77479357 21 46
4.4037051 0.6525439 -0.34333849 166 38
4.3848524 0.67765576 -0.39575893 219 39
4.3790832 0.64927572 -0.39478657 259 39
4.3790431 0.62183326 -0.39439762 215 39
4.452795 0.60447592 -0.40130135 43 39
4.4131112 0.79297596 -0.23474571 103 36
4.4198608 0.76622355 -0.23486677 159 36
4.4382625 0.74139059 -0.23571412 185 36
4.4230175 0.71097738 -0.23450361 62 36
4.3912964 0.87239689 -0.28909275 150 37
4.3906908 0.84430444 -0.28865644 254 37
4.4026523 0.81862581 -0.28916547 247 37
4.4144635 0.79283214 -0.28967449 111 37
4.4221931 0.76624215 -0.28989261 18 37
4.4238601 0.73860019 -0.28967449 16 37
4.3987684 0.70668823 -0.28749299 79 37
4.3941512 0.67831284 -0.28683856 147 37
4.4265766 0.96481723 -0.35007268 108 38
4.3914714 0.92898095 -0.3464925 172 38
4.3980651 0.90221804 -0.34657773 178 38
4.4035182 0.87521499 -0.34657773 181 38
4.4088054 0.84817904 -0.34657773 152 38
4.4129472 0.82092905 -0.3464925 168 38
4.4100556 0.79242724 -0.34581053 143 38
4.459013 0.77300739 -0.34964648 18 38
4.4636722 0.74563289 -0.34964648 10 38
4.3973336 0.70685112 -0.34350899 101 38
4.401588 0.67985624 -0.34350899 189 38
4.3924389 1.0428487 -0.40334329 196 39
4.394876 1.0149807 -0.40295434 242 39
4.4000502 0.98777688 -0.40285712 221 39
4.3992214 0.95927405 -0.40217647 55 39
4.4108667 0.93350083 -0.40275988 7 39
4.4048128 0.90401459 -0.40159306 13 39
4.4024682 0.87541527 -0.40081516 16 39
4.4067793 0.8481974 -0.40071794 210 39
4.3678722 0.81293553 -0.39634234 279 39
4.3962865 0.79035205 -0.39867598 126 39
4.3814416 0.75995517 -0.39673129 15 39
4.3997645 0.7353574 -0.39809257 194 39
4.386507 0.70549774 -0.39634234 255 39
4.3803115 1.1259148 -0.46059006 130 40
4.3794241 1.0970849 -0.45971358 157 40
4.3949184 1.2450401 -0.52194196 51 41
4.3709087 1.2093077 -0.51792598 137 41
4.3811212 1.1832426 -0.51829106 180 41
4.3825407 1.1548194 -0.5175609 187 41
4.3847375 1.1266705 -0.51695246 197 41
4.3694243 1.0941937 -0.51415342 14 41
4.355504 1.2054269 -0.57110727 103 42
4.3580346 1.1773875 -0.57043904 157 42
4.3661351 1.1508774 -0.57057267 164 42
4.3654361 1.1220926 -0.56950361 145 42
4.3626256 1.0928782 -0.56816715 161 42
4.3999591 1.1891567 -0.63372278 64 43
4.3708243 1.1525419 -0.62817818 129 43
4.3749399 1.1249615 -0.62774044 23 43
4.3750434 1.096411 -0.62671912 15 43
4.3545866 1.1193049 -0.67984992 70 44
4.3450885 1.0884868 -0.67716712 7 44
4.3626285 1.0916836 -0.73466718 160 45
4.4439683 1.083946 -0.40917742 16 39
