# .PCD v0.7 - Point Cloud Data file format
VERSION 0.7
FIELDS x y z intensity ring
SIZE 4 4 4 4 1
TYPE F F F F U
COUNT 1 1 1 1 1
WIDTH 267
HEIGHT 1
VIEWPOINT 0 0 0 1 0 0 0
POINTS 267
DATA ascii
3.7097013 -3.279372 -1.9119928 8 63
4.607554 -2.2838631 -0.90937561 7 46
5.5790429 0.069463469 -1.2667192 15 50
5.6189828 0.068896256 -1.3443552 19 51
5.5047278 0.033692025 -1.3161284 55 51
5.5877104 0.069570787 -1.4070011 11 52
5.5870643 0.035277884 -1.4067503 5 52
5.4867234 0.068202145 -1.4483116 7 53
5.4802828 0.034491006 -1.4464786 9 53
5.1607933 -0.12774116 -0.84909421 17 45
5.155972 -0.15928395 -0.84841615 14 45
5.1342154 -0.19015609 -0.8448562 31 45
5.1260595 -0.22135939 -0.84366953 144 45
5.1324797 -0.25319481 -0.84502572 13 45
5.1209893 -0.28413862 -0.8433305 22 45
5.1083288 -0.31489053 -0.84146577 32 45
5.1230164 -0.34735832 -0.84434766 325 45
5.1099772 -0.37798876 -0.84248286 346 45
5.1016674 -0.40886483 -0.84146577 364 45
5.0902257 -0.43939954 -0.83994007 205 45
5.1439285 -0.12622419 -0.90991974 96 46
5.1371598 -0.15760298 -0.90883148 314 46
5.1301994 -0.18890347 -0.90774322 380 46
5.1289439 -0.22037822 -0.90774322 355 46
5.1333885 -0.25213459 -0.90883148 347 46
5.1022873 -0.28199741 -0.90339017 267 46
5.1122398 -0.31402355 -0.90556669 421 46
5.1072731 -0.34518659 -0.90502256 286 46
5.1567998 -0.12764321 -0.9755578 24 47
5.1559196 -0.15928234 -0.9755578 19 47
5.130332 -0.19001314 -0.97073191 191 47
5.0947595 -0.22001486 -0.96397561 333 47
5.0942936 -0.25131971 -0.96416867 278 47
5.1104145 -0.12628898 -1.0284661 370 48
5.1075864 -0.157583 -1.0280571 374 48
5.0830469 -0.18804926 -1.0231493 87 48
5.2592287 -0.1299779 -0.41255584 151 38
5.2702827 -0.16261509 -0.41357875 286 38
5.2335267 -0.12861386 -0.4737418 495 39
5.2376132 -0.16087542 -0.47422796 463 39
5.2275763 -0.19268185 -0.47335285 437 39
5.2477193 -0.1287789 -0.54067904 438 40
5.2219925 -0.160212 -0.53794003 281 40
5.2358108 -0.19280028 -0.53958344 20 40
5.1848764 -0.22278576 -0.53410536 176 40
5.2062454 -0.25571862 -0.53662527 107 40
5.2303181 -0.12853572 -0.60335666 399 41
5.1550231 -0.15835702 -0.59422946 153 41
5.21942 -0.19238305 -0.60226142 27 41
5.198308 -0.2235567 -0.59982747 52 41
5.2008038 -0.25564274 -0.60031426 358 41
5.1882358 -0.28694895 -0.5989756 325 41
5.1866174 -0.12727493 -0.66131443 422 42
5.1887102 -0.1591884 -0.66171533 45 42
5.1816936 -0.19080348 -0.66091353 62 42
5.1833959 -0.22272202 -0.66131443 366 42
5.1868806 -0.25476602 -0.66198266 318 42
5.1802726 -0.2863135 -0.66131443 278 42
5.1665483 -0.31736362 -0.65971076 233 42
5.1615372 -0.3488583 -0.6593098 86 42
5.1755805 -0.12630165 -0.72506267 283 43
5.1865745 -0.15841579 -0.72681361 16 43
5.1785841 -0.18998471 -0.72579223 22 43
5.1555762 -0.22082986 -0.72258222 192 43
5.1877203 -0.2540977 -0.72754318 72 43
5.1564293 -0.28429705 -0.72316587 14 43
5.1407633 -0.31508675 -0.7211231 24 43
5.1693325 -0.348681 -0.72564632 60 43
5.1414428 -0.37851018 -0.72185266 266 43
5.1917295 -0.12740076 -0.7912662 232 44
5.1760449 -0.15879889 -0.788899 34 44
5.1631317 -0.1901186 -0.78700525 352 44
5.1579218 -0.22162554 -0.78637397 382 44
5.1515336 -0.2530272 -0.78558493 326 44
5.1449542 -0.2843588 -0.78479582 285 44
5.1500115 -0.31634662 -0.78590053 347 44
5.1460032 -0.3478072 -0.78558493 398 44
5.1319547 -0.37850344 -0.78369117 378 44
5.1187081 -0.40911919 -0.78195518 349 44
5.1269236 -0.44145194 -0.78369117 52 44
5.2014866 0.25448188 -0.85689223 293 45
5.2226424 0.22340815 -0.86028266 379 45
5.2120967 0.19092286 -0.85824841 434 45
5.2072597 0.15875693 -0.85723126 395 45
5.2012391 0.12663333 -0.85604459 255 45
5.1861525 0.094426163 -0.85333228 420 45
5.1787505 0.062505826 -0.8519761 418 45
5.1721382 0.030685956 -0.85078943 439 45
5.1505475 -0.0010507379 -0.84705997 65 45
5.1553717 -0.03268401 -0.8479076 64 45
5.1649284 -0.064436883 -0.84960282 421 45
5.1644359 -0.096127078 -0.84960282 333 45
5.2114701 0.22402558 -0.92297888 91 46
5.1921086 0.19128561 -0.91916996 166 46
5.1636963 0.15852077 -0.91372865 15 46
5.1724367 0.1270265 -0.91517967 27 46
5.1682024 0.095196448 -0.91427279 50 46
5.1863894 0.063699231 -0.91753757 365 46
5.1827488 0.031851064 -0.91681206 55 46
5.1759629 5.0166862e-05 -0.91554242 23 46
5.168982 -0.031666256 -0.91427279 164 46
5.1627903 -0.063309141 -0.91318452 381 46
5.1682043 -0.095095232 -0.91427279 381 46
5.1657915 0.15748338 -0.97748816 258 47
5.161756 0.12566322 -0.97652298 240 47
5.161449 0.093970835 -0.97632992 409 47
5.1609473 0.062286947 -0.97613686 425 47
5.1602511 0.030612757 -0.97594386 134 47
5.1662288 -0.0010503958 -0.97710204 16 47
5.1229534 -0.032485802 -0.9686085 196 47
5.13345 -0.064051256 -0.97073191 356 47
5.157486 -0.095999286 -0.9755578 29 47
5.1584058 0.12578489 -1.0384865 229 48
5.1649528 0.094237842 -1.0397134 379 48
5.1527095 0.062391408 -1.0370549 270 48
5.1363549 0.030675691 -1.0335785 18 48
5.1570024 -0.00084590109 -1.0378729 100 48
5.1275349 -0.032301422 -1.031738 411 48
5.1233249 -0.063713789 -1.03092 373 48
5.1130505 -0.094966196 -1.0288751 371 48
5.1132731 0.09575285 -1.0941097 110 49
5.110836 0.064339057 -1.0934603 190 49
5.1482329 0.033226214 -1.101685 19 49
5.132719 0.0016281053 -1.098222 32 49
5.1150594 -0.029767456 -1.0943261 337 49
5.1108756 -0.061106518 -1.0934603 388 49
5.0860009 -0.092029162 -1.0880493 254 49
5.1090961 0.032292932 -1.1565899 371 50
5.0848565 0.0009408468 -1.1508895 280 50
5.3242021 0.26067266 -0.41852283 538 38
5.3217196 0.22782889 -0.41818187 600 38
5.3050947 0.19451532 -0.41664749 48 38
5.2922459 0.16153567 -0.41545409 23 38
5.3060865 0.12937479 -0.41656226 340 38
5.3017993 0.096724316 -0.41613603 407 38
5.2863526 0.063999459 -0.41477215 28 38
5.2826605 0.031538308 -0.41443118 27 38
5.2817578 -0.00087584025 -0.41434592 36 38
5.2647152 -0.033176087 -0.41289681 181 38
5.2853346 -0.065740936 -0.41468692 27 38
5.279851 -0.098077007 -0.41426069 31 38
5.308332 0.26065916 -0.48152062 485 39
5.3048596 0.2278683 -0.48103446 406 39
5.2942233 0.19487207 -0.47986764 41 39
5.3012881 0.162568 -0.48045105 301 39
5.3011909 0.13001223 -0.4803538 436 39
5.3028836 0.097500809 -0.48045105 411 39
5.2675557 0.064514369 -0.47695056 289 39
5.2778049 0.032255065 -0.47792292 415 39
5.2749176 -0.00013012896 -0.47763121 440 39
5.2698412 -0.032466855 -0.47714505 462 39
5.2277446 -0.064296626 -0.47306114 262 39
5.2372026 -0.096553497 -0.4740335 239 39
5.2916207 0.26000288 -0.54604751 497 40
5.2941093 0.22757183 -0.54615706 169 40
5.2884526 0.19482785 -0.54539013 31 40
5.2368927 0.16076231 -0.53958344 106 40
5.2646098 0.12928319 -0.54254156 513 40
5.2662978 0.09699595 -0.54265112 34 40
5.2628183 0.0646322 -0.5422129 28 40
5.2571521 0.032302734 -0.54155552 25 40
5.2363777 4.6212739e-05 -0.53925472 237 40
5.2501945 -0.032169893 -0.54078859 29 40
5.2518864 -0.064408399 -0.5410077 22 40
5.247417 -0.096558712 -0.54056948 46 40
5.2840924 0.25946358 -0.61053675 435 41
5.2717018 0.22643673 -0.60883301 82 41
5.2848949 0.19452664 -0.61029333 133 41
5.2820206 0.16197291 -0.60980654 412 41
5.2690234 0.12921625 -0.6081028 404 41
5.2588005 0.096680582 -0.60676414 364 41
5.2483773 0.064275242 -0.60542548 334 41
5.2437105 0.032039165 -0.60481703 389 41
5.2398381 -0.0001370168 -0.60433024 397 41
5.2367606 -0.032270368 -0.60396516 350 41
5.2106595 -0.064090297 -0.60080105 50 41
5.2310085 -0.096440673 -0.60335666 420 41
5.2502255 0.257972 -0.67053562 344 42
5.2507195 0.22570987 -0.67040199 25 42
5.2510152 0.1934514 -0.67026836 31 42
5.2362542 0.16074277 -0.6681301 396 42
5.2520032 0.12897454 -0.67013472 52 42
5.2517047 0.09672825 -0.67000103 30 42
5.2472448 0.064442091 -0.66933286 38 42
5.2346582 0.032166183 -0.66759551 189 42
5.1970978 4.8783586e-05 -0.66251719 95 42
5.2019553 -0.031870738 -0.66318542 25 42
5.1887794 -0.063629791 -0.66144806 21 42
5.1902733 -0.095502965 -0.66171533 363 42
5.2518716 0.25879043 -0.73702735 233 43
5.2701631 0.22728905 -0.73950779 50 43
5.2556405 0.19435918 -0.73717326 378 43
5.2419019 0.16164683 -0.73498458 415 43
5.2398281 0.12940614 -0.73454684 401 43
5.226676 0.096992649 -0.73250413 318 43
5.225194 0.064895533 -0.73221231 360 43
5.2116442 0.032742999 -0.73016953 407 43
5.2147145 0.0007654386 -0.73060727 374 43
5.2007713 -0.031151617 -0.72856456 30 43
5.2004824 -0.063062362 -0.72856456 266 43
5.1812038 -0.094631724 -0.72579223 418 43
5.2166228 0.2563234 -0.7960006 23 44
5.2180977 0.22430998 -0.7960006 21 44
5.2371383 0.19294119 -0.79884124 193 44
5.2165093 0.1601381 -0.79536933 107 44
5.2183809 0.12815136 -0.79552716 19 44
5.219069 0.096129566 -0.79552716 31 44
5.2047496 0.063923351 -0.79315996 103 44
5.2080064 0.03200439 -0.7936334 231 44
5.2071171 4.8127829e-05 -0.79347557 22 44
5.1991196 -0.031853154 -0.79221308 22 44
5.2017884 -0.063790299 -0.79268652 290 44
5.2012992 -0.095706671 -0.79268652 345 44
5.3304405 0.064370751 -0.21912093 530 35
5.3297362 0.031656418 -0.21907295 554 35
5.337821 -0.0010466522 -0.21945678 404 35
5.340723 0.16301174 -0.28685853 534 36
5.3316441 0.12999605 -0.28625327 640 36
5.3273511 0.097188585 -0.28595063 613 36
5.3058891 0.064234532 -0.28461906 167 36
5.3091779 0.031694654 -0.28480065 36 36
5.3092723 -0.00088244322 -0.28480065 26 36
5.3061724 -0.033440419 -0.28461906 100 36
5.3058677 -0.065997846 -0.28461906 430 36
5.3473907 0.26165289 -0.35301012 353 37
5.3369384 0.22832283 -0.35213751 557 37
5.3262787 0.19513093 -0.35126492 379 37
5.3054442 0.16177228 -0.34966516 35 37
5.3272753 0.12973011 -0.35119221 442 37
5.3179989 0.096856318 -0.35046506 493 37
5.3145041 0.064174823 -0.35017419 481 37
5.2898645 0.031410892 -0.34835628 260 37
5.3019261 -0.0010474353 -0.34922889 484 37
5.2988276 -0.033561129 -0.34901074 458 37
5.2935357 -0.066012405 -0.34864715 446 37
5.289042 -0.09841834 -0.34835628 472 37
3.0452454 3.081327 -0.81302166 91 47
3.0035172 3.0793791 -1.073797 14 52
3.0420821 3.0808666 -1.0810678 64 52
5.3204904 0.35876358 -0.41869333 272 38
5.331542 0.32665864 -0.41946051 528 38
5.327477 0.29361022 -0.41894907 536 38
5.345458 0.42718452 -0.48618793 520 39
5.339046 0.39371669 -0.48531282 507 39
5.3324242 0.36034364 -0.4844377 45 39
5.3305616 0.32737279 -0.48404875 33 39
5.3245201 0.29421788 -0.48327088 41 39
5.3359036 0.45953909 -0.55240202 383 40
5.3326778 0.4263151 -0.5517447 406 40
5.3223062 0.39263666 -0.55032039 467 40
5.3146982 0.35930246 -0.54922479 398 40
5.3009291 0.32571116 -0.54747182 79 40
5.2889333 0.29241195 -0.54593796 463 40
5.3102546 0.42436352 -0.61503947 505 41
5.3117685 0.39169919 -0.61491781 141 41
5.2734699 0.35634682 -0.60992825 28 41
5.2715945 0.32373846 -0.60944146 18 41
5.2814097 0.29182631 -0.61041504 379 41
5.2867894 0.39001909 -0.67654943 205 42
5.2950153 0.35797325 -0.6773513 64 42
5.2723832 0.32395926 -0.67401028 356 42
5.2643762 0.2910561 -0.67267388 442 42
5.2847123 0.35803282 -0.74271786 120 43
5.2710109 0.3246232 -0.74038327 449 43
5.2689524 0.29205489 -0.73979962 428 43
5.2504468 0.29028699 -0.80168188 284 44
8.6150599 -2.3859277 -1.8280457 62 48
