# .PCD v0.7 - Point Cloud Data file format
VERSION 0.7
FIELDS x y z intensity ring
SIZE 4 4 4 4 1
TYPE F F F F U
COUNT 1 1 1 1 1
WIDTH 243
HEIGHT 1
VIEWPOINT 0 0 0 1 0 0 0
POINTS 243
DATA ascii
4.6299129 -2.2939446 -1.2979388 6 52
5.3456392 -0.99428385 -1.2334296 9 50
5.34163 -1.0615169 -1.2354816 15 50
5.3984494 -1.0052016 -1.3127794 5 51
5.3780813 -1.1042041 -1.3125402 8 51
5.280941 -0.94875818 -1.3493359 45 52
5.4350972 -0.97755212 -1.3204341 5 51
4.8735228 -0.97047931 -0.81586802 29 45
4.844099 -0.93262213 -0.8707422 15 46
4.8267112 -0.96002442 -0.86856568 10 46
4.8062801 -0.986655 -0.86584502 62 46
4.7501078 -1.0055327 -0.85641342 212 46
4.7217498 -1.0298383 -0.85224169 224 46
4.7575603 -1.0682744 -0.86022234 85 46
4.8271594 -0.93050307 -0.92787796 174 47
4.7963381 -0.95512807 -0.92285901 231 47
4.7788534 -0.98217225 -0.9205426 159 47
4.9763813 -0.92670441 -0.45682281 140 39
4.9086685 -0.94505888 -0.51306969 111 40
4.8655663 -0.93701923 -0.56940347 89 41
4.8636193 -0.96762991 -0.56989026 163 41
4.8756561 -0.93870032 -0.63124537 188 42
4.8484211 -0.96434426 -0.62830532 183 42
4.8191142 -0.98929071 -0.62509793 190 42
4.8487797 -0.93291575 -0.6897524 172 43
4.8788671 -0.96977752 -0.69515103 15 43
4.8020763 -0.98519814 -0.68449962 51 43
4.7911015 -1.0136219 -0.68377006 201 43
4.8659501 -0.93683088 -0.75323319 148 44
4.8920703 -0.97302955 -0.75844103 9 44
4.8560219 -0.99687034 -0.7535488 30 44
4.7734962 -1.0104858 -0.74108154 191 44
4.7556291 -1.0372304 -0.73918778 197 44
4.8484178 -0.9345957 -0.81044334 118 45
4.7834868 -0.98312336 -0.80111963 219 45
4.758081 -1.008374 -0.79772919 194 45
4.7363982 -1.0341899 -0.79501688 190 45
4.7136164 -1.059562 -0.792135 184 45
4.6897416 -1.0844717 -0.7890836 32 45
4.9973807 -0.7737239 -0.83095545 9 45
4.968214 -0.80045927 -0.82671738 25 45
4.9573765 -0.82995355 -0.82570028 17 45
4.9424806 -0.85867119 -0.82400507 12 45
4.9118996 -0.88444656 -0.81959748 47 45
4.982048 -0.77022827 -0.89069372 264 46
4.9607224 -0.79812616 -0.88761032 246 46
4.9373031 -0.82546699 -0.88416415 178 46
4.9030776 -0.8507005 -0.87872279 44 46
4.8813114 -0.87780893 -0.87563938 203 46
4.8700328 -0.90666318 -0.87455112 155 46
4.9541793 -0.79820138 -0.94795364 94 47
4.9849954 -0.83457083 -0.95509601 6 47
4.8956733 -0.85055041 -0.93830186 43 47
4.8671856 -0.87640595 -0.93366903 201 47
4.853035 -0.90463775 -0.93193167 220 47
4.9742227 -0.73868024 -1.011084 223 48
4.9483151 -0.76589197 -1.006585 253 48
4.9290261 -0.79390389 -1.0035176 197 48
4.9433708 -0.82736605 -1.0076076 14 48
4.8813004 -0.84779519 -0.99554223 87 48
4.8442154 -0.87200499 -0.98879391 202 48
4.8387737 -0.90171212 -0.98879391 179 48
4.9798207 -0.67475677 -1.0744137 19 49
4.97752 -0.70557326 -1.0748465 11 49
4.957644 -0.73381788 -1.0713835 25 49
4.9356799 -0.76154792 -1.0674876 208 49
4.9087424 -0.78826326 -1.0625094 214 49
4.8932199 -0.81660265 -1.0601287 193 49
4.8833075 -0.8457796 -1.0590464 115 49
4.9403872 -0.73189604 -1.1296846 240 50
4.9271431 -0.76085788 -1.1276325 207 50
4.9975038 -0.83576822 -0.45730901 11 39
4.9922819 -0.86641657 -0.45730901 158 39
4.9623818 -0.89263302 -0.45487812 224 39
4.9882245 -0.83398455 -0.51953381 115 40
4.9683232 -0.8620261 -0.51789039 246 40
4.950223 -0.89020687 -0.51646608 235 40
4.9241467 -0.91674209 -0.51416528 154 40
4.974339 -0.80055672 -0.5796259 5 41
4.9830394 -0.83335257 -0.58132964 36 41
4.9572945 -0.86035275 -0.57877403 129 41
4.9304295 -0.88689303 -0.57609671 6 41
4.9473391 -0.92130309 -0.57889575 3 41
4.9902153 -0.80287355 -0.643273 77 42
4.9685783 -0.83069837 -0.64100111 236 42
4.9467883 -0.85828799 -0.63872921 226 42
4.9238725 -0.8854661 -0.63632369 195 42
4.8969126 -0.91166961 -0.63338363 192 42
4.9991159 -0.77221102 -0.70755345 6 43
4.9825621 -0.80098891 -0.7058025 10 43
4.9560857 -0.82796496 -0.70259249 86 43
4.9304414 -0.85481513 -0.6995284 6 43
4.9212084 -0.88435268 -0.69894475 12 43
4.9020724 -0.91200191 -0.69690198 62 43
4.9664912 -0.79905474 -0.76522696 264 44
4.9624686 -0.82967645 -0.76538479 256 44
4.9105844 -0.85200351 -0.75780976 164 44
4.8974891 -0.88071948 -0.75654727 145 44
4.8774314 -0.90804118 -0.75418007 195 44
4.8511543 -0.9042877 -0.80993474 229 45
4.9869037 -0.86614513 -0.39550722 178 38
5.3060446 -1.0225548 -1.0894059 44 48
5.3028994 -1.021135 -0.48988289 31 39
5.2341824 -0.54902405 -0.8663854 58 45
5.1719432 -0.57461375 -0.85621411 239 45
5.1575532 -0.60507661 -0.85434937 240 45
5.1439619 -0.6355052 -0.85265416 239 45
5.0607996 -0.65680003 -0.83892292 14 45
5.0566745 -0.68784016 -0.83892292 147 45
5.036747 -0.71663672 -0.83621061 213 45
5.010808 -0.74434727 -0.83248115 13 45
5.1375895 -0.56969702 -0.91427279 65 46
5.1359506 -0.60143882 -0.91463554 223 46
5.1145954 -0.63077313 -0.91137075 18 46
5.1057525 -0.66151166 -0.91046387 14 46
5.0635934 -0.68766344 -0.90339017 260 46
5.0514898 -0.71761298 -0.90193909 263 46
5.0226722 -0.74498582 -0.89740467 103 46
5.1134963 -0.59991795 -0.97362745 70 47
5.0610285 -0.62527812 -0.96397561 26 47
5.0619617 -0.65695053 -0.96494079 34 47
5.0481129 -0.68667752 -0.96301043 179 47
5.03409 -0.7162593 -0.96108007 21 47
5.0208654 -0.74583888 -0.95934278 7 47
5.0200729 -0.77723193 -0.9601149 34 47
5.0598273 -0.62490827 -1.0256032 86 48
5.0529857 -0.65556496 -1.0249897 242 48
5.0323792 -0.68431371 -1.0215132 280 48
5.0096726 -0.71255845 -1.0176278 228 48
5.0264711 -0.64968514 -1.083937 90 49
5.0174985 -0.68051082 -1.1458733 131 50
5.0035887 -0.70991635 -1.1435932 149 50
5.3196974 -0.52483994 -0.41980147 52 38
5.3104315 -0.55684721 -0.41929004 273 38
5.3029537 -0.58898067 -0.41894907 310 38
5.2695527 -0.61802393 -0.41639176 220 38
5.3396387 -0.52602142 -0.48647964 109 39
5.2858272 -0.55349982 -0.48152062 44 39
5.2852993 -0.58625114 -0.48181233 295 39
5.2697401 -0.61728317 -0.48064551 293 39
5.2085609 -0.64255118 -0.47500587 125 39
5.1798444 -0.67130584 -0.47257498 288 39
5.1687241 -0.70213985 -0.47189432 274 39
5.1042099 -0.72531366 -0.46596295 153 39
5.0829263 -0.75413954 -0.46430996 184 39
5.0506625 -0.78106093 -0.46158737 227 39
5.0408616 -0.81124693 -0.46110117 134 39
5.3397617 -0.52588272 -0.55349767 39 40
5.307766 -0.55563372 -0.55032039 70 40
5.2430058 -0.58139449 -0.5435276 233 40
5.2205825 -0.61135602 -0.54144597 9 40
5.2068682 -0.64216 -0.54035032 10 40
5.1811438 -0.67128533 -0.53794003 55 40
5.1552591 -0.7001192 -0.53552967 15 40
5.1390572 -0.73005962 -0.53421491 13 40
5.062706 -0.75092697 -0.52621698 112 40
5.0462155 -0.78015369 -0.52490228 236 40
5.0550728 -0.81331354 -0.52643609 22 40
5.3252277 -0.52460486 -0.61796021 20 41
5.269587 -0.55180281 -0.61151028 262 41
5.2503176 -0.58237869 -0.60956317 280 41
5.2200274 -0.611471 -0.60627735 168 41
5.1728315 -0.63815147 -0.60092276 266 41
5.1638966 -0.66924262 -0.60031426 279 41
5.1085477 -0.69397897 -0.59398609 187 41
5.109107 -0.72600842 -0.59459454 87 41
5.0701914 -0.752253 -0.59033519 228 41
5.0242805 -0.77698725 -0.58522397 139 41
5.2693896 -0.55161351 -0.67614853 306 42
5.2215815 -0.5790171 -0.67013472 22 42
5.2336788 -0.61289066 -0.67227292 5 42
5.1560521 -0.63588911 -0.66224992 38 42
5.1520534 -0.66751409 -0.66224992 61 42
5.1075983 -0.69364297 -0.65677065 20 42
5.0836225 -0.72218031 -0.65409786 84 42
5.0732141 -0.75248635 -0.65329599 295 42
5.029326 -0.77754122 -0.64795041 130 42
5.239584 -0.547746 -0.73848641 246 43
5.2253079 -0.57868975 -0.73688143 205 43
5.1970935 -0.60787302 -0.73323369 207 43
5.170682 -0.63697338 -0.72987771 228 43
5.1333175 -0.66437829 -0.72491676 223 43
5.0958123 -0.69134885 -0.7199558 24 43
5.0611095 -0.71830064 -0.71543258 205 43
5.0458417 -0.74774873 -0.71382761 169 43
5.1974788 -0.54408044 -0.79647404 83 44
5.1832466 -0.57476336 -0.79473811 15 44
5.1629496 -0.60460258 -0.79205525 14 44
5.140522 -0.63397259 -0.78905678 169 44
5.1238046 -0.66385198 -0.78700525 14 44
5.091259 -0.69142276 -0.78242862 51 44
5.06248 -0.7191751 -0.77848333 250 44
5.0530877 -0.74949956 -0.77769423 214 44
5.0210695 -0.77626413 -0.77327549 77 44
5.4101043 -1.005421 -1.1802527 12 49
5.1514482 -0.76520616 -0.21321961 249 35
5.1249394 -0.79344326 -0.2121641 227 35
5.22159 -0.67745256 -0.28213748 189 36
5.1985426 -0.70692205 -0.2809875 257 36
5.1871901 -0.73782194 -0.28056383 109 36
5.1509705 -0.76494169 -0.27862701 12 36
5.1333566 -0.79454726 -0.27784017 16 36
5.093894 -0.82047188 -0.27572176 266 36
5.0690746 -0.84841502 -0.27451125 79 36
5.259871 -0.61705714 -0.34879258 218 37
5.2500463 -0.64858711 -0.34835628 260 37
5.21135 -0.6763038 -0.34581122 171 37
5.1705356 -0.70330179 -0.34312072 296 37
5.1522989 -0.7330507 -0.34210271 252 37
5.1378384 -0.76318759 -0.34137556 147 37
5.0857477 -0.78738457 -0.33788517 262 37
5.0660505 -0.81619906 -0.33679444 241 37
5.0334034 -0.84266371 -0.3347584 216 37
5.0232248 -0.87267977 -0.33439481 97 37
5.2033648 -0.64264691 -0.41102144 9 38
5.1825266 -0.67238152 -0.40957233 19 38
5.1822524 -0.70470554 -0.4099133 67 38
5.1462655 -0.73199773 -0.40718552 11 38
5.1130962 -0.7593143 -0.40471348 10 38
5.0797868 -0.78625154 -0.40224144 185 38
5.0571609 -0.81455243 -0.40070704 184 38
5.0422406 -0.84392178 -0.39985463 10 38
5.0128736 -0.90237898 -0.39823499 122 38
5.3516417 -0.46096739 -0.48706305 130 39
5.3635783 -0.49516496 -0.48852158 382 39
5.386416 -0.46381518 -0.55798966 299 40
5.3706017 -0.49566841 -0.55656534 305 40
5.3668656 -0.46227542 -0.62234128 347 41
5.353056 -0.49419582 -0.62100261 189 41
5.3014193 -0.48927835 -0.67962313 142 42
5.2677436 -0.51878476 -0.67548031 26 42
5.271399 -0.51838773 -0.74271786 314 43
5.2478895 -0.516828 -0.80404907 42 44
5.4089766 -0.43234137 -0.56018084 327 40
3.0235441 3.0999081 -0.97418106 12 50
3.0116291 3.0876944 -1.0768056 16 52
6.2017455 -1.3526483 -0.74014312 32 41
8.1011343 -1.4535689 -1.7849849 21 49
8.1306257 -1.5620761 -1.7958069 15 49
7.811604 -1.4035977 -1.8187338 4 50
9.0016232 -2.49208 -1.7982761 69 47
9.4051561 0.34618521 -1.6967349 48 46
9.4061203 0.28843963 -1.6965536 56 46
