# .PCD v0.7 - Point Cloud Data file format
VERSION 0.7
FIELDS x y z intensity ring
SIZE 4 4 4 4 1
TYPE F F F F U
COUNT 1 1 1 1 1
WIDTH 1334
HEIGHT 1
VIEWPOINT 0 0 0 1 0 0 0
POINTS 1334
DATA ascii
0.034016624 2.7599766 0.71942413 39 11
0.050040793 2.7092643 0.70686179 73 11
0.070744671 2.8777032 0.74889725 34 11
0.091782339 2.9887574 0.77667934 18 11
0.11075572 3.0055931 0.78102779 18 11
0.12940213 3.0097046 0.78223574 20 11
0.15122199 3.0776691 0.79938817 57 11
0.16866694 3.0505223 0.7928654 34 11
0.18844603 3.0668645 0.79721391 46 11
0.20700006 3.0617776 0.79624754 44 11
0.23025756 3.1214199 0.81146729 69 11
0.24817449 3.104471 0.80760199 68 11
0.26970541 3.1318948 0.8148495 74 11
0.29033855 3.1456418 0.8187148 86 11
0.30963436 3.1438012 0.8187148 79 11
0.32891855 3.1418421 0.8187148 91 11
0.34882993 3.1455519 0.82016432 94 11
0.3681241 3.1433523 0.82016432 112 11
0.38752285 3.1419973 0.8204059 112 11
0.40679449 3.1395605 0.8204059 103 11
0.42605081 3.1370053 0.8204059 120 11
0.44515496 3.1333714 0.82016432 118 11
0.46437258 3.1305809 0.82016432 142 11
0.48460811 3.1343858 0.82185537 119 11
0.50383121 3.1313534 0.82185537 117 11
0.52207732 3.1224601 0.8204059 105 11
0.54023331 3.113461 0.81895638 114 11
0.55898416 3.1081772 0.81847322 121 11
0.57786781 3.103735 0.81823164 107 11
0.59781665 3.1048954 0.81943953 114 11
0.61836833 3.1087832 0.82137221 139 11
0.6393798 3.1144369 0.82378805 111 11
0.65968132 3.1161516 0.82523757 119 11
0.67816991 3.1092007 0.82451278 132 11
0.69850838 3.1106622 0.82596231 104 11
0.71932644 3.1138821 0.82789499 92 11
0.70640677 2.9743886 0.79334855 10 11
0.72326607 2.9643412 0.79189909 10 11
0 0 0 21 11
0 0 0 107 11
0 0 0 40 11
0.81045467 3.0000384 0.80591089 12 11
0 0 0 10 11
0 0 0 7 11
0.89846903 3.0983264 0.83538401 121 11
0.91580927 3.0871727 0.83393455 112 11
0 0 0 130 11
0 0 0 118 11
0 0 0 117 11
0 0 0 116 11
0 0 0 117 11
0 0 0 131 11
1.0550904 3.0670276 0.83973253 123 11
1.0745314 3.0623274 0.84021568 116 11
0 0 0 115 11
0 0 0 100 11
0 0 0 112 11
0 0 0 124 11
0 0 0 112 11
0 0 0 104 11
1.2219508 3.0557179 0.85157013 98 11
1.2414082 3.0499606 0.85205328 106 11
0 0 0 110 11
0 0 0 110 11
0 0 0 138 11
0 0 0 129 11
0 0 0 134 11
0 0 0 139 11
1.3861628 3.0264921 0.86099184 169 11
1.4051161 3.0188098 0.86123341 154 11
1.4236127 3.0101314 0.86123341 114 11
1.4462551 3.0100875 0.86364925 143 11
1.4642721 3.0002847 0.86340767 130 11
1.4848071 2.9955914 0.86461562 127 11
1.5105714 3.0011623 0.8687225 147 11
1.5369008 3.0073934 0.87307101 132 11
1.5606838 3.0082448 0.87597001 126 11
1.584535 3.0089169 0.878869 121 11
1.6066245 3.0059855 0.88080168 135 11
1.6255009 2.9969239 0.88104326 150 11
1.6508729 2.9996481 0.88466698 108 11
1.670193 2.9911568 0.88515019 127 11
1.6942507 2.9909863 0.88804919 96 11
1.7232007 2.9990482 0.89336401 90 11
1.7532895 3.008544 0.89916199 112 11
1.7771446 3.0069206 0.90181941 101 11
1.7975554 2.9992895 0.90278572 112 11
1.8174359 2.9906919 0.90351051 137 11
1.840331 2.9869208 0.90568477 116 11
1.8611927 2.9796886 0.90689266 107 11
1.8835915 2.9747725 0.90882534 116 11
1.904952 2.96806 0.9102748 117 11
1.9241856 2.9579427 0.91075802 109 11
1.9481714 2.9549942 0.91341543 101 11
1.9738096 2.9542832 0.91679758 120 11
2.0033185 2.9589949 0.92187083 99 11
2.024729 2.9514492 0.92332029 115 11
2.0499971 2.9493308 0.92646092 117 11
2.0753152 2.9470134 0.92960149 140 11
2.1012452 2.9452858 0.93298364 140 11
2.124959 2.9402039 0.93539947 115 11
2.1498353 2.9365082 0.93829846 118 11
2.1793683 2.9388542 0.94313014 116 11
2.2078454 2.9393959 0.94747865 113 11
2.2346492 2.9373808 0.95110238 83 11
2.2638788 2.9382222 0.95569247 111 11
2.2872353 2.9311631 0.95786673 110 11
2.3117931 2.9254506 0.96052414 98 11
2.3357604 2.9187889 0.96293998 103 11
2.3621757 2.9149594 0.96632212 97 11
2.3947849 2.9184189 0.97212011 109 11
2.419466 2.9118819 0.97477752 186 11
2.4497771 2.9118361 0.97960919 102 11
2.4751461 2.9056165 0.98250818 118 11
2.5043321 2.9036047 0.9868567 91 11
2.5406046 2.9093862 0.99386263 119 11
2.5622635 2.8981056 0.99531209 134 11
2.5903492 2.8939011 0.99917746 107 11
2.6275992 2.8995299 1.0064249 107 11
2.6525548 2.8912203 1.0090823 120 11
2.6788273 2.8841357 1.0122229 135 11
2.7137513 2.8860297 1.0185041 119 11
2.7421103 2.8805728 1.0223694 109 11
2.7671382 2.8713815 1.0250268 102 11
2.7955437 2.8654652 1.0288922 109 11
2.8267069 2.8620703 1.0337238 99 11
2.858619 2.859087 1.038797 127 11
2.8871498 2.8524082 1.0426624 93 11
2.9268146 2.8563335 1.0503931 119 11
2.9659369 2.859205 1.0578822 151 11
3.0016909 2.8583565 1.0641633 115 11
3.034719 2.8545158 1.0694782 123 11
3.0628376 2.845752 1.0731019 121 11
3.0866737 2.8328121 1.0752761 124 11
3.123404 2.8314216 1.0817989 254 11
3.1566191 2.8264487 1.0871137 178 11
3.1920702 2.8231034 1.0931532 135 11
3.2261369 2.8181517 1.0987097 109 11
3.2668736 2.8185947 1.1064404 132 11
3.3106899 2.8211613 1.1151373 115 11
3.3457525 2.8157949 1.1209353 119 11
3.3778887 2.8076222 1.125767 134 11
3.4212983 2.808399 1.1342224 121 11
3.4580607 2.8032463 1.1405036 119 11
3.4948881 2.7977476 1.1467848 146 11
3.5310163 2.7913001 1.1528244 179 11
3.5710204 2.7875004 1.1600718 189 11
3.6111095 2.7833142 1.1673193 183 11
3.6597736 2.7852068 1.1772243 159 11
3.6961854 2.7772763 1.1832638 156 11
3.7279618 2.7655332 1.1878539 170 11
3.7636461 2.756372 1.1936519 168 11
3.8174415 2.7599576 1.2050064 203 11
3.8627341 2.7567828 1.2137033 240 11
3.9017851 2.748683 1.2204677 248 11
3.9528301 2.7485194 1.2308557 289 11
3.996819 2.7428889 1.2390696 260 11
4.0440998 2.7389987 1.2482497 224 11
4.0930953 2.7357094 1.257913 175 11
4.1251931 2.7206979 1.2625031 186 11
4.1840959 2.7228677 1.2750654 276 11
4.211338 2.7039614 1.278206 261 11
4.2573566 2.6967707 1.286903 262 11
4.320724 2.699919 1.3006732 242 11
4.3917217 2.7069743 1.3166177 129 11
4.4339495 2.6956089 1.3241068 209 11
4.4728737 2.6818299 1.3306296 193 11
4.5259929 2.6760733 1.3412592 199 11
4.5926199 2.677588 1.3557543 393 11
4.6123276 2.651293 1.3567206 410 11
4.6192231 2.6176777 1.3540632 345 11
4.6301155 2.5864449 1.3526137 335 11
4.6288996 2.5486219 1.347782 419 11
4.6239834 2.5090597 1.341984 394 11
4.6213231 2.4710276 1.3369107 302 11
4.6080704 2.4276929 1.3289385 254 11
4.6220183 2.3989253 1.3286968 390 11
4.6323314 2.3683105 1.327489 385 11
4.639843 2.3363495 1.3255563 352 11
4.6427908 2.3022292 1.3224157 221 11
4.7222219 2.3056443 1.3405344 411 11
4.739778 2.2783082 1.3415008 416 11
4.7387586 2.2421238 1.3373939 205 11
4.7480288 2.2109561 1.3361859 481 11
4.7544489 2.1785457 1.3342533 478 11
4.7526894 2.142549 1.3301464 295 11
4.7577634 2.1098046 1.3279722 494 11
4.7626147 2.0770786 1.3257979 521 11
4.7431669 2.0340412 1.3171009 394 11
4.7537699 2.0041451 1.3166177 341 11
4.7704597 1.9767972 1.3178257 577 11
4.7582359 1.9376023 1.3113029 346 11
4.7547207 1.9022387 1.307196 642 11
4.7527571 1.8677016 1.3035723 555 11
4.7686534 1.840252 1.3047801 688 11
4.7735038 1.8085494 1.3030891 635 11
4.7426763 1.7636577 1.2919762 363 11
4.7761965 1.7428452 1.2980158 614 11
4.7804055 1.7112154 1.2963247 623 11
4.7660966 1.673167 1.289802 398 11
4.7707682 1.6419952 1.2883525 570 11
4.7752371 1.6108291 1.286903 572 11
4.7841096 1.5811937 1.2866614 611 11
4.7854133 1.5491176 1.2844871 292 11
4.742106 1.5030016 1.2707169 159 11
4.7521653 1.474164 1.2709585 124 11
4.7806196 1.4509002 1.2760317 217 11
4.7968736 1.4237502 1.2779645 126 11
5.0282393 1.4589674 1.3357028 205 11
5.2135329 1.478152 1.3813621 242 11
5.2309208 1.4484669 1.3835363 233 11
5.2387733 1.4160899 1.3832947 262 11
5.2473636 1.3839188 1.3832947 262 11
5.2557564 1.3516955 1.3832947 281 11
5.2583041 1.3180046 1.3818452 284 11
5.2700629 1.2866368 1.3828115 256 11
5.2769141 1.2540516 1.3825699 273 11
5.276001 1.2196804 1.3803957 290 11
5.2777052 1.1860068 1.3789462 240 11
5.125617 1.1187999 1.3383602 81 11
12.975214 2.7507076 3.3343205 108 11
12.951927 2.6628304 3.3241739 345 11
12.952796 2.5802741 3.3203087 356 11
12.949327 2.4970722 3.3154769 353 11
12.944373 2.4138322 3.3104038 313 11
12.925516 2.3283374 3.3019483 329 11
12.926175 2.2466567 3.2985661 361 11
12.915791 2.1632912 3.2925265 324 11
12.901998 2.0796745 3.2857623 348 11
12.898213 1.9979435 3.2816553 352 11
12.883354 1.9147673 3.2748911 359 11
12.848748 1.8291117 3.2632949 419 11
12.831845 1.7464412 3.256289 372 11
12.828848 1.665923 3.252907 357 11
12.819568 1.5847925 3.2480752 329 11
12.806884 1.5034989 3.2425189 331 11
12.792722 1.4223135 3.2367208 307 11
12.786733 1.3422711 3.2330971 303 11
12.785071 1.2628332 3.2306814 327 11
12.768423 1.1821231 3.2246418 316 11
12.759968 1.1024175 3.2207763 349 11
12.765525 1.0240253 3.2205348 344 11
12.762858 0.94503254 3.2183607 387 11
12.765512 0.86650592 3.2176359 181 11
12.767683 0.78798234 3.2169111 184 11
12.811032 0.71178323 3.2265744 361 11
12.799652 0.63239527 3.2227092 410 11
12.80426 0.5538882 3.2229507 388 11
12.811297 0.4754566 3.223917 388 11
12.812034 0.39677876 3.2234337 404 11
12.810347 0.31806141 3.2224674 367 11
12.806235 0.2393433 3.2210181 420 11
12.814256 0.16084708 3.2227092 385 11
12.820823 0.082255147 3.2241585 386 11
12.823028 0.0035872285 3.2246418 341 11
12.82863 -0.07512702 3.2260911 363 11
12.828897 -0.15385215 3.2263329 350 11
12.833533 -0.2326709 3.2277822 323 11
12.841565 -0.31164616 3.2301981 294 11
12.838442 -0.39040524 3.2299566 267 11
12.841623 -0.46938524 3.231406 246 11
12.830745 -0.54784065 3.2294734 257 11
12.831988 -0.62679458 3.2306814 225 11
12.833714 -0.70583761 3.2321308 205 11
12.846576 -0.78563511 3.2364793 180 11
12.847322 -0.86483598 3.2379289 160 11
5.3492432 -0.39376095 1.3675917 155 11
5.351563 -0.42696068 1.3687997 172 11
5.3565769 -0.46045241 1.3707324 183 11
5.3517184 -0.49313343 1.3702492 193 11
5.3514891 -0.52624595 1.3709739 197 11
5.3578105 -0.56007892 1.3733898 181 11
5.3619895 -0.59379607 1.3753225 157 11
5.356317 -0.62646043 1.3748393 131 11
5.3687458 -0.66132766 1.3789462 86 11
5.3520756 -0.69264084 1.3758056 60 11
5.2342563 -0.71009946 1.3472989 40 11
4.975193 -0.70612693 1.2832793 15 11
4.9208503 -0.72925538 1.2707169 23 11
4.8980613 -0.75662506 1.2661269 19 11
4.8770385 -0.78405017 1.26202 19 11
4.8654356 -0.81284267 1.2603289 26 11
4.8565321 -0.8420189 1.2593626 34 11
4.8560495 -0.87265927 1.2605704 23 11
4.8572822 -0.90367985 1.2622615 25 11
4.8545046 -0.93401587 1.2629863 36 11
4.8515377 -0.96435183 1.263711 24 11
0.90137637 -0.18589614 0.2613824 28 11
0.90211761 -0.19182463 0.26186556 116 11
0.89902729 -0.19694342 0.2613824 113 11
0.8949613 -0.20181926 0.26065764 120 11
0.89559722 -0.20774297 0.26114082 119 11
0.88958466 -0.21211502 0.25993291 143 11
0.89109486 -0.21825838 0.26065764 129 11
0.89444578 -0.22489908 0.26186556 108 11
0.89680868 -0.2313479 0.2628319 84 11
0.89349544 -0.23635232 0.26234874 129 11
0.904208 -0.24511564 0.26548931 165 11
0.89988101 -0.24988374 0.26476455 120 11
0.92167383 -0.2620056 0.27080414 6 11
0 -0 0 4 11
4.8456459 -1.4367658 1.2905267 10 11
4.8785305 -1.4791315 1.301398 35 11
4.8739977 -1.5104729 1.3026059 43 11
4.8655629 -1.5406435 1.3028475 33 11
4.8707919 -1.5752432 1.3067129 48 11
4.8776221 -1.6105731 1.3110614 51 11
4.9053531 -1.6531688 1.3209662 349 11
4.8391361 -1.664001 1.3062297 192 11
4.7601528 -1.6695901 1.288111 200 11
4.6758027 -1.672314 1.2685426 222 11
4.6189542 -1.684032 1.2562219 207 11
4.5412164 -1.6873473 1.2383448 142 11
0.97838849 -0.37136027 0.29278821 105 11
0.97065854 -0.37526315 0.29133871 108 11
0.9602077 -0.3780219 0.28916445 131 11
0.95696902 -0.38354653 0.28892288 149 11
0.94830519 -0.38685262 0.2872318 168 11
0.94232708 -0.39117995 0.28626546 161 11
0.92023319 -0.38867137 0.28095064 201 11
0.90623462 -0.3893446 0.27781004 231 11
0.90204924 -0.39412293 0.27732688 231 11
0.8987267 -0.39925745 0.2770853 221 11
0.89183575 -0.40277269 0.27587739 209 11
0.885818 -0.40662223 0.27491105 192 11
0.87626719 -0.40877646 0.2729784 608 11
0.85268569 -0.40419587 0.26718038 436 11
0.87293452 -0.42033872 0.27346155 188 11
0.8790611 -0.42994004 0.27587739 144 11
0.87901521 -0.4366177 0.27660215 160 11
0.8754527 -0.44156703 0.27636054 172 11
0.87964076 -0.45046067 0.27829322 131 11
0.87944472 -0.45718932 0.27901796 126 11
0.89637434 -0.47296956 0.28457439 16 11
0.90543896 -0.48486033 0.28795654 8 11
4.5078483 -2.4443407 1.3088871 10 11
4.5021186 -2.4770977 1.3115445 19 11
4.4953084 -2.5094035 1.3139603 24 11
4.4891162 -2.5421968 1.3166177 19 11
4.4894223 -2.5788736 1.3212079 26 11
4.4835768 -2.6122315 1.3241068 22 11
4.4891882 -2.6525226 1.3303879 24 11
4.4936409 -2.692482 1.3364276 28 11
4.4952831 -2.7310843 1.3417424 16 11
4.4957938 -2.7692993 1.3468156 19 11
4.4960041 -2.8076227 1.3518889 14 11
4.4975529 -2.8470902 1.3574452 11 11
4.48735 -2.879348 1.3596195 10 11
4.4874973 -2.9184628 1.3649343 14 11
4.4873328 -2.9576874 1.3702492 12 11
4.4892764 -2.9986358 1.3762888 12 11
4.4892778 -3.0386314 1.3818452 14 11
4.4801531 -3.0727041 1.3847442 9 11
4.5090342 -3.1333506 1.3992392 15 11
4.5103564 -3.1754785 1.4055203 17 11
4.5152812 -3.2205565 1.4130094 31 11
4.5182486 -3.2646778 1.4200153 34 11
4.5137949 -3.3037992 1.424847 23 11
4.5066919 -3.3412552 1.4289539 20 11
4.5086117 -3.3857384 1.4359598 19 11
4.5124717 -3.4321322 1.4436905 21 11
4.5113182 -3.475148 1.4499717 28 11
4.5251102 -3.5302129 1.4610845 20 11
4.5178332 -3.5693388 1.4656745 23 11
4.5261607 -3.6212354 1.4753379 22 11
4.5219545 -3.6635962 1.4811358 15 11
4.519649 -3.7078872 1.4876586 30 11
4.5177164 -3.752907 1.4944229 27 11
4.5154004 -3.7980423 1.5011873 20 11
4.5230446 -3.8520961 1.5113338 26 11
4.5228438 -3.9000502 1.5190644 18 11
4.5273418 -3.9526124 1.5284863 18 11
4.531364 -4.0053759 1.537908 29 11
4.5334616 -4.0570421 1.5468465 24 11
4.532937 -4.1069303 1.5550604 19 11
4.5312552 -4.1563082 1.5630326 21 11
4.5277143 -4.2044988 1.5705217 21 11
4.5315304 -4.2601113 1.5806682 34 11
4.5278029 -4.3092394 1.5883988 17 11
4.5355239 -4.369925 1.6002364 22 11
4.5329428 -4.4213824 1.6086918 16 11
4.5278277 -4.4709268 1.6164224 17 11
4.5339441 -4.5322342 1.62826 16 11
4.5387945 -4.5930939 1.6398561 8 11
4.5390005 -4.6500163 1.6500025 15 11
4.5467615 -4.7154946 1.663048 17 11
4.5505414 -4.777729 1.6748856 16 11
4.5437522 -4.8295865 1.6830994 18 11
4.544425 -4.8900681 1.6942122 18 11
4.5510893 -4.9578862 1.7077409 17 11
4.5486159 -5.0166245 1.718129 18 11
4.5488296 -5.0791321 1.729725 15 11
4.549089 -5.1425562 1.7415626 20 11
4.5512948 -5.209096 1.7543665 14 11
4.5420742 -5.2633677 1.7630634 22 11
4.5329876 -5.31846 1.7720021 15 11
4.5283957 -5.3795757 1.7828733 23 11
4.5145364 -5.4303889 1.7903624 12 11
4.4965281 -5.4767346 1.796402 12 11
3.459137 -4.2667279 1.3997223 85 11
3.4165125 -4.2674227 1.3931996 110 11
3.3812342 -4.2768893 1.3895758 149 11
3.3573172 -4.3006148 1.3905421 127 11
3.3237548 -4.311913 1.3876432 131 11
3.2931199 -4.3268218 1.3859521 112 11
3.2548468 -4.3314338 1.3811204 75 11
3.2536554 -4.3856082 1.3917501 95 11
3.2444646 -4.4297547 1.3992392 95 11
3.1921985 -4.4149842 1.3886095 139 11
3.1780186 -4.4526515 1.394166 78 11
3.1539919 -4.4768267 1.3956155 96 11
3.1381009 -4.5128231 1.4006886 97 11
3.1427586 -4.5791907 1.4149421 74 11
3.1652269 -4.6730967 1.4374093 54 11
3.3603504 -5.0271864 1.5376663 77 11
3.3310442 -5.0501404 1.5383911 77 11
3.309525 -5.0851216 1.5427396 65 11
3.2588553 -5.0751247 1.5338011 84 11
3.2312899 -5.1007628 1.5354921 123 11
3.2097054 -5.136127 1.5400822 114 11
3.1811862 -5.1606803 1.5415317 159 11
3.1353412 -5.156889 1.5347674 161 11
3.1171181 -5.1984978 1.54129 126 11
4.0100579 -6.7809925 1.9935338 246 11
3.9615302 -6.793735 1.9901516 323 11
3.9071918 -6.7960439 1.9838705 370 11
3.8481884 -6.7895012 1.9751735 274 11
3.7955675 -6.7935028 1.9696171 312 11
3.7435112 -6.7979655 1.9643023 357 11
3.6947844 -6.8080153 1.9606785 366 11
3.646533 -6.8185787 1.9572964 368 11
3.5829067 -6.7996211 1.9457004 269 11
3.5299373 -6.7999477 1.9396608 464 11
3.4819601 -6.8093843 1.9362786 421 11
3.4296343 -6.8098226 1.9304806 481 11
3.3744154 -6.803791 1.9229915 440 11
3.3249376 -6.8086739 1.918643 482 11
3.2746859 -6.8114572 1.9138113 489 11
3.2253561 -6.8156347 1.9094629 491 11
3.1789672 -6.8256216 1.9068055 504 11
3.1273201 -6.8238287 1.9010074 505 11
3.075815 -6.8216596 1.8952094 508 11
3.0264223 -6.8235517 1.8906194 559 11
2.9763465 -6.8233156 1.8855461 558 11
2.9279182 -6.8262901 1.8814392 623 11
2.8795657 -6.8289275 1.8773323 607 11
2.8301764 -6.8285403 1.8725007 668 11
2.7787035 -6.8224125 1.8662195 664 11
2.7302978 -6.8231182 1.861871 663 11
2.6826987 -6.8252935 1.8580056 645 11
2.6365743 -6.8307633 1.8551067 639 11
2.5887637 -6.831387 1.8509997 621 11
2.5417218 -6.8335013 1.847376 573 11
2.4944186 -6.834384 1.8435106 584 11
2.4485097 -6.8385987 1.8406117 612 11
2.4032865 -6.8443384 1.8381958 578 11
2.3568208 -6.8461113 1.8348137 683 11
2.3054583 -6.8328614 1.8275661 68 11
1.4815463 -4.4828477 1.2076638 55 11
1.4794334 -4.5703211 1.2281983 89 11
1.4387462 -4.5395393 1.2178103 60 11
1.4005071 -4.5149193 1.2091132 50 11
1.3919557 -4.586565 1.2255409 74 11
1.3577077 -4.5745549 1.220226 81 11
1.3101288 -4.5157042 1.2028321 40 11
1.2927271 -4.5600653 1.2122538 60 11
1.2670553 -4.5763278 1.2144281 55 11
1.2366709 -4.5755858 1.2122538 42 11
1.2115443 -4.5943465 1.2151529 41 11
1.1753483 -4.5706825 1.2071805 35 11
1.1465726 -4.5749846 1.2064558 36 11
1.121474 -4.5941882 1.2095964 41 11
1.0955091 -4.6104231 1.2120122 24 11
1.0661056 -4.6123314 1.2108043 41 11
1.0390626 -4.6244664 1.2122538 44 11
1.0119107 -4.6364427 1.2137033 25 11
0.98344302 -4.6425648 1.2137033 24 11
0.95259225 -4.6371055 1.2108043 29 11
0.92450088 -4.6447668 1.2112875 32 11
0.89432937 -4.6417766 1.2091132 31 11
0.86066991 -4.619513 1.2021073 19 11
0.83747238 -4.653357 1.2093548 49 11
0.80557913 -4.6392875 1.2045231 23 11
0.77998471 -4.6613693 1.2088716 43 11
0.75445855 -4.6852279 1.2137033 39 11
0.72673672 -4.6964812 1.2153944 23 11
0.69976163 -4.7133298 1.2185349 25 11
0.672607 -4.7300234 1.2216755 33 11
0.64776188 -4.7648296 1.2294062 34 11
0.65815377 -5.07376 1.3059881 18 11
0.63403875 -5.1345224 1.3202415 26 11
0.60546601 -5.1633735 1.3265227 28 11
0.58064091 -5.2287149 1.341984 6 11
0.7235558 -6.8978868 1.7589566 792 11
0.68074018 -6.897368 1.7577486 838 11
0.63831639 -6.9004488 1.7575071 814 11
0.59613121 -6.9061694 1.7579902 817 11
0.55335611 -6.904861 1.7567823 420 11
0.51126528 -6.9119968 1.7577486 848 11
0.46831799 -6.907259 1.755816 863 11
0.42592704 -6.9100022 1.755816 950 11
0.38330436 -6.9086103 1.7548497 882 11
0.34081075 -6.9088936 1.7543665 876 11
0.29828608 -6.9079461 1.7536417 961 11
0.25585803 -6.9086766 1.7534001 1048 11
0.21364313 -6.915936 1.7548497 986 11
0.17115538 -6.9151769 1.7543665 1013 11
0.1286121 -6.9102755 1.7529169 909 11
0.086282633 -6.9167562 1.7543665 914 11
0.043840591 -6.9171557 1.7543665 922 11
0.0013954559 -6.9134126 1.7534001 969 11
-0.041052446 -6.9181433 1.754608 976 11
-0.083523698 -6.9197016 1.7550912 990 11
-0.12617314 -6.9297314 1.7577486 991 11
-0.16885497 -6.9356174 1.7594397 997 11
-0.21152556 -6.9383302 1.760406 938 11
-0.25395295 -6.933023 1.7594397 900 11
-0.29640579 -6.9293952 1.7589566 991 11
-0.33934346 -6.9361691 1.7611308 980 11
-0.38216263 -6.9388008 1.7623388 946 11
-0.42490855 -6.9392309 1.7630634 1017 11
-0.46767414 -6.9393978 1.7637882 1024 11
-0.51081288 -6.94414 1.7657208 1003 11
-0.55418134 -6.9505482 1.7681367 964 11
-0.59739894 -6.9537849 1.7698278 980 11
-0.6400553 -6.9499884 1.7698278 887 11
-0.68344563 -6.9536562 1.7717605 937 11
-0.7267037 -6.9551225 1.7732099 821 11
-0.77000546 -6.9563198 1.7746595 895 11
-0.81402433 -6.9630299 1.7775584 801 11
-0.85720706 -6.9617567 1.7785248 811 11
-0.90090215 -6.9640651 1.7804575 762 11
-0.94439727 -6.9641757 1.781907 736 11
-0.9887445 -6.969779 1.7848059 718 11
-1.0327699 -6.9722204 1.7869802 745 11
-1.0771583 -6.9763017 1.7896376 757 11
-1.1210204 -6.9762678 1.7913287 752 11
-1.1647629 -6.9750013 1.7927783 765 11
-1.2080353 -6.9705915 1.7935029 744 11
-1.2528403 -6.9745092 1.796402 784 11
-1.2972069 -6.9752769 1.7985762 758 11
-1.34163 -6.9757628 1.8007505 789 11
-1.3868637 -6.979773 1.8038911 795 11
-1.4318074 -6.9815888 1.8065485 775 11
-1.4770261 -6.9840651 1.8094474 766 11
-1.5221227 -6.9853005 1.8121048 818 11
-1.5677145 -6.9881387 1.8152454 800 11
-1.6168872 -7.0058093 1.8222513 804 11
-0 -0 0 834 11
-1.7061824 -6.9995823 1.825875 806 11
-1.7521595 -7.0012193 1.8290157 762 11
-1.7991856 -7.0063152 1.8331226 742 11
-1.8455993 -7.0082817 1.8365047 774 11
-1.8908411 -7.0052576 1.838679 725 11
-1.9363736 -7.0028768 1.8410949 638 11
-0 -0 0 743 11
-0 -0 0 702 11
-2.0718365 -6.9893084 1.8471345 328 11
-1.7489384 -5.7691541 1.5330763 7 11
-1.7877488 -5.7694378 1.5359752 8 11
-1.8237013 -5.76021 1.5364585 19 11
-1.8596077 -5.7507582 1.5369416 34 11
-1.8957708 -5.7420039 1.5376663 38 11
-1.933445 -5.7376208 1.5395991 10 11
-1.9689293 -5.7265673 1.5398406 7 11
-2.0004992 -5.7043047 1.5371832 18 11
-2.5174832 -7.040657 1.89376 850 11
-2.5639582 -7.0341954 1.8961757 827 11
-2.6121373 -7.0319762 1.8997996 842 11
-2.6593556 -7.0267072 1.9026985 790 11
-2.7090497 -7.027462 1.9072887 858 11
-2.759562 -7.0296769 1.9123619 974 11
-2.8116429 -7.035141 1.9184015 673 11
-2.8682804 -7.0510163 1.92734 992 11
-2.9174271 -7.0476303 1.9312054 1057 11
-2.9700282 -7.0519557 1.9372449 1003 11
-3.0220282 -7.0541158 1.9428014 1043 11
-3.0757158 -7.0594616 1.9493241 942 11
-3.1260464 -7.0564275 1.9536726 965 11
-3.1764553 -7.0530405 1.958021 921 11
-3.23017 -7.0563598 1.9643023 878 11
-3.2844539 -7.060164 1.970825 938 11
-2.387063 -5.0491323 1.4226727 172 11
-2.3949022 -4.9862761 1.4093857 312 11
-2.3858993 -4.8903713 1.3869184 159 11
-2.3822711 -4.8078122 1.368075 50 11
-2.3842599 -4.7384877 1.3528552 18 11
-2.3850479 -4.668458 1.3373939 50 11
-2.4140947 -4.6545968 1.3376355 19 11
-2.4236312 -4.6036291 1.327489 64 11
-2.4458904 -4.5775437 1.3243484 22 11
-2.461448 -4.5394149 1.3178257 21 11
-2.4789681 -4.5055199 1.3125108 25 11
-2.4640152 -4.4139571 1.2907684 54 11
-2.8060448 -4.955276 1.4499717 361 11
-4.0438089 -7.0409827 2.053688 220 11
-3.1684196 -5.4387002 1.5992701 549 11
-3.1898885 -5.3991036 1.5934721 294 11
-4.1607599 -6.9453764 2.0478899 223 11
-3.1722951 -5.2218666 1.5533693 148 11
-3.2215736 -5.2303982 1.561583 143 11
-3.1996565 -5.1240978 1.5362169 198 11
-3.1661811 -5.0018659 1.506019 317 11
-3.1816201 -4.9586568 1.4990131 324 11
-3.1982355 -4.9178877 1.4927319 326 11
-3.0794058 -4.6720886 1.4253302 129 11
-4.5013909 -6.7401147 2.0500643 163 11
-4.5203686 -6.6794152 2.0401595 440 11
-4.5502944 -6.6355457 2.0353277 387 11
-4.5925841 -6.6098919 2.0360525 395 11
-4.6269121 -6.5728583 2.0333951 414 11
-4.6688452 -6.5467148 2.0341198 269 11
-4.7168818 -6.5289574 2.0375021 344 11
-4.7431026 -6.4810963 2.0317039 414 11
-4.7642918 -6.4269233 2.0239732 405 11
-4.6888771 -6.2446828 1.9763814 598 11
-4.7012649 -6.1818056 1.9657518 434 11
-4.673985 -6.0682678 1.9391776 693 11
-4.6860685 -6.0073357 1.9290311 718 11
-4.6849523 -5.9304924 1.9138113 533 11
-4.6957979 -5.8698053 1.9036648 186 11
-4.7225652 -5.8295703 1.9000411 166 11
-4.7533231 -5.7944808 1.8981085 213 11
-4.7863083 -5.7622194 1.8971422 174 11
-4.8215747 -5.7327428 1.8971422 187 11
-4.850369 -5.6956615 1.8947263 193 11
-4.8769894 -5.6562376 1.8915857 174 11
-4.9128795 -5.6276689 1.8920689 169 11
-4.9563131 -5.6075983 1.8954511 181 11
-4.9815698 -5.5669565 1.8920689 169 11
-3.9864211 -4.3998766 1.5103675 217 11
-3.9989157 -4.3595986 1.5050526 160 11
-1.5690682 -1.6886117 0.6061216 35 11
-1.5800643 -1.6796595 0.60636318 27 11
-1.5903407 -1.6699327 0.60636318 40 11
-1.6019037 -1.661541 0.60684633 35 11
-1.6134233 -1.6530702 0.60732949 42 11
-1.6208093 -1.6403768 0.60636318 7 11
-4.1494975 -4.1509233 1.4934566 222 11
-5.2928619 -5.2305408 1.8848214 177 11
-5.3186078 -5.191864 1.8826472 208 11
-5.3755074 -5.1833844 1.8913442 188 11
-5.4219646 -5.1643605 1.8964174 158 11
-5.4394174 -5.1176934 1.8915857 164 11
-5.4636097 -5.0776143 1.8891699 149 11
-5.4782233 -5.0288992 1.8836135 153 11
-5.5075393 -4.9938869 1.8831303 93 11
-5.5301275 -4.9528766 1.8804729 108 11
-5.5451527 -4.9053469 1.8753996 68 11
-3.7931142 -3.3137002 1.2861782 5 11
-3.7928081 -3.272609 1.2794139 10 11
-3.8172474 -3.2530527 1.2808634 8 11
-3.8453009 -3.2364447 1.2835208 13 11
-3.8628488 -3.210928 1.2827961 32 11
-2.9481206 -2.4197781 0.98178345 26 11
-2.9267373 -2.3723023 0.97018749 94 11
-2.9404809 -2.353693 0.96994585 112 11
-2.9541066 -2.3350043 0.96970427 183 11
-2.9416111 -2.295929 0.96124887 116 11
-2.9779277 -2.2950215 0.9682548 246 11
-2.9548953 -2.2484887 0.95665878 89 11
-2.9608798 -2.2244842 0.95424294 99 11
-2.9604475 -2.1958647 0.94989449 110 11
-2.9636898 -2.170202 0.94675386 97 11
-2.9706602 -2.1474266 0.94482124 114 11
-2.9671967 -2.1173165 0.93974799 202 11
-2.9642692 -2.0878892 0.93491632 102 11
-2.9674654 -2.0630116 0.93201733 91 11
-2.9760683 -2.0420184 0.93080938 90 11
-2.9821153 -2.0193644 0.92887676 98 11
-2.9976764 -2.003186 0.92984307 71 11
-3.0188205 -1.9906338 0.93250048 73 11
-3.0513079 -1.9853101 0.93854004 47 11
-3.0789444 -1.9765153 0.94313014 46 11
-3.111505 -1.9705724 0.9491697 62 11
-3.1803114 -1.9869382 0.96583897 179 11
-3.1973989 -1.9704429 0.96728843 56 11
-3.2442496 -1.9719667 0.97743493 218 11
-3.3003914 -1.97848 0.99023885 68 11
-3.3584044 -1.9853656 1.003526 56 11
-3.395669 -1.9793895 1.0107734 47 11
-3.4254153 -1.9686763 1.0158467 64 11
-4.2900095 -2.4310191 1.2598457 119 11
-4.2989159 -2.4013364 1.2581546 108 11
-4.3101692 -2.3730407 1.2571883 123 11
-4.3101511 -2.3386784 1.2530813 133 11
-4.3132968 -2.306237 1.2499408 148 11
-4.3119149 -2.2715828 1.2455922 143 11
-4.3404121 -2.2526853 1.2496992 120 11
-4.298862 -2.1977274 1.2342379 181 11
-4.297534 -2.1638863 1.2301309 138 11
-4.3098612 -2.1370451 1.2298894 72 11
-4.3516655 -2.1246164 1.2378616 56 11
-4.3611217 -2.0961928 1.2368953 66 11
-4.3923202 -2.0781136 1.2419685 88 11
-4.4049883 -2.0511236 1.2419685 67 11
-4.4139624 -2.0224388 1.2410022 64 11
-4.4200969 -1.9925241 1.2393111 59 11
-4.4482055 -1.9724497 1.2436596 69 11
-4.4539986 -1.942402 1.2419685 91 11
-4.4497819 -1.9081484 1.23762 60 11
-4.4211726 -1.8638364 1.2267488 46 11
-4.445075 -1.841877 1.2301309 53 11
-4.386199 -1.7860063 1.2112875 42 11
-4.3817601 -1.7529284 1.2071805 37 11
-4.4998984 -1.7682685 1.235929 112 11
-4.459971 -1.7210484 1.2224003 74 11
-4.4804277 -1.6974343 1.2250577 83 11
-4.4662037 -1.6607732 1.2185349 49 11
-4.4845138 -1.6363335 1.2207092 65 11
-4.552022 -1.6294029 1.235929 113 11
-4.4868612 -1.5750672 1.2161192 60 11
-4.5175433 -1.554775 1.2216755 82 11
-4.5187235 -1.5242332 1.2195013 72 11
-4.5279908 -1.4964782 1.2195013 67 11
-4.55832 -1.4755454 1.2250577 91 11
-4.5691381 -1.4481351 1.2255409 60 11
-4.5529156 -1.4123037 1.2190181 93 11
-4.5512824 -1.3812386 1.2163607 103 11
-3.8657393 -1.1471454 1.0361396 4 11
-3.8680458 -1.122051 1.0349318 13 11
-3.8767247 -1.0988258 1.0354149 3 11
-3.8515997 -1.0662066 1.0272011 2 11
-3.8533857 -1.0412865 1.0259932 2 11
-3.8634553 -1.0186136 1.0269595 7 11
-3.8762109 -0.99658197 1.0286506 8 11
-3.8860178 -0.97372377 1.029617 8 11
-3.8956897 -0.95078266 1.0305833 7 11
-3.9137228 -0.9297806 1.0337238 8 11
-3.8919375 -0.8994047 1.0267179 8 11
-3.9286249 -0.88253504 1.0346901 12 11
-0 -0 0 7 11
-3.9353621 -0.833453 1.0337238 5 11
-3.958461 -0.81300491 1.0383139 4 11
-0 -0 0 4 11
-4.0081577 -0.77208781 1.0484604 5 11
-7.2466087 -1.350805 1.8674273 95 11
-7.2900958 -1.3126835 1.876366 674 11
-7.2932329 -1.2670963 1.8751581 631 11
-7.2932138 -1.2210389 1.8732255 473 11
-7.2699127 -1.1713214 1.8654947 253 11
-7.2817578 -1.1274352 1.8667027 290 11
-4.3591547 -0.64709044 1.1293907 215 11
-4.3659248 -0.62074155 1.1301155 281 11
-4.3677287 -0.59367913 1.1296324 279 11
-4.3635907 -0.56586766 1.1276997 198 11
-4.3708329 -0.53955913 1.128666 336 11
-4.37117 -0.51239032 1.1279413 389 11
-4.3684449 -0.48491579 1.1264918 345 11
-4.3636179 -0.45729122 1.1245592 375 11
-4.3595819 -0.42983967 1.1228681 343 11
-4.357306 -0.40263397 1.1216601 302 11
-4.3548608 -0.37547237 1.1204522 326 11
-4.3648205 -0.34936583 1.1223849 252 11
-4.4821563 0.10915525 1.0939425 119 12
-4.4911289 0.13695262 1.0962465 133 12
-4.4960384 0.16472137 1.0976288 96 12
-4.4832768 0.1918053 1.0948641 117 12
-4.471324 0.21878651 1.0923299 176 12
-4.4669828 0.24605711 1.0916387 127 12
-4.4673314 0.27358049 1.0920994 118 12
-4.4801321 0.30196923 1.0955553 67 12
-4.4704309 0.32888129 1.0937122 121 12
-4.4741488 0.35676974 1.0950944 79 12
-4.468967 0.38396573 1.0944034 99 12
-4.4655581 0.41129023 1.094173 114 12
-4.44455 0.43687242 1.0897956 108 12
-4.4495287 0.46494517 1.0916387 112 12
-4.4610996 0.49384549 1.0950944 138 12
-4.4164257 0.5163464 1.0851878 220 12
-4.4218664 0.54450643 1.0872613 273 12
-4.4271278 0.57275265 1.0893347 315 12
-4.419673 0.59938282 1.0884132 387 12
-4.4014602 0.62443858 1.0849574 250 12
-4.3754067 0.64815211 1.0796584 256 12
-4.4252019 0.68330747 1.0925602 475 12
-4.4247689 0.71106505 1.0934818 543 12
-4.423202 0.73868263 1.094173 545 12
-4.4243388 0.76680654 1.0955553 599 12
-4.4166775 0.79342294 1.0948641 508 12
-4.4165092 0.82139826 1.096016 521 12
-4.4199862 0.85013694 1.0980896 610 12
-4.4185042 0.87800038 1.0990111 612 12
-4.4158936 0.90568209 1.0997022 716 12
-4.4159656 0.93396902 1.1010846 723 12
-4.4168072 0.96249825 1.1026974 805 12
-4.4193635 0.99149907 1.1047709 823 12
-4.4160409 1.0192538 1.1054621 773 12
-4.4229589 1.0494773 1.1086875 925 12
-4.4362893 1.0814378 1.1135256 552 12
-4.4305143 1.1088743 1.1137561 916 12
-4.4387069 1.1399126 1.1174423 546 12
-4.43257 1.1673745 1.1176727 776 12
-4.4318995 1.196326 1.1192853 774 12
-4.4357305 1.2266103 1.12205 781 12
-4.4356108 1.2559258 1.1238931 786 12
-4.4362326 1.2855569 1.1259667 819 12
-4.4329257 1.3141361 1.1271186 759 12
-4.4387474 1.345547 1.1305745 718 12
-4.4536443 1.3799593 1.1363342 643 12
-4.4478765 1.4081417 1.1370254 579 12
-4.4447079 1.4372038 1.1384077 434 12
-4.4358058 1.4644489 1.1384077 212 12
-7.7795939 2.6217308 1.9761037 336 12
-7.7744031 2.6732137 1.9788684 182 12
-4.0784488 1.430216 1.0556979 56 12
-4.0411925 1.4450544 1.0485559 44 12
-4.0048227 1.4598231 1.0416441 32 12
-3.9757228 1.476912 1.0365756 26 12
-3.9611254 1.4992115 1.0351932 30 12
-3.9436803 1.5203373 1.0331198 34 12
-3.9261255 1.5413055 1.0310463 23 12
-3.9156909 1.5650055 1.0308158 30 12
-3.9078171 1.5897359 1.0312766 39 12
-3.9069798 1.6174067 1.0335805 31 12
-3.9050529 1.6447493 1.0356541 35 12
-3.9100928 1.6751953 1.0395707 32 12
-3.894388 1.696823 1.0381883 28 12
-3.9070342 1.7309369 1.0441785 32 12
-3.9140844 1.7628713 1.0487863 42 12
-4.6534653 2.1304052 1.2441565 241 12
-4.6350126 2.1564548 1.2427741 207 12
-4.6216936 2.184854 1.2427741 188 12
-4.5985518 2.2085364 1.2402399 193 12
-4.575294 2.232017 1.2377056 190 12
-4.4734492 2.2164085 1.2144362 287 12
-4.4154344 2.2215068 1.2026863 197 12
-4.3991203 2.2472293 1.2019953 300 12
-4.3843851 2.2737315 1.2017648 331 12
-4.3651848 2.2978706 1.2003825 464 12
-4.3544364 2.3264463 1.2013041 436 12
-4.3554769 2.3614705 1.205451 288 12
-4.4918075 2.471185 1.24623 245 12
-4.4867558 2.5043917 1.2489946 417 12
-4.4882393 2.5414658 1.2536024 581 12
-4.4860611 2.5767128 1.2572887 618 12
-4.4853005 2.6130085 1.2614356 562 12
-4.4943156 2.6553321 1.2683474 433 12
-4.4946322 2.6928625 1.2729552 412 12
-4.4913306 2.7284751 1.2766414 490 12
-4.4877605 2.764148 1.2803276 490 12
-4.4979525 2.8086426 1.2879305 423 12
-4.5250325 2.8642967 1.3003715 353 12
-4.7014689 3.0165632 1.3549738 210 12
-4.7628126 3.0973496 1.3775519 209 12
-4.7827163 3.1522224 1.3886106 226 12
-4.7697577 3.1858335 1.3904537 254 12
-4.7694602 3.228132 1.3959831 156 12
-4.7463531 3.2551343 1.3950615 155 12
-4.7214961 3.280864 1.3936791 198 12
-4.710824 3.3164957 1.3964438 237 12
-4.6832561 3.3402524 1.3943703 245 12
-4.6429543 3.3546765 1.3886106 185 12
-4.6434836 3.3986211 1.3948312 162 12
-4.6233244 3.4276288 1.3950615 251 12
-4.6115432 3.4629447 1.3978262 201 12
-4.5987272 3.4976561 1.4003605 252 12
-4.5779505 3.5264013 1.4005909 243 12
-4.5493217 3.5490375 1.3985174 153 12
-4.5450206 3.5907605 1.4038163 310 12
-4.5213828 3.6173646 1.4033556 465 12
-4.5285883 3.6689312 1.4123408 426 12
-4.5308161 3.7170181 1.4199436 395 12
-4.5273843 3.7609169 1.4259337 435 12
-4.5265617 3.8074186 1.4328454 518 12
-4.520153 3.8496339 1.4381443 530 12
-6.4300942 5.5449042 2.0426862 163 12
-6.4230709 5.6079354 2.0512106 274 12
-6.3812499 5.6407957 2.0489068 291 12
-6.353044 5.6856847 2.0509803 291 12
-6.3353438 5.7402415 2.0565095 291 12
-6.3007202 5.779664 2.05674 292 12
-6.2672777 5.8202024 2.0574312 199 12
-4.4413729 4.1754422 1.4756979 192 12
-6.219347 5.9194846 2.0652645 204 12
-6.1808066 5.9555082 2.0645733 214 12
-6.1413617 5.990603 2.0636516 238 12
-6.1134896 6.0370622 2.0666468 262 12
-6.1024818 6.1006045 2.0754015 236 12
-6.0704055 6.1434712 2.0772445 189 12
-4.2906146 4.3957233 1.4867566 26 12
-4.3243465 4.4850178 1.5074916 101 12
-4.3511019 4.5685472 1.5261531 310 12
-4.3389893 4.6121702 1.5316825 341 12
-4.3245177 4.653677 1.5365206 140 12
-5.8039789 6.3233123 2.0645733 33 12
-4.1370234 4.5629268 1.4906732 12 12
-5.7447701 6.4150834 2.0712545 211 12
-5.709168 6.4545856 2.0726368 187 12
-5.6893015 6.5122132 2.0797789 201 12
-5.6282587 6.522686 2.072176 247 12
-5.5710893 6.5370998 2.0659556 227 12
-4.5320849 5.3844037 1.6987149 60 12
-5.4705453 6.5810266 2.058583 191 12
-4.4878955 5.4666915 1.7070088 60 12
-5.3942761 6.6537104 2.0604262 180 12
-5.4135537 6.7618909 2.0832348 252 12
-5.0581622 6.3980203 1.9634322 229 12
-5.3128028 6.8055692 2.0765533 385 12
-5.2525291 6.814147 2.0694113 650 12
-5.18469 6.8121758 2.0592742 695 12
-5.1106439 6.8010721 2.0466027 694 12
-5.0537434 6.8119826 2.0406127 721 12
-4.7996931 6.5531693 1.955599 407 12
-4.8289485 6.6787043 1.9837065 508 12
-4.8048358 6.7319708 1.9906182 568 12
-4.7449455 6.7350736 1.9830153 568 12
-4.6935315 6.74968 1.9788684 458 12
-0 0 0 3 12
-0 0 0 3 12
-0 0 0 3 12
-0 0 0 5 12
-0 0 0 4 12
-0 0 0 4 12
-0 0 0 4 12
-0 0 0 3 12
-0 0 0 6 12
-0 0 0 4 12
-0 0 0 5 12
-0 0 0 3 12
-0 0 0 4 12
-0 0 0 3 12
-1.5889322 2.8033609 0.79535788 5 12
-1.5745482 2.8181548 0.79674017 7 12
-1.5548803 2.8235009 0.79558825 8 12
-1.5319575 2.8227246 0.79282355 20 12
-0 0 0 18 12
-0 0 0 32 12
-0 0 0 32 12
-0 0 0 29 12
-0 0 0 27 12
-0 0 0 30 12
-0 0 0 23 12
-0 0 0 25 12
-0 0 0 21 12
-0 0 0 20 12
-0 0 0 29 12
-0 0 0 49 12
-0 0 0 45 12
-0 0 0 56 12
-0 0 0 55 12
-0 0 0 61 12
-0 0 0 73 12
-0 0 0 72 12
-0 0 0 56 12
-0 0 0 81 12
-0.98453909 2.5504198 0.67970234 72 12
-0 0 0 64 12
-0 0 0 51 12
-0.93609321 2.5644534 0.67878079 61 12
-0.92263591 2.5765622 0.68039352 27 12
-0.90326375 2.5720749 0.67785925 30 12
-0.88651478 2.5748084 0.67716807 41 12
-0.86914438 2.5755892 0.67601615 40 12
-0 0 0 47 12
-0 0 0 59 12
-0 0 0 55 12
-0.79875559 2.5738373 0.67048681 57 12
-0.78068721 2.5712407 0.66864365 174 12
-0.76517254 2.5769153 0.66887408 89 12
-0.74771971 2.5759544 0.66749173 70 12
-0.73030752 2.5748765 0.66610938 42 12
-0.71241748 2.5718067 0.66426629 60 12
-0.69433886 2.5676751 0.66219276 43 12
-0.67633778 2.5634186 0.66011924 42 12
-0.6576882 2.556211 0.65735459 46 12
-0.64861453 2.586628 0.66380548 138 12
-0.61934757 2.5357292 0.6504429 54 12
-0.60085267 2.527174 0.64744782 51 12
-0.58248615 2.5184877 0.64445281 47 12
-0.56872857 2.5296099 0.64629591 36 12
-0.55070668 2.5216432 0.6435312 48 12
-0.54268461 2.5601981 0.65205562 37 12
-0.54027963 2.6282971 0.66772211 11 12
-0.52357268 2.6286995 0.66703093 16 12
-0.51019472 2.6461954 0.67048681 12 12
-0.49466127 2.6531026 0.67140836 12 12
-0 0 0 4 12
-0 0 0 3 12
-0 0 0 4 12
-0 0 0 4 12
-0 0 0 3 12
-0 0 0 4 12
-0.35508123 2.4946284 0.6290167 11 12
-0 0 0 5 12
-0 0 0 4 12
-0 0 0 4 12
-0.29182702 2.486161 0.62510008 4 12
-0 0 0 3 12
-0.25845608 2.4624567 0.61864918 3 12
-0.24248251 2.4552805 0.61657566 4 12
-0.2260695 2.4421875 0.61311984 4 12
-0.21108025 2.4435289 0.61311984 7 12
-0 0 0 4 12
-0 0 0 3 12
-0.16448946 2.4236991 0.6075905 6 12
-0 0 0 3 12
-0.13930896 2.508122 0.6271736 3 12
-0.12717085 2.5750201 0.64284003 7 12
-0 0 0 4 12
-0 0 0 5 12
-0 0 0 3 12
-0.066672914 2.6882651 0.66910446 4 12
-0.051365945 2.7528369 0.68431014 13 12
-0.032883611 2.6246612 0.65389878 71 12
-0.016717603 2.6150827 0.65159488 96 12
-0.00067080522 2.6092975 0.65021253 125 12
0.015468579 2.6306603 0.65528107 80 12
0.031467691 2.6188395 0.65251642 99 12
0.050634142 2.7878881 0.69260418 39 12
0.067691796 2.7855792 0.69214338 48 12
0.085228667 2.799701 0.69559926 37 12
0.11679723 3.19102 0.78844619 118 12
0.13595799 3.1805212 0.78614229 124 12
0.15513726 3.1728234 0.78452957 120 12
0.17438799 3.1679254 0.78360802 115 12
0.19394186 3.1687384 0.78406876 138 12
0.21351227 3.1694305 0.78452957 120 12
0.23295552 3.1680608 0.78452957 118 12
0.25246742 3.1675417 0.78475994 125 12
0.27189833 3.1659329 0.78475994 127 12
0.2912297 3.1632359 0.78452957 137 12
0.30996653 3.1546106 0.78291684 111 12
0.32891217 3.148778 0.7819953 134 12
0.34790507 3.1437991 0.78130412 157 12
0.36752775 3.1445045 0.7819953 162 12
0.38776726 3.1499166 0.78383839 143 12
0.4075872 3.1513383 0.78475994 152 12
0.42652324 3.1458852 0.78406876 142 12
0.44568121 3.1422455 0.78383839 156 12
0.46595204 3.1461897 0.78545111 111 12
0.48331636 3.1307695 0.78245604 170 12
0.50298071 3.1306274 0.78314722 158 12
0.52218044 3.1274822 0.78314722 127 12
0.5413605 3.1242192 0.78314722 141 12
0.56069225 3.1217964 0.78337759 146 12
0.58054876 3.122124 0.78429914 149 12
0.60043031 3.1223254 0.78522074 166 12
0.62071568 3.1243091 0.78660303 169 12
0.64104795 3.1261609 0.78798538 162 12
0.66082191 3.1250248 0.78867656 133 12
0.68102068 3.1256649 0.78982854 158 12
0.70082587 3.1242759 0.79051965 137 12
0.72020179 3.1208651 0.79075009 127 12
0.7116946 2.9999321 0.76241219 12 12
0.72294158 2.9662015 0.75527012 11 12
0.73994654 2.95699 0.75411814 11 12
0.79512197 3.0965955 0.78936774 103 12
0.81212413 3.0841305 0.78752464 56 12
0 0 0 4 12
0.81151354 2.9351265 0.75342697 4 12
0 0 0 4 12
0.8984049 3.100656 0.79674017 98 12
0.91851985 3.0988169 0.79766172 135 12
0.93751651 3.0931227 0.79766172 117 12
0.95791835 3.0919595 0.7988137 139 12
0.977166 3.0869513 0.79904407 140 12
0.99668771 3.0827491 0.79950488 120 12
1.0164998 3.0793476 0.80019605 142 12
1.0369292 3.0776632 0.80134797 124 12
1.0583255 3.0786042 0.80319113 134 12
1.0794502 3.0784802 0.80480385 135 12
0 0 0 155 12
0 0 0 127 12
0 0 0 147 12
0 0 0 146 12
0 0 0 150 12
1.2002097 3.0574954 0.81010276 159 12
1.2218374 3.057302 0.81194592 145 12
1.2435077 3.056958 0.81378901 165 12
0 0 0 127 12
0 0 0 165 12
0 0 0 169 12
0 0 0 175 12
0 0 0 161 12
0 0 0 164 12
1.3873959 3.0308263 0.82162225 163 12
1.4088404 3.0284321 0.82323498 186 12
0 0 0 194 12
0 0 0 191 12
0 0 0 196 12
0 0 0 185 12
0 0 0 183 12
0 0 0 192 12
1.5644599 3.0169744 0.83705837 178 12
1.5865691 3.0142066 0.83890146 179 12
0 0 0 202 12
0 0 0 191 12
0 0 0 161 12
0 0 0 192 12
0 0 0 178 12
0 0 0 176 12
1.7488236 3.0021572 0.85502869 154 12
1.7731522 3.0014231 0.85779339 153 12
1.7930357 2.992991 0.85848457 166 12
1.8133879 2.9852593 0.85940611 137 12
1.835754 2.9807043 0.86124921 133 12
1.8586478 2.9768126 0.86332273 151 12
1.8820834 2.9735739 0.86562663 142 12
1.9071257 2.9726162 0.86862171 133 12
1.9354101 2.9763575 0.87299907 165 12
1.9605986 2.974988 0.87599415 138 12
1.9820591 2.9677567 0.8773765 140 12
2.002959 2.9595685 0.87852842 152 12
2.0265851 2.9552474 0.88083231 163 12
2.0524547 2.953944 0.88405776 157 12
2.0778244 2.9516382 0.88705283 138 12
2.1055028 2.9523008 0.89096946 147 12
2.1321275 2.9511569 0.89442533 138 12
2.1593916 2.950582 0.89811152 147 12
2.1873085 2.9505651 0.90202814 146 12
2.2123842 2.9464254 0.90479285 137 12
2.2363129 2.9405401 0.90709674 136 12
2.2608461 2.9352424 0.90963101 143 12
2.2877929 2.9328229 0.91308683 164 12
2.3147948 2.9301827 0.91654271 134 12
2.3418498 2.9273214 0.91999853 152 12
2.3695693 2.9249938 0.92368478 168 12
2.3911757 2.9149129 0.92506713 181 12
2.422075 2.9159043 0.9299053 296 12
2.445559 2.9076896 0.93197876 132 12
2.4822838 2.9148531 0.93889046 173 12
2.5141039 2.9157791 0.94395906 193 12
2.5383477 2.9076281 0.94626296 165 12
2.5600078 2.8963726 0.94764525 133 12
2.5959029 2.9009125 0.9540962 128 12
2.6267219 2.8993516 0.95870394 146 12
2.65433 2.8939357 0.96215981 133 12
2.6819701 2.8882899 0.96561563 119 12
2.7176394 2.8909206 0.97183615 123 12
2.7554541 2.8953362 0.97874784 154 12
2.7799199 2.8853817 0.98105174 179 12
2.8036876 2.8745389 0.98312521 193 12
2.8369994 2.8732061 0.98842418 206 12
2.8697119 2.8708842 0.99349278 208 12
2.8935032 2.8593771 0.99556625 232 12
2.9291 2.8592405 1.0015564 192 12
2.9725094 2.8662031 1.0100808 184 12
3.0062482 2.8633447 1.0153798 161 12
3.0336838 2.8541789 1.0186052 154 12
3.0668228 2.8500831 1.0236738 145 12
3.0942898 2.8404236 1.0268992 151 12
3.138335 2.845566 1.0354236 266 12
3.1550112 2.8256068 1.0351932 218 12
3.1875966 2.8197331 1.0400314 169 12
3.2363508 2.8276494 1.0499382 149 12
3.2705858 2.8223591 1.0552372 145 12
3.3078396 2.819279 1.0614576 160 12
3.3503895 2.8202336 1.0692909 151 12
3.3923266 2.8201492 1.0768937 136 12
3.4268663 2.8134816 1.0821927 158 12
3.4606953 2.8058829 1.0872613 155 12
3.4960785 2.799191 1.0927906 173 12
3.5460138 2.8036356 1.1026974 178 12
3.5823267 2.7967939 1.1084571 202 12
3.6132934 2.7854533 1.1126041 196 12
3.6566448 2.7832665 1.1204374 224 12
3.6993268 2.7800674 1.1280402 233 12
3.7381983 2.7735498 1.1344911 212 12
3.7779133 2.7672341 1.1411724 240 12
3.8279426 2.7679462 1.1508487 301 12
3.8709927 2.7630606 1.1584516 283 12
3.9141262 2.7577498 1.1660545 322 12
3.9645298 2.7570128 1.1757308 298 12
4.0102563 2.7524567 1.1840248 297 12
4.0520468 2.744714 1.1911669 305 12
4.0947008 2.7371023 1.1985394 305 12
4.1422877 2.7322843 1.2072941 329 12
4.1899681 2.7269845 1.216049 386 12
4.2401948 2.7227788 1.2254949 413 12
4.2897043 2.7175381 1.2347105 373 12
4.3302302 2.7061193 1.2413918 370 12
4.3848596 2.7029848 1.2519897 277 12
4.4446011 2.7023137 1.2639699 366 12
4.4894748 2.6920035 1.2718031 380 12
4.5360637 2.6822343 1.2800972 352 12
4.6037173 2.6842463 1.2941509 499 12
4.622632 2.6574025 1.2948421 519 12
4.6354637 2.6270697 1.2939205 540 12
4.6387529 2.5914598 1.2904648 501 12
4.6366649 2.5530927 1.2856265 442 12
4.6342816 2.5148492 1.2807884 441 12
4.6290293 2.4753549 1.275259 363 12
4.6389651 2.4441841 1.2738767 424 12
4.6391921 2.4080536 1.26996 449 12
4.6408834 2.3728988 1.2665043 433 12
4.6457953 2.3395643 1.2639699 431 12
4.6626787 2.3123112 1.2646611 309 12
4.7336183 2.3114073 1.2796364 439 12
4.7406955 2.2789464 1.2777933 569 12
4.7387562 2.2423246 1.2736464 449 12
4.7586007 2.2160811 1.275259 445 12
4.7553 2.1791401 1.2708817 557 12
4.7623715 2.1471217 1.2692689 543 12
4.7398734 2.1020825 1.2600533 240 12
4.7660623 2.0787942 1.2635092 530 12
4.7706785 2.0460596 1.2614356 511 12
4.7723827 2.0122128 1.258671 534 12
4.7738519 1.9784223 1.2559063 528 12
4.7804937 1.9468915 1.254524 523 12
4.7760868 1.9110166 1.2503769 531 12
4.7614579 1.8713547 1.2436957 543 12
4.7692194 1.8407024 1.2427741 687 12
4.7758737 1.8096808 1.2416222 680 12
4.7732067 1.7752553 1.2381663 390 12
4.7776103 1.7435993 1.2365535 755 12
4.786387 1.7135957 1.2360928 757 12
4.7931385 1.6829056 1.2351713 554 12
4.7785306 1.6449139 1.2289507 837 12
4.7848454 1.6143184 1.2280293 841 12
4.7955847 1.585234 1.2282596 166 12
4.7941113 1.552183 1.2254949 155 12
4.7738609 1.5133303 1.2181225 267 12
4.7858453 1.4848748 1.2188137 160 12
4.8190765 1.4628285 1.2248038 213 12
4.8932633 1.4526117 1.240931 227 12
5.0030169 1.4518418 1.2658131 169 12
13.162475 3.7315981 3.2715833 289 12
13.158865 3.6434944 3.2651324 278 12
13.150912 3.5545604 3.25776 245 12
13.111315 3.4576738 3.2427847 280 12
13.085161 3.3650424 3.2312653 263 12
13.084797 3.2794859 3.2261968 267 12
13.062133 3.1887536 3.2158291 336 12
13.060624 3.1035972 3.2107606 284 12
13.050031 3.016607 3.2036185 269 12
5.0465517 1.1342151 1.2570583 795 12
5.0505638 1.1026063 1.2563671 786 12
5.054378 1.0709909 1.2556759 801 12
5.0618076 1.0401535 1.2559063 811 12
5.0690489 1.0092652 1.2561367 838 12
5.0627246 0.97574991 1.2531416 748 12
5.0657463 0.94413257 1.2524505 665 12
5.071444 0.913032 1.2524505 720 12
5.0740747 0.8813976 1.2517593 723 12
5.076508 0.8497653 1.2510681 697 12
5.0777836 0.81798172 1.2501466 668 12
5.0759754 0.78576809 1.2485338 703 12
5.0739636 0.75360745 1.2469212 692 12
5.0813823 0.72287095 1.2476124 635 12
5.0828295 0.69128537 1.2469212 624 12
5.0734649 0.65833265 1.2436957 688 12
5.0774088 0.62719005 1.2436957 669 12
5.0801954 0.59591055 1.2434653 675 12
5.0808544 0.5644058 1.2427741 744 12
5.0832543 0.53311819 1.2425437 773 12
5.0854616 0.50182241 1.2423134 759 12
5.084569 0.47025099 1.2413918 794 12
5.0834804 0.43870941 1.2404702 869 12
5.0831666 0.40727657 1.2397791 933 12
5.0923634 0.37658101 1.2413918 869 12
5.0906944 0.34506485 1.2404702 968 12
5.0888309 0.31358331 1.2395487 978 12
5.0877442 0.28219149 1.2388575 1016 12
5.0913239 0.25106406 1.2393183 1000 12
5.0976295 0.22002901 1.2404702 1111 12
5.0969391 0.18867455 1.2400094 1048 12
5.099946 0.1574567 1.2404702 1109 12
5.1008162 0.12616105 1.2404702 1031 12
5.1024671 0.094878674 1.2407006 1069 12
5.1058722 0.063604876 1.2413918 1058 12
5.1032472 0.032256406 1.2407006 1032 12
5.0984836 0.00094233331 1.2395487 961 12
5.0974202 -0.030335527 1.2393183 1000 12
5.0981112 -0.061623972 1.2395487 935 12
5.1015286 -0.09297546 1.2404702 934 12
5.1057262 -0.12439498 1.2416222 927 12
5.1068125 -0.15578027 1.242083 878 12
5.1106224 -0.1872907 1.2432349 951 12
5.1093769 -0.21864536 1.2432349 936 12
5.1118269 -0.25018236 1.2441565 919 12
5.1140823 -0.28175765 1.245078 906 12
5.1141996 -0.3132509 1.2455388 913 12
5.1150942 -0.34482172 1.24623 866 12
5.1138525 -0.37627232 1.2464603 837 12
5.1162972 -0.40803042 1.2476124 882 12
5.1166062 -0.43966588 1.2483034 860 12
5.119626 -0.47158852 1.2496858 923 12
5.1195412 -0.50327891 1.2503769 885 12
5.1173244 -0.53478354 1.2506074 878 12
5.1149139 -0.56627995 1.2508378 816 12
5.1239076 -0.5991239 1.2538328 907 12
5.1259298 -0.63126642 1.2552152 874 12
5.1219602 -0.66270661 1.2552152 857 12
5.1255112 -0.69516873 1.2570583 892 12
5.1250033 -0.72715229 1.2579799 869 12
5.1233325 -0.75901306 1.258671 777 12
5.127234 -0.79177219 1.2607445 839 12
5.1309261 -0.82460773 1.262818 830 12
5.1353679 -0.85767871 1.2651219 787 12
5.1319261 -0.88950509 1.2655827 760 12
5.1330762 -0.9221822 1.2671953 686 12
5.1349745 -0.95508492 1.2690386 679 12
5.1309285 -0.98694229 1.2694993 677 12
5.136229 -1.0206834 1.272264 630 12
5.1327295 -1.0527662 1.2729552 538 12
0.91443163 -0.19308771 0.25371233 101 12
0.90942657 -0.19786584 0.25279075 137 12
0.90629643 -0.20301604 0.25232998 125 12
0.90503371 -0.20857315 0.25232998 126 12
0.90184331 -0.21367292 0.2518692 151 12
0.90146065 -0.21943305 0.25209957 120 12
0.90292913 -0.22566921 0.25279075 106 12
0.896815 -0.22999458 0.2516388 84 12
0.89915085 -0.23648463 0.25256038 97 12
0.89956176 -0.24250463 0.25302115 150 12
0.90931141 -0.25113288 0.25578582 202 12
0.90400827 -0.25564685 0.25486428 41 12
0.91457272 -0.26471096 0.25785932 16 12
0.91293126 -0.27031767 0.25785932 17 12
4.9267106 -1.493511 1.2512985 33 12
4.9053707 -1.5199676 1.2483034 44 12
4.8866749 -1.5470998 1.2459996 50 12
4.8743129 -1.5761564 1.2453084 101 12
4.8710179 -1.608171 1.2469212 113 12
4.9071651 -1.653569 1.2584406 399 12
4.8591981 -1.6706729 1.2489946 337 12
4.7698865 -1.6727564 1.2291812 396 12
4.7073069 -1.6833119 1.216049 413 12
4.6091242 -1.6801628 1.1939316 328 12
4.5540323 -1.6918039 1.1826425 298 12
0.96701717 -0.36568573 0.27721202 130 12
0.96657103 -0.37231258 0.27767283 110 12
0.96245682 -0.37752497 0.27721202 138 12
0.96012229 -0.38342339 0.27721202 153 12
0.95414621 -0.3878403 0.27629048 148 12
0.94635409 -0.3914538 0.27490816 167 12
0.93048292 -0.39158615 0.27145231 206 12
0.90927964 -0.38923889 0.26661411 258 12
0.91133451 -0.39675468 0.26776606 226 12
0.9026553 -0.39957938 0.26615334 243 12
0.89752483 -0.40391135 0.26546219 250 12
0.89060581 -0.4073852 0.26431024 205 12
0.88808936 -0.41284218 0.26431024 221 12
